ncols         200
nrows         71
xllcorner     543000
yllcorner     259110
cellsize      5
NODATA_value  -9999.0
21.417 21.55 21.632 21.725 21.84 21.97 22.08 22.177 22.282 22.377 22.46 22.527 22.577 22.597 22.587 22.56 22.503 22.468 22.493 22.54 22.585 22.65 22.777 22.927 23.04 23.13 23.205 23.257 23.305 23.405 23.577 23.735 23.817 23.923 24.145 24.425 24.705 24.937 25.04 25.057 25.072 25.085 25.04 24.935 24.827 24.715 24.635 24.635 24.69 24.755 24.765 24.72 24.67 24.618 24.63 24.713 24.8 24.8 24.632 24.415 24.24 24.075 23.91 23.722 23.365 22.98 22.685 22.357 22.025 21.825 21.83 21.912 21.995 22.067 22.032 21.867 21.67 21.473 21.358 21.353 21.4 21.48 21.492 21.433 21.398 21.393 21.408 21.455 21.53 21.602 21.622 21.605 21.6 21.585 21.48 21.298 21.133 21.03 21.005 20.942 20.61 20.18 20.063 20.102 20.042 19.932 19.82 19.713 19.608 19.5 19.368 19.23 19.11 18.985 18.87 18.78 18.7 18.623 18.545 18.465 18.408 18.375 18.29 18.132 17.945 17.728 17.543 17.412 17.277 17.125 17.005 16.93 16.865 16.805 16.765 16.75 16.74 16.735 16.737 16.74 16.732 16.713 16.712 16.71 16.647 16.568 16.53 16.507 16.457 16.425 16.45 16.497 16.535 16.552 16.537 16.515 16.538 16.61 16.69 16.76 16.822 16.85 16.853 16.863 16.875 16.895 16.94 16.97 16.96 16.955 16.988 17.05 17.122 17.197 17.272 17.347 17.422 17.497 17.587 17.69 17.787 17.87 17.93 17.945 17.907 17.855 17.793 17.72 17.648 17.593 17.688 17.923 18.168 18.418 18.675 18.862 19.02 19.238 19.465 19.677
21.432 21.527 21.61 21.697 21.813 21.942 22.057 22.17 22.287 22.39 22.47 22.527 22.572 22.602 22.595 22.542 22.46 22.413 22.43 22.475 22.475 22.473 22.592 22.777 22.94 23.07 23.165 23.232 23.29 23.41 23.6 23.795 23.955 24.06 24.218 24.475 24.747 24.927 24.99 25.017 25.037 25.047 25 24.895 24.79 24.683 24.615 24.638 24.705 24.767 24.775 24.727 24.675 24.623 24.623 24.698 24.79 24.765 24.598 24.42 24.257 24.09 23.925 23.662 23.153 22.638 22.34 22.092 21.788 21.583 21.585 21.662 21.735 21.797 21.79 21.675 21.458 21.283 21.26 21.32 21.413 21.507 21.52 21.443 21.37 21.33 21.343 21.405 21.488 21.572 21.595 21.558 21.53 21.515 21.427 21.283 21.198 21.17 21.087 20.807 20.267 19.815 19.75 19.842 19.862 19.805 19.735 19.652 19.555 19.447 19.323 19.203 19.092 18.967 18.835 18.718 18.623 18.54 18.46 18.378 18.303 18.255 18.17 18.025 17.875 17.705 17.54 17.392 17.235 17.075 16.945 16.86 16.795 16.735 16.695 16.683 16.68 16.68 16.68 16.672 16.647 16.628 16.638 16.66 16.637 16.573 16.538 16.53 16.515 16.495 16.487 16.487 16.465 16.42 16.383 16.405 16.485 16.575 16.655 16.725 16.792 16.827 16.83 16.833 16.84 16.868 16.92 16.967 16.977 16.983 17.013 17.058 17.113 17.18 17.255 17.33 17.408 17.49 17.587 17.685 17.767 17.84 17.91 17.947 17.942 17.93 17.902 17.852 17.79 17.743 17.838 18.075 18.335 18.59 18.817 18.95 19.03 19.205 19.44 19.627
21.267 21.395 21.512 21.642 21.782 21.905 22.02 22.142 22.267 22.38 22.455 22.502 22.545 22.572 22.562 22.5 22.41 22.355 22.368 22.402 22.355 22.258 22.315 22.515 22.725 22.915 23.072 23.192 23.285 23.425 23.62 23.815 24.01 24.175 24.313 24.525 24.762 24.885 24.927 24.962 24.992 25.007 24.96 24.855 24.745 24.648 24.615 24.658 24.725 24.782 24.782 24.732 24.68 24.628 24.615 24.68 24.775 24.75 24.597 24.435 24.27 24.103 23.935 23.572 22.965 22.338 21.915 21.705 21.5 21.338 21.33 21.398 21.475 21.56 21.593 21.575 21.358 21.183 21.26 21.35 21.44 21.532 21.545 21.467 21.385 21.313 21.305 21.37 21.453 21.537 21.572 21.54 21.493 21.458 21.393 21.313 21.275 21.122 20.737 20.192 19.718 19.493 19.468 19.528 19.575 19.572 19.537 19.49 19.422 19.355 19.277 19.18 19.075 18.952 18.82 18.687 18.565 18.465 18.378 18.293 18.208 18.142 18.05 17.908 17.773 17.645 17.495 17.33 17.17 17.013 16.885 16.8 16.733 16.668 16.628 16.617 16.615 16.612 16.607 16.585 16.55 16.543 16.563 16.587 16.597 16.57 16.543 16.535 16.525 16.507 16.475 16.43 16.385 16.35 16.358 16.413 16.485 16.565 16.635 16.695 16.76 16.802 16.81 16.813 16.815 16.84 16.895 16.952 16.987 17.013 17.05 17.087 17.125 17.175 17.24 17.313 17.395 17.49 17.582 17.665 17.74 17.81 17.88 17.94 17.957 17.943 17.93 17.91 17.915 17.967 18.058 18.245 18.505 18.755 18.927 19.01 19.073 19.205 19.415 19.567
20.975 21.128 21.325 21.557 21.737 21.857 21.933 22.02 22.15 22.272 22.35 22.39 22.422 22.42 22.44 22.44 22.36 22.298 22.305 22.307 22.218 22.123 22.18 22.368 22.57 22.765 22.955 23.128 23.275 23.44 23.635 23.832 24.03 24.227 24.397 24.585 24.752 24.83 24.865 24.893 24.927 24.952 24.907 24.8 24.698 24.63 24.63 24.683 24.747 24.782 24.77 24.732 24.685 24.633 24.608 24.658 24.74 24.725 24.595 24.44 24.28 24.115 23.895 23.43 22.775 22.12 21.54 21.213 21.13 21.15 21.253 21.368 21.47 21.573 21.573 21.535 21.333 21.18 21.285 21.38 21.47 21.56 21.567 21.49 21.41 21.343 21.33 21.37 21.433 21.507 21.55 21.53 21.477 21.43 21.512 21.435 21.073 20.585 19.97 19.515 19.353 19.325 19.293 19.285 19.318 19.29 19.213 19.158 19.15 19.175 19.157 19.092 19.015 18.905 18.762 18.615 18.467 18.373 18.305 18.218 18.13 18.045 17.942 17.815 17.695 17.577 17.425 17.255 17.095 16.943 16.83 16.755 16.685 16.615 16.563 16.535 16.525 16.52 16.507 16.478 16.453 16.463 16.487 16.51 16.532 16.54 16.54 16.54 16.53 16.515 16.485 16.44 16.403 16.388 16.41 16.468 16.535 16.608 16.67 16.72 16.77 16.8 16.808 16.81 16.798 16.808 16.857 16.915 16.98 17.037 17.08 17.117 17.155 17.195 17.243 17.303 17.382 17.477 17.562 17.638 17.708 17.778 17.85 17.92 17.96 17.955 17.925 17.9 17.98 18.152 18.275 18.428 18.675 18.892 19.01 19.073 19.138 19.223 19.377 19.497
20.7 20.928 21.215 21.495 21.68 21.807 21.853 21.868 21.96 22.087 22.167 22.202 22.207 22.165 22.193 22.297 22.305 22.243 22.235 22.197 22.115 22.095 22.175 22.348 22.547 22.74 22.925 23.105 23.28 23.455 23.638 23.825 24.02 24.22 24.417 24.6 24.725 24.79 24.817 24.828 24.855 24.887 24.845 24.745 24.675 24.64 24.65 24.705 24.752 24.75 24.73 24.71 24.68 24.637 24.6 24.635 24.695 24.677 24.57 24.425 24.275 24.117 23.797 23.222 22.552 21.882 21.215 20.865 20.91 21.075 21.302 21.52 21.692 21.745 21.635 21.488 21.298 21.205 21.298 21.405 21.5 21.587 21.59 21.513 21.438 21.39 21.39 21.415 21.453 21.505 21.537 21.51 21.453 21.45 21.685 21.77 21.515 20.438 19.351 19.22 19.24 19.255 19.203 19.133 19.122 19.05 18.925 18.855 18.893 18.965 18.957 18.9 18.82 18.707 18.56 18.408 18.305 18.288 18.255 18.165 18.072 17.955 17.84 17.742 17.635 17.515 17.357 17.183 17.02 16.88 16.785 16.712 16.64 16.573 16.51 16.458 16.425 16.41 16.395 16.373 16.368 16.388 16.41 16.43 16.45 16.465 16.487 16.522 16.535 16.522 16.495 16.458 16.438 16.435 16.463 16.525 16.598 16.677 16.745 16.792 16.817 16.817 16.82 16.815 16.783 16.773 16.813 16.878 16.965 17.045 17.095 17.135 17.175 17.212 17.247 17.285 17.35 17.442 17.537 17.62 17.685 17.753 17.825 17.892 17.947 17.942 17.875 17.893 18.06 18.28 18.465 18.628 18.832 18.995 19.072 19.137 19.2 19.26 19.35 19.427
20.545 20.863 21.195 21.455 21.622 21.757 21.81 21.79 21.808 21.9 21.982 21.992 21.955 21.895 21.878 22.01 22.172 22.187 22.148 22.11 22.09 22.105 22.165 22.32 22.525 22.73 22.93 23.12 23.307 23.485 23.655 23.825 24.003 24.188 24.373 24.545 24.677 24.757 24.785 24.788 24.8 24.822 24.792 24.725 24.685 24.66 24.673 24.715 24.725 24.7 24.68 24.665 24.65 24.627 24.593 24.608 24.642 24.63 24.54 24.395 24.24 24.05 23.595 22.897 22.207 21.525 20.953 20.765 20.878 21.05 21.288 21.552 21.787 21.812 21.652 21.48 21.318 21.24 21.295 21.415 21.525 21.615 21.615 21.543 21.475 21.44 21.45 21.475 21.505 21.538 21.555 21.505 21.423 21.485 21.715 21.94 22.119 20.667 19.128 19.138 19.155 19.175 19.135 19.035 18.96 18.885 18.795 18.735 18.74 18.77 18.73 18.63 18.513 18.395 18.28 18.198 18.198 18.24 18.217 18.127 18.007 17.845 17.72 17.645 17.562 17.455 17.295 17.11 16.943 16.82 16.74 16.667 16.595 16.528 16.467 16.41 16.355 16.313 16.288 16.283 16.293 16.31 16.33 16.347 16.357 16.365 16.383 16.432 16.487 16.515 16.51 16.49 16.485 16.485 16.518 16.588 16.668 16.752 16.82 16.85 16.845 16.83 16.825 16.807 16.765 16.738 16.77 16.855 16.958 17.047 17.105 17.142 17.175 17.205 17.235 17.263 17.31 17.398 17.505 17.6 17.672 17.74 17.807 17.87 17.907 17.875 17.838 17.948 18.165 18.385 18.605 18.8 18.962 19.07 19.127 19.182 19.237 19.292 19.34 19.378
20.505 20.84 21.17 21.407 21.56 21.705 21.765 21.745 21.725 21.745 21.777 21.75 21.688 21.625 21.575 21.665 21.895 22.055 22.085 22.085 22.1 22.115 22.158 22.292 22.49 22.682 22.877 23.085 23.302 23.512 23.705 23.877 24.043 24.21 24.363 24.49 24.618 24.72 24.757 24.763 24.765 24.765 24.75 24.727 24.705 24.68 24.687 24.7 24.68 24.65 24.63 24.617 24.603 24.59 24.57 24.565 24.575 24.572 24.49 24.327 24.15 23.875 23.29 22.505 21.778 21.118 20.763 20.76 20.858 21.02 21.26 21.525 21.767 21.802 21.647 21.485 21.333 21.248 21.29 21.412 21.532 21.635 21.645 21.58 21.515 21.49 21.51 21.535 21.565 21.59 21.59 21.515 21.403 21.46 21.657 21.845 21.292 19.873 19.09 19.08 19.08 19.088 19.062 18.975 18.88 18.815 18.765 18.715 18.668 18.623 18.543 18.43 18.323 18.225 18.15 18.133 18.16 18.197 18.18 18.067 17.9 17.715 17.593 17.525 17.457 17.377 17.235 17.043 16.875 16.768 16.695 16.625 16.555 16.485 16.423 16.367 16.31 16.25 16.213 16.21 16.22 16.233 16.245 16.255 16.26 16.265 16.273 16.305 16.38 16.472 16.525 16.532 16.535 16.538 16.578 16.658 16.745 16.827 16.877 16.88 16.86 16.845 16.827 16.793 16.748 16.718 16.758 16.858 16.965 17.055 17.107 17.137 17.163 17.188 17.215 17.245 17.28 17.355 17.465 17.572 17.66 17.727 17.792 17.83 17.82 17.795 17.86 18.042 18.257 18.472 18.687 18.892 19.035 19.107 19.155 19.2 19.25 19.297 19.332 19.352
20.485 20.82 21.132 21.347 21.495 21.645 21.712 21.685 21.647 21.612 21.583 21.538 21.473 21.408 21.348 21.4 21.615 21.852 21.97 21.997 22.02 22.045 22.087 22.212 22.402 22.587 22.79 23.02 23.255 23.49 23.717 23.927 24.115 24.282 24.412 24.498 24.593 24.69 24.735 24.742 24.735 24.71 24.69 24.687 24.685 24.677 24.675 24.66 24.63 24.6 24.58 24.57 24.555 24.537 24.52 24.507 24.507 24.467 24.337 24.157 23.97 23.675 23.057 22.223 21.41 20.828 20.68 20.76 20.845 20.993 21.23 21.495 21.74 21.777 21.623 21.468 21.333 21.258 21.278 21.375 21.495 21.61 21.647 21.607 21.558 21.545 21.57 21.582 21.582 21.577 21.542 21.442 21.355 21.413 21.59 21.784 20.495 19.096 19.07 19.055 19.04 19.03 19.012 18.955 18.885 18.828 18.775 18.725 18.657 18.565 18.468 18.375 18.283 18.205 18.158 18.145 18.155 18.172 18.12 17.96 17.772 17.59 17.468 17.408 17.35 17.292 17.17 16.978 16.823 16.73 16.66 16.59 16.52 16.448 16.378 16.318 16.262 16.205 16.168 16.16 16.168 16.193 16.215 16.223 16.225 16.225 16.225 16.245 16.32 16.445 16.537 16.565 16.572 16.583 16.635 16.727 16.82 16.892 16.915 16.897 16.875 16.857 16.83 16.788 16.75 16.74 16.798 16.903 17.002 17.07 17.105 17.13 17.155 17.177 17.2 17.228 17.263 17.333 17.433 17.54 17.64 17.715 17.755 17.747 17.718 17.73 17.873 18.095 18.305 18.512 18.72 18.917 19.057 19.127 19.173 19.22 19.265 19.292 19.307 19.325
20.463 20.797 21.06 21.22 21.352 21.49 21.562 21.545 21.497 21.442 21.402 21.37 21.32 21.258 21.215 21.255 21.418 21.637 21.765 21.8 21.83 21.86 21.915 22.05 22.237 22.4 22.592 22.842 23.097 23.352 23.607 23.865 24.107 24.327 24.475 24.547 24.615 24.682 24.715 24.707 24.68 24.64 24.61 24.605 24.612 24.615 24.61 24.6 24.58 24.55 24.53 24.52 24.502 24.48 24.458 24.442 24.4 24.272 24.097 23.92 23.735 23.5 22.927 22.065 21.27 20.858 20.835 20.885 20.928 21.008 21.203 21.465 21.71 21.75 21.605 21.48 21.388 21.328 21.305 21.335 21.425 21.542 21.597 21.587 21.57 21.56 21.557 21.54 21.507 21.472 21.412 21.328 21.305 21.378 21.53 21.205 19.933 19.073 19.05 19.035 19.02 19.005 18.99 18.96 18.91 18.853 18.797 18.737 18.652 18.545 18.443 18.35 18.268 18.21 18.175 18.165 18.175 18.137 18.005 17.822 17.638 17.465 17.358 17.31 17.265 17.217 17.1 16.925 16.795 16.71 16.64 16.57 16.497 16.418 16.34 16.27 16.21 16.155 16.123 16.128 16.158 16.208 16.245 16.26 16.267 16.268 16.263 16.28 16.343 16.453 16.55 16.585 16.595 16.615 16.68 16.777 16.865 16.922 16.93 16.907 16.885 16.865 16.835 16.798 16.78 16.798 16.865 16.965 17.042 17.08 17.105 17.13 17.152 17.167 17.185 17.218 17.265 17.333 17.418 17.515 17.617 17.682 17.68 17.653 17.625 17.65 17.838 18.1 18.32 18.527 18.735 18.922 19.07 19.155 19.2 19.242 19.265 19.262 19.263 19.283
20.445 20.732 20.91 21.008 21.105 21.213 21.28 21.29 21.28 21.245 21.208 21.19 21.165 21.118 21.11 21.17 21.27 21.432 21.555 21.587 21.612 21.635 21.705 21.857 22.02 22.135 22.288 22.53 22.805 23.08 23.35 23.625 23.907 24.2 24.397 24.485 24.565 24.65 24.68 24.645 24.605 24.565 24.53 24.52 24.522 24.512 24.503 24.51 24.517 24.5 24.48 24.465 24.443 24.417 24.39 24.33 24.2 24.028 23.853 23.677 23.497 23.305 22.795 21.968 21.368 21.178 21.182 21.17 21.09 21.053 21.198 21.45 21.687 21.745 21.643 21.56 21.488 21.433 21.4 21.378 21.393 21.47 21.527 21.527 21.515 21.485 21.443 21.41 21.383 21.347 21.293 21.26 21.29 21.345 21.472 20.53 19.308 19.108 19.075 19.045 19.013 18.988 18.97 18.952 18.925 18.877 18.817 18.737 18.635 18.525 18.418 18.33 18.273 18.23 18.195 18.185 18.16 18.037 17.855 17.675 17.505 17.36 17.265 17.22 17.185 17.142 17.035 16.893 16.785 16.7 16.63 16.557 16.477 16.39 16.31 16.235 16.165 16.105 16.085 16.12 16.18 16.242 16.277 16.295 16.312 16.322 16.328 16.355 16.405 16.478 16.562 16.605 16.618 16.645 16.715 16.802 16.872 16.925 16.935 16.915 16.895 16.872 16.845 16.825 16.83 16.86 16.932 17.012 17.055 17.08 17.103 17.127 17.145 17.153 17.173 17.218 17.275 17.338 17.415 17.507 17.582 17.61 17.595 17.57 17.535 17.56 17.77 18.075 18.327 18.54 18.747 18.925 19.075 19.177 19.217 19.232 19.23 19.218 19.22 19.248
20.407 20.612 20.723 20.808 20.893 20.978 21.028 21.04 21.053 21.05 21.035 21.023 21.005 20.98 20.993 21.062 21.152 21.265 21.342 21.365 21.385 21.405 21.495 21.642 21.76 21.855 21.983 22.2 22.475 22.75 23.02 23.308 23.62 23.945 24.172 24.285 24.395 24.55 24.622 24.58 24.538 24.495 24.455 24.433 24.423 24.405 24.39 24.395 24.417 24.438 24.44 24.428 24.415 24.36 24.287 24.177 23.998 23.81 23.618 23.433 23.258 23.077 22.632 21.995 21.643 21.557 21.497 21.372 21.188 21.09 21.215 21.447 21.667 21.76 21.72 21.662 21.592 21.54 21.51 21.48 21.448 21.45 21.472 21.47 21.45 21.41 21.355 21.313 21.278 21.233 21.208 21.23 21.277 21.322 21.382 20.37 19.283 19.22 19.172 19.125 19.055 18.972 18.92 18.907 18.907 18.887 18.827 18.733 18.63 18.53 18.428 18.343 18.288 18.245 18.212 18.177 18.072 17.893 17.71 17.55 17.41 17.285 17.173 17.11 17.085 17.052 16.982 16.88 16.78 16.693 16.618 16.538 16.455 16.375 16.298 16.223 16.148 16.083 16.083 16.145 16.215 16.277 16.312 16.327 16.345 16.36 16.377 16.422 16.48 16.533 16.59 16.627 16.645 16.673 16.732 16.805 16.865 16.925 16.945 16.925 16.902 16.872 16.862 16.875 16.89 16.922 16.982 17.03 17.052 17.077 17.1 17.122 17.138 17.145 17.173 17.225 17.285 17.345 17.41 17.472 17.505 17.515 17.51 17.482 17.438 17.468 17.688 18.012 18.312 18.555 18.755 18.922 19.07 19.175 19.202 19.192 19.18 19.17 19.185 19.238
20.31 20.49 20.578 20.665 20.755 20.835 20.872 20.875 20.88 20.89 20.9 20.897 20.88 20.865 20.868 20.908 20.987 21.075 21.122 21.138 21.155 21.183 21.268 21.383 21.48 21.575 21.68 21.873 22.145 22.428 22.72 23.038 23.373 23.705 23.935 24.05 24.208 24.447 24.56 24.52 24.475 24.427 24.38 24.353 24.338 24.31 24.285 24.275 24.307 24.39 24.442 24.402 24.327 24.237 24.15 24.032 23.847 23.648 23.44 23.238 23.045 22.852 22.538 22.178 21.942 21.827 21.705 21.503 21.3 21.165 21.22 21.418 21.63 21.752 21.755 21.717 21.665 21.615 21.575 21.537 21.497 21.46 21.438 21.423 21.407 21.377 21.325 21.27 21.215 21.133 21.108 21.165 21.225 21.285 21.172 20.228 19.395 19.32 19.23 19.14 19.03 18.9 18.815 18.802 18.815 18.802 18.792 18.777 18.71 18.618 18.52 18.425 18.345 18.277 18.215 18.117 17.965 17.78 17.593 17.443 17.312 17.182 17.063 16.988 16.955 16.927 16.887 16.825 16.752 16.683 16.613 16.535 16.463 16.393 16.318 16.243 16.165 16.098 16.108 16.18 16.25 16.31 16.345 16.36 16.375 16.375 16.373 16.447 16.54 16.592 16.635 16.653 16.663 16.683 16.728 16.79 16.852 16.905 16.912 16.882 16.845 16.802 16.81 16.86 16.902 16.945 16.975 16.992 17.005 17.022 17.057 17.112 17.152 17.165 17.195 17.25 17.31 17.367 17.387 17.378 17.385 17.402 17.412 17.387 17.335 17.375 17.605 17.93 18.255 18.547 18.757 18.907 19.045 19.145 19.17 19.155 19.14 19.128 19.165 19.247
20.177 20.375 20.465 20.55 20.64 20.715 20.745 20.748 20.753 20.76 20.777 20.787 20.778 20.765 20.755 20.758 20.795 20.858 20.898 20.928 20.985 21.05 21.11 21.173 21.235 21.303 21.388 21.555 21.83 22.143 22.465 22.8 23.135 23.465 23.697 23.845 24.075 24.372 24.5 24.457 24.407 24.352 24.3 24.288 24.285 24.253 24.217 24.165 24.153 24.262 24.332 24.255 24.148 24.07 24.007 23.882 23.697 23.507 23.31 23.105 22.895 22.685 22.48 22.265 22.032 21.902 21.84 21.707 21.525 21.348 21.3 21.4 21.578 21.73 21.757 21.722 21.672 21.612 21.56 21.515 21.475 21.44 21.41 21.383 21.365 21.34 21.292 21.232 21.145 21.015 20.973 21.04 21.112 21.17 20.892 20.018 19.393 19.285 19.16 19.03 18.9 18.77 18.683 18.665 18.655 18.608 18.64 18.74 18.787 18.752 18.645 18.515 18.375 18.237 18.14 18.065 17.96 17.78 17.543 17.338 17.183 17.048 16.935 16.863 16.82 16.788 16.745 16.715 16.703 16.683 16.635 16.565 16.497 16.427 16.353 16.275 16.195 16.123 16.133 16.212 16.285 16.342 16.375 16.392 16.392 16.36 16.33 16.425 16.572 16.647 16.682 16.685 16.683 16.688 16.715 16.765 16.797 16.8 16.782 16.752 16.712 16.668 16.68 16.747 16.807 16.852 16.87 16.877 16.895 16.92 16.98 17.08 17.167 17.205 17.235 17.29 17.345 17.395 17.375 17.278 17.23 17.247 17.285 17.302 17.26 17.293 17.523 17.845 18.17 18.485 18.72 18.87 18.997 19.102 19.14 19.125 19.11 19.095 19.14 19.245
20.045 20.252 20.352 20.438 20.525 20.595 20.62 20.622 20.625 20.63 20.65 20.672 20.675 20.665 20.655 20.645 20.645 20.698 20.78 20.865 20.975 21.063 21.103 21.13 21.158 21.193 21.248 21.375 21.623 21.925 22.233 22.56 22.895 23.227 23.478 23.693 23.98 24.285 24.422 24.382 24.325 24.265 24.223 24.235 24.245 24.215 24.155 24.04 23.933 23.953 24.045 24.05 23.99 23.93 23.862 23.73 23.545 23.36 23.172 22.977 22.77 22.563 22.38 22.205 22.005 21.895 21.887 21.852 21.755 21.6 21.505 21.513 21.578 21.705 21.76 21.71 21.64 21.568 21.513 21.473 21.443 21.415 21.385 21.355 21.33 21.302 21.247 21.152 21.02 20.873 20.835 20.905 20.972 20.97 20.602 19.805 19.255 19.108 18.995 18.89 18.77 18.64 18.548 18.512 18.46 18.378 18.405 18.537 18.665 18.685 18.562 18.39 18.205 18.048 17.975 17.962 17.93 17.785 17.54 17.29 17.075 16.913 16.808 16.74 16.695 16.675 16.665 16.67 16.693 16.707 16.675 16.605 16.532 16.46 16.387 16.31 16.228 16.148 16.155 16.242 16.32 16.377 16.407 16.41 16.38 16.33 16.29 16.38 16.57 16.692 16.73 16.727 16.722 16.712 16.705 16.7 16.67 16.628 16.6 16.58 16.555 16.528 16.543 16.598 16.65 16.698 16.728 16.75 16.783 16.835 16.925 17.035 17.145 17.225 17.275 17.325 17.372 17.42 17.387 17.24 17.103 17.065 17.123 17.207 17.218 17.278 17.513 17.808 18.105 18.388 18.618 18.795 18.94 19.06 19.11 19.095 19.077 19.063 19.1 19.207
19.912 20.132 20.242 20.325 20.41 20.475 20.495 20.498 20.5 20.503 20.52 20.55 20.565 20.563 20.558 20.553 20.583 20.705 20.845 20.95 21.057 21.127 21.158 21.188 21.223 21.258 21.3 21.4 21.608 21.875 22.153 22.445 22.745 23.043 23.298 23.552 23.847 24.137 24.29 24.272 24.217 24.163 24.14 24.177 24.2 24.147 24.032 23.887 23.743 23.653 23.775 23.895 23.847 23.79 23.715 23.577 23.392 23.208 23.022 22.835 22.64 22.445 22.273 22.118 21.968 21.89 21.882 21.877 21.86 21.795 21.737 21.72 21.702 21.735 21.745 21.675 21.595 21.52 21.468 21.437 21.412 21.387 21.36 21.327 21.295 21.255 21.165 21.025 20.875 20.73 20.695 20.767 20.79 20.697 20.282 19.585 19.11 18.915 18.78 18.685 18.595 18.495 18.407 18.33 18.235 18.143 18.17 18.295 18.392 18.4 18.275 18.09 17.918 17.815 17.79 17.79 17.785 17.685 17.49 17.26 17.013 16.805 16.69 16.633 16.61 16.633 16.665 16.692 16.717 16.74 16.715 16.642 16.567 16.492 16.415 16.337 16.257 16.173 16.175 16.265 16.35 16.412 16.43 16.4 16.35 16.3 16.25 16.33 16.535 16.705 16.765 16.747 16.73 16.707 16.675 16.625 16.568 16.523 16.493 16.47 16.448 16.43 16.438 16.475 16.528 16.58 16.62 16.653 16.695 16.773 16.877 16.985 17.092 17.195 17.27 17.317 17.365 17.412 17.375 17.227 17.053 16.933 16.958 17.075 17.163 17.345 17.647 17.94 18.232 18.495 18.663 18.768 18.88 19.01 19.075 19.062 19.045 19.027 19.055 19.152
19.785 20.022 20.147 20.23 20.307 20.36 20.375 20.378 20.382 20.385 20.398 20.425 20.458 20.475 20.475 20.495 20.605 20.81 20.975 21.052 21.127 21.192 21.228 21.265 21.305 21.345 21.405 21.515 21.703 21.955 22.223 22.488 22.745 22.952 23.14 23.38 23.655 23.935 24.11 24.127 24.085 24.035 24.025 24.082 24.107 24.02 23.875 23.73 23.598 23.5 23.555 23.687 23.705 23.65 23.567 23.425 23.24 23.055 22.87 22.685 22.503 22.335 22.183 22.033 21.915 21.863 21.855 21.85 21.842 21.835 21.817 21.79 21.765 21.745 21.7 21.625 21.545 21.468 21.418 21.392 21.367 21.345 21.32 21.287 21.245 21.175 21.047 20.885 20.73 20.59 20.56 20.6 20.535 20.385 19.96 19.365 18.983 18.76 18.585 18.44 18.345 18.277 18.2 18.102 17.995 17.905 17.928 18.022 18.082 18.085 17.972 17.788 17.655 17.615 17.62 17.635 17.63 17.537 17.37 17.175 16.95 16.725 16.595 16.563 16.583 16.632 16.672 16.71 16.742 16.767 16.75 16.68 16.597 16.492 16.362 16.27 16.217 16.147 16.155 16.257 16.36 16.427 16.422 16.372 16.318 16.265 16.213 16.285 16.487 16.677 16.752 16.722 16.69 16.66 16.622 16.575 16.528 16.49 16.46 16.433 16.408 16.39 16.383 16.398 16.44 16.492 16.535 16.565 16.615 16.7 16.802 16.907 17.012 17.112 17.185 17.235 17.285 17.322 17.29 17.16 16.992 16.855 16.858 16.975 17.1 17.302 17.557 17.882 18.312 18.71 18.865 18.827 18.815 18.897 18.975 18.965 18.94 18.925 18.965 19.065
19.667 19.92 20.065 20.145 20.205 20.245 20.262 20.265 20.267 20.27 20.283 20.315 20.362 20.397 20.408 20.488 20.657 20.822 20.94 20.995 21.077 21.215 21.31 21.36 21.4 21.44 21.518 21.645 21.808 22.033 22.297 22.547 22.742 22.86 22.993 23.198 23.45 23.73 23.922 23.967 23.94 23.895 23.888 23.94 23.95 23.857 23.715 23.58 23.483 23.418 23.385 23.47 23.547 23.507 23.422 23.272 23.087 22.902 22.717 22.533 22.373 22.245 22.11 21.978 21.88 21.823 21.805 21.8 21.79 21.78 21.757 21.723 21.695 21.672 21.63 21.567 21.495 21.415 21.363 21.338 21.315 21.295 21.27 21.232 21.165 21.065 20.927 20.758 20.59 20.45 20.405 20.365 20.23 20.07 19.665 19.173 18.865 18.625 18.433 18.25 18.098 18.003 17.923 17.83 17.74 17.663 17.658 17.71 17.757 17.77 17.67 17.51 17.438 17.445 17.468 17.485 17.47 17.382 17.227 17.052 16.86 16.645 16.52 16.528 16.577 16.625 16.668 16.712 16.752 16.787 16.772 16.677 16.545 16.39 16.223 16.123 16.077 15.985 15.965 16.082 16.207 16.292 16.332 16.325 16.282 16.227 16.175 16.243 16.435 16.62 16.702 16.68 16.645 16.615 16.575 16.533 16.495 16.46 16.428 16.398 16.375 16.36 16.348 16.34 16.36 16.407 16.45 16.485 16.54 16.615 16.708 16.813 16.917 17.005 17.065 17.115 17.155 17.175 17.16 17.055 16.888 16.783 16.815 16.928 17.048 17.185 17.338 17.583 17.938 18.345 18.537 18.53 18.575 18.68 18.77 18.765 18.743 18.768 18.85 18.95
19.563 19.822 19.98 20.045 20.09 20.127 20.147 20.15 20.15 20.153 20.17 20.213 20.267 20.312 20.363 20.467 20.59 20.67 20.725 20.78 20.908 21.115 21.3 21.425 21.495 21.54 21.633 21.773 21.923 22.12 22.35 22.53 22.64 22.72 22.858 23.05 23.265 23.527 23.74 23.802 23.782 23.75 23.75 23.77 23.75 23.68 23.565 23.463 23.4 23.345 23.29 23.295 23.347 23.352 23.272 23.117 22.932 22.745 22.56 22.395 22.275 22.175 22.053 21.943 21.86 21.788 21.755 21.747 21.735 21.725 21.7 21.663 21.63 21.6 21.555 21.497 21.437 21.365 21.31 21.285 21.265 21.245 21.215 21.152 21.055 20.942 20.81 20.645 20.468 20.31 20.197 20.075 19.915 19.755 19.425 19.035 18.758 18.5 18.288 18.103 17.925 17.79 17.695 17.608 17.528 17.46 17.42 17.41 17.433 17.457 17.38 17.28 17.27 17.295 17.325 17.335 17.31 17.227 17.08 16.91 16.737 16.55 16.465 16.513 16.572 16.62 16.663 16.707 16.747 16.765 16.712 16.572 16.397 16.223 16.065 15.962 15.865 15.713 15.62 15.738 15.91 16.008 16.1 16.165 16.195 16.182 16.135 16.198 16.375 16.55 16.647 16.642 16.607 16.562 16.517 16.487 16.46 16.43 16.395 16.362 16.345 16.335 16.322 16.308 16.303 16.325 16.363 16.41 16.475 16.545 16.623 16.718 16.815 16.89 16.945 16.987 17.01 17.017 17.02 16.945 16.783 16.71 16.778 16.883 16.995 17.13 17.282 17.435 17.585 17.793 17.955 18.068 18.238 18.41 18.517 18.535 18.56 18.645 18.752 18.847
19.472 19.732 19.882 19.93 19.97 20.012 20.035 20.038 20.04 20.043 20.06 20.103 20.16 20.215 20.292 20.372 20.428 20.483 20.535 20.593 20.728 20.943 21.165 21.37 21.53 21.64 21.755 21.897 22.042 22.192 22.325 22.42 22.5 22.583 22.723 22.917 23.113 23.338 23.555 23.635 23.615 23.595 23.587 23.572 23.538 23.495 23.435 23.375 23.325 23.27 23.215 23.168 23.165 23.185 23.12 22.962 22.775 22.585 22.415 22.293 22.2 22.107 22.007 21.915 21.835 21.753 21.703 21.687 21.675 21.665 21.64 21.602 21.565 21.527 21.482 21.425 21.367 21.305 21.255 21.23 21.21 21.19 21.137 21.04 20.93 20.817 20.69 20.53 20.347 20.15 19.963 19.795 19.625 19.458 19.22 18.925 18.647 18.375 18.155 17.99 17.833 17.69 17.585 17.503 17.42 17.348 17.283 17.218 17.175 17.163 17.125 17.1 17.125 17.155 17.182 17.182 17.15 17.075 16.935 16.765 16.595 16.443 16.425 16.507 16.567 16.615 16.657 16.672 16.66 16.647 16.572 16.415 16.238 16.06 15.895 15.76 15.618 15.453 15.323 15.42 15.632 15.743 15.828 15.91 15.992 16.045 16.062 16.147 16.31 16.48 16.595 16.597 16.537 16.462 16.407 16.385 16.365 16.34 16.31 16.29 16.295 16.3 16.29 16.28 16.267 16.262 16.285 16.34 16.41 16.48 16.55 16.627 16.705 16.77 16.817 16.84 16.85 16.855 16.86 16.807 16.678 16.648 16.74 16.84 16.942 17.063 17.197 17.332 17.46 17.58 17.71 17.853 18.003 18.155 18.275 18.35 18.435 18.545 18.655 18.752
19.382 19.642 19.785 19.825 19.865 19.908 19.947 19.968 19.97 19.97 19.968 19.983 20.028 20.093 20.182 20.265 20.323 20.378 20.428 20.473 20.58 20.778 21 21.22 21.44 21.657 21.842 21.99 22.127 22.237 22.295 22.335 22.385 22.453 22.59 22.785 22.98 23.178 23.377 23.467 23.455 23.45 23.425 23.383 23.348 23.315 23.297 23.272 23.225 23.172 23.12 23.07 23.048 23.035 22.942 22.708 22.478 22.373 22.287 22.19 22.102 22.025 21.952 21.875 21.795 21.71 21.645 21.618 21.605 21.595 21.57 21.53 21.49 21.45 21.402 21.347 21.29 21.225 21.175 21.15 21.13 21.107 21.017 20.893 20.797 20.695 20.572 20.41 20.2 19.955 19.74 19.565 19.385 19.218 19.03 18.78 18.5 18.238 18.055 17.925 17.78 17.64 17.535 17.45 17.365 17.29 17.218 17.14 17.06 16.995 16.955 16.955 16.985 17.012 17.032 17.022 16.985 16.92 16.79 16.62 16.465 16.35 16.375 16.492 16.565 16.597 16.585 16.53 16.488 16.49 16.427 16.265 16.085 15.882 15.69 15.548 15.41 15.258 15.138 15.185 15.38 15.522 15.6 15.675 15.75 15.825 15.892 16.005 16.172 16.34 16.475 16.495 16.412 16.32 16.26 16.235 16.215 16.19 16.165 16.165 16.19 16.19 16.16 16.142 16.137 16.13 16.14 16.185 16.25 16.317 16.382 16.445 16.505 16.565 16.617 16.647 16.657 16.662 16.66 16.602 16.523 16.543 16.64 16.74 16.86 16.98 17.075 17.18 17.3 17.42 17.55 17.685 17.82 17.942 18.047 18.162 18.287 18.412 18.537 18.637
19.29 19.55 19.695 19.735 19.775 19.815 19.875 19.922 19.932 19.93 19.905 19.883 19.895 19.958 20.065 20.172 20.247 20.302 20.35 20.403 20.49 20.64 20.845 21.065 21.285 21.552 21.84 22.042 22.182 22.282 22.322 22.34 22.365 22.42 22.523 22.678 22.865 23.053 23.232 23.322 23.33 23.34 23.302 23.228 23.175 23.14 23.135 23.137 23.107 23.06 23.01 22.97 22.97 22.945 22.825 22.55 22.25 22.175 22.157 22.065 21.988 21.93 21.877 21.817 21.742 21.658 21.59 21.548 21.523 21.51 21.485 21.447 21.41 21.37 21.32 21.262 21.2 21.128 21.078 21.052 21.027 20.997 20.91 20.748 20.618 20.537 20.437 20.262 20.012 19.748 19.53 19.355 19.188 19.045 18.892 18.63 18.318 18.098 17.968 17.86 17.73 17.593 17.483 17.398 17.318 17.245 17.173 17.098 17.023 16.953 16.883 16.838 16.843 16.867 16.88 16.86 16.82 16.765 16.645 16.485 16.363 16.275 16.31 16.452 16.512 16.47 16.388 16.33 16.33 16.35 16.28 16.11 15.91 15.645 15.43 15.332 15.232 15.093 14.99 15 15.153 15.305 15.38 15.455 15.525 15.582 15.645 15.775 15.94 16.072 16.21 16.302 16.267 16.175 16.113 16.085 16.065 16.043 16.023 16.028 16.047 16.03 15.973 15.92 15.9 15.9 15.91 15.943 15.993 16.05 16.112 16.165 16.215 16.275 16.34 16.4 16.435 16.447 16.425 16.375 16.353 16.393 16.48 16.598 16.768 16.92 16.985 17.04 17.14 17.26 17.39 17.525 17.642 17.72 17.793 17.91 18.05 18.192 18.335 18.457
19.197 19.457 19.602 19.642 19.68 19.72 19.788 19.865 19.897 19.887 19.857 19.822 19.785 19.823 19.94 20.06 20.16 20.227 20.278 20.343 20.433 20.543 20.705 20.915 21.135 21.408 21.745 22.042 22.235 22.327 22.36 22.398 22.455 22.525 22.595 22.68 22.803 22.963 23.125 23.21 23.232 23.24 23.192 23.098 23.018 22.97 22.963 22.977 22.977 22.947 22.9 22.883 22.91 22.902 22.785 22.552 22.26 22.09 22.025 21.948 21.89 21.843 21.795 21.745 21.682 21.605 21.54 21.49 21.45 21.428 21.4 21.363 21.325 21.287 21.237 21.172 21.1 21.025 20.978 20.95 20.917 20.882 20.832 20.665 20.443 20.325 20.22 20.027 19.792 19.543 19.325 19.163 19.02 18.895 18.77 18.487 18.15 17.978 17.875 17.775 17.667 17.542 17.43 17.348 17.275 17.205 17.13 17.058 16.99 16.925 16.85 16.77 16.723 16.725 16.73 16.7 16.66 16.612 16.505 16.375 16.285 16.205 16.238 16.327 16.302 16.22 16.17 16.17 16.19 16.21 16.132 15.932 15.667 15.348 15.145 15.085 15.022 14.918 14.845 14.858 14.95 15.072 15.16 15.227 15.275 15.308 15.388 15.52 15.637 15.73 15.863 16.027 16.09 16.035 15.968 15.935 15.915 15.895 15.885 15.89 15.9 15.88 15.82 15.745 15.688 15.663 15.668 15.7 15.74 15.785 15.84 15.885 15.928 15.985 16.05 16.12 16.18 16.218 16.215 16.205 16.215 16.245 16.333 16.495 16.705 16.882 16.95 16.963 17.008 17.1 17.23 17.342 17.41 17.445 17.508 17.63 17.77 17.915 18.06 18.205
19.097 19.362 19.507 19.547 19.585 19.625 19.692 19.787 19.847 19.825 19.75 19.665 19.625 19.718 19.857 19.96 20.06 20.145 20.215 20.295 20.388 20.48 20.593 20.768 20.985 21.263 21.605 21.952 22.242 22.387 22.44 22.507 22.59 22.67 22.742 22.8 22.86 22.953 23.047 23.103 23.132 23.135 23.077 22.982 22.888 22.813 22.79 22.805 22.82 22.817 22.797 22.8 22.82 22.807 22.68 22.457 22.22 22.018 21.908 21.853 21.805 21.758 21.71 21.66 21.607 21.547 21.49 21.44 21.395 21.358 21.32 21.283 21.245 21.195 21.107 21.022 20.967 20.912 20.87 20.84 20.805 20.767 20.732 20.612 20.368 20.133 19.94 19.74 19.538 19.333 19.15 19.005 18.875 18.748 18.622 18.352 18.035 17.878 17.782 17.685 17.585 17.477 17.38 17.305 17.235 17.162 17.09 17.025 16.96 16.892 16.817 16.735 16.658 16.61 16.583 16.548 16.51 16.468 16.388 16.293 16.215 16.135 16.128 16.138 16.09 16.053 16.043 16.048 16.055 16.067 15.962 15.695 15.365 15.045 14.875 14.833 14.795 14.745 14.72 14.735 14.775 14.853 14.927 14.97 14.998 15.025 15.1 15.2 15.285 15.37 15.51 15.702 15.845 15.87 15.82 15.785 15.765 15.745 15.74 15.745 15.75 15.73 15.67 15.595 15.52 15.458 15.438 15.47 15.518 15.563 15.61 15.658 15.715 15.783 15.85 15.918 15.983 16.033 16.055 16.065 16.075 16.103 16.22 16.428 16.65 16.845 16.932 16.937 16.942 16.973 17.042 17.1 17.128 17.153 17.22 17.348 17.49 17.635 17.785 17.925
18.937 19.205 19.34 19.377 19.432 19.477 19.455 19.378 19.487 19.602 19.502 19.388 19.423 19.617 19.797 19.905 19.99 20.075 20.16 20.25 20.34 20.43 20.523 20.648 20.835 21.118 21.465 21.815 22.155 22.372 22.465 22.547 22.63 22.717 22.802 22.865 22.915 22.96 22.995 23.023 23.047 23.035 22.96 22.862 22.767 22.675 22.62 22.62 22.635 22.647 22.635 22.61 22.595 22.57 22.455 22.245 22.035 21.888 21.815 21.768 21.722 21.675 21.625 21.578 21.53 21.48 21.432 21.385 21.34 21.295 21.25 21.215 21.167 21.072 20.925 20.785 20.712 20.677 20.662 20.66 20.645 20.625 20.607 20.547 20.317 19.973 19.705 19.505 19.318 19.185 19.05 18.885 18.745 18.618 18.492 18.225 17.918 17.765 17.667 17.572 17.475 17.393 17.325 17.255 17.185 17.11 17.045 16.99 16.925 16.857 16.785 16.705 16.625 16.555 16.505 16.468 16.43 16.383 16.318 16.243 16.165 16.085 16.033 16.015 16.005 15.993 15.98 15.968 15.958 15.935 15.765 15.448 15.113 14.845 14.728 14.7 14.678 14.66 14.66 14.673 14.695 14.713 14.718 14.723 14.74 14.773 14.815 14.863 14.928 15.01 15.158 15.368 15.545 15.655 15.667 15.635 15.615 15.598 15.593 15.598 15.602 15.58 15.52 15.445 15.373 15.313 15.3 15.345 15.4 15.45 15.498 15.535 15.593 15.67 15.74 15.805 15.86 15.895 15.912 15.925 15.935 15.985 16.143 16.367 16.59 16.795 16.88 16.86 16.84 16.825 16.83 16.85 16.868 16.885 16.963 17.108 17.26 17.413 17.57 17.688
18.715 18.975 19.095 19.105 19.16 19.19 19.09 18.92 18.963 19.162 19.177 19.135 19.27 19.495 19.71 19.865 19.96 20.04 20.12 20.203 20.29 20.38 20.475 20.573 20.71 20.973 21.317 21.662 22 22.25 22.375 22.46 22.548 22.655 22.76 22.827 22.875 22.915 22.95 22.975 22.977 22.935 22.845 22.74 22.643 22.548 22.465 22.428 22.433 22.442 22.405 22.335 22.28 22.245 22.157 21.978 21.828 21.773 21.737 21.685 21.638 21.592 21.545 21.5 21.455 21.405 21.362 21.322 21.28 21.235 21.19 21.142 21.052 20.91 20.74 20.56 20.415 20.34 20.34 20.37 20.387 20.395 20.392 20.352 20.15 19.8 19.515 19.325 19.19 19.13 19.01 18.81 18.64 18.503 18.375 18.102 17.793 17.638 17.535 17.44 17.363 17.318 17.27 17.197 17.122 17.048 16.993 16.947 16.887 16.822 16.75 16.673 16.6 16.538 16.49 16.452 16.405 16.34 16.27 16.202 16.132 16.055 15.995 15.965 15.95 15.94 15.927 15.912 15.882 15.81 15.597 15.273 14.993 14.803 14.71 14.68 14.663 14.65 14.653 14.67 14.7 14.685 14.618 14.578 14.573 14.58 14.588 14.598 14.628 14.673 14.823 15.08 15.278 15.413 15.487 15.487 15.472 15.46 15.453 15.453 15.455 15.43 15.37 15.305 15.253 15.218 15.238 15.307 15.37 15.42 15.46 15.475 15.498 15.558 15.63 15.687 15.722 15.748 15.77 15.785 15.81 15.898 16.075 16.3 16.512 16.67 16.712 16.675 16.635 16.615 16.623 16.638 16.653 16.678 16.775 16.935 17.093 17.25 17.407 17.507
18.535 18.75 18.852 18.823 18.84 18.833 18.77 18.73 18.7 18.8 18.885 18.945 19.15 19.375 19.597 19.795 19.932 20.02 20.097 20.17 20.245 20.33 20.425 20.52 20.628 20.84 21.158 21.495 21.83 22.11 22.265 22.35 22.453 22.587 22.702 22.77 22.822 22.867 22.905 22.912 22.885 22.832 22.742 22.63 22.523 22.423 22.333 22.26 22.235 22.225 22.17 22.09 22.01 21.945 21.868 21.765 21.708 21.695 21.662 21.61 21.558 21.508 21.463 21.42 21.377 21.33 21.288 21.252 21.215 21.172 21.12 21.03 20.89 20.73 20.56 20.38 20.203 20.08 20.058 20.083 20.108 20.12 20.075 19.98 19.845 19.59 19.33 19.193 19.133 19.1 18.975 18.765 18.568 18.398 18.23 17.985 17.713 17.525 17.405 17.328 17.288 17.265 17.217 17.14 17.06 16.988 16.938 16.897 16.847 16.785 16.713 16.643 16.583 16.525 16.475 16.43 16.365 16.29 16.22 16.155 16.092 16.023 15.965 15.928 15.9 15.885 15.872 15.84 15.767 15.667 15.457 15.175 14.975 14.828 14.713 14.66 14.648 14.643 14.65 14.683 14.735 14.725 14.603 14.51 14.488 14.465 14.448 14.455 14.488 14.52 14.64 14.903 15.12 15.238 15.315 15.332 15.327 15.322 15.317 15.312 15.307 15.282 15.238 15.198 15.168 15.145 15.175 15.26 15.335 15.39 15.422 15.43 15.433 15.463 15.515 15.552 15.578 15.602 15.625 15.645 15.705 15.825 16.005 16.222 16.36 16.432 16.467 16.44 16.408 16.4 16.415 16.432 16.448 16.498 16.62 16.777 16.933 17.09 17.245 17.342
18.415 18.56 18.622 18.578 18.553 18.53 18.515 18.525 18.527 18.56 18.64 18.8 19.027 19.242 19.437 19.652 19.867 20 20.08 20.15 20.215 20.288 20.375 20.47 20.57 20.755 21.033 21.335 21.658 21.967 22.152 22.248 22.375 22.53 22.645 22.707 22.762 22.81 22.832 22.817 22.777 22.727 22.645 22.53 22.415 22.305 22.208 22.123 22.06 22.013 21.95 21.883 21.818 21.75 21.685 21.65 21.635 21.617 21.585 21.535 21.483 21.43 21.383 21.337 21.295 21.252 21.21 21.175 21.14 21.097 21.012 20.87 20.71 20.55 20.383 20.215 20.055 19.928 19.888 19.903 19.92 19.925 19.833 19.678 19.54 19.355 19.195 19.135 19.107 19.067 18.935 18.725 18.517 18.317 18.11 17.883 17.645 17.425 17.293 17.25 17.23 17.21 17.16 17.08 17 16.933 16.883 16.84 16.797 16.745 16.685 16.625 16.567 16.51 16.452 16.39 16.315 16.24 16.173 16.108 16.045 15.983 15.93 15.892 15.86 15.835 15.797 15.72 15.618 15.512 15.348 15.155 15 14.853 14.715 14.645 14.64 14.643 14.665 14.718 14.78 14.775 14.61 14.458 14.423 14.4 14.388 14.413 14.473 14.535 14.608 14.8 15.012 15.117 15.165 15.17 15.167 15.165 15.165 15.162 15.152 15.132 15.112 15.095 15.077 15.068 15.112 15.205 15.29 15.355 15.382 15.385 15.38 15.377 15.393 15.415 15.438 15.46 15.48 15.523 15.62 15.755 15.935 16.067 16.098 16.165 16.225 16.205 16.185 16.193 16.208 16.225 16.26 16.338 16.465 16.615 16.77 16.927 17.082 17.18
18.26 18.375 18.407 18.363 18.325 18.305 18.3 18.305 18.313 18.32 18.42 18.63 18.857 19.06 19.235 19.463 19.745 19.952 20.06 20.132 20.198 20.26 20.33 20.418 20.518 20.7 20.963 21.23 21.518 21.825 22.037 22.165 22.312 22.47 22.585 22.632 22.66 22.68 22.677 22.66 22.632 22.592 22.527 22.425 22.307 22.19 22.088 22.003 21.93 21.873 21.818 21.763 21.71 21.655 21.608 21.583 21.567 21.547 21.51 21.46 21.41 21.36 21.305 21.25 21.205 21.165 21.125 21.087 21.047 20.99 20.862 20.69 20.533 20.375 20.225 20.085 19.94 19.813 19.77 19.785 19.795 19.79 19.692 19.518 19.343 19.2 19.133 19.107 19.077 19.025 18.87 18.645 18.435 18.225 18.025 17.82 17.592 17.358 17.215 17.18 17.16 17.137 17.085 17.007 16.935 16.883 16.84 16.795 16.755 16.707 16.652 16.597 16.54 16.48 16.412 16.34 16.265 16.19 16.122 16.058 15.995 15.935 15.885 15.85 15.82 15.785 15.702 15.585 15.48 15.375 15.29 15.187 15.04 14.89 14.748 14.68 14.68 14.69 14.72 14.768 14.825 14.827 14.65 14.433 14.355 14.335 14.345 14.403 14.475 14.545 14.608 14.73 14.89 14.975 15 15.005 15.002 14.997 14.992 14.985 14.97 14.955 14.947 14.945 14.945 14.948 15.003 15.107 15.21 15.29 15.317 15.31 15.295 15.275 15.273 15.29 15.313 15.332 15.345 15.413 15.542 15.682 15.787 15.787 15.805 15.915 15.982 15.978 15.973 15.988 16.005 16.033 16.125 16.245 16.345 16.465 16.608 16.763 16.917 17.017
18.073 18.175 18.205 18.165 18.14 18.12 18.103 18.095 18.098 18.105 18.208 18.418 18.637 18.837 19.033 19.283 19.58 19.852 20.027 20.117 20.185 20.245 20.305 20.375 20.465 20.645 20.907 21.172 21.435 21.702 21.905 22.045 22.195 22.347 22.447 22.475 22.482 22.482 22.475 22.457 22.43 22.395 22.355 22.292 22.19 22.07 21.97 21.895 21.843 21.802 21.752 21.695 21.64 21.585 21.54 21.517 21.5 21.477 21.44 21.392 21.345 21.292 21.23 21.165 21.113 21.07 21.03 20.987 20.932 20.855 20.732 20.545 20.358 20.208 20.08 19.962 19.827 19.698 19.65 19.662 19.66 19.647 19.555 19.38 19.233 19.145 19.1 19.07 19.027 18.962 18.825 18.573 18.315 18.11 17.925 17.747 17.547 17.32 17.165 17.11 17.08 17.055 17 16.928 16.875 16.845 16.81 16.765 16.722 16.67 16.61 16.555 16.497 16.435 16.365 16.29 16.217 16.143 16.073 16.008 15.945 15.883 15.833 15.8 15.767 15.725 15.622 15.48 15.363 15.258 15.217 15.197 15.092 14.945 14.815 14.763 14.77 14.788 14.813 14.843 14.88 14.877 14.705 14.433 14.295 14.285 14.325 14.397 14.47 14.542 14.615 14.69 14.77 14.82 14.832 14.835 14.83 14.82 14.81 14.8 14.788 14.778 14.778 14.785 14.793 14.798 14.85 14.96 15.062 15.122 15.157 15.187 15.187 15.165 15.16 15.175 15.192 15.195 15.205 15.295 15.42 15.497 15.485 15.463 15.54 15.662 15.74 15.755 15.768 15.793 15.82 15.893 16.05 16.192 16.275 16.363 16.47 16.605 16.755 16.852
17.928 17.985 18.008 17.98 17.96 17.94 17.92 17.903 17.89 17.89 17.995 18.2 18.41 18.613 18.835 19.108 19.405 19.705 19.957 20.1 20.17 20.23 20.292 20.355 20.425 20.585 20.828 21.078 21.327 21.57 21.745 21.858 21.975 22.11 22.197 22.218 22.235 22.258 22.277 22.257 22.208 22.168 22.138 22.107 22.05 21.95 21.855 21.803 21.77 21.735 21.687 21.63 21.573 21.515 21.473 21.45 21.427 21.402 21.367 21.325 21.28 21.225 21.16 21.09 21.025 20.975 20.932 20.875 20.797 20.71 20.615 20.427 20.2 20.05 19.933 19.82 19.702 19.58 19.525 19.527 19.517 19.505 19.415 19.268 19.175 19.115 19.067 19.022 18.957 18.885 18.8 18.557 18.228 18 17.825 17.655 17.477 17.273 17.123 17.055 17.005 16.972 16.925 16.868 16.835 16.815 16.78 16.732 16.682 16.627 16.57 16.512 16.45 16.385 16.317 16.243 16.17 16.097 16.028 15.96 15.893 15.828 15.78 15.747 15.71 15.665 15.56 15.403 15.258 15.145 15.115 15.137 15.11 15 14.885 14.85 14.867 14.89 14.915 14.935 14.935 14.9 14.73 14.453 14.273 14.253 14.305 14.362 14.42 14.48 14.54 14.592 14.63 14.658 14.67 14.668 14.66 14.653 14.645 14.64 14.635 14.63 14.635 14.642 14.648 14.653 14.698 14.795 14.86 14.865 14.9 14.977 15.025 15.042 15.052 15.055 15.047 15.025 15.055 15.127 15.165 15.17 15.158 15.2 15.308 15.425 15.512 15.553 15.58 15.613 15.675 15.818 16.005 16.137 16.22 16.303 16.388 16.485 16.605 16.702
17.868 17.893 17.89 17.855 17.825 17.798 17.77 17.74 17.71 17.69 17.78 17.978 18.188 18.398 18.643 18.935 19.235 19.535 19.83 20.047 20.152 20.215 20.277 20.322 20.388 20.548 20.765 20.99 21.218 21.43 21.577 21.668 21.755 21.86 21.94 21.975 22.01 22.053 22.097 22.08 22.01 21.958 21.92 21.893 21.862 21.81 21.755 21.725 21.7 21.667 21.622 21.565 21.507 21.45 21.408 21.38 21.355 21.33 21.295 21.255 21.21 21.155 21.09 21.02 20.953 20.893 20.828 20.745 20.655 20.565 20.475 20.322 20.093 19.913 19.798 19.683 19.57 19.46 19.4 19.388 19.375 19.365 19.3 19.208 19.142 19.078 19.017 18.955 18.882 18.807 18.735 18.567 18.203 17.888 17.72 17.55 17.382 17.205 17.075 17.013 16.955 16.905 16.865 16.833 16.808 16.785 16.747 16.695 16.64 16.585 16.527 16.465 16.4 16.335 16.27 16.197 16.122 16.05 15.98 15.913 15.845 15.78 15.733 15.695 15.655 15.607 15.5 15.34 15.178 15.045 15.013 15.04 15.057 15.02 14.955 14.942 14.947 14.937 14.925 14.907 14.877 14.832 14.675 14.415 14.245 14.223 14.258 14.288 14.318 14.35 14.385 14.428 14.47 14.51 14.527 14.52 14.513 14.51 14.505 14.5 14.495 14.49 14.493 14.498 14.503 14.508 14.545 14.602 14.615 14.598 14.633 14.72 14.808 14.887 14.92 14.902 14.875 14.848 14.87 14.9 14.895 14.905 14.938 15.015 15.128 15.238 15.322 15.375 15.41 15.458 15.58 15.775 15.96 16.08 16.162 16.247 16.33 16.407 16.477 16.557
17.925 17.95 17.923 17.863 17.82 17.783 17.745 17.705 17.668 17.633 17.653 17.798 18.013 18.225 18.46 18.74 19.047 19.36 19.665 19.942 20.122 20.205 20.24 20.255 20.353 20.543 20.75 20.965 21.17 21.32 21.415 21.495 21.58 21.668 21.738 21.793 21.842 21.888 21.932 21.917 21.845 21.793 21.753 21.713 21.683 21.658 21.647 21.647 21.63 21.6 21.557 21.5 21.442 21.383 21.338 21.313 21.29 21.265 21.23 21.19 21.145 21.09 21.025 20.955 20.89 20.832 20.743 20.633 20.54 20.45 20.36 20.24 20.015 19.805 19.69 19.575 19.463 19.373 19.325 19.305 19.288 19.268 19.23 19.172 19.108 19.04 18.945 18.845 18.77 18.7 18.63 18.527 18.16 17.773 17.6 17.43 17.268 17.128 17.038 16.985 16.93 16.873 16.833 16.81 16.785 16.75 16.702 16.647 16.593 16.54 16.48 16.415 16.35 16.285 16.217 16.145 16.073 16 15.94 15.882 15.818 15.753 15.7 15.66 15.62 15.577 15.455 15.275 15.113 14.965 14.883 14.88 14.912 14.935 14.935 14.922 14.895 14.85 14.8 14.753 14.72 14.702 14.565 14.323 14.21 14.218 14.235 14.253 14.27 14.29 14.308 14.318 14.343 14.387 14.405 14.395 14.385 14.378 14.37 14.363 14.358 14.353 14.35 14.355 14.36 14.368 14.398 14.423 14.425 14.428 14.478 14.575 14.668 14.735 14.752 14.73 14.7 14.678 14.678 14.695 14.715 14.738 14.778 14.86 14.972 15.075 15.15 15.2 15.238 15.308 15.48 15.715 15.902 16.012 16.09 16.165 16.237 16.29 16.305 16.353
18.042 18.07 18.035 17.953 17.895 17.855 17.818 17.78 17.745 17.712 17.678 17.715 17.878 18.09 18.303 18.54 18.825 19.142 19.46 19.772 20.042 20.157 20.138 20.178 20.34 20.54 20.742 20.947 21.105 21.19 21.255 21.33 21.413 21.493 21.56 21.62 21.675 21.725 21.77 21.755 21.7 21.673 21.635 21.58 21.54 21.51 21.505 21.527 21.54 21.527 21.49 21.435 21.372 21.305 21.263 21.247 21.23 21.205 21.17 21.127 21.08 21.027 20.965 20.898 20.84 20.797 20.705 20.568 20.458 20.365 20.272 20.147 19.937 19.73 19.6 19.488 19.393 19.33 19.295 19.275 19.247 19.21 19.175 19.132 19.075 19.01 18.892 18.745 18.633 18.553 18.487 18.385 18.05 17.67 17.47 17.305 17.168 17.07 17.005 16.957 16.907 16.855 16.818 16.79 16.752 16.702 16.65 16.595 16.543 16.495 16.435 16.368 16.3 16.233 16.163 16.09 16.02 15.95 15.9 15.857 15.8 15.738 15.685 15.645 15.608 15.572 15.435 15.223 15.048 14.9 14.778 14.703 14.698 14.735 14.765 14.76 14.727 14.68 14.633 14.595 14.575 14.57 14.447 14.26 14.21 14.232 14.25 14.267 14.285 14.292 14.28 14.25 14.243 14.272 14.285 14.275 14.265 14.255 14.245 14.235 14.228 14.22 14.218 14.23 14.248 14.268 14.295 14.32 14.343 14.368 14.43 14.512 14.562 14.58 14.577 14.56 14.533 14.518 14.518 14.53 14.55 14.573 14.618 14.708 14.817 14.905 14.967 15.02 15.065 15.133 15.33 15.605 15.802 15.91 15.977 16.042 16.082 16.08 16.068 16.11
18.16 18.19 18.155 18.06 17.98 17.93 17.893 17.858 17.825 17.795 17.76 17.73 17.785 17.958 18.17 18.383 18.618 18.898 19.202 19.51 19.815 19.99 20.028 20.14 20.337 20.522 20.7 20.877 20.99 21.045 21.11 21.183 21.263 21.333 21.388 21.443 21.5 21.56 21.61 21.605 21.583 21.57 21.525 21.465 21.41 21.365 21.348 21.37 21.405 21.422 21.41 21.362 21.295 21.225 21.185 21.175 21.162 21.142 21.11 21.065 21.015 20.965 20.905 20.848 20.805 20.77 20.68 20.53 20.393 20.283 20.18 20.037 19.852 19.66 19.51 19.415 19.35 19.298 19.26 19.235 19.195 19.15 19.113 19.077 19.037 18.98 18.865 18.7 18.543 18.418 18.332 18.2 17.915 17.578 17.345 17.208 17.11 17.03 16.968 16.925 16.882 16.835 16.795 16.757 16.705 16.65 16.597 16.545 16.5 16.455 16.395 16.323 16.25 16.18 16.11 16.04 15.97 15.9 15.848 15.812 15.772 15.72 15.673 15.635 15.6 15.567 15.432 15.2 14.993 14.84 14.722 14.61 14.53 14.513 14.53 14.548 14.545 14.512 14.473 14.448 14.435 14.43 14.33 14.22 14.223 14.245 14.265 14.272 14.267 14.247 14.21 14.17 14.145 14.155 14.165 14.155 14.145 14.135 14.128 14.128 14.13 14.128 14.133 14.153 14.18 14.21 14.237 14.262 14.287 14.317 14.36 14.392 14.4 14.403 14.405 14.39 14.37 14.363 14.36 14.368 14.385 14.405 14.455 14.553 14.655 14.727 14.783 14.84 14.89 14.948 15.148 15.447 15.665 15.777 15.835 15.87 15.86 15.823 15.82 15.88
18.267 18.302 18.27 18.177 18.087 18.015 17.967 17.935 17.905 17.87 17.822 17.77 17.735 17.825 18.03 18.242 18.458 18.675 18.928 19.21 19.493 19.742 19.92 20.077 20.252 20.417 20.575 20.732 20.85 20.92 20.985 21.055 21.14 21.212 21.258 21.303 21.353 21.408 21.455 21.475 21.482 21.465 21.41 21.35 21.29 21.232 21.195 21.2 21.227 21.25 21.25 21.217 21.17 21.127 21.105 21.095 21.085 21.075 21.047 21 20.952 20.905 20.853 20.81 20.775 20.74 20.652 20.505 20.352 20.212 20.08 19.923 19.748 19.568 19.435 19.368 19.315 19.262 19.217 19.18 19.135 19.09 19.053 19.018 18.985 18.942 18.835 18.67 18.5 18.338 18.202 18.015 17.74 17.45 17.248 17.153 17.075 16.995 16.933 16.89 16.85 16.805 16.757 16.707 16.652 16.597 16.545 16.5 16.46 16.415 16.355 16.28 16.205 16.133 16.06 15.99 15.92 15.853 15.8 15.763 15.73 15.692 15.655 15.622 15.59 15.56 15.432 15.195 14.955 14.775 14.652 14.537 14.425 14.365 14.36 14.363 14.363 14.343 14.318 14.305 14.295 14.29 14.243 14.21 14.237 14.255 14.255 14.237 14.207 14.17 14.13 14.09 14.053 14.043 14.048 14.048 14.053 14.058 14.065 14.075 14.083 14.085 14.093 14.11 14.133 14.157 14.177 14.192 14.207 14.23 14.245 14.243 14.238 14.233 14.23 14.22 14.21 14.207 14.203 14.205 14.22 14.24 14.298 14.397 14.482 14.542 14.6 14.657 14.71 14.763 14.953 15.27 15.517 15.63 15.65 15.632 15.595 15.558 15.573 15.65
18.29 18.33 18.327 18.265 18.175 18.087 18.013 17.962 17.927 17.887 17.83 17.762 17.69 17.713 17.88 18.095 18.297 18.46 18.67 18.945 19.22 19.505 19.747 19.925 20.085 20.245 20.402 20.557 20.702 20.8 20.863 20.933 21.03 21.115 21.16 21.203 21.248 21.29 21.325 21.355 21.382 21.345 21.263 21.2 21.14 21.08 21.028 21.01 21.025 21.032 21.015 21.003 21.003 21.007 21.01 21 20.993 20.997 20.98 20.93 20.883 20.84 20.8 20.765 20.73 20.69 20.59 20.435 20.282 20.13 19.985 19.83 19.655 19.483 19.373 19.317 19.262 19.21 19.165 19.125 19.08 19.035 19 18.965 18.93 18.895 18.77 18.58 18.41 18.242 18.077 17.867 17.59 17.33 17.185 17.112 17.035 16.955 16.89 16.845 16.805 16.76 16.707 16.653 16.597 16.538 16.485 16.445 16.405 16.367 16.315 16.24 16.165 16.093 16.018 15.945 15.875 15.808 15.758 15.72 15.685 15.658 15.63 15.6 15.57 15.535 15.41 15.182 14.915 14.683 14.535 14.423 14.355 14.353 14.355 14.338 14.32 14.255 14.183 14.16 14.153 14.147 14.145 14.157 14.185 14.205 14.195 14.162 14.125 14.085 14.045 14.008 13.978 13.973 13.985 14 14.02 14.035 14.045 14.05 14.05 14.05 14.055 14.07 14.09 14.09 14.08 14.08 14.085 14.1 14.12 14.125 14.115 14.103 14.088 14.065 14.053 14.052 14.048 14.048 14.058 14.075 14.138 14.235 14.305 14.36 14.417 14.473 14.53 14.58 14.76 15.082 15.337 15.427 15.405 15.368 15.33 15.303 15.335 15.42
18.24 18.275 18.302 18.297 18.235 18.145 18.043 17.948 17.893 17.852 17.795 17.725 17.65 17.618 17.73 17.942 18.115 18.238 18.43 18.703 18.983 19.275 19.535 19.737 19.91 20.07 20.228 20.385 20.542 20.665 20.74 20.815 20.925 21.015 21.063 21.107 21.147 21.182 21.212 21.24 21.272 21.237 21.125 21.025 20.955 20.895 20.845 20.815 20.813 20.823 20.825 20.84 20.865 20.89 20.9 20.89 20.893 20.915 20.907 20.86 20.813 20.775 20.742 20.707 20.667 20.617 20.522 20.345 20.16 20.015 19.885 19.752 19.592 19.42 19.308 19.253 19.198 19.143 19.1 19.07 19.032 18.988 18.95 18.917 18.882 18.845 18.695 18.458 18.263 18.095 17.927 17.742 17.502 17.253 17.118 17.055 16.982 16.905 16.843 16.798 16.753 16.707 16.655 16.597 16.537 16.47 16.415 16.375 16.34 16.317 16.272 16.198 16.128 16.06 15.985 15.91 15.838 15.765 15.715 15.683 15.65 15.625 15.6 15.57 15.535 15.492 15.375 15.15 14.857 14.57 14.408 14.36 14.375 14.425 14.44 14.42 14.37 14.232 14.095 14.033 14.008 14 14.008 14.03 14.05 14.07 14.087 14.075 14.035 13.995 13.958 13.933 13.933 13.955 13.98 13.997 14.01 14.015 14.015 14.013 14.01 14.01 14.018 14.035 14.037 13.997 13.953 13.94 13.945 13.96 13.99 14.017 14.017 14.005 13.98 13.93 13.895 13.89 13.892 13.892 13.895 13.913 13.978 14.062 14.122 14.18 14.235 14.29 14.347 14.4 14.558 14.817 15.035 15.135 15.132 15.102 15.065 15.055 15.105 15.19
18.185 18.215 18.245 18.272 18.265 18.2 18.09 17.965 17.873 17.815 17.755 17.685 17.61 17.543 17.6 17.772 17.912 18.02 18.198 18.46 18.748 19.047 19.315 19.53 19.72 19.892 20.055 20.212 20.367 20.512 20.615 20.705 20.825 20.917 20.967 21.007 21.037 21.065 21.095 21.128 21.16 21.152 21.047 20.898 20.785 20.71 20.668 20.653 20.658 20.678 20.703 20.728 20.753 20.78 20.79 20.79 20.81 20.84 20.835 20.793 20.753 20.718 20.685 20.645 20.595 20.54 20.472 20.275 20.035 19.893 19.77 19.652 19.522 19.36 19.243 19.188 19.132 19.078 19.035 19.007 18.977 18.938 18.9 18.867 18.83 18.792 18.647 18.388 18.145 17.95 17.775 17.6 17.405 17.175 17.03 16.975 16.915 16.85 16.795 16.75 16.7 16.653 16.602 16.542 16.475 16.405 16.348 16.313 16.29 16.275 16.23 16.158 16.093 16.027 15.955 15.878 15.803 15.728 15.675 15.648 15.62 15.595 15.567 15.532 15.492 15.447 15.34 15.102 14.793 14.49 14.363 14.405 14.455 14.505 14.522 14.482 14.367 14.185 14.035 13.945 13.883 13.855 13.863 13.882 13.895 13.91 13.945 13.967 13.947 13.91 13.885 13.888 13.915 13.95 13.97 13.977 13.98 13.98 13.98 13.977 13.975 13.975 13.982 13.99 13.96 13.895 13.835 13.805 13.805 13.82 13.85 13.892 13.915 13.905 13.865 13.8 13.74 13.715 13.722 13.732 13.735 13.753 13.812 13.882 13.94 13.997 14.052 14.107 14.163 14.218 14.315 14.46 14.63 14.765 14.82 14.825 14.798 14.808 14.875 14.957
18.125 18.155 18.185 18.215 18.242 18.232 18.145 18.015 17.89 17.793 17.718 17.645 17.57 17.495 17.49 17.583 17.698 17.805 17.968 18.22 18.518 18.823 19.095 19.315 19.515 19.708 19.88 20.037 20.192 20.347 20.48 20.597 20.725 20.82 20.865 20.895 20.923 20.953 20.983 21.015 21.05 21.067 20.99 20.828 20.673 20.563 20.528 20.545 20.57 20.59 20.608 20.625 20.648 20.673 20.688 20.705 20.74 20.778 20.773 20.73 20.695 20.66 20.62 20.57 20.515 20.46 20.4 20.24 19.973 19.775 19.655 19.537 19.42 19.285 19.178 19.12 19.067 19.013 18.973 18.945 18.915 18.882 18.85 18.815 18.775 18.74 18.602 18.345 18.08 17.845 17.645 17.46 17.278 17.075 16.94 16.89 16.84 16.79 16.742 16.695 16.647 16.6 16.545 16.48 16.41 16.34 16.288 16.263 16.247 16.232 16.19 16.125 16.06 15.995 15.925 15.845 15.77 15.695 15.643 15.618 15.59 15.562 15.527 15.485 15.442 15.395 15.3 15.072 14.765 14.47 14.373 14.46 14.53 14.585 14.592 14.5 14.33 14.135 13.975 13.875 13.795 13.73 13.713 13.725 13.738 13.753 13.785 13.83 13.847 13.837 13.835 13.845 13.86 13.882 13.907 13.922 13.93 13.937 13.94 13.94 13.94 13.94 13.94 13.917 13.86 13.79 13.725 13.68 13.668 13.68 13.71 13.755 13.797 13.795 13.74 13.673 13.605 13.55 13.538 13.555 13.568 13.588 13.638 13.7 13.757 13.813 13.868 13.923 13.98 14.032 14.085 14.16 14.268 14.373 14.45 14.503 14.523 14.563 14.64 14.72
18.1 18.13 18.158 18.185 18.218 18.247 18.175 18.065 17.975 17.855 17.763 17.687 17.582 17.45 17.385 17.435 17.533 17.628 17.783 18.043 18.348 18.65 18.91 19.125 19.335 19.543 19.718 19.863 20.013 20.17 20.32 20.457 20.605 20.742 20.82 20.86 20.898 20.938 20.895 20.848 20.887 20.927 20.902 20.78 20.618 20.483 20.443 20.47 20.492 20.51 20.525 20.54 20.573 20.64 20.688 20.708 20.75 20.787 20.748 20.67 20.63 20.595 20.532 20.453 20.392 20.342 20.29 20.202 19.93 19.64 19.502 19.385 19.273 19.18 19.11 19.055 19.005 18.953 18.913 18.885 18.855 18.825 18.795 18.76 18.72 18.692 18.567 18.317 18.055 17.803 17.58 17.385 17.193 16.99 16.865 16.823 16.778 16.733 16.688 16.64 16.592 16.542 16.48 16.41 16.34 16.275 16.235 16.215 16.2 16.175 16.13 16.075 16.012 15.95 15.89 15.822 15.748 15.67 15.62 15.595 15.565 15.527 15.472 15.42 15.375 15.327 15.242 15.055 14.78 14.485 14.373 14.465 14.57 14.647 14.595 14.417 14.232 14.045 13.892 13.79 13.7 13.608 13.565 13.575 13.587 13.598 13.625 13.675 13.715 13.732 13.737 13.735 13.73 13.74 13.79 13.837 13.852 13.865 13.875 13.882 13.887 13.895 13.88 13.825 13.755 13.685 13.618 13.563 13.535 13.54 13.57 13.615 13.662 13.665 13.61 13.545 13.48 13.41 13.365 13.368 13.395 13.425 13.463 13.515 13.572 13.628 13.682 13.738 13.792 13.842 13.895 13.955 14.02 14.095 14.168 14.233 14.3 14.35 14.403 14.48
18.107 18.14 18.168 18.195 18.228 18.267 18.185 18.033 17.95 17.902 17.82 17.675 17.502 17.333 17.283 17.35 17.44 17.525 17.708 18.018 18.34 18.645 18.865 19.013 19.2 19.417 19.587 19.71 19.84 19.988 20.135 20.295 20.488 20.677 20.815 20.905 20.967 21.012 20.86 20.66 20.663 20.705 20.727 20.7 20.585 20.44 20.378 20.395 20.415 20.43 20.45 20.505 20.61 20.75 20.812 20.805 20.84 20.857 20.772 20.643 20.565 20.522 20.442 20.325 20.233 20.173 20.127 20.05 19.802 19.485 19.31 19.22 19.148 19.093 19.048 19 18.948 18.895 18.855 18.828 18.8 18.768 18.735 18.7 18.668 18.657 18.545 18.3 18.04 17.783 17.558 17.362 17.157 16.933 16.798 16.762 16.722 16.677 16.632 16.585 16.532 16.475 16.41 16.34 16.275 16.22 16.185 16.165 16.14 16.097 16.048 16 15.945 15.885 15.837 15.795 15.73 15.65 15.6 15.575 15.537 15.485 15.415 15.348 15.295 15.25 15.16 14.997 14.777 14.505 14.37 14.445 14.567 14.642 14.44 14.093 13.875 13.763 13.717 13.657 13.572 13.475 13.425 13.432 13.44 13.438 13.46 13.507 13.55 13.575 13.58 13.575 13.57 13.58 13.645 13.725 13.757 13.77 13.782 13.795 13.808 13.84 13.83 13.745 13.658 13.585 13.515 13.453 13.408 13.4 13.43 13.475 13.517 13.525 13.48 13.413 13.348 13.283 13.235 13.22 13.243 13.28 13.305 13.335 13.385 13.442 13.498 13.552 13.602 13.65 13.705 13.77 13.853 13.94 14.01 14.083 14.177 14.22 14.223 14.258
18.085 18.147 18.182 18.215 18.26 18.297 18.205 17.99 17.823 17.743 17.655 17.482 17.3 17.183 17.185 17.275 17.365 17.47 17.708 18.065 18.417 18.745 18.932 18.998 19.11 19.3 19.467 19.583 19.698 19.833 19.99 20.18 20.397 20.6 20.765 20.897 21.01 21.075 20.88 20.58 20.495 20.485 20.488 20.52 20.502 20.397 20.318 20.32 20.335 20.383 20.473 20.6 20.765 20.93 20.977 20.928 20.933 20.925 20.817 20.665 20.535 20.458 20.37 20.238 20.11 20.008 19.942 19.835 19.597 19.323 19.17 19.12 19.08 19.037 18.992 18.945 18.892 18.84 18.8 18.772 18.745 18.712 18.678 18.648 18.633 18.632 18.522 18.28 18.02 17.76 17.535 17.33 17.102 16.865 16.723 16.69 16.662 16.622 16.575 16.522 16.465 16.405 16.343 16.28 16.225 16.175 16.138 16.107 16.065 16.013 15.963 15.917 15.87 15.815 15.77 15.742 15.7 15.633 15.583 15.547 15.495 15.437 15.37 15.29 15.22 15.17 15.07 14.905 14.725 14.503 14.368 14.422 14.515 14.535 14.277 13.773 13.463 13.463 13.508 13.475 13.417 13.34 13.288 13.285 13.285 13.275 13.293 13.332 13.37 13.402 13.415 13.412 13.41 13.418 13.483 13.587 13.652 13.675 13.685 13.7 13.735 13.785 13.777 13.692 13.592 13.495 13.41 13.345 13.29 13.268 13.29 13.33 13.367 13.385 13.35 13.283 13.233 13.198 13.17 13.14 13.125 13.148 13.167 13.178 13.208 13.258 13.312 13.365 13.412 13.46 13.52 13.603 13.707 13.802 13.883 13.983 14.095 14.142 14.125 14.113
18 18.117 18.192 18.245 18.3 18.317 18.195 17.962 17.73 17.602 17.457 17.248 17.14 17.115 17.175 17.283 17.39 17.508 17.728 18.055 18.41 18.765 18.982 19.045 19.09 19.203 19.348 19.485 19.63 19.765 19.85 19.978 20.222 20.492 20.682 20.792 20.902 21.005 20.84 20.585 20.538 20.498 20.448 20.425 20.403 20.333 20.28 20.293 20.293 20.363 20.517 20.675 20.835 20.992 21.07 21.057 21.045 20.992 20.862 20.71 20.558 20.428 20.303 20.163 20.028 19.895 19.785 19.642 19.42 19.2 19.088 19.052 19.015 18.977 18.935 18.885 18.835 18.785 18.745 18.715 18.685 18.655 18.625 18.608 18.607 18.61 18.502 18.265 18.002 17.74 17.505 17.28 17.04 16.803 16.653 16.61 16.59 16.562 16.517 16.46 16.403 16.345 16.283 16.225 16.175 16.127 16.082 16.035 15.983 15.928 15.878 15.833 15.79 15.745 15.705 15.678 15.647 15.605 15.557 15.505 15.447 15.392 15.325 15.242 15.16 15.092 14.98 14.808 14.635 14.453 14.318 14.302 14.317 14.295 14.177 13.763 13.378 13.353 13.375 13.32 13.265 13.203 13.16 13.155 13.153 13.148 13.148 13.15 13.153 13.16 13.173 13.205 13.24 13.255 13.32 13.435 13.53 13.577 13.595 13.62 13.655 13.68 13.657 13.59 13.5 13.397 13.305 13.243 13.195 13.158 13.163 13.193 13.22 13.242 13.23 13.195 13.175 13.162 13.137 13.095 13.053 13.035 13.035 13.04 13.053 13.08 13.128 13.175 13.22 13.273 13.35 13.455 13.57 13.675 13.777 13.892 14.007 14.062 14.05 14.03
17.843 17.987 18.105 18.182 18.235 18.24 18.09 17.825 17.57 17.408 17.268 17.16 17.168 17.223 17.328 17.45 17.558 17.64 17.805 18.08 18.383 18.708 19 19.135 19.145 19.165 19.283 19.47 19.647 19.765 19.745 19.72 19.913 20.272 20.485 20.538 20.65 20.802 20.757 20.64 20.632 20.587 20.512 20.435 20.38 20.373 20.408 20.413 20.348 20.315 20.375 20.505 20.66 20.805 20.912 20.972 21.005 20.985 20.877 20.722 20.565 20.435 20.273 20.093 19.955 19.818 19.68 19.518 19.325 19.13 19.015 18.98 18.945 18.913 18.875 18.825 18.775 18.73 18.698 18.668 18.635 18.605 18.575 18.553 18.55 18.555 18.445 18.205 17.945 17.713 17.505 17.283 17.047 16.785 16.6 16.548 16.525 16.502 16.472 16.425 16.368 16.31 16.233 16.158 16.105 16.057 16.012 15.965 15.91 15.855 15.805 15.76 15.72 15.688 15.658 15.625 15.595 15.56 15.51 15.45 15.392 15.335 15.267 15.187 15.102 15.02 14.897 14.728 14.555 14.393 14.253 14.145 14.055 13.988 13.952 13.795 13.463 13.3 13.295 13.23 13.163 13.093 13.075 13.095 13.098 13.095 13.075 13.045 13.015 12.988 12.975 13.005 13.058 13.098 13.173 13.283 13.39 13.467 13.495 13.507 13.515 13.515 13.495 13.432 13.347 13.263 13.228 13.2 13.14 13.095 13.088 13.113 13.132 13.125 13.127 13.152 13.155 13.137 13.102 13.037 12.973 12.953 12.943 12.93 12.93 12.938 12.968 13.01 13.053 13.105 13.195 13.31 13.415 13.525 13.65 13.77 13.88 13.947 13.96 13.95
17.67 17.79 17.912 18 18.057 18.08 17.935 17.655 17.455 17.3 17.24 17.308 17.38 17.458 17.563 17.682 17.752 17.788 17.94 18.2 18.46 18.733 19.027 19.185 19.15 19.108 19.24 19.49 19.695 19.775 19.725 19.648 19.688 19.985 20.207 20.273 20.45 20.602 20.645 20.645 20.615 20.552 20.493 20.478 20.518 20.605 20.665 20.612 20.49 20.363 20.283 20.273 20.353 20.485 20.582 20.655 20.737 20.835 20.83 20.695 20.545 20.462 20.31 20.063 19.885 19.745 19.6 19.437 19.252 19.058 18.943 18.908 18.875 18.85 18.815 18.765 18.72 18.685 18.657 18.63 18.6 18.57 18.533 18.488 18.463 18.462 18.345 18.095 17.87 17.708 17.555 17.355 17.05 16.738 16.578 16.515 16.475 16.448 16.427 16.4 16.352 16.292 16.2 16.095 16.025 15.975 15.935 15.897 15.847 15.795 15.745 15.7 15.668 15.647 15.622 15.59 15.555 15.51 15.452 15.388 15.325 15.265 15.2 15.12 15.035 14.952 14.827 14.665 14.508 14.363 14.228 14.088 13.94 13.813 13.718 13.635 13.427 13.258 13.222 13.152 13.08 13.005 13.018 13.08 13.092 13.082 13.055 13.022 12.99 12.955 12.92 12.91 12.933 12.978 13.058 13.162 13.255 13.315 13.34 13.347 13.35 13.35 13.335 13.275 13.19 13.158 13.217 13.212 13.12 13.065 13.055 13.075 13.062 13 13 13.065 13.095 13.062 12.985 12.905 12.873 12.907 12.902 12.855 12.84 12.84 12.863 12.905 12.935 12.965 13.043 13.15 13.237 13.328 13.467 13.617 13.722 13.79 13.832 13.855
17.545 17.615 17.71 17.795 17.868 17.917 17.798 17.6 17.548 17.513 17.495 17.55 17.615 17.693 17.797 17.892 17.92 17.93 18.075 18.335 18.595 18.842 19.045 19.122 19.045 18.995 19.16 19.45 19.7 19.79 19.75 19.707 19.675 19.798 19.977 20.087 20.215 20.285 20.317 20.37 20.41 20.45 20.505 20.58 20.677 20.772 20.79 20.702 20.585 20.465 20.347 20.23 20.19 20.218 20.253 20.315 20.41 20.565 20.695 20.657 20.55 20.515 20.38 20.097 19.848 19.675 19.522 19.352 19.175 18.985 18.868 18.835 18.81 18.79 18.757 18.713 18.675 18.645 18.615 18.59 18.565 18.535 18.495 18.44 18.39 18.37 18.242 18.02 17.863 17.74 17.612 17.385 16.97 16.663 16.573 16.5 16.438 16.398 16.375 16.355 16.327 16.275 16.18 16.06 15.958 15.893 15.853 15.817 15.78 15.735 15.685 15.645 15.625 15.61 15.585 15.552 15.51 15.457 15.395 15.325 15.258 15.195 15.13 15.052 14.967 14.885 14.77 14.623 14.483 14.347 14.21 14.07 13.927 13.78 13.633 13.493 13.343 13.22 13.143 13.065 12.988 12.913 12.945 13.05 13.082 13.062 13.03 12.995 12.96 12.925 12.888 12.87 12.878 12.903 12.968 13.05 13.097 13.115 13.135 13.16 13.177 13.185 13.172 13.115 13.085 13.168 13.26 13.225 13.115 13.04 13.017 13 12.93 12.843 12.843 12.905 12.932 12.88 12.795 12.775 12.825 12.895 12.885 12.813 12.77 12.763 12.787 12.82 12.832 12.843 12.893 12.975 13.048 13.118 13.253 13.44 13.562 13.62 13.67 13.717
17.488 17.53 17.585 17.648 17.713 17.77 17.743 17.708 17.742 17.745 17.755 17.805 17.86 17.93 18.02 18.072 18.07 18.073 18.21 18.47 18.692 18.855 18.957 18.975 18.9 18.88 19.068 19.335 19.522 19.597 19.605 19.605 19.605 19.647 19.725 19.785 19.817 19.835 19.855 19.9 19.998 20.167 20.362 20.532 20.657 20.74 20.752 20.67 20.56 20.45 20.37 20.323 20.29 20.3 20.215 20.11 20.125 20.24 20.44 20.545 20.527 20.492 20.36 20.1 19.827 19.597 19.417 19.25 19.082 18.91 18.8 18.773 18.755 18.735 18.705 18.667 18.635 18.605 18.575 18.55 18.525 18.497 18.457 18.4 18.34 18.287 18.173 18.02 17.9 17.78 17.66 17.297 16.835 16.64 16.567 16.492 16.42 16.36 16.322 16.3 16.28 16.242 16.155 16.032 15.91 15.82 15.773 15.738 15.705 15.668 15.628 15.603 15.588 15.572 15.547 15.505 15.455 15.402 15.34 15.27 15.2 15.132 15.062 14.98 14.885 14.787 14.692 14.587 14.465 14.33 14.193 14.055 13.912 13.767 13.62 13.473 13.33 13.198 13.088 12.993 12.9 12.82 12.865 13.01 13.065 13.035 13 12.965 12.928 12.892 12.855 12.835 12.838 12.848 12.88 12.91 12.915 12.915 12.928 12.953 12.978 12.998 13.003 13.015 13.103 13.25 13.31 13.235 13.117 13.017 12.942 12.865 12.77 12.685 12.675 12.7 12.69 12.668 12.673 12.733 12.815 12.885 12.875 12.795 12.725 12.693 12.702 12.715 12.718 12.73 12.768 12.828 12.893 12.96 13.065 13.245 13.395 13.46 13.51 13.558
17.495 17.535 17.575 17.62 17.67 17.73 17.79 17.835 17.875 17.91 17.957 18.025 18.092 18.162 18.217 18.23 18.22 18.215 18.328 18.525 18.657 18.742 18.792 18.79 18.738 18.763 18.932 19.09 19.155 19.185 19.217 19.252 19.302 19.382 19.395 19.368 19.383 19.398 19.415 19.47 19.603 19.805 20.03 20.257 20.457 20.612 20.67 20.615 20.553 20.508 20.49 20.505 20.525 20.627 20.552 19.77 19.138 19.173 19.707 20.279 20.352 20.325 20.225 19.992 19.72 19.397 19.125 18.965 18.818 18.748 18.732 18.713 18.695 18.675 18.647 18.615 18.583 18.555 18.533 18.51 18.485 18.46 18.42 18.36 18.3 18.24 18.162 18.055 17.938 17.82 17.7 17.248 16.755 16.603 16.512 16.437 16.362 16.29 16.237 16.21 16.19 16.16 16.08 15.957 15.843 15.758 15.71 15.675 15.64 15.61 15.585 15.57 15.555 15.54 15.512 15.46 15.4 15.345 15.285 15.21 15.117 15.012 14.927 14.857 14.765 14.655 14.568 14.5 14.422 14.31 14.175 14.04 13.897 13.752 13.605 13.46 13.325 13.195 13.073 12.96 12.855 12.77 12.828 12.987 13.04 13.005 12.968 12.932 12.895 12.858 12.823 12.803 12.803 12.82 12.84 12.84 12.833 12.825 12.83 12.85 12.87 12.893 12.915 12.978 13.09 13.225 13.28 13.2 13.082 12.972 12.86 12.748 12.643 12.55 12.528 12.545 12.548 12.578 12.643 12.72 12.8 12.872 12.865 12.785 12.692 12.613 12.585 12.59 12.61 12.645 12.688 12.738 12.793 12.855 12.935 13.073 13.225 13.31 13.36 13.405
17.528 17.565 17.608 17.655 17.715 17.793 17.86 17.907 17.952 18 18.065 18.142 18.217 18.287 18.322 18.322 18.32 18.32 18.382 18.478 18.545 18.613 18.635 18.61 18.575 18.588 18.66 18.71 18.735 18.765 18.795 18.853 18.953 19.057 19.025 18.948 18.958 18.973 19.048 19.178 19.32 19.51 19.728 19.948 20.175 20.387 20.485 20.547 20.662 20.725 20.742 20.757 20.775 20.877 20.51 19.308 18.516 18.413 18.765 19.215 19.675 20.11 20.072 19.85 19.547 19.095 18.688 18.548 18.51 18.595 18.667 18.653 18.628 18.605 18.58 18.55 18.525 18.51 18.493 18.468 18.443 18.42 18.38 18.32 18.265 18.217 18.165 18.082 17.972 17.857 17.74 17.325 16.843 16.618 16.443 16.33 16.255 16.18 16.125 16.093 16.07 16.042 15.962 15.848 15.76 15.7 15.66 15.625 15.595 15.575 15.555 15.54 15.528 15.515 15.485 15.427 15.362 15.287 15.175 15.045 14.915 14.777 14.688 14.655 14.607 14.517 14.425 14.36 14.315 14.247 14.145 14.02 13.88 13.737 13.59 13.45 13.32 13.193 13.08 12.985 12.895 12.813 12.87 12.995 13.01 12.975 12.935 12.898 12.862 12.825 12.788 12.768 12.773 12.815 12.852 12.85 12.835 12.82 12.828 12.85 12.872 12.893 12.918 12.965 13.03 13.118 13.175 13.125 13.018 12.912 12.802 12.685 12.56 12.455 12.445 12.497 12.535 12.583 12.65 12.72 12.793 12.86 12.84 12.735 12.612 12.495 12.455 12.485 12.533 12.587 12.635 12.678 12.72 12.77 12.835 12.925 13.057 13.16 13.21 13.258
17.562 17.597 17.64 17.7 17.78 17.867 17.932 17.98 18.007 18.012 18.07 18.157 18.227 18.297 18.332 18.347 18.365 18.375 18.407 18.457 18.505 18.55 18.55 18.518 18.495 18.475 18.463 18.458 18.453 18.45 18.45 18.518 18.655 18.74 18.662 18.548 18.55 18.648 18.83 18.992 19.1 19.26 19.475 19.695 19.895 20.045 20.11 20.187 20.38 20.592 20.777 20.945 21.03 21.105 20.478 19.481 19.075 18.87 18.685 18.546 18.958 19.69 19.93 19.732 19.335 18.763 18.333 18.283 18.385 18.535 18.615 18.602 18.568 18.54 18.515 18.493 18.483 18.475 18.457 18.43 18.403 18.377 18.337 18.285 18.238 18.193 18.15 18.097 18.007 17.893 17.777 17.422 16.998 16.743 16.493 16.29 16.158 16.07 16.018 15.983 15.953 15.925 15.855 15.763 15.7 15.65 15.61 15.58 15.56 15.545 15.525 15.513 15.505 15.495 15.465 15.402 15.312 15.192 15.03 14.84 14.653 14.493 14.41 14.4 14.395 14.357 14.282 14.213 14.167 14.122 14.065 13.982 13.865 13.722 13.58 13.448 13.323 13.2 13.105 13.042 12.98 12.908 12.935 12.997 12.98 12.945 12.905 12.865 12.828 12.792 12.755 12.733 12.755 12.822 12.862 12.852 12.832 12.813 12.82 12.847 12.872 12.895 12.925 12.972 13.022 13.07 13.105 13.065 12.963 12.855 12.742 12.617 12.475 12.373 12.385 12.46 12.525 12.59 12.657 12.725 12.795 12.83 12.765 12.63 12.49 12.388 12.375 12.423 12.478 12.535 12.582 12.62 12.66 12.705 12.755 12.81 12.91 13.007 13.063 13.12
17.585 17.622 17.675 17.757 17.85 17.93 17.965 17.97 17.957 17.923 17.993 18.117 18.192 18.177 18.125 18.15 18.192 18.227 18.282 18.357 18.432 18.495 18.495 18.452 18.417 18.39 18.382 18.387 18.38 18.355 18.318 18.313 18.382 18.422 18.318 18.213 18.278 18.49 18.695 18.81 18.9 19.03 19.225 19.415 19.545 19.62 19.645 19.64 19.708 19.935 20.265 20.6 20.852 21.062 20.825 20.138 19.703 19.497 19.29 19.073 18.925 19.063 19.447 19.417 18.915 18.45 18.238 18.283 18.393 18.505 18.567 18.552 18.51 18.475 18.452 18.445 18.442 18.435 18.42 18.395 18.362 18.327 18.295 18.26 18.215 18.17 18.13 18.09 18.03 17.93 17.812 17.515 17.15 16.895 16.635 16.38 16.158 15.993 15.91 15.878 15.848 15.812 15.755 15.692 15.637 15.592 15.565 15.545 15.53 15.515 15.498 15.49 15.485 15.475 15.43 15.332 15.202 15.055 14.9 14.705 14.483 14.29 14.213 14.21 14.19 14.168 14.12 14.065 14.02 13.975 13.93 13.883 13.812 13.705 13.583 13.46 13.34 13.223 13.138 13.09 13.042 12.988 12.973 12.975 12.952 12.92 12.88 12.84 12.8 12.763 12.725 12.71 12.758 12.837 12.865 12.845 12.825 12.808 12.815 12.843 12.873 12.908 12.928 12.95 12.99 13.03 13.052 13.01 12.912 12.805 12.682 12.54 12.388 12.3 12.333 12.418 12.507 12.59 12.657 12.722 12.782 12.767 12.655 12.515 12.4 12.35 12.348 12.373 12.425 12.482 12.527 12.565 12.603 12.645 12.693 12.738 12.8 12.868 12.928 12.995
17.58 17.615 17.68 17.772 17.862 17.852 17.835 17.855 17.82 17.785 17.898 18.062 18.03 17.85 17.74 17.75 17.788 17.847 17.927 18.03 18.145 18.26 18.29 18.24 18.187 18.155 18.172 18.215 18.245 18.237 18.192 18.14 18.127 18.16 18.172 18.185 18.265 18.397 18.535 18.642 18.725 18.82 18.938 19.043 19.118 19.163 19.173 19.168 19.163 19.228 19.45 19.758 20.025 20.352 20.772 20.72 20.343 20.12 19.905 19.667 19.353 19.008 18.99 18.953 18.62 18.415 18.4 18.47 18.537 18.555 18.52 18.475 18.43 18.39 18.37 18.367 18.365 18.34 18.297 18.262 18.227 18.19 18.17 18.165 18.155 18.14 18.11 18.07 18.027 17.957 17.847 17.605 17.3 17.045 16.787 16.53 16.212 15.935 15.833 15.808 15.775 15.712 15.645 15.595 15.545 15.52 15.525 15.52 15.505 15.49 15.475 15.47 15.465 15.455 15.377 15.23 15.083 14.935 14.788 14.618 14.42 14.238 14.185 14.218 14.21 14.18 14.14 14.06 13.97 13.92 13.875 13.83 13.775 13.682 13.59 13.495 13.375 13.26 13.178 13.128 13.083 13.04 12.998 12.955 12.925 12.895 12.855 12.815 12.778 12.743 12.708 12.7 12.755 12.83 12.85 12.83 12.81 12.808 12.835 12.873 12.913 12.95 12.94 12.915 12.935 12.972 12.987 12.95 12.865 12.76 12.63 12.48 12.345 12.285 12.32 12.4 12.492 12.577 12.65 12.717 12.742 12.672 12.54 12.42 12.363 12.358 12.348 12.34 12.373 12.427 12.475 12.512 12.548 12.588 12.635 12.68 12.712 12.745 12.8 12.87
17.563 17.585 17.65 17.737 17.81 17.675 17.555 17.65 17.68 17.645 17.803 18.01 17.75 17.415 17.375 17.373 17.383 17.425 17.5 17.6 17.74 17.905 17.97 17.93 17.88 17.86 17.885 17.925 17.93 17.877 17.817 17.78 17.775 17.847 17.987 18.117 18.155 18.17 18.287 18.442 18.575 18.69 18.747 18.765 18.785 18.793 18.788 18.785 18.783 18.78 18.845 18.978 19.073 19.335 20.107 20.824 20.925 20.732 20.502 20.238 20.007 19.655 19.138 18.828 18.68 18.595 18.63 18.667 18.65 18.565 18.453 18.38 18.333 18.29 18.267 18.252 18.217 18.15 18.083 18.04 18.005 17.973 17.96 17.975 17.997 18.015 18.015 18.005 17.992 17.957 17.865 17.687 17.45 17.167 16.82 16.457 16.125 15.885 15.793 15.765 15.705 15.605 15.525 15.475 15.445 15.45 15.472 15.487 15.485 15.47 15.455 15.45 15.445 15.435 15.34 15.16 14.995 14.845 14.703 14.567 14.403 14.258 14.243 14.307 14.355 14.375 14.36 14.25 14.085 13.978 13.92 13.875 13.745 13.588 13.53 13.487 13.412 13.312 13.22 13.163 13.12 13.077 13.025 12.965 12.918 12.878 12.838 12.803 12.77 12.74 12.713 12.703 12.74 12.8 12.817 12.803 12.805 12.845 12.9 12.947 12.985 13.007 12.977 12.908 12.888 12.917 12.925 12.885 12.812 12.715 12.583 12.445 12.353 12.318 12.34 12.403 12.48 12.565 12.642 12.695 12.667 12.555 12.438 12.37 12.36 12.37 12.36 12.333 12.333 12.375 12.422 12.458 12.493 12.53 12.575 12.615 12.622 12.628 12.675 12.745
17.558 17.563 17.618 17.69 17.74 17.527 17.235 17.3 17.472 17.505 17.705 17.73 17.275 17.01 17.01 17.007 17.005 17.018 17.07 17.188 17.368 17.562 17.645 17.615 17.57 17.56 17.582 17.575 17.507 17.4 17.323 17.298 17.34 17.445 17.573 17.722 17.775 17.81 17.968 18.155 18.345 18.502 18.59 18.63 18.645 18.63 18.615 18.613 18.608 18.6 18.593 18.595 18.603 18.735 19.385 20.41 20.869 20.885 20.96 20.837 20.622 20.19 19.435 18.965 18.83 18.782 18.785 18.725 18.615 18.488 18.37 18.29 18.24 18.193 18.153 18.105 18.035 17.953 17.885 17.838 17.795 17.758 17.745 17.763 17.785 17.805 17.825 17.847 17.867 17.87 17.812 17.675 17.412 17.015 16.583 16.228 16.01 15.855 15.755 15.697 15.6 15.485 15.405 15.37 15.37 15.39 15.41 15.432 15.45 15.447 15.435 15.427 15.42 15.412 15.32 15.125 14.93 14.765 14.628 14.51 14.373 14.28 14.3 14.362 14.427 14.49 14.525 14.475 14.305 14.113 13.99 13.92 13.672 13.435 13.41 13.395 13.375 13.325 13.255 13.2 13.157 13.112 13.06 13.005 12.958 12.913 12.87 12.828 12.785 12.748 12.725 12.72 12.733 12.77 12.788 12.798 12.85 12.922 12.982 13.02 13.045 13.06 13.02 12.928 12.86 12.86 12.865 12.82 12.755 12.667 12.548 12.445 12.388 12.358 12.375 12.428 12.488 12.56 12.635 12.645 12.562 12.45 12.38 12.365 12.37 12.38 12.37 12.34 12.32 12.333 12.368 12.403 12.438 12.473 12.515 12.537 12.52 12.51 12.55 12.62
17.568 17.55 17.57 17.615 17.63 17.352 16.905 16.863 17.12 17.297 17.604 17.312 16.708 16.648 16.645 16.643 16.653 16.68 16.728 16.84 17.018 17.218 17.312 17.293 17.263 17.24 17.205 17.122 17.015 16.905 16.828 16.84 16.935 17.052 17.17 17.305 17.375 17.458 17.64 17.817 17.977 18.115 18.225 18.32 18.395 18.437 18.462 18.475 18.475 18.49 18.507 18.517 18.53 18.553 18.95 19.757 20.187 20.317 20.65 20.802 20.597 20.207 19.632 19.18 18.985 18.877 18.787 18.662 18.535 18.41 18.288 18.2 18.15 18.103 18.048 17.975 17.9 17.825 17.755 17.7 17.65 17.598 17.565 17.573 17.595 17.618 17.64 17.663 17.685 17.687 17.597 17.375 17.027 16.638 16.328 16.123 15.967 15.812 15.693 15.595 15.48 15.365 15.298 15.29 15.305 15.325 15.347 15.37 15.395 15.412 15.41 15.402 15.395 15.387 15.297 15.105 14.898 14.71 14.568 14.458 14.35 14.308 14.35 14.41 14.472 14.535 14.595 14.612 14.495 14.29 14.11 13.917 13.558 13.305 13.293 13.28 13.27 13.257 13.232 13.2 13.167 13.14 13.105 13.06 13.017 12.975 12.935 12.887 12.835 12.788 12.76 12.753 12.748 12.76 12.785 12.825 12.885 12.955 13.03 13.075 13.095 13.107 13.06 12.963 12.868 12.82 12.802 12.755 12.693 12.62 12.54 12.478 12.433 12.398 12.41 12.462 12.517 12.572 12.612 12.57 12.46 12.385 12.37 12.375 12.38 12.39 12.38 12.35 12.323 12.305 12.32 12.355 12.388 12.42 12.445 12.437 12.405 12.39 12.425 12.49
17.582 17.543 17.528 17.55 17.505 17.175 16.725 16.628 16.795 16.908 17.005 16.715 16.368 16.39 16.413 16.438 16.475 16.528 16.588 16.675 16.808 16.965 17.043 17.033 17.005 16.933 16.815 16.683 16.55 16.42 16.36 16.423 16.54 16.658 16.773 16.895 16.995 17.115 17.275 17.415 17.54 17.655 17.76 17.855 17.945 18.025 18.08 18.105 18.135 18.235 18.352 18.407 18.425 18.438 18.555 18.838 19.138 19.418 19.752 19.977 19.932 19.775 19.702 19.5 19.08 18.803 18.69 18.575 18.455 18.332 18.205 18.115 18.065 18.02 17.965 17.887 17.81 17.735 17.665 17.61 17.56 17.495 17.435 17.415 17.428 17.452 17.475 17.497 17.502 17.435 17.242 16.925 16.595 16.36 16.187 16.025 15.868 15.733 15.615 15.495 15.375 15.263 15.213 15.223 15.24 15.26 15.283 15.307 15.33 15.342 15.34 15.332 15.327 15.315 15.262 15.115 14.91 14.715 14.568 14.465 14.385 14.368 14.405 14.458 14.51 14.565 14.62 14.647 14.565 14.37 14.15 13.807 13.398 13.205 13.188 13.18 13.17 13.16 13.15 13.135 13.128 13.16 13.152 13.095 13.052 13.01 12.98 12.952 12.912 12.865 12.828 12.81 12.797 12.763 12.733 12.75 12.792 12.873 13.042 13.155 13.155 13.15 13.097 13 12.897 12.81 12.75 12.7 12.648 12.593 12.548 12.512 12.475 12.438 12.445 12.492 12.527 12.552 12.557 12.495 12.4 12.37 12.385 12.39 12.395 12.402 12.387 12.352 12.317 12.285 12.288 12.322 12.35 12.37 12.372 12.343 12.3 12.275 12.303 12.363
17.585 17.53 17.503 17.495 17.385 17.033 16.698 16.648 16.708 16.675 16.49 16.3 16.255 16.303 16.355 16.405 16.452 16.5 16.563 16.65 16.758 16.87 16.923 16.913 16.878 16.778 16.628 16.473 16.318 16.198 16.183 16.255 16.348 16.443 16.535 16.613 16.668 16.74 16.845 16.96 17.077 17.192 17.297 17.392 17.472 17.53 17.565 17.603 17.715 17.908 18.095 18.222 18.282 18.302 18.29 18.25 18.335 18.598 18.843 19.003 19.088 19.165 19.377 19.444 19.112 18.728 18.545 18.442 18.335 18.223 18.113 18.033 17.983 17.94 17.882 17.802 17.723 17.645 17.575 17.52 17.462 17.385 17.318 17.278 17.268 17.285 17.307 17.317 17.255 17.1 16.855 16.56 16.333 16.18 16.03 15.878 15.748 15.648 15.545 15.42 15.295 15.193 15.155 15.17 15.187 15.2 15.215 15.235 15.245 15.237 15.225 15.217 15.21 15.187 15.17 15.112 14.952 14.758 14.615 14.525 14.468 14.455 14.48 14.525 14.57 14.602 14.602 14.58 14.502 14.307 14.025 13.64 13.298 13.16 13.12 13.095 13.08 13.07 13.06 13.06 13.105 13.207 13.212 13.12 13.065 13.028 13.005 12.99 12.967 12.937 12.902 12.88 12.865 12.795 12.653 12.583 12.618 12.725 13.012 13.232 13.225 13.177 13.105 13.005 12.902 12.8 12.723 12.675 12.63 12.58 12.545 12.52 12.492 12.465 12.455 12.467 12.475 12.475 12.475 12.427 12.37 12.38 12.405 12.41 12.412 12.41 12.385 12.345 12.302 12.265 12.262 12.287 12.302 12.31 12.305 12.27 12.223 12.19 12.21 12.27
17.57 17.51 17.47 17.39 17.21 16.89 16.678 16.7 16.745 16.715 16.562 16.373 16.268 16.278 16.33 16.38 16.427 16.473 16.538 16.63 16.73 16.835 16.885 16.862 16.82 16.732 16.593 16.445 16.33 16.275 16.293 16.355 16.415 16.455 16.485 16.498 16.48 16.47 16.495 16.538 16.615 16.73 16.835 16.917 16.975 17.018 17.068 17.183 17.393 17.617 17.8 17.96 18.09 18.157 18.157 18.148 18.165 18.193 18.263 18.365 18.448 18.55 18.663 18.747 18.702 18.512 18.38 18.305 18.212 18.122 18.04 17.965 17.905 17.86 17.8 17.72 17.64 17.56 17.488 17.425 17.352 17.268 17.203 17.158 17.123 17.12 17.13 17.072 16.92 16.73 16.503 16.288 16.148 16.022 15.883 15.758 15.665 15.58 15.472 15.347 15.223 15.135 15.115 15.125 15.13 15.13 15.14 15.147 15.14 15.125 15.11 15.102 15.085 15.048 15.025 15.022 14.955 14.8 14.668 14.603 14.563 14.543 14.563 14.607 14.62 14.575 14.495 14.425 14.355 14.182 13.86 13.518 13.275 13.153 13.095 13.045 13.008 12.985 12.99 13.043 13.15 13.282 13.292 13.18 13.093 13.048 13.027 13.01 12.992 12.977 12.957 12.942 12.93 12.86 12.665 12.475 12.44 12.578 12.9 13.172 13.202 13.127 13.05 12.97 12.88 12.78 12.708 12.662 12.617 12.57 12.533 12.508 12.485 12.465 12.44 12.418 12.4 12.388 12.385 12.353 12.34 12.39 12.425 12.427 12.42 12.407 12.377 12.33 12.275 12.217 12.202 12.225 12.237 12.242 12.237 12.207 12.165 12.133 12.15 12.21
17.583 17.518 17.43 17.26 17.033 16.793 16.69 16.735 16.777 16.767 16.647 16.475 16.323 16.268 16.303 16.35 16.4 16.448 16.518 16.612 16.705 16.8 16.837 16.8 16.75 16.68 16.575 16.475 16.425 16.402 16.4 16.425 16.445 16.442 16.43 16.415 16.39 16.363 16.335 16.303 16.305 16.348 16.393 16.43 16.465 16.525 16.653 16.863 17.105 17.325 17.505 17.665 17.825 17.96 18.022 18.04 18.05 18.052 18.062 18.08 18.08 18.07 18.08 18.1 18.115 18.123 18.117 18.087 18.042 18 17.957 17.905 17.84 17.782 17.72 17.64 17.557 17.475 17.397 17.322 17.24 17.152 17.085 17.04 16.995 16.96 16.9 16.76 16.58 16.4 16.23 16.093 15.977 15.865 15.758 15.665 15.585 15.502 15.395 15.265 15.14 15.07 15.06 15.06 15.057 15.053 15.052 15.045 15.027 15.012 14.997 14.98 14.95 14.908 14.885 14.888 14.877 14.812 14.735 14.692 14.657 14.632 14.642 14.637 14.56 14.443 14.33 14.25 14.19 14.027 13.738 13.475 13.273 13.148 13.09 13.033 12.975 12.935 12.968 13.082 13.222 13.357 13.372 13.26 13.148 13.075 13.045 13.025 13.005 12.99 12.98 12.977 12.975 12.92 12.732 12.47 12.315 12.42 12.7 12.945 13.045 13.007 12.942 12.887 12.825 12.752 12.692 12.647 12.602 12.557 12.52 12.495 12.478 12.46 12.435 12.403 12.368 12.338 12.318 12.295 12.32 12.397 12.43 12.417 12.397 12.372 12.33 12.267 12.197 12.12 12.093 12.12 12.145 12.16 12.165 12.147 12.112 12.08 12.093 12.15
17.65 17.56 17.415 17.215 16.99 16.79 16.725 16.765 16.792 16.767 16.67 16.52 16.35 16.255 16.27 16.322 16.372 16.425 16.502 16.595 16.685 16.765 16.775 16.722 16.67 16.612 16.545 16.487 16.455 16.447 16.422 16.385 16.37 16.358 16.345 16.327 16.305 16.293 16.278 16.248 16.215 16.185 16.17 16.175 16.19 16.24 16.375 16.585 16.82 17.037 17.213 17.378 17.56 17.75 17.88 17.915 17.915 17.89 17.82 17.765 17.745 17.733 17.74 17.76 17.77 17.762 17.75 17.74 17.73 17.722 17.712 17.665 17.612 17.612 17.587 17.502 17.405 17.307 17.222 17.157 17.082 16.987 16.917 16.872 16.825 16.76 16.65 16.498 16.33 16.16 16.018 15.905 15.8 15.715 15.632 15.542 15.46 15.38 15.275 15.14 15.038 14.998 14.988 14.983 14.98 14.972 14.95 14.923 14.9 14.882 14.867 14.855 14.83 14.79 14.77 14.77 14.77 14.76 14.74 14.717 14.697 14.692 14.685 14.623 14.513 14.393 14.24 14.115 14.042 13.897 13.687 13.48 13.273 13.143 13.085 13.078 13.067 12.988 12.968 13.075 13.232 13.397 13.442 13.342 13.225 13.128 13.068 13.035 13.018 13.003 12.99 12.99 12.995 12.97 12.837 12.585 12.323 12.26 12.425 12.645 12.827 12.872 12.815 12.763 12.718 12.69 12.66 12.615 12.57 12.535 12.515 12.495 12.478 12.46 12.44 12.415 12.385 12.35 12.315 12.28 12.293 12.362 12.377 12.342 12.315 12.282 12.23 12.157 12.072 11.99 11.968 11.993 12.02 12.045 12.06 12.057 12.04 12.022 12.03 12.067
17.717 17.59 17.425 17.237 17.032 16.83 16.755 16.78 16.757 16.685 16.595 16.485 16.337 16.225 16.225 16.285 16.34 16.397 16.47 16.552 16.64 16.705 16.69 16.623 16.565 16.51 16.455 16.415 16.405 16.427 16.4 16.325 16.288 16.273 16.26 16.245 16.235 16.24 16.237 16.22 16.195 16.165 16.15 16.153 16.158 16.17 16.245 16.4 16.583 16.773 16.963 17.158 17.37 17.587 17.737 17.78 17.757 17.682 17.565 17.46 17.41 17.395 17.4 17.415 17.412 17.397 17.385 17.375 17.365 17.355 17.342 17.278 17.193 17.187 17.225 17.212 17.13 17.017 16.935 16.9 16.857 16.777 16.705 16.655 16.592 16.507 16.405 16.282 16.132 15.968 15.825 15.715 15.635 15.582 15.505 15.398 15.303 15.22 15.115 15.003 14.945 14.923 14.91 14.905 14.897 14.885 14.85 14.803 14.765 14.74 14.725 14.727 14.722 14.69 14.67 14.67 14.667 14.66 14.65 14.64 14.65 14.69 14.707 14.665 14.585 14.45 14.23 14.045 13.935 13.788 13.605 13.428 13.26 13.195 13.233 13.267 13.22 13.078 12.983 13.03 13.173 13.39 13.5 13.422 13.31 13.205 13.12 13.058 13.03 13.015 13.003 13.003 13.005 12.995 12.937 12.76 12.475 12.29 12.3 12.395 12.56 12.695 12.69 12.638 12.61 12.62 12.61 12.565 12.53 12.518 12.517 12.505 12.485 12.46 12.442 12.435 12.42 12.39 12.355 12.3 12.255 12.285 12.29 12.238 12.2 12.167 12.115 12.035 11.935 11.853 11.84 11.865 11.89 11.912 11.927 11.935 11.93 11.907 11.902 11.945
17.747 17.602 17.437 17.25 17.058 16.863 16.768 16.742 16.67 16.58 16.49 16.4 16.292 16.185 16.17 16.227 16.28 16.335 16.403 16.483 16.572 16.625 16.592 16.52 16.455 16.393 16.355 16.36 16.393 16.425 16.39 16.303 16.233 16.193 16.175 16.173 16.183 16.192 16.19 16.18 16.165 16.143 16.13 16.13 16.135 16.14 16.195 16.32 16.45 16.588 16.775 17 17.225 17.442 17.597 17.625 17.555 17.45 17.337 17.208 17.098 17.055 17.057 17.06 17.045 17.03 17.02 17.01 17 16.985 16.97 16.915 16.795 16.69 16.693 16.75 16.755 16.688 16.625 16.608 16.587 16.55 16.492 16.422 16.337 16.242 16.142 16.035 15.912 15.767 15.635 15.55 15.5 15.46 15.382 15.268 15.16 15.065 14.973 14.905 14.875 14.85 14.833 14.825 14.812 14.795 14.76 14.705 14.65 14.605 14.585 14.592 14.6 14.587 14.572 14.567 14.56 14.55 14.538 14.545 14.61 14.685 14.722 14.727 14.665 14.485 14.223 13.998 13.84 13.79 13.89 13.878 13.67 13.535 13.518 13.453 13.3 13.133 13.025 13.015 13.12 13.38 13.535 13.487 13.395 13.288 13.195 13.113 13.055 13.025 13.015 13.015 13.015 13.005 12.975 12.892 12.692 12.523 12.46 12.415 12.44 12.513 12.54 12.53 12.54 12.57 12.56 12.525 12.515 12.518 12.522 12.515 12.492 12.46 12.438 12.437 12.437 12.422 12.392 12.327 12.238 12.218 12.21 12.15 12.098 12.055 11.992 11.897 11.793 11.72 11.713 11.735 11.757 11.777 11.795 11.802 11.78 11.713 11.688 11.76
17.763 17.618 17.455 17.273 17.09 16.908 16.768 16.665 16.565 16.478 16.393 16.308 16.225 16.145 16.125 16.165 16.203 16.253 16.328 16.415 16.507 16.545 16.5 16.43 16.36 16.318 16.325 16.36 16.402 16.427 16.385 16.297 16.21 16.138 16.108 16.115 16.135 16.145 16.14 16.13 16.123 16.118 16.113 16.11 16.115 16.12 16.155 16.253 16.37 16.48 16.62 16.825 17.06 17.287 17.437 17.427 17.327 17.22 17.11 16.982 16.84 16.74 16.708 16.697 16.68 16.663 16.65 16.64 16.63 16.615 16.597 16.552 16.445 16.33 16.293 16.325 16.368 16.365 16.34 16.325 16.308 16.295 16.255 16.17 16.073 15.977 15.88 15.775 15.665 15.55 15.458 15.407 15.372 15.337 15.26 15.14 15.023 14.93 14.87 14.833 14.807 14.782 14.752 14.727 14.71 14.69 14.665 14.62 14.558 14.495 14.453 14.448 14.462 14.47 14.465 14.452 14.437 14.422 14.413 14.493 14.627 14.68 14.672 14.66 14.63 14.467 14.193 13.968 13.838 13.865 14.217 14.507 14.387 14.157 14.003 13.838 13.58 13.293 13.128 13.118 13.188 13.408 13.555 13.525 13.467 13.372 13.275 13.19 13.113 13.05 13.025 13.025 13.022 13.01 12.98 12.94 12.852 12.75 12.682 12.617 12.55 12.495 12.475 12.485 12.503 12.52 12.518 12.508 12.515 12.52 12.525 12.52 12.492 12.455 12.43 12.427 12.43 12.427 12.405 12.337 12.24 12.175 12.13 12.073 12.018 11.963 11.875 11.758 11.648 11.585 11.585 11.605 11.625 11.643 11.66 11.653 11.608 11.54 11.513 11.578
17.82 17.675 17.52 17.353 17.178 17.003 16.833 16.668 16.53 16.435 16.358 16.28 16.205 16.14 16.123 16.148 16.17 16.198 16.263 16.355 16.445 16.467 16.41 16.34 16.293 16.308 16.352 16.388 16.42 16.43 16.38 16.29 16.2 16.128 16.093 16.09 16.098 16.103 16.11 16.12 16.133 16.143 16.128 16.108 16.108 16.11 16.125 16.185 16.283 16.39 16.503 16.658 16.875 17.11 17.23 17.182 17.08 16.977 16.875 16.76 16.625 16.493 16.385 16.333 16.315 16.295 16.283 16.272 16.257 16.242 16.225 16.187 16.095 16.02 16.018 16.045 16.088 16.115 16.103 16.078 16.065 16.052 16.007 15.917 15.813 15.713 15.617 15.515 15.405 15.328 15.287 15.252 15.217 15.177 15.095 14.97 14.863 14.825 14.805 14.768 14.74 14.712 14.662 14.608 14.58 14.56 14.547 14.525 14.472 14.41 14.34 14.293 14.295 14.31 14.31 14.295 14.275 14.258 14.293 14.425 14.517 14.5 14.457 14.415 14.45 14.385 14.13 13.948 13.877 13.835 14.083 14.547 14.672 14.63 14.702 14.662 14.418 14.093 13.943 13.983 13.938 13.853 13.745 13.59 13.51 13.445 13.358 13.272 13.183 13.203 13.215 13.095 13.028 13.015 12.982 12.938 12.932 12.902 12.812 12.732 12.657 12.585 12.533 12.518 12.52 12.505 12.485 12.482 12.49 12.495 12.5 12.49 12.455 12.428 12.408 12.393 12.39 12.387 12.352 12.277 12.2 12.132 12.07 12.015 11.965 11.902 11.795 11.658 11.528 11.458 11.46 11.483 11.505 11.523 11.543 11.54 11.51 11.475 11.445 11.473
17.92 17.775 17.625 17.472 17.305 17.13 16.96 16.763 16.57 16.45 16.373 16.298 16.225 16.16 16.145 16.172 16.182 16.175 16.208 16.292 16.38 16.387 16.32 16.268 16.273 16.33 16.385 16.42 16.432 16.417 16.365 16.28 16.203 16.155 16.128 16.108 16.095 16.098 16.133 16.175 16.205 16.217 16.185 16.138 16.115 16.11 16.118 16.153 16.225 16.318 16.415 16.53 16.7 16.915 16.992 16.91 16.813 16.718 16.627 16.537 16.435 16.312 16.14 15.995 15.945 15.928 15.917 15.905 15.885 15.868 15.852 15.825 15.763 15.735 15.773 15.828 15.895 15.935 15.91 15.865 15.843 15.827 15.777 15.677 15.563 15.453 15.353 15.25 15.165 15.133 15.11 15.07 15.027 14.977 14.887 14.775 14.728 14.758 14.785 14.735 14.673 14.632 14.56 14.483 14.44 14.423 14.415 14.41 14.38 14.325 14.248 14.163 14.123 14.12 14.117 14.105 14.088 14.083 14.157 14.242 14.225 14.17 14.123 14.108 14.21 14.25 14.06 13.908 13.857 13.795 13.89 14.165 14.353 14.592 14.977 15.27 15.392 15.355 15.379 15.344 14.89 14.397 14.172 14.052 13.95 13.775 13.52 13.33 13.323 13.568 13.697 13.47 13.225 13.075 12.97 12.945 13.017 13.015 12.905 12.803 12.718 12.643 12.593 12.575 12.552 12.502 12.46 12.443 12.438 12.443 12.447 12.428 12.403 12.403 12.385 12.353 12.333 12.31 12.26 12.193 12.135 12.085 12.03 11.975 11.925 11.855 11.74 11.6 11.483 11.415 11.383 11.385 11.41 11.43 11.455 11.47 11.465 11.447 11.42 11.41
18.015 17.872 17.725 17.58 17.427 17.257 17.075 16.855 16.62 16.47 16.39 16.315 16.248 16.185 16.17 16.192 16.187 16.165 16.168 16.23 16.307 16.3 16.245 16.24 16.29 16.36 16.415 16.435 16.42 16.392 16.35 16.283 16.228 16.197 16.172 16.145 16.123 16.12 16.165 16.232 16.28 16.292 16.255 16.195 16.145 16.12 16.125 16.15 16.2 16.275 16.358 16.448 16.563 16.707 16.735 16.64 16.553 16.468 16.383 16.305 16.237 16.145 15.96 15.738 15.603 15.56 15.548 15.533 15.515 15.495 15.485 15.488 15.488 15.515 15.578 15.645 15.715 15.757 15.735 15.678 15.63 15.605 15.55 15.44 15.323 15.208 15.098 15.005 14.968 14.96 14.923 14.87 14.82 14.77 14.69 14.63 14.655 14.712 14.767 14.732 14.625 14.537 14.45 14.363 14.305 14.285 14.28 14.28 14.27 14.235 14.165 14.07 13.983 13.938 13.925 13.915 13.903 13.917 13.96 13.952 13.898 13.843 13.79 13.813 13.958 14.09 14.012 13.88 13.833 13.783 13.793 13.86 13.993 14.33 14.815 15.302 15.609 15.627 15.624 15.599 15.127 14.573 14.427 14.455 14.432 14.432 14.288 13.976 13.908 14.13 14.28 14.235 14.22 14.03 13.66 13.288 13.135 13.135 13.02 12.905 12.803 12.708 12.642 12.6 12.54 12.478 12.438 12.413 12.395 12.39 12.388 12.378 12.385 12.395 12.37 12.33 12.285 12.24 12.195 12.145 12.095 12.045 11.99 11.935 11.885 11.807 11.69 11.578 11.508 11.455 11.39 11.345 11.338 11.35 11.375 11.392 11.392 11.387 11.377 11.363
18.102 17.965 17.822 17.68 17.535 17.375 17.175 16.935 16.685 16.505 16.41 16.338 16.273 16.21 16.193 16.2 16.182 16.16 16.145 16.178 16.23 16.22 16.21 16.255 16.32 16.39 16.432 16.425 16.395 16.368 16.335 16.295 16.26 16.232 16.207 16.18 16.152 16.138 16.175 16.255 16.33 16.357 16.317 16.255 16.192 16.138 16.128 16.153 16.188 16.25 16.33 16.407 16.482 16.525 16.475 16.383 16.305 16.227 16.147 16.067 16.01 15.95 15.795 15.555 15.335 15.223 15.21 15.223 15.235 15.245 15.263 15.298 15.343 15.393 15.445 15.498 15.553 15.585 15.56 15.5 15.44 15.393 15.323 15.218 15.113 15.008 14.905 14.828 14.805 14.802 14.76 14.695 14.633 14.573 14.535 14.553 14.608 14.665 14.722 14.72 14.587 14.43 14.332 14.247 14.175 14.143 14.14 14.14 14.14 14.13 14.07 13.965 13.853 13.78 13.755 13.738 13.72 13.723 13.718 13.68 13.643 13.603 13.568 13.615 13.755 13.907 13.937 13.87 13.823 13.778 13.783 13.842 13.915 14.18 14.65 15.01 14.975 14.66 14.555 14.71 14.725 14.55 14.452 14.46 14.545 14.975 15.437 15.419 15.192 15.032 14.967 15.037 15.212 15.019 14.532 14.002 13.49 13.255 13.137 13.012 12.887 12.762 12.665 12.59 12.513 12.453 12.418 12.395 12.373 12.353 12.345 12.358 12.385 12.385 12.35 12.3 12.235 12.185 12.15 12.105 12.055 12.005 11.95 11.895 11.845 11.77 11.675 11.603 11.555 11.505 11.44 11.37 11.315 11.288 11.295 11.315 11.317 11.313 11.308 11.315
18.18 18.037 17.89 17.747 17.605 17.462 17.265 17.015 16.765 16.553 16.43 16.363 16.298 16.235 16.208 16.2 16.18 16.16 16.14 16.14 16.158 16.175 16.22 16.29 16.362 16.402 16.412 16.407 16.383 16.355 16.325 16.297 16.27 16.24 16.215 16.19 16.163 16.148 16.185 16.265 16.332 16.352 16.32 16.265 16.202 16.135 16.118 16.152 16.185 16.233 16.305 16.367 16.407 16.38 16.263 16.13 16.03 15.955 15.88 15.805 15.755 15.717 15.58 15.338 15.13 15.028 15.025 15.065 15.105 15.145 15.188 15.235 15.285 15.33 15.37 15.41 15.44 15.437 15.392 15.33 15.27 15.218 15.148 15.053 14.958 14.863 14.778 14.71 14.665 14.655 14.627 14.56 14.488 14.438 14.453 14.507 14.562 14.615 14.637 14.607 14.5 14.33 14.2 14.117 14.038 13.995 13.99 13.987 13.985 13.987 13.942 13.835 13.718 13.64 13.61 13.585 13.573 13.575 13.565 13.545 13.525 13.5 13.495 13.563 13.678 13.798 13.872 13.862 13.82 13.773 13.765 13.815 13.87 14.075 14.377 14.385 14.108 13.83 13.788 13.923 14.075 14.192 14.24 14.327 14.432 14.697 15.284 15.661 15.534 15.292 15.242 15.404 15.434 15.097 14.7 14.375 13.787 13.323 13.195 13.055 12.915 12.775 12.663 12.58 12.508 12.458 12.428 12.405 12.383 12.36 12.353 12.363 12.382 12.37 12.317 12.25 12.175 12.123 12.095 12.062 12.015 11.965 11.91 11.855 11.81 11.76 11.703 11.65 11.605 11.555 11.49 11.42 11.35 11.285 11.243 11.235 11.24 11.248 11.265 11.295
18.245 18.082 17.925 17.785 17.653 17.525 17.335 17.088 16.863 16.71 16.618 16.53 16.433 16.333 16.275 16.255 16.233 16.21 16.188 16.165 16.155 16.193 16.268 16.345 16.4 16.37 16.34 16.37 16.375 16.35 16.32 16.29 16.26 16.23 16.203 16.178 16.16 16.155 16.195 16.26 16.287 16.282 16.26 16.22 16.17 16.113 16.098 16.135 16.172 16.207 16.247 16.277 16.29 16.242 16.105 15.935 15.785 15.67 15.58 15.515 15.487 15.462 15.315 15.113 15.01 14.968 14.963 14.995 15.035 15.075 15.123 15.175 15.227 15.275 15.315 15.342 15.335 15.295 15.237 15.175 15.118 15.077 15.022 14.93 14.835 14.745 14.67 14.61 14.55 14.515 14.487 14.43 14.373 14.363 14.405 14.46 14.497 14.502 14.46 14.392 14.325 14.215 14.078 13.973 13.893 13.84 13.823 13.818 13.825 13.832 13.79 13.697 13.585 13.503 13.47 13.455 13.465 13.492 13.505 13.495 13.475 13.45 13.468 13.558 13.672 13.787 13.867 13.867 13.827 13.757 13.72 13.767 13.827 13.92 13.937 13.783 13.658 13.633 13.58 13.548 13.595 13.723 13.918 14.082 14.11 14.028 14.125 14.383 14.488 14.493 14.562 14.74 14.735 14.445 14.195 14.107 13.737 13.31 13.182 13.045 12.905 12.768 12.66 12.588 12.53 12.49 12.462 12.438 12.418 12.403 12.393 12.39 12.39 12.345 12.263 12.188 12.115 12.055 12.025 12.01 11.975 11.922 11.868 11.818 11.79 11.78 11.747 11.695 11.652 11.607 11.542 11.47 11.4 11.33 11.258 11.218 11.213 11.228 11.265 11.305
18.292 18.118 17.963 17.833 17.71 17.587 17.4 17.203 17.078 17.002 16.932 16.822 16.685 16.553 16.478 16.448 16.423 16.398 16.37 16.32 16.253 16.258 16.335 16.397 16.387 16.295 16.243 16.29 16.345 16.345 16.315 16.282 16.25 16.22 16.19 16.17 16.165 16.168 16.19 16.212 16.212 16.205 16.185 16.152 16.115 16.075 16.06 16.078 16.102 16.122 16.137 16.15 16.162 16.107 15.96 15.79 15.618 15.455 15.318 15.23 15.21 15.195 15.1 15.005 14.968 14.933 14.91 14.925 14.965 15.008 15.06 15.115 15.17 15.22 15.247 15.237 15.192 15.137 15.08 15.02 14.973 14.945 14.9 14.812 14.715 14.635 14.57 14.51 14.45 14.395 14.353 14.308 14.283 14.308 14.357 14.38 14.355 14.302 14.235 14.168 14.1 14.032 13.94 13.833 13.748 13.683 13.653 13.658 13.683 13.685 13.63 13.547 13.45 13.368 13.338 13.345 13.368 13.395 13.422 13.435 13.425 13.405 13.445 13.552 13.667 13.777 13.85 13.872 13.83 13.708 13.645 13.685 13.697 13.668 13.623 13.593 13.595 13.605 13.533 13.435 13.413 13.533 13.74 13.812 13.782 13.665 13.498 13.49 13.595 13.653 13.67 13.695 13.663 13.55 13.478 13.575 13.51 13.275 13.155 13.027 12.892 12.763 12.665 12.608 12.56 12.52 12.495 12.473 12.455 12.445 12.438 12.432 12.42 12.355 12.24 12.135 12.055 11.988 11.95 11.942 11.922 11.877 11.825 11.795 11.795 11.805 11.787 11.74 11.698 11.657 11.597 11.523 11.45 11.385 11.355 11.34 11.315 11.308 11.318 11.33
18.32 18.147 18.002 17.88 17.76 17.642 17.5 17.378 17.302 17.215 17.125 17.03 16.915 16.817 16.762 16.73 16.702 16.672 16.62 16.527 16.413 16.36 16.397 16.402 16.317 16.2 16.143 16.185 16.265 16.315 16.31 16.278 16.243 16.21 16.185 16.175 16.175 16.177 16.175 16.16 16.143 16.128 16.108 16.085 16.065 16.048 16.03 16.018 16.013 16.008 16.01 16.023 16.037 15.97 15.81 15.64 15.47 15.303 15.135 15.018 14.988 14.98 14.958 14.937 14.922 14.9 14.867 14.863 14.898 14.945 15 15.055 15.107 15.142 15.135 15.092 15.037 14.982 14.925 14.87 14.835 14.807 14.757 14.68 14.595 14.525 14.465 14.402 14.34 14.277 14.222 14.2 14.217 14.245 14.252 14.217 14.153 14.09 14.028 13.963 13.898 13.835 13.773 13.698 13.62 13.55 13.515 13.533 13.562 13.552 13.485 13.395 13.305 13.235 13.22 13.245 13.272 13.297 13.325 13.352 13.365 13.37 13.433 13.54 13.64 13.735 13.787 13.817 13.767 13.623 13.548 13.547 13.518 13.473 13.518 13.615 13.647 13.62 13.545 13.462 13.415 13.448 13.493 13.47 13.438 13.363 13.283 13.263 13.273 13.295 13.315 13.315 13.305 13.29 13.27 13.285 13.305 13.24 13.12 12.997 12.87 12.757 12.685 12.637 12.592 12.553 12.528 12.513 12.5 12.49 12.482 12.475 12.46 12.415 12.3 12.153 12.028 11.93 11.88 11.868 11.857 11.83 11.8 11.798 11.812 11.825 11.82 11.787 11.745 11.705 11.65 11.575 11.52 11.51 11.538 11.537 11.498 11.47 11.453 11.438
