ncols         200
nrows         71
xllcorner     543000
yllcorner     261520
cellsize      5
NODATA_value  -9999.0
13.725 13.695 13.662 13.632 13.602 13.568 13.528 13.485 13.442 13.393 13.34 13.305 13.285 13.265 13.245 13.22 13.192 13.167 13.142 13.12 13.1 13.08 13.063 13.045 13.033 13.033 13.013 12.97 12.928 12.878 12.845 12.833 12.82 12.818 12.845 12.9 12.958 12.993 12.985 12.953 12.923 12.89 12.85 12.82 12.803 12.805 12.83 12.86 12.885 12.905 12.915 12.915 12.915 12.92 12.925 12.93 12.94 12.955 12.98 13.01 13.037 13.06 13.085 13.117 13.15 13.172 13.17 13.152 13.135 13.12 13.118 13.128 13.142 13.155 13.14 13.095 13.05 13.005 12.973 12.955 12.935 12.918 12.887 12.843 12.798 12.775 12.788 12.815 12.845 12.837 12.767 12.665 12.555 12.45 12.385 12.36 12.34 12.315 12.272 12.218 12.16 12.1 12.063 12.05 12.04 12.032 12.025 12.02 12.017 12.015 12.023 12.038 12.053 12.075 12.135 12.23 12.33 12.417 12.477 12.517 12.557 12.592 12.605 12.6 12.595 12.592 12.545 12.457 12.372 12.29 12.248 12.245 12.24 12.227 12.182 12.1 12.007 11.91 11.845 11.833 11.84 11.85 11.853 11.85 11.845 11.835 11.83 11.83 11.833 11.83 11.83 11.845 11.867 11.89 11.89 11.87 11.85 11.838 11.838 11.845 11.855 11.865 11.9 11.963 12.025 12.07 12.085 12.085 12.085 12.09 12.095 12.09 12.085 12.085 12.09 12.1 12.113 12.128 12.145 12.16 12.175 12.193 12.213 12.238 12.263 12.29 12.325 12.393 12.505 12.62 12.69 12.733 12.78 12.838 12.868 12.878 12.9 12.925 12.927 12.903
13.725 13.692 13.65 13.608 13.57 13.53 13.485 13.44 13.395 13.353 13.325 13.305 13.285 13.265 13.245 13.222 13.197 13.17 13.145 13.125 13.105 13.082 13.067 13.057 13.043 13.028 12.995 12.95 12.908 12.868 12.843 12.828 12.818 12.82 12.85 12.903 12.955 12.983 12.973 12.945 12.918 12.872 12.818 12.785 12.765 12.765 12.788 12.815 12.84 12.865 12.885 12.887 12.885 12.885 12.89 12.9 12.91 12.923 12.945 12.975 13.007 13.04 13.07 13.102 13.135 13.162 13.165 13.147 13.13 13.113 13.113 13.125 13.137 13.15 13.137 13.097 13.053 13.008 12.983 12.972 12.955 12.935 12.905 12.86 12.818 12.8 12.813 12.84 12.865 12.852 12.777 12.67 12.563 12.473 12.418 12.39 12.37 12.347 12.305 12.245 12.185 12.118 12.07 12.055 12.045 12.035 12.025 12.02 12.015 12.01 12.02 12.038 12.053 12.073 12.133 12.23 12.325 12.405 12.465 12.512 12.56 12.6 12.615 12.612 12.607 12.595 12.552 12.475 12.385 12.31 12.29 12.307 12.315 12.315 12.282 12.197 12.09 11.973 11.885 11.855 11.855 11.865 11.868 11.865 11.86 11.853 11.85 11.85 11.85 11.82 11.775 11.777 11.81 11.852 11.877 11.862 11.84 11.84 11.868 11.89 11.898 11.903 11.915 11.96 12.025 12.077 12.1 12.1 12.097 12.093 12.09 12.085 12.08 12.083 12.09 12.1 12.11 12.115 12.123 12.135 12.148 12.163 12.185 12.213 12.238 12.263 12.303 12.395 12.528 12.653 12.733 12.78 12.83 12.848 12.85 12.873 12.895 12.902 12.9 12.89
13.727 13.69 13.638 13.578 13.53 13.49 13.447 13.403 13.36 13.33 13.31 13.29 13.27 13.25 13.23 13.212 13.19 13.163 13.138 13.115 13.095 13.075 13.065 13.065 13.057 13.042 13.007 12.955 12.905 12.863 12.838 12.828 12.835 12.863 12.903 12.95 12.995 13.017 13.007 12.98 12.932 12.85 12.78 12.753 12.738 12.735 12.753 12.778 12.803 12.833 12.857 12.862 12.86 12.858 12.86 12.872 12.882 12.89 12.91 12.94 12.975 13.012 13.045 13.078 13.113 13.147 13.155 13.135 13.118 13.105 13.108 13.12 13.132 13.145 13.132 13.097 13.057 13.013 12.99 12.99 12.982 12.965 12.932 12.89 12.858 12.843 12.855 12.885 12.892 12.855 12.77 12.665 12.578 12.515 12.47 12.435 12.408 12.382 12.34 12.277 12.21 12.13 12.075 12.058 12.045 12.035 12.028 12.023 12.018 12.015 12.023 12.04 12.055 12.075 12.138 12.23 12.312 12.387 12.45 12.498 12.55 12.602 12.625 12.625 12.612 12.577 12.532 12.472 12.39 12.335 12.333 12.35 12.365 12.372 12.347 12.26 12.137 12.013 11.925 11.888 11.878 11.885 11.89 11.892 11.892 11.888 11.885 11.885 11.855 11.775 11.685 11.663 11.698 11.783 11.855 11.847 11.825 11.848 11.917 11.977 12.002 12.005 11.995 11.995 12.038 12.092 12.115 12.115 12.107 12.095 12.09 12.088 12.085 12.09 12.1 12.11 12.115 12.11 12.115 12.13 12.142 12.155 12.18 12.212 12.24 12.265 12.318 12.435 12.58 12.725 12.835 12.895 12.937 12.907 12.87 12.89 12.892 12.86 12.858 12.882
13.73 13.687 13.632 13.563 13.498 13.45 13.41 13.37 13.338 13.313 13.29 13.27 13.25 13.23 13.213 13.197 13.177 13.155 13.132 13.108 13.085 13.065 13.058 13.065 13.07 13.06 13.022 12.965 12.908 12.86 12.838 12.845 12.875 12.915 12.955 12.997 13.032 13.05 13.04 12.992 12.91 12.813 12.745 12.72 12.71 12.705 12.72 12.748 12.775 12.81 12.832 12.835 12.835 12.833 12.835 12.845 12.852 12.858 12.875 12.908 12.945 12.985 13.022 13.055 13.09 13.13 13.14 13.123 13.11 13.103 13.105 13.115 13.128 13.14 13.127 13.092 13.057 13.018 12.993 12.995 12.997 12.99 12.965 12.933 12.908 12.89 12.9 12.915 12.892 12.842 12.765 12.68 12.62 12.57 12.525 12.485 12.448 12.417 12.372 12.302 12.222 12.14 12.088 12.065 12.048 12.035 12.03 12.025 12.02 12.02 12.028 12.043 12.058 12.08 12.138 12.22 12.295 12.37 12.437 12.49 12.55 12.61 12.635 12.625 12.595 12.55 12.505 12.457 12.395 12.363 12.367 12.377 12.387 12.39 12.362 12.285 12.172 12.048 11.965 11.93 11.908 11.905 11.91 11.915 11.922 11.922 11.917 11.89 11.812 11.71 11.608 11.56 11.6 11.73 11.835 11.835 11.825 11.865 11.945 12.025 12.087 12.112 12.105 12.083 12.08 12.11 12.127 12.122 12.11 12.095 12.09 12.093 12.095 12.1 12.11 12.115 12.11 12.103 12.108 12.123 12.138 12.153 12.178 12.212 12.247 12.275 12.345 12.488 12.64 12.79 12.927 13.01 13.022 12.945 12.888 12.887 12.852 12.795 12.795 12.847
13.725 13.682 13.627 13.557 13.483 13.42 13.378 13.348 13.323 13.298 13.275 13.255 13.235 13.215 13.198 13.18 13.163 13.145 13.125 13.102 13.078 13.055 13.05 13.06 13.07 13.072 13.04 12.98 12.92 12.865 12.85 12.88 12.92 12.96 13 13.035 13.062 13.08 13.052 12.97 12.873 12.778 12.713 12.693 12.685 12.678 12.69 12.723 12.755 12.785 12.802 12.805 12.805 12.805 12.807 12.813 12.818 12.823 12.843 12.88 12.92 12.96 13 13.038 13.075 13.115 13.13 13.118 13.105 13.098 13.1 13.113 13.125 13.132 13.12 13.087 13.052 13.017 12.995 12.995 13.003 13.007 12.997 12.977 12.957 12.937 12.935 12.92 12.878 12.833 12.775 12.715 12.667 12.62 12.575 12.535 12.495 12.457 12.4 12.318 12.23 12.15 12.1 12.075 12.055 12.038 12.03 12.028 12.03 12.038 12.048 12.063 12.083 12.108 12.145 12.208 12.28 12.353 12.423 12.488 12.555 12.62 12.64 12.607 12.565 12.52 12.475 12.432 12.383 12.357 12.36 12.365 12.37 12.36 12.332 12.28 12.195 12.085 12.01 11.977 11.945 11.927 11.925 11.927 11.932 11.937 11.917 11.845 11.745 11.645 11.543 11.47 11.523 11.695 11.812 11.82 11.833 11.895 11.975 12.055 12.135 12.197 12.215 12.192 12.157 12.145 12.145 12.133 12.115 12.098 12.093 12.098 12.103 12.11 12.115 12.113 12.108 12.105 12.113 12.133 12.155 12.168 12.183 12.213 12.25 12.283 12.373 12.535 12.695 12.852 13.01 13.107 13.08 12.96 12.877 12.84 12.785 12.728 12.728 12.785
13.7 13.66 13.607 13.537 13.463 13.398 13.358 13.333 13.308 13.285 13.262 13.24 13.22 13.2 13.183 13.165 13.147 13.127 13.11 13.095 13.072 13.048 13.04 13.05 13.06 13.07 13.047 12.99 12.93 12.87 12.86 12.9 12.94 12.98 13.02 13.045 13.062 13.082 13.042 12.945 12.848 12.785 12.735 12.69 12.675 12.668 12.68 12.713 12.745 12.765 12.773 12.775 12.778 12.778 12.778 12.783 12.788 12.793 12.815 12.855 12.895 12.94 12.99 13.038 13.08 13.12 13.137 13.128 13.115 13.103 13.1 13.113 13.125 13.125 13.105 13.072 13.037 13.005 12.993 13 13.01 13.02 13.012 12.992 12.977 12.965 12.952 12.922 12.88 12.84 12.795 12.745 12.7 12.662 12.622 12.58 12.54 12.497 12.43 12.343 12.258 12.19 12.155 12.133 12.11 12.088 12.073 12.073 12.085 12.1 12.108 12.118 12.138 12.16 12.183 12.218 12.275 12.345 12.415 12.485 12.558 12.627 12.637 12.59 12.545 12.5 12.455 12.412 12.36 12.323 12.315 12.317 12.315 12.277 12.247 12.23 12.172 12.097 12.04 11.997 11.955 11.92 11.902 11.9 11.902 11.907 11.865 11.77 11.67 11.57 11.47 11.403 11.478 11.67 11.792 11.813 11.848 11.925 12.005 12.085 12.16 12.23 12.257 12.225 12.182 12.162 12.172 12.175 12.155 12.135 12.13 12.138 12.143 12.148 12.16 12.173 12.175 12.175 12.188 12.213 12.233 12.228 12.215 12.23 12.263 12.298 12.4 12.57 12.725 12.882 13.052 13.14 13.067 12.915 12.818 12.77 12.715 12.673 12.685 12.743
13.665 13.625 13.572 13.505 13.438 13.38 13.345 13.32 13.295 13.272 13.248 13.225 13.205 13.185 13.17 13.155 13.13 13.1 13.085 13.08 13.065 13.043 13.033 13.04 13.05 13.06 13.04 12.987 12.93 12.87 12.86 12.9 12.94 12.98 13.017 13.035 13.04 13.055 13.022 12.93 12.868 12.875 12.84 12.745 12.69 12.673 12.685 12.715 12.74 12.75 12.75 12.75 12.753 12.753 12.753 12.755 12.76 12.765 12.785 12.825 12.87 12.923 12.982 13.045 13.095 13.135 13.152 13.145 13.13 13.11 13.105 13.115 13.12 13.11 13.085 13.05 13.015 12.983 12.98 13.005 13.02 13.03 13.02 12.993 12.975 12.967 12.955 12.932 12.9 12.86 12.815 12.765 12.725 12.702 12.67 12.623 12.577 12.532 12.465 12.383 12.315 12.27 12.25 12.235 12.215 12.19 12.17 12.165 12.175 12.19 12.195 12.198 12.208 12.225 12.245 12.265 12.295 12.35 12.42 12.49 12.562 12.63 12.632 12.58 12.535 12.49 12.445 12.397 12.338 12.285 12.265 12.265 12.235 12.16 12.125 12.14 12.112 12.062 12.027 11.985 11.935 11.89 11.855 11.843 11.847 11.845 11.79 11.69 11.59 11.5 11.43 11.4 11.473 11.645 11.775 11.82 11.875 11.955 12.03 12.1 12.162 12.22 12.23 12.19 12.16 12.153 12.192 12.232 12.225 12.208 12.205 12.212 12.215 12.213 12.233 12.28 12.305 12.305 12.32 12.34 12.335 12.305 12.273 12.265 12.285 12.325 12.435 12.595 12.727 12.868 13.037 13.105 12.99 12.823 12.735 12.698 12.663 12.653 12.678 12.732
13.638 13.595 13.542 13.48 13.423 13.37 13.333 13.307 13.283 13.258 13.235 13.215 13.195 13.175 13.157 13.137 13.107 13.073 13.055 13.055 13.05 13.035 13.028 13.035 13.045 13.052 13.03 12.98 12.927 12.87 12.858 12.898 12.94 12.98 13.012 13.025 13.025 13.03 13 12.95 12.963 13.007 12.97 12.855 12.75 12.69 12.688 12.71 12.722 12.728 12.73 12.73 12.73 12.73 12.73 12.73 12.733 12.738 12.76 12.803 12.855 12.91 12.97 13.04 13.1 13.147 13.167 13.157 13.137 13.115 13.11 13.112 13.102 13.087 13.062 13.028 12.995 12.963 12.963 12.997 13.025 13.04 13.03 13 12.978 12.963 12.945 12.93 12.91 12.877 12.835 12.793 12.765 12.75 12.717 12.665 12.615 12.57 12.508 12.44 12.395 12.36 12.34 12.332 12.32 12.298 12.28 12.27 12.27 12.28 12.285 12.285 12.288 12.297 12.315 12.332 12.345 12.365 12.42 12.495 12.565 12.63 12.632 12.578 12.527 12.48 12.432 12.377 12.31 12.245 12.215 12.195 12.125 12.03 11.995 12.03 12.037 12.008 11.987 11.957 11.912 11.867 11.823 11.795 11.79 11.775 11.71 11.61 11.53 11.48 11.45 11.443 11.5 11.638 11.76 11.832 11.9 11.967 12.03 12.09 12.145 12.195 12.2 12.168 12.15 12.145 12.19 12.267 12.292 12.28 12.28 12.282 12.277 12.273 12.285 12.345 12.412 12.435 12.445 12.445 12.412 12.37 12.338 12.318 12.318 12.355 12.465 12.605 12.72 12.845 13.005 13.052 12.912 12.75 12.67 12.645 12.648 12.663 12.68 12.72
13.61 13.565 13.515 13.458 13.405 13.358 13.32 13.295 13.27 13.245 13.225 13.205 13.185 13.165 13.142 13.113 13.08 13.048 13.028 13.025 13.025 13.02 13.018 13.027 13.04 13.047 13.022 12.97 12.92 12.868 12.855 12.893 12.938 12.98 13.007 13.015 13.018 13.02 13.023 13.05 13.103 13.145 13.102 12.985 12.86 12.753 12.703 12.7 12.708 12.713 12.713 12.71 12.71 12.71 12.71 12.71 12.71 12.713 12.738 12.788 12.843 12.898 12.958 13.025 13.092 13.155 13.18 13.165 13.142 13.12 13.108 13.097 13.08 13.063 13.038 13.005 12.975 12.95 12.953 12.983 13.018 13.045 13.04 13.015 12.995 12.978 12.958 12.938 12.918 12.89 12.858 12.833 12.815 12.8 12.767 12.715 12.665 12.618 12.565 12.52 12.485 12.45 12.43 12.425 12.42 12.405 12.39 12.38 12.372 12.372 12.375 12.372 12.367 12.36 12.352 12.35 12.35 12.342 12.38 12.467 12.55 12.622 12.627 12.57 12.515 12.465 12.412 12.35 12.28 12.21 12.153 12.085 11.993 11.9 11.868 11.91 11.955 11.96 11.943 11.92 11.885 11.842 11.8 11.76 11.735 11.705 11.64 11.57 11.53 11.51 11.49 11.485 11.545 11.66 11.762 11.84 11.902 11.958 12.013 12.07 12.125 12.17 12.177 12.158 12.145 12.138 12.18 12.275 12.34 12.35 12.347 12.345 12.335 12.33 12.335 12.385 12.475 12.53 12.54 12.52 12.477 12.435 12.405 12.385 12.37 12.39 12.48 12.6 12.71 12.825 12.972 12.995 12.84 12.693 12.62 12.618 12.655 12.682 12.69 12.71
13.58 13.535 13.485 13.43 13.383 13.343 13.313 13.288 13.263 13.238 13.215 13.195 13.175 13.155 13.13 13.098 13.063 13.033 13.015 13.008 13.005 13.005 13 13.003 13.015 13.025 13.002 12.95 12.9 12.858 12.86 12.903 12.948 12.993 13.02 13.025 13.03 13.003 13.03 13.147 13.26 13.345 13.275 13.113 12.985 12.86 12.76 12.713 12.71 12.717 12.71 12.695 12.69 12.69 12.695 12.7 12.7 12.7 12.728 12.785 12.84 12.895 12.955 13.018 13.085 13.155 13.185 13.17 13.147 13.123 13.103 13.088 13.073 13.063 13.045 13.013 12.983 12.97 12.983 13.008 13.038 13.07 13.073 13.055 13.043 13.028 13.008 12.983 12.955 12.928 12.905 12.888 12.873 12.857 12.832 12.792 12.745 12.695 12.65 12.613 12.575 12.538 12.518 12.515 12.512 12.502 12.485 12.467 12.452 12.437 12.427 12.42 12.4 12.362 12.325 12.302 12.29 12.278 12.313 12.405 12.497 12.565 12.56 12.5 12.447 12.41 12.37 12.312 12.245 12.175 12.11 12.033 11.933 11.828 11.8 11.865 11.93 11.945 11.925 11.9 11.855 11.805 11.765 11.725 11.69 11.658 11.62 11.59 11.57 11.55 11.53 11.525 11.588 11.692 11.775 11.84 11.898 11.955 12.01 12.065 12.117 12.152 12.16 12.15 12.14 12.13 12.173 12.267 12.345 12.367 12.362 12.362 12.36 12.36 12.362 12.37 12.392 12.452 12.502 12.507 12.49 12.46 12.432 12.407 12.393 12.41 12.485 12.593 12.7 12.81 12.945 12.942 12.778 12.64 12.578 12.6 12.662 12.702 12.71 12.715
13.55 13.502 13.453 13.403 13.36 13.325 13.302 13.282 13.257 13.233 13.21 13.19 13.17 13.15 13.122 13.09 13.06 13.035 13.018 13.005 13 13 12.99 12.975 12.975 12.985 12.965 12.915 12.875 12.855 12.875 12.925 12.972 13.02 13.05 13.055 13.015 12.94 12.993 13.198 13.575 13.912 13.685 13.273 13.105 12.985 12.868 12.773 12.733 12.732 12.72 12.69 12.673 12.67 12.68 12.695 12.7 12.7 12.73 12.792 12.85 12.905 12.965 13.023 13.085 13.155 13.182 13.167 13.15 13.125 13.105 13.093 13.085 13.09 13.08 13.05 13.03 13.028 13.045 13.073 13.1 13.127 13.132 13.118 13.105 13.092 13.072 13.045 13.018 12.998 12.977 12.955 12.938 12.92 12.9 12.875 12.837 12.79 12.745 12.705 12.668 12.633 12.6 12.58 12.57 12.56 12.54 12.512 12.487 12.462 12.442 12.417 12.372 12.313 12.268 12.243 12.223 12.21 12.248 12.335 12.41 12.455 12.44 12.385 12.348 12.33 12.307 12.265 12.205 12.135 12.085 12.042 11.96 11.845 11.823 11.897 11.947 11.955 11.937 11.89 11.81 11.745 11.708 11.675 11.655 11.648 11.64 11.627 11.61 11.587 11.565 11.565 11.632 11.712 11.77 11.84 11.905 11.962 12.017 12.07 12.112 12.135 12.137 12.132 12.127 12.12 12.155 12.225 12.277 12.292 12.277 12.267 12.27 12.275 12.267 12.217 12.185 12.26 12.342 12.377 12.397 12.402 12.4 12.39 12.393 12.42 12.493 12.595 12.7 12.807 12.917 12.89 12.723 12.59 12.55 12.595 12.665 12.717 12.732 12.73
13.528 13.47 13.423 13.383 13.345 13.31 13.29 13.275 13.252 13.228 13.205 13.185 13.165 13.145 13.118 13.088 13.063 13.04 13.023 13.01 13 12.995 12.985 12.963 12.948 12.947 12.925 12.888 12.873 12.87 12.893 12.943 12.995 13.045 13.077 13.04 12.908 12.85 13.013 13.473 14.293 14.892 14.53 13.705 13.258 13.11 12.995 12.878 12.788 12.753 12.735 12.698 12.663 12.65 12.66 12.68 12.695 12.7 12.73 12.795 12.857 12.915 12.975 13.03 13.088 13.152 13.177 13.163 13.147 13.128 13.11 13.105 13.11 13.12 13.113 13.095 13.09 13.09 13.108 13.14 13.167 13.19 13.195 13.182 13.168 13.155 13.135 13.108 13.088 13.072 13.05 13.025 13.003 12.983 12.962 12.94 12.915 12.88 12.84 12.805 12.775 12.747 12.705 12.655 12.62 12.595 12.57 12.537 12.5 12.465 12.43 12.38 12.32 12.258 12.213 12.185 12.16 12.143 12.178 12.25 12.3 12.332 12.322 12.288 12.27 12.26 12.237 12.202 12.157 12.095 12.048 12.025 11.982 11.893 11.873 11.927 11.955 11.965 11.947 11.865 11.748 11.675 11.648 11.635 11.64 11.65 11.65 11.647 11.64 11.622 11.6 11.605 11.66 11.705 11.75 11.83 11.905 11.967 12.022 12.065 12.095 12.112 12.113 12.11 12.113 12.115 12.123 12.135 12.158 12.175 12.155 12.123 12.108 12.105 12.08 12.033 12.03 12.1 12.168 12.208 12.255 12.305 12.347 12.382 12.41 12.438 12.505 12.607 12.7 12.767 12.817 12.795 12.665 12.54 12.528 12.593 12.665 12.73 12.757 12.753
13.512 13.448 13.403 13.37 13.338 13.305 13.283 13.265 13.245 13.223 13.2 13.18 13.16 13.14 13.118 13.095 13.07 13.045 13.028 13.015 13.002 12.992 12.98 12.96 12.94 12.923 12.903 12.89 12.89 12.888 12.908 12.958 13.012 13.067 13.06 12.932 12.775 12.84 13.21 14.065 15.22 15.829 15.577 14.725 13.741 13.218 13.095 12.987 12.883 12.8 12.753 12.713 12.67 12.64 12.64 12.66 12.68 12.695 12.73 12.792 12.857 12.922 12.985 13.04 13.095 13.152 13.173 13.158 13.148 13.14 13.135 13.143 13.155 13.163 13.158 13.15 13.15 13.153 13.173 13.205 13.232 13.255 13.257 13.245 13.232 13.217 13.197 13.175 13.16 13.145 13.12 13.095 13.07 13.047 13.027 13 12.967 12.93 12.89 12.86 12.837 12.815 12.777 12.715 12.65 12.597 12.555 12.515 12.472 12.427 12.377 12.32 12.26 12.2 12.158 12.13 12.105 12.088 12.11 12.16 12.198 12.228 12.225 12.205 12.195 12.185 12.163 12.13 12.095 12.05 12.015 11.993 11.967 11.92 11.908 11.94 11.962 11.975 11.937 11.82 11.683 11.62 11.618 11.625 11.64 11.65 11.65 11.65 11.65 11.645 11.635 11.64 11.66 11.683 11.735 11.815 11.895 11.967 12.02 12.05 12.075 12.093 12.098 12.103 12.11 12.117 12.108 12.088 12.08 12.078 12.053 12.01 11.975 11.953 11.935 11.933 11.95 11.98 12.025 12.08 12.145 12.215 12.28 12.34 12.392 12.437 12.487 12.545 12.587 12.605 12.61 12.608 12.565 12.503 12.515 12.587 12.66 12.725 12.767 12.775
13.488 13.435 13.4 13.37 13.34 13.31 13.283 13.26 13.24 13.22 13.2 13.18 13.16 13.145 13.13 13.108 13.083 13.057 13.03 13.01 12.997 12.987 12.987 12.977 12.955 12.933 12.92 12.918 12.915 12.913 12.93 12.975 13.03 13.087 13.025 12.823 12.758 13.028 13.69 14.862 15.912 16.244 16.152 15.794 14.807 13.658 13.178 13.063 12.965 12.863 12.788 12.745 12.705 12.665 12.648 12.66 12.68 12.7 12.73 12.78 12.845 12.912 12.975 13.032 13.093 13.173 13.23 13.24 13.24 13.24 13.245 13.258 13.265 13.255 13.223 13.205 13.212 13.217 13.235 13.265 13.295 13.32 13.322 13.302 13.28 13.257 13.232 13.21 13.187 13.16 13.13 13.105 13.085 13.065 13.04 13.002 12.955 12.905 12.855 12.815 12.79 12.77 12.74 12.685 12.615 12.547 12.493 12.448 12.405 12.362 12.312 12.255 12.195 12.148 12.12 12.098 12.078 12.073 12.095 12.135 12.173 12.203 12.2 12.175 12.155 12.138 12.115 12.088 12.063 12.038 12.013 11.988 11.963 11.93 11.92 11.94 11.965 11.977 11.912 11.773 11.643 11.598 11.612 11.625 11.635 11.625 11.58 11.533 11.517 11.522 11.535 11.595 11.655 11.678 11.73 11.81 11.89 11.967 12.017 12.043 12.075 12.098 12.103 12.11 12.117 12.122 12.115 12.095 12.07 12.035 11.993 11.95 11.913 11.885 11.878 11.888 11.905 11.923 11.948 11.998 12.065 12.135 12.2 12.263 12.327 12.392 12.432 12.445 12.458 12.475 12.48 12.473 12.468 12.468 12.505 12.575 12.64 12.695 12.762 12.8
13.463 13.43 13.405 13.375 13.345 13.317 13.29 13.265 13.245 13.225 13.205 13.185 13.168 13.16 13.147 13.123 13.097 13.067 13.033 13.005 12.985 12.973 12.987 13.002 12.99 12.97 12.958 12.953 12.948 12.945 12.96 13 13.053 13.105 13.02 12.903 13.058 13.443 14.34 15.567 15.847 15.573 15.55 15.854 15.832 14.735 13.601 13.143 13.02 12.92 12.845 12.798 12.755 12.715 12.69 12.688 12.7 12.72 12.74 12.77 12.823 12.887 12.95 13.015 13.108 13.232 13.33 13.38 13.41 13.42 13.425 13.425 13.407 13.375 13.313 13.263 13.263 13.272 13.282 13.302 13.325 13.342 13.34 13.312 13.28 13.25 13.217 13.185 13.15 13.11 13.073 13.042 13.022 13.005 12.98 12.942 12.895 12.845 12.79 12.735 12.695 12.67 12.645 12.605 12.547 12.48 12.425 12.382 12.338 12.295 12.245 12.185 12.14 12.12 12.108 12.09 12.083 12.098 12.128 12.165 12.202 12.23 12.225 12.198 12.17 12.143 12.118 12.095 12.078 12.06 12.035 12.01 11.98 11.935 11.92 11.94 11.962 11.97 11.892 11.755 11.648 11.603 11.608 11.617 11.617 11.59 11.505 11.4 11.328 11.283 11.32 11.468 11.62 11.69 11.735 11.81 11.89 11.97 12.022 12.053 12.098 12.132 12.133 12.123 12.123 12.13 12.125 12.105 12.072 12.02 11.97 11.933 11.905 11.89 11.88 11.875 11.883 11.9 11.915 11.938 11.988 12.055 12.122 12.188 12.253 12.32 12.372 12.4 12.425 12.457 12.47 12.455 12.435 12.438 12.485 12.55 12.597 12.645 12.755 12.83
13.458 13.435 13.41 13.38 13.35 13.323 13.298 13.273 13.25 13.23 13.21 13.193 13.183 13.177 13.162 13.137 13.107 13.073 13.04 13.008 12.978 12.958 12.97 13.005 13.02 13.01 12.995 12.99 12.985 12.978 12.99 13.03 13.077 13.117 13.118 13.193 13.415 13.873 15.007 15.997 15.53 14.881 14.88 15.205 15.854 15.777 14.643 13.548 13.105 12.978 12.903 12.853 12.81 12.77 12.743 12.73 12.728 12.74 12.76 12.778 12.808 12.863 12.935 13.035 13.173 13.315 13.41 13.475 13.535 13.577 13.59 13.567 13.53 13.485 13.417 13.343 13.305 13.305 13.31 13.315 13.32 13.317 13.302 13.275 13.245 13.215 13.177 13.13 13.085 13.045 13.008 12.973 12.943 12.92 12.898 12.868 12.827 12.78 12.725 12.668 12.615 12.578 12.548 12.512 12.47 12.413 12.358 12.315 12.273 12.228 12.18 12.138 12.118 12.113 12.105 12.098 12.105 12.13 12.163 12.197 12.23 12.255 12.25 12.222 12.195 12.165 12.14 12.12 12.1 12.08 12.057 12.027 11.985 11.935 11.918 11.932 11.945 11.95 11.88 11.763 11.673 11.613 11.6 11.602 11.592 11.57 11.497 11.385 11.288 11.213 11.235 11.363 11.523 11.662 11.742 11.81 11.89 11.97 12.027 12.073 12.13 12.177 12.18 12.153 12.138 12.14 12.135 12.105 12.055 11.995 11.948 11.923 11.91 11.9 11.89 11.88 11.873 11.88 11.895 11.905 11.928 11.98 12.047 12.113 12.183 12.26 12.32 12.365 12.407 12.445 12.46 12.445 12.425 12.423 12.46 12.507 12.538 12.59 12.747 12.86
13.462 13.44 13.415 13.385 13.357 13.33 13.305 13.28 13.255 13.233 13.215 13.205 13.2 13.195 13.177 13.15 13.115 13.077 13.045 13.012 12.98 12.95 12.955 12.995 13.03 13.042 13.032 13.022 13.015 13.008 13.023 13.063 13.108 13.153 13.255 13.405 13.603 14.305 15.53 15.854 15.205 14.88 14.88 14.88 15.205 15.832 15.687 14.538 13.493 13.068 12.958 12.91 12.868 12.825 12.795 12.78 12.767 12.763 12.775 12.792 12.813 12.858 12.955 13.1 13.257 13.397 13.48 13.52 13.557 13.592 13.61 13.607 13.6 13.575 13.51 13.42 13.342 13.31 13.307 13.302 13.292 13.277 13.26 13.235 13.208 13.18 13.137 13.083 13.03 12.983 12.948 12.92 12.89 12.865 12.838 12.803 12.765 12.72 12.665 12.608 12.55 12.5 12.46 12.425 12.39 12.345 12.298 12.253 12.21 12.17 12.14 12.125 12.115 12.11 12.108 12.115 12.137 12.165 12.197 12.23 12.26 12.282 12.275 12.245 12.215 12.185 12.16 12.14 12.12 12.102 12.077 12.035 11.985 11.935 11.91 11.915 11.92 11.922 11.875 11.783 11.698 11.623 11.59 11.583 11.568 11.55 11.503 11.425 11.36 11.308 11.288 11.345 11.465 11.608 11.725 11.81 11.89 11.97 12.037 12.097 12.162 12.22 12.232 12.205 12.177 12.16 12.137 12.09 12.03 11.973 11.935 11.925 11.92 11.912 11.902 11.89 11.878 11.87 11.875 11.885 11.895 11.92 11.975 12.053 12.138 12.225 12.282 12.32 12.372 12.425 12.447 12.435 12.415 12.405 12.422 12.45 12.473 12.535 12.72 12.87
13.462 13.437 13.412 13.385 13.36 13.337 13.315 13.29 13.265 13.245 13.223 13.203 13.195 13.19 13.17 13.14 13.107 13.075 13.045 13.015 12.982 12.95 12.955 12.995 13.035 13.06 13.057 13.045 13.035 13.035 13.06 13.1 13.148 13.215 13.328 13.473 13.865 14.937 15.934 15.53 14.88 14.88 14.88 14.88 14.88 15.205 15.797 15.587 14.435 13.443 13.1 13.045 12.98 12.91 12.848 12.813 12.795 12.78 12.785 12.805 12.828 12.875 12.99 13.15 13.302 13.407 13.447 13.46 13.467 13.472 13.49 13.517 13.542 13.545 13.485 13.385 13.305 13.272 13.27 13.262 13.247 13.233 13.217 13.197 13.172 13.145 13.102 13.048 12.993 12.953 12.923 12.895 12.873 12.85 12.82 12.78 12.743 12.7 12.648 12.59 12.53 12.473 12.428 12.393 12.355 12.313 12.27 12.225 12.183 12.155 12.145 12.143 12.135 12.13 12.13 12.14 12.165 12.195 12.222 12.242 12.262 12.285 12.28 12.25 12.22 12.192 12.172 12.16 12.145 12.127 12.1 12.058 12.01 11.96 11.923 11.913 11.915 11.915 11.877 11.797 11.715 11.635 11.59 11.578 11.563 11.545 11.54 11.52 11.47 11.415 11.38 11.4 11.483 11.598 11.715 11.812 11.89 11.97 12.045 12.112 12.177 12.23 12.24 12.215 12.185 12.162 12.135 12.085 12.025 11.97 11.93 11.915 11.912 11.91 11.905 11.892 11.88 11.868 11.87 11.885 11.895 11.905 11.94 12.02 12.115 12.207 12.26 12.27 12.31 12.375 12.405 12.395 12.375 12.362 12.372 12.393 12.41 12.48 12.675 12.862
13.458 13.432 13.408 13.383 13.363 13.345 13.325 13.3 13.28 13.272 13.242 13.195 13.17 13.16 13.14 13.11 13.085 13.067 13.045 13.015 12.983 12.955 12.963 13 13.04 13.067 13.07 13.06 13.058 13.07 13.1 13.14 13.198 13.28 13.395 13.598 14.33 15.539 15.839 15.205 14.88 14.88 14.88 14.88 14.88 14.88 15.205 15.764 15.484 14.323 13.458 13.198 13.107 13.012 12.92 12.848 12.808 12.79 12.795 12.815 12.843 12.895 13.01 13.165 13.27 13.302 13.312 13.325 13.333 13.34 13.36 13.385 13.405 13.41 13.355 13.265 13.215 13.205 13.21 13.212 13.202 13.188 13.173 13.157 13.137 13.11 13.067 13.015 12.975 12.958 12.932 12.895 12.868 12.845 12.815 12.778 12.745 12.71 12.662 12.605 12.547 12.49 12.443 12.405 12.362 12.315 12.27 12.228 12.195 12.18 12.175 12.175 12.172 12.168 12.168 12.175 12.193 12.22 12.242 12.248 12.248 12.265 12.265 12.235 12.208 12.188 12.175 12.172 12.167 12.15 12.127 12.1 12.06 12.01 11.965 11.938 11.928 11.925 11.885 11.805 11.725 11.648 11.603 11.59 11.572 11.55 11.567 11.6 11.58 11.528 11.493 11.485 11.525 11.625 11.735 11.82 11.893 11.97 12.047 12.117 12.172 12.202 12.197 12.17 12.148 12.145 12.135 12.092 12.035 11.98 11.93 11.895 11.885 11.885 11.887 11.885 11.872 11.863 11.875 11.9 11.917 11.93 11.955 12.013 12.095 12.19 12.237 12.228 12.248 12.3 12.327 12.325 12.31 12.3 12.315 12.342 12.357 12.427 12.417 12.317
13.455 13.428 13.403 13.383 13.368 13.352 13.335 13.318 13.31 13.307 13.275 13.215 13.165 13.135 13.113 13.088 13.07 13.06 13.042 13.015 12.988 12.963 12.968 13.005 13.045 13.077 13.085 13.08 13.09 13.11 13.14 13.188 13.26 13.35 13.465 13.903 14.995 15.949 15.53 14.88 14.88 14.88 14.88 14.88 14.88 14.88 14.88 15.205 15.727 15.362 14.208 13.43 13.195 13.1 13.01 12.92 12.845 12.805 12.805 12.83 12.863 12.915 13.025 13.132 13.162 13.158 13.165 13.183 13.198 13.21 13.228 13.247 13.262 13.272 13.23 13.165 13.14 13.135 13.14 13.15 13.152 13.145 13.13 13.115 13.1 13.075 13.035 12.998 12.98 12.972 12.95 12.91 12.87 12.84 12.81 12.778 12.75 12.72 12.675 12.618 12.562 12.508 12.46 12.415 12.365 12.315 12.27 12.238 12.22 12.21 12.205 12.205 12.205 12.203 12.205 12.215 12.228 12.247 12.262 12.26 12.25 12.25 12.245 12.223 12.2 12.183 12.173 12.175 12.177 12.167 12.15 12.13 12.102 12.06 12.015 11.978 11.95 11.937 11.895 11.815 11.735 11.66 11.618 11.6 11.577 11.553 11.563 11.625 11.665 11.64 11.605 11.59 11.595 11.658 11.752 11.83 11.9 11.973 12.05 12.115 12.147 12.16 12.152 12.133 12.128 12.137 12.13 12.092 12.042 11.99 11.94 11.895 11.865 11.855 11.86 11.865 11.86 11.858 11.875 11.905 11.932 11.952 11.98 12.025 12.088 12.17 12.207 12.19 12.193 12.222 12.242 12.247 12.245 12.24 12.255 12.29 12.212 11.96 11.66 11.458
13.46 13.428 13.403 13.39 13.375 13.36 13.35 13.345 13.345 13.34 13.305 13.245 13.185 13.133 13.098 13.078 13.065 13.055 13.043 13.02 12.995 12.973 12.978 13.015 13.055 13.09 13.105 13.112 13.13 13.15 13.185 13.25 13.332 13.42 13.613 14.383 15.564 15.827 15.205 14.88 14.88 14.88 14.88 14.88 14.88 14.88 14.88 14.88 15.258 15.734 15.23 14.08 13.385 13.19 13.1 13.01 12.92 12.843 12.825 12.858 12.89 12.933 12.992 13.023 13.023 13.023 13.03 13.048 13.065 13.083 13.098 13.11 13.123 13.135 13.118 13.088 13.075 13.068 13.07 13.08 13.09 13.095 13.088 13.073 13.058 13.04 13.018 13 12.992 12.987 12.965 12.925 12.882 12.845 12.813 12.783 12.757 12.73 12.687 12.632 12.575 12.52 12.47 12.417 12.365 12.318 12.283 12.263 12.25 12.24 12.235 12.235 12.238 12.24 12.245 12.255 12.265 12.277 12.28 12.27 12.257 12.245 12.235 12.22 12.2 12.18 12.17 12.175 12.18 12.18 12.17 12.15 12.13 12.102 12.065 12.025 11.988 11.957 11.905 11.825 11.745 11.67 11.628 11.605 11.58 11.555 11.558 11.62 11.697 11.727 11.715 11.7 11.69 11.71 11.772 11.842 11.907 11.975 12.045 12.09 12.102 12.11 12.112 12.112 12.12 12.13 12.12 12.085 12.045 12 11.953 11.908 11.865 11.835 11.83 11.838 11.843 11.853 11.875 11.905 11.937 11.968 12.003 12.048 12.098 12.155 12.175 12.158 12.148 12.153 12.163 12.168 12.173 12.183 12.213 12.26 11.977 11.405 11.14 11.14
13.475 13.438 13.41 13.397 13.383 13.37 13.365 13.365 13.365 13.36 13.33 13.275 13.215 13.155 13.105 13.078 13.065 13.055 13.057 13.058 13.038 13.018 13.018 13.043 13.078 13.11 13.122 13.13 13.152 13.175 13.155 13.19 13.32 13.45 13.905 14.985 15.927 15.53 14.88 14.88 14.88 14.88 14.88 14.88 14.88 14.88 14.88 14.88 14.933 15.467 15.847 15.102 13.955 13.343 13.19 13.1 13.01 12.91 12.873 12.905 12.932 12.947 12.948 12.945 12.948 12.953 12.965 12.985 13.005 13.023 13.035 13.045 13.055 13.07 13.078 13.07 13.06 13.05 13.048 13.055 13.065 13.068 13.06 13.048 13.035 13.025 13.015 13.005 12.997 12.99 12.967 12.93 12.89 12.85 12.815 12.788 12.762 12.73 12.69 12.64 12.58 12.525 12.47 12.415 12.368 12.328 12.305 12.292 12.28 12.275 12.278 12.28 12.285 12.293 12.293 12.295 12.305 12.315 12.302 12.278 12.26 12.245 12.235 12.22 12.2 12.177 12.163 12.162 12.165 12.17 12.165 12.145 12.125 12.112 12.095 12.06 12.02 11.98 11.92 11.838 11.755 11.68 11.633 11.608 11.583 11.558 11.565 11.628 11.71 11.78 11.805 11.792 11.777 11.765 11.775 11.82 11.88 11.945 12.005 12.03 12.035 12.042 12.055 12.072 12.09 12.11 12.105 12.07 12.032 11.997 11.965 11.927 11.883 11.843 11.83 11.84 11.848 11.855 11.878 11.91 11.943 11.993 12.053 12.103 12.147 12.167 12.158 12.143 12.128 12.12 12.123 12.128 12.138 12.165 12.208 12.26 11.86 11.285 11.14 11.14
13.492 13.45 13.418 13.403 13.39 13.38 13.375 13.375 13.372 13.367 13.345 13.3 13.245 13.185 13.13 13.09 13.068 13.055 13.075 13.112 13.112 13.095 13.09 13.1 13.123 13.15 13.145 13.12 13.13 13.142 13.042 12.935 13.065 13.465 14.343 15.525 15.81 15.205 14.88 14.88 14.88 14.88 14.88 14.88 14.88 14.88 14.88 14.88 14.88 15.09 15.74 15.919 14.98 13.836 13.3 13.188 13.092 12.98 12.935 12.962 12.972 12.952 12.935 12.935 12.935 12.938 12.953 12.982 13.01 13.027 13.04 13.05 13.065 13.09 13.105 13.1 13.087 13.075 13.073 13.077 13.08 13.07 13.055 13.045 13.035 13.022 13.01 13 12.993 12.985 12.965 12.93 12.89 12.85 12.818 12.792 12.76 12.715 12.675 12.635 12.58 12.523 12.468 12.418 12.375 12.343 12.325 12.315 12.308 12.31 12.325 12.34 12.35 12.357 12.352 12.343 12.345 12.352 12.33 12.29 12.265 12.248 12.235 12.22 12.197 12.17 12.15 12.14 12.138 12.142 12.135 12.115 12.103 12.103 12.097 12.072 12.035 11.995 11.935 11.852 11.768 11.688 11.635 11.61 11.593 11.588 11.615 11.68 11.76 11.825 11.852 11.847 11.83 11.805 11.78 11.78 11.82 11.885 11.932 11.947 11.955 11.96 11.975 12 12.025 12.057 12.062 12.03 11.99 11.962 11.955 11.945 11.912 11.873 11.86 11.867 11.867 11.865 11.883 11.918 11.965 12.048 12.132 12.187 12.205 12.175 12.148 12.137 12.125 12.118 12.118 12.128 12.15 12.19 12.23 12.27 11.94 11.363 11.14 11.14
13.502 13.458 13.425 13.41 13.4 13.388 13.38 13.38 13.377 13.372 13.352 13.315 13.27 13.215 13.16 13.115 13.08 13.06 13.088 13.15 13.177 13.172 13.17 13.175 13.185 13.202 13.185 13.13 13.1 13.067 12.937 12.753 12.943 13.728 14.93 15.899 15.53 14.88 14.88 14.88 14.88 14.88 14.88 14.88 14.88 14.88 14.88 14.88 14.88 14.88 15.205 15.854 15.849 14.807 13.705 13.27 13.165 13.045 12.995 13 12.98 12.948 12.928 12.925 12.925 12.925 12.94 12.975 13.007 13.03 13.048 13.063 13.085 13.115 13.13 13.125 13.11 13.095 13.095 13.095 13.082 13.065 13.05 13.04 13.03 13.018 13.005 12.995 12.988 12.98 12.96 12.927 12.892 12.855 12.822 12.79 12.745 12.695 12.655 12.62 12.575 12.52 12.468 12.428 12.39 12.36 12.345 12.338 12.335 12.34 12.36 12.387 12.41 12.42 12.415 12.4 12.39 12.387 12.362 12.318 12.28 12.253 12.235 12.217 12.19 12.16 12.138 12.123 12.115 12.115 12.108 12.095 12.095 12.1 12.092 12.072 12.045 12.007 11.945 11.865 11.78 11.695 11.64 11.625 11.633 11.658 11.698 11.758 11.825 11.862 11.872 11.875 11.867 11.847 11.82 11.793 11.788 11.825 11.857 11.865 11.873 11.878 11.895 11.922 11.95 11.982 11.99 11.965 11.933 11.91 11.915 11.93 11.93 11.905 11.888 11.887 11.88 11.875 11.89 11.94 12.025 12.13 12.217 12.247 12.212 12.158 12.135 12.13 12.12 12.113 12.115 12.138 12.178 12.222 12.262 12.297 12.175 11.698 11.25 11.14
13.51 13.465 13.435 13.42 13.41 13.395 13.385 13.385 13.382 13.377 13.36 13.325 13.285 13.24 13.192 13.147 13.105 13.078 13.105 13.177 13.23 13.245 13.245 13.247 13.25 13.255 13.23 13.167 13.105 13.01 12.848 12.793 13.223 14.253 15.482 15.8 15.205 14.88 14.88 14.88 14.88 14.88 14.88 14.88 14.88 14.88 14.88 14.88 14.88 14.88 14.88 15.205 15.824 15.589 14.377 13.495 13.238 13.107 13.03 13.005 12.97 12.94 12.925 12.925 12.923 12.92 12.938 12.973 13.008 13.035 13.058 13.083 13.11 13.14 13.155 13.147 13.132 13.117 13.107 13.095 13.077 13.06 13.045 13.035 13.025 13.015 13.005 12.995 12.985 12.972 12.95 12.92 12.89 12.857 12.82 12.775 12.725 12.678 12.638 12.6 12.563 12.52 12.478 12.445 12.41 12.378 12.365 12.365 12.368 12.375 12.395 12.425 12.457 12.475 12.467 12.452 12.437 12.422 12.395 12.35 12.305 12.265 12.235 12.21 12.18 12.15 12.125 12.11 12.1 12.093 12.088 12.088 12.092 12.097 12.09 12.07 12.05 12.02 11.96 11.878 11.793 11.708 11.665 11.678 11.708 11.745 11.785 11.83 11.87 11.89 11.895 11.898 11.898 11.887 11.862 11.827 11.795 11.79 11.798 11.798 11.8 11.8 11.815 11.845 11.875 11.907 11.915 11.895 11.87 11.855 11.868 11.89 11.91 11.915 11.907 11.9 11.89 11.883 11.913 11.998 12.105 12.215 12.28 12.26 12.198 12.143 12.12 12.118 12.11 12.108 12.123 12.16 12.21 12.255 12.295 12.325 12.33 12.09 11.498 11.213
13.518 13.475 13.448 13.433 13.42 13.405 13.393 13.39 13.385 13.38 13.365 13.33 13.293 13.257 13.22 13.175 13.13 13.105 13.135 13.207 13.262 13.28 13.28 13.28 13.28 13.277 13.245 13.18 13.087 12.94 12.758 12.918 13.67 14.882 15.887 15.53 14.88 14.88 14.88 14.88 14.88 14.88 14.88 14.88 14.88 14.88 14.88 14.88 14.88 14.88 14.88 14.88 15.53 15.797 14.71 13.65 13.218 13.09 13.025 12.992 12.96 12.94 12.948 12.963 12.96 12.955 12.975 13.01 13.04 13.06 13.075 13.1 13.13 13.16 13.175 13.165 13.15 13.13 13.105 13.085 13.07 13.057 13.043 13.03 13.02 13.01 13 12.99 12.977 12.96 12.937 12.91 12.88 12.85 12.81 12.76 12.713 12.675 12.643 12.605 12.568 12.533 12.5 12.47 12.438 12.41 12.405 12.413 12.42 12.43 12.45 12.48 12.505 12.505 12.49 12.48 12.465 12.445 12.415 12.37 12.325 12.28 12.235 12.198 12.165 12.135 12.113 12.1 12.087 12.078 12.075 12.08 12.085 12.09 12.085 12.065 12.045 12.025 11.982 11.908 11.823 11.748 11.728 11.755 11.79 11.83 11.87 11.902 11.925 11.943 11.95 11.95 11.942 11.915 11.875 11.837 11.808 11.793 11.788 11.783 11.78 11.768 11.768 11.793 11.82 11.85 11.858 11.84 11.82 11.818 11.843 11.87 11.89 11.91 11.915 11.905 11.895 11.893 11.958 12.075 12.185 12.295 12.335 12.283 12.213 12.148 12.115 12.115 12.113 12.133 12.168 12.198 12.24 12.287 12.325 12.34 12.335 12.285 12.108 12.088
13.525 13.485 13.46 13.447 13.432 13.415 13.4 13.392 13.385 13.38 13.365 13.33 13.3 13.277 13.242 13.198 13.158 13.138 13.17 13.232 13.267 13.277 13.28 13.277 13.275 13.27 13.235 13.155 13.02 12.84 12.78 13.185 14.21 15.467 15.799 15.205 14.88 14.88 14.88 14.88 14.88 14.88 14.88 14.88 14.88 14.88 14.88 14.88 14.88 14.88 14.88 14.88 15.53 15.699 14.485 13.463 13.11 13.033 13.005 12.975 12.958 12.96 12.985 13.017 13.027 13.025 13.045 13.077 13.092 13.095 13.1 13.115 13.14 13.17 13.185 13.175 13.155 13.125 13.095 13.075 13.06 13.052 13.04 13.023 13.01 13 12.99 12.977 12.96 12.938 12.917 12.897 12.87 12.84 12.8 12.753 12.715 12.69 12.665 12.63 12.595 12.565 12.535 12.503 12.478 12.468 12.47 12.478 12.485 12.495 12.517 12.545 12.542 12.51 12.49 12.485 12.472 12.455 12.425 12.38 12.335 12.29 12.24 12.19 12.15 12.12 12.098 12.085 12.073 12.065 12.065 12.07 12.075 12.08 12.075 12.055 12.038 12.025 12.007 11.952 11.868 11.818 11.82 11.843 11.873 11.91 11.95 11.98 11.998 12.017 12.027 12.02 11.987 11.922 11.868 11.838 11.82 11.815 11.812 11.807 11.792 11.76 11.753 11.775 11.798 11.82 11.822 11.808 11.795 11.795 11.827 11.87 11.895 11.912 11.915 11.908 11.908 11.92 12.003 12.14 12.262 12.375 12.405 12.34 12.257 12.173 12.13 12.13 12.148 12.205 12.252 12.268 12.29 12.325 12.353 12.368 12.383 12.4 12.642 12.909
13.535 13.498 13.473 13.457 13.44 13.42 13.405 13.395 13.385 13.38 13.365 13.335 13.315 13.3 13.265 13.225 13.195 13.173 13.198 13.242 13.26 13.27 13.275 13.272 13.268 13.262 13.22 13.1 12.917 12.783 12.98 13.67 14.86 15.884 15.53 14.88 14.88 14.88 14.88 14.88 14.88 14.88 14.88 14.88 14.88 14.88 14.88 14.88 14.88 14.88 14.88 15.205 15.767 15.307 14.02 13.25 13.045 13.013 12.99 12.97 12.975 12.99 13.015 13.055 13.085 13.097 13.115 13.132 13.13 13.125 13.13 13.14 13.158 13.182 13.195 13.182 13.152 13.115 13.085 13.068 13.055 13.048 13.037 13.02 13.005 12.993 12.98 12.962 12.94 12.915 12.895 12.88 12.857 12.83 12.793 12.755 12.733 12.715 12.69 12.658 12.628 12.6 12.57 12.545 12.535 12.535 12.54 12.545 12.55 12.56 12.58 12.587 12.557 12.515 12.49 12.483 12.477 12.465 12.432 12.387 12.342 12.297 12.247 12.193 12.143 12.105 12.083 12.07 12.06 12.053 12.053 12.06 12.067 12.072 12.065 12.048 12.033 12.02 12.017 11.987 11.925 11.903 11.92 11.94 11.963 11.993 12.027 12.055 12.072 12.092 12.1 12.067 11.997 11.915 11.863 11.845 11.84 11.84 11.837 11.822 11.787 11.745 11.738 11.76 11.78 11.797 11.797 11.785 11.775 11.768 11.798 11.857 11.897 11.912 11.915 11.92 11.935 11.955 12.033 12.175 12.317 12.447 12.472 12.39 12.295 12.198 12.15 12.163 12.215 12.295 12.347 12.365 12.375 12.4 12.433 12.465 12.505 12.528 12.722 12.905
13.548 13.513 13.485 13.465 13.445 13.425 13.41 13.4 13.39 13.383 13.37 13.35 13.335 13.32 13.29 13.26 13.235 13.21 13.218 13.243 13.255 13.265 13.27 13.268 13.263 13.257 13.172 12.985 12.775 12.83 13.288 14.22 15.46 15.797 15.205 14.88 14.88 14.88 14.88 14.88 14.88 14.88 14.88 14.88 14.88 14.88 14.88 14.88 14.88 14.88 14.9 15.55 15.807 14.658 13.563 13.15 13.035 13.005 12.988 12.988 13.002 13.018 13.045 13.085 13.125 13.157 13.172 13.17 13.16 13.155 13.16 13.17 13.185 13.203 13.205 13.183 13.148 13.11 13.08 13.065 13.055 13.045 13.035 13.02 13.003 12.987 12.97 12.945 12.918 12.893 12.873 12.858 12.84 12.82 12.795 12.77 12.755 12.74 12.717 12.69 12.66 12.633 12.613 12.605 12.605 12.605 12.607 12.612 12.62 12.627 12.625 12.6 12.56 12.52 12.49 12.477 12.472 12.462 12.432 12.39 12.345 12.3 12.255 12.203 12.148 12.098 12.068 12.058 12.05 12.043 12.043 12.05 12.058 12.063 12.058 12.045 12.03 12.015 12.013 12.007 11.995 12 12.02 12.04 12.06 12.083 12.107 12.125 12.137 12.152 12.14 12.075 11.987 11.908 11.865 11.86 11.86 11.86 11.85 11.817 11.773 11.733 11.723 11.74 11.76 11.775 11.775 11.765 11.753 11.74 11.765 11.83 11.89 11.92 11.933 11.95 11.97 11.99 12.058 12.162 12.257 12.35 12.385 12.36 12.31 12.228 12.183 12.22 12.3 12.385 12.44 12.468 12.493 12.528 12.573 12.615 12.647 12.655 12.757 12.855
13.56 13.528 13.503 13.485 13.465 13.445 13.428 13.415 13.405 13.395 13.375 13.352 13.337 13.322 13.3 13.275 13.25 13.235 13.24 13.253 13.265 13.278 13.28 13.273 13.27 13.252 13.102 12.838 12.735 13.028 13.705 14.845 15.874 15.53 14.88 14.88 14.88 14.88 14.88 14.88 14.88 14.88 14.88 14.88 14.88 14.88 14.88 14.88 14.88 14.88 15.225 15.774 15.312 14.055 13.298 13.098 13.048 13.013 12.998 13.007 13.023 13.043 13.078 13.12 13.163 13.202 13.215 13.205 13.195 13.19 13.195 13.208 13.225 13.24 13.235 13.205 13.17 13.135 13.1 13.075 13.06 13.053 13.04 13.02 13 12.983 12.962 12.935 12.905 12.878 12.855 12.84 12.825 12.81 12.795 12.777 12.762 12.745 12.73 12.715 12.69 12.665 12.655 12.655 12.655 12.655 12.657 12.662 12.67 12.667 12.637 12.595 12.555 12.515 12.483 12.462 12.45 12.44 12.415 12.372 12.33 12.3 12.28 12.245 12.193 12.135 12.09 12.073 12.065 12.06 12.06 12.065 12.07 12.073 12.07 12.058 12.043 12.028 12.023 12.01 12.057 12.13 12.15 12.17 12.19 12.202 12.175 12.13 12.12 12.127 12.095 12.017 11.938 11.888 11.875 11.875 11.875 11.877 11.857 11.815 11.77 11.728 11.718 11.733 11.753 11.765 11.758 11.75 11.758 11.778 11.82 11.885 11.95 11.993 12.013 12.03 12.048 12.063 12.1 12.143 12.17 12.198 12.228 12.258 12.265 12.258 12.278 12.343 12.428 12.51 12.568 12.602 12.637 12.675 12.717 12.76 12.78 12.722 12.547 12.29
13.57 13.543 13.525 13.515 13.497 13.475 13.455 13.438 13.425 13.415 13.385 13.345 13.32 13.305 13.285 13.26 13.248 13.253 13.267 13.28 13.293 13.312 13.312 13.295 13.29 13.247 13.055 12.82 12.893 13.315 14.205 15.44 15.789 15.205 14.88 14.88 14.88 14.88 14.88 14.88 14.88 14.88 14.88 14.88 14.88 14.88 14.88 14.88 14.88 14.99 15.64 15.794 14.66 13.605 13.208 13.095 13.06 13.025 13.01 13.02 13.04 13.07 13.11 13.16 13.207 13.245 13.255 13.245 13.243 13.25 13.255 13.26 13.275 13.292 13.287 13.255 13.22 13.185 13.145 13.105 13.078 13.067 13.05 13.023 13 12.98 12.958 12.932 12.905 12.875 12.85 12.833 12.815 12.8 12.785 12.77 12.755 12.738 12.73 12.73 12.717 12.695 12.685 12.685 12.685 12.685 12.69 12.697 12.695 12.675 12.632 12.583 12.54 12.5 12.465 12.438 12.42 12.407 12.38 12.343 12.318 12.31 12.31 12.3 12.262 12.205 12.158 12.128 12.11 12.103 12.103 12.107 12.107 12.105 12.1 12.085 12.068 12.05 12.042 11.995 12.03 12.207 12.31 12.327 12.345 12.325 12.227 12.105 12.04 12.032 11.997 11.925 11.878 11.875 11.887 11.89 11.89 11.892 11.872 11.827 11.78 11.738 11.735 11.77 11.79 11.793 11.798 11.81 11.848 11.903 11.96 12.02 12.075 12.115 12.135 12.147 12.16 12.17 12.185 12.2 12.215 12.23 12.248 12.283 12.33 12.398 12.48 12.56 12.64 12.717 12.772 12.725 12.545 12.283 12.123 12.205 12.363 12.418 12.315 12.143
13.585 13.56 13.545 13.54 13.53 13.51 13.49 13.47 13.453 13.437 13.405 13.355 13.313 13.288 13.27 13.258 13.265 13.28 13.293 13.31 13.333 13.357 13.355 13.328 13.312 13.24 13.073 12.97 13.135 13.7 14.802 15.844 15.53 14.88 14.88 14.88 14.88 14.88 14.88 14.88 14.88 14.88 14.88 14.88 14.88 14.88 14.88 14.88 14.88 15.315 15.844 15.297 14.073 13.34 13.158 13.108 13.072 13.035 13.02 13.035 13.065 13.1 13.14 13.195 13.247 13.285 13.297 13.3 13.315 13.335 13.34 13.333 13.335 13.347 13.34 13.305 13.27 13.235 13.195 13.15 13.11 13.085 13.06 13.03 13.003 12.98 12.955 12.93 12.905 12.875 12.85 12.83 12.808 12.79 12.775 12.76 12.748 12.733 12.728 12.735 12.735 12.722 12.715 12.715 12.715 12.715 12.72 12.72 12.702 12.675 12.63 12.575 12.528 12.483 12.445 12.418 12.395 12.375 12.35 12.333 12.33 12.33 12.33 12.33 12.317 12.277 12.233 12.195 12.165 12.148 12.143 12.145 12.142 12.137 12.13 12.115 12.092 12.07 12.042 11.957 11.885 12.135 12.432 12.482 12.477 12.405 12.28 12.135 12.003 11.945 11.91 11.87 11.87 11.89 11.902 11.905 11.905 11.905 11.885 11.84 11.803 11.79 11.808 11.855 11.89 11.913 11.938 11.953 11.987 12.035 12.072 12.107 12.14 12.172 12.22 12.257 12.27 12.28 12.293 12.308 12.33 12.367 12.42 12.49 12.57 12.585 12.447 12.225 12.008 11.998 12.178 12.263 12.22 12.093 12.031 12.188 12.395 12.498 12.57 12.687
13.605 13.58 13.565 13.56 13.555 13.542 13.525 13.505 13.485 13.462 13.425 13.372 13.32 13.288 13.278 13.28 13.295 13.31 13.323 13.345 13.375 13.402 13.4 13.37 13.345 13.295 13.235 13.225 13.415 14.24 15.447 15.77 15.205 14.88 14.88 14.88 14.88 14.88 14.88 14.88 14.88 14.88 14.88 14.88 14.88 14.88 14.88 14.88 15.013 15.662 15.754 14.63 13.633 13.255 13.158 13.123 13.085 13.045 13.035 13.06 13.095 13.13 13.17 13.222 13.277 13.322 13.347 13.37 13.397 13.42 13.425 13.415 13.407 13.405 13.39 13.355 13.317 13.282 13.245 13.203 13.158 13.118 13.08 13.045 13.013 12.983 12.955 12.928 12.903 12.875 12.85 12.828 12.803 12.783 12.768 12.755 12.745 12.73 12.725 12.735 12.74 12.74 12.742 12.745 12.745 12.745 12.742 12.725 12.698 12.67 12.628 12.578 12.53 12.48 12.44 12.415 12.39 12.365 12.35 12.348 12.35 12.35 12.35 12.35 12.35 12.337 12.305 12.265 12.227 12.195 12.18 12.18 12.177 12.17 12.155 12.135 12.112 12.087 12.025 11.905 11.77 11.968 12.43 12.625 12.572 12.463 12.338 12.198 12.04 11.933 11.9 11.9 11.908 11.915 11.918 11.915 11.918 11.92 11.91 11.89 11.883 11.898 11.935 11.995 12.055 12.102 12.122 12.107 12.092 12.087 12.092 12.108 12.128 12.155 12.222 12.307 12.36 12.387 12.41 12.45 12.352 12.133 11.938 11.87 12 12.133 12.108 11.983 11.853 11.936 12.175 12.345 12.495 12.647 12.745 12.787 12.787 12.732 12.722 12.802
13.625 13.603 13.59 13.583 13.575 13.56 13.537 13.515 13.495 13.47 13.43 13.377 13.33 13.315 13.33 13.345 13.355 13.365 13.36 13.355 13.38 13.417 13.415 13.372 13.335 13.337 13.385 13.443 13.72 14.685 15.789 15.53 14.881 14.88 14.88 14.88 14.88 14.88 14.88 14.88 14.88 14.88 14.88 14.88 14.88 14.88 14.88 14.88 15.337 15.864 15.267 14.075 13.423 13.258 13.2 13.163 13.125 13.085 13.073 13.095 13.13 13.16 13.193 13.24 13.292 13.342 13.38 13.41 13.437 13.455 13.457 13.45 13.442 13.437 13.425 13.395 13.357 13.323 13.292 13.26 13.215 13.17 13.118 13.068 13.03 12.995 12.965 12.935 12.91 12.883 12.853 12.828 12.803 12.78 12.768 12.76 12.75 12.738 12.733 12.738 12.743 12.75 12.757 12.762 12.765 12.762 12.747 12.722 12.695 12.665 12.632 12.592 12.545 12.495 12.458 12.433 12.408 12.39 12.385 12.383 12.38 12.37 12.357 12.355 12.355 12.355 12.347 12.32 12.28 12.243 12.223 12.22 12.212 12.192 12.162 12.133 12.11 12.082 11.997 11.863 11.848 12.133 12.325 12.37 12.527 12.54 12.423 12.295 12.145 12.053 12.078 12.128 12.138 12.135 12.13 12.12 12.067 11.99 11.968 11.98 11.992 12.008 12.053 12.14 12.23 12.282 12.272 12.22 12.155 12.105 12.1 12.115 12.152 12.212 12.197 12.065 11.903 11.77 11.803 11.995 12.045 11.958 11.88 11.928 12.098 12.26 12.413 12.547 12.672 12.8 12.882 12.902 12.905 12.91 12.865 12.757 12.645 12.57 12.608 12.74
13.648 13.628 13.618 13.61 13.592 13.565 13.535 13.508 13.485 13.462 13.423 13.378 13.358 13.37 13.405 13.435 13.447 13.452 13.425 13.378 13.36 13.368 13.355 13.315 13.28 13.29 13.37 13.478 13.8 14.685 15.739 15.677 15.028 14.88 14.88 14.88 14.88 14.88 14.88 14.88 14.88 14.88 14.88 14.88 14.88 14.88 14.88 14.88 15.53 15.762 14.645 13.748 13.46 13.335 13.275 13.233 13.195 13.155 13.13 13.14 13.167 13.182 13.203 13.245 13.295 13.345 13.385 13.415 13.437 13.445 13.445 13.44 13.435 13.437 13.437 13.422 13.392 13.358 13.332 13.312 13.275 13.23 13.17 13.103 13.053 13.015 12.985 12.955 12.927 12.895 12.86 12.833 12.808 12.785 12.775 12.772 12.762 12.75 12.745 12.745 12.748 12.755 12.762 12.767 12.77 12.765 12.745 12.717 12.69 12.66 12.635 12.607 12.565 12.518 12.483 12.458 12.438 12.43 12.43 12.427 12.412 12.38 12.355 12.345 12.34 12.343 12.35 12.347 12.32 12.285 12.265 12.257 12.24 12.205 12.165 12.128 12.097 12.057 11.963 11.998 12.23 12.447 12.162 11.885 12.15 12.457 12.535 12.413 12.288 12.255 12.35 12.46 12.522 12.525 12.457 12.35 12.197 12.063 12.04 12.065 12.085 12.1 12.148 12.245 12.322 12.337 12.297 12.237 12.14 11.94 11.703 11.598 11.688 11.863 11.948 11.89 11.805 11.791 11.963 12.203 12.368 12.527 12.682 12.827 12.882 12.87 12.865 12.86 12.855 12.852 12.855 12.86 12.87 12.877 12.822 12.715 12.633 12.595 12.615 12.705
13.673 13.655 13.645 13.632 13.6 13.565 13.535 13.505 13.478 13.455 13.423 13.4 13.413 13.44 13.475 13.512 13.537 13.542 13.512 13.455 13.395 13.34 13.29 13.255 13.23 13.23 13.3 13.415 13.61 14.22 15.272 15.837 15.385 14.913 14.88 14.88 14.88 14.88 14.88 14.88 14.88 14.88 14.88 14.88 14.88 14.88 14.88 15.205 15.762 15.325 14.158 13.635 13.527 13.413 13.355 13.305 13.263 13.222 13.185 13.182 13.195 13.193 13.208 13.25 13.3 13.35 13.39 13.415 13.43 13.435 13.435 13.433 13.43 13.433 13.435 13.432 13.42 13.392 13.368 13.355 13.332 13.292 13.23 13.155 13.088 13.038 13.005 12.975 12.942 12.905 12.87 12.84 12.813 12.79 12.78 12.78 12.775 12.765 12.76 12.758 12.755 12.76 12.767 12.767 12.765 12.762 12.745 12.712 12.68 12.653 12.63 12.61 12.582 12.542 12.508 12.488 12.478 12.473 12.47 12.457 12.422 12.38 12.355 12.34 12.328 12.328 12.338 12.35 12.35 12.327 12.305 12.285 12.25 12.21 12.17 12.13 12.093 12.08 12.098 12.292 12.565 12.357 11.89 11.72 11.788 12.058 12.432 12.54 12.423 12.422 12.52 12.612 12.692 12.712 12.585 12.37 12.185 12.098 12.11 12.14 12.167 12.187 12.23 12.282 12.162 11.873 11.68 11.7 11.778 11.738 11.631 11.651 11.855 12.125 12.32 12.437 12.572 12.732 12.895 12.975 12.97 12.96 12.95 12.917 12.858 12.818 12.805 12.803 12.805 12.81 12.82 12.828 12.835 12.837 12.783 12.705 12.67 12.655 12.66 12.703
13.7 13.685 13.667 13.64 13.6 13.565 13.535 13.505 13.475 13.452 13.442 13.452 13.48 13.51 13.545 13.582 13.615 13.625 13.585 13.512 13.435 13.35 13.27 13.218 13.183 13.17 13.23 13.342 13.45 13.703 14.425 15.424 15.749 15.238 14.88 14.88 14.88 14.88 14.88 14.88 14.88 14.88 14.88 14.88 14.88 14.88 14.88 15.53 15.817 14.733 13.843 13.655 13.577 13.49 13.435 13.382 13.332 13.287 13.238 13.213 13.21 13.2 13.213 13.255 13.305 13.355 13.392 13.41 13.418 13.422 13.425 13.427 13.43 13.43 13.43 13.43 13.43 13.417 13.4 13.39 13.377 13.35 13.29 13.215 13.14 13.073 13.028 12.993 12.955 12.915 12.88 12.85 12.82 12.793 12.78 12.78 12.78 12.777 12.775 12.772 12.768 12.767 12.767 12.763 12.76 12.757 12.74 12.708 12.675 12.648 12.625 12.605 12.585 12.557 12.535 12.525 12.52 12.515 12.497 12.462 12.42 12.38 12.355 12.343 12.328 12.318 12.325 12.343 12.357 12.355 12.332 12.297 12.255 12.213 12.173 12.14 12.113 12.158 12.307 12.492 12.472 12.04 11.72 11.72 11.72 11.755 12.005 12.42 12.555 12.488 12.478 12.493 12.545 12.575 12.507 12.345 12.197 12.157 12.182 12.145 11.997 11.738 11.663 11.81 11.813 11.686 11.661 11.84 12.11 12.325 12.457 12.575 12.705 12.832 12.89 12.897 12.945 12.997 13.012 13.002 12.987 12.972 12.95 12.9 12.833 12.78 12.76 12.765 12.775 12.783 12.79 12.798 12.805 12.805 12.775 12.742 12.727 12.712 12.712 12.73
13.712 13.695 13.66 13.617 13.582 13.55 13.517 13.482 13.45 13.425 13.437 13.485 13.537 13.58 13.612 13.632 13.645 13.647 13.602 13.52 13.427 13.335 13.258 13.198 13.148 13.115 13.158 13.263 13.365 13.46 13.735 14.508 15.499 15.739 15.205 14.88 14.88 14.88 14.88 14.88 14.88 14.88 14.88 14.88 14.88 14.88 15.205 15.794 15.402 14.23 13.7 13.665 13.625 13.552 13.477 13.43 13.377 13.332 13.275 13.233 13.225 13.215 13.225 13.265 13.315 13.362 13.392 13.405 13.41 13.407 13.397 13.392 13.397 13.4 13.4 13.4 13.4 13.395 13.387 13.38 13.372 13.37 13.337 13.267 13.19 13.115 13.06 13.02 12.98 12.935 12.895 12.865 12.835 12.805 12.79 12.79 12.79 12.788 12.785 12.785 12.78 12.77 12.763 12.76 12.757 12.747 12.73 12.705 12.675 12.648 12.625 12.603 12.583 12.565 12.555 12.55 12.542 12.532 12.502 12.46 12.42 12.39 12.373 12.36 12.345 12.33 12.335 12.355 12.367 12.36 12.33 12.29 12.25 12.218 12.203 12.193 12.178 12.248 12.42 12.592 12.267 11.793 11.72 11.72 11.72 11.72 11.73 11.975 12.422 12.57 12.46 12.398 12.37 12.323 12.203 12.015 11.835 11.675 11.64 11.723 11.74 11.651 11.733 12.03 12.293 12.45 12.58 12.757 12.91 12.987 12.93 12.85 12.825 12.813 12.828 12.883 12.96 13.027 13.04 13.018 13.002 12.985 12.957 12.908 12.845 12.793 12.778 12.79 12.798 12.803 12.81 12.82 12.825 12.805 12.777 12.76 12.745 12.72 12.697 12.705
13.702 13.685 13.637 13.58 13.545 13.512 13.475 13.435 13.398 13.363 13.38 13.45 13.522 13.582 13.607 13.605 13.602 13.595 13.56 13.497 13.412 13.32 13.245 13.185 13.133 13.1 13.14 13.24 13.34 13.433 13.513 13.788 14.583 15.564 15.759 15.205 14.88 14.88 14.88 14.88 14.88 14.88 14.88 14.88 14.88 14.88 15.53 15.882 14.833 13.905 13.738 13.765 13.73 13.542 13.39 13.352 13.332 13.33 13.287 13.245 13.242 13.235 13.245 13.285 13.33 13.367 13.392 13.405 13.405 13.382 13.35 13.33 13.328 13.33 13.33 13.33 13.33 13.327 13.322 13.318 13.325 13.352 13.35 13.3 13.232 13.158 13.1 13.06 13.015 12.96 12.915 12.885 12.855 12.825 12.81 12.81 12.807 12.803 12.8 12.797 12.787 12.77 12.76 12.757 12.747 12.73 12.715 12.7 12.677 12.652 12.63 12.608 12.59 12.578 12.568 12.56 12.547 12.53 12.5 12.46 12.433 12.425 12.413 12.393 12.375 12.363 12.368 12.382 12.38 12.35 12.31 12.27 12.243 12.243 12.26 12.27 12.263 12.348 12.532 12.417 11.965 11.72 11.72 11.72 11.72 11.72 11.72 11.72 12.09 12.547 12.577 12.465 12.353 12.228 12.04 11.826 11.746 11.748 11.861 12.153 12.442 12.637 12.812 12.99 13.06 12.967 12.873 12.982 13.107 13.102 12.98 12.805 12.74 12.768 12.835 12.918 13.005 13.072 13.072 13.038 13.018 13 12.98 12.95 12.9 12.848 12.838 12.855 12.863 12.87 12.88 12.887 12.867 12.807 12.76 12.74 12.715 12.67 12.623 12.615
13.693 13.672 13.622 13.555 13.505 13.467 13.428 13.385 13.345 13.305 13.315 13.378 13.443 13.505 13.53 13.528 13.532 13.527 13.497 13.447 13.385 13.305 13.233 13.185 13.155 13.148 13.198 13.285 13.365 13.44 13.5 13.545 13.818 14.645 15.627 15.782 15.205 14.88 14.88 14.88 14.88 14.88 14.88 14.88 14.88 15.205 15.827 15.497 14.343 13.845 13.92 14.022 13.91 13.485 13.23 13.235 13.263 13.302 13.287 13.255 13.255 13.253 13.265 13.3 13.335 13.365 13.39 13.4 13.382 13.34 13.3 13.273 13.258 13.255 13.255 13.255 13.255 13.255 13.25 13.255 13.285 13.327 13.337 13.305 13.26 13.197 13.138 13.092 13.04 12.98 12.935 12.905 12.875 12.845 12.83 12.83 12.825 12.818 12.815 12.807 12.79 12.77 12.757 12.747 12.73 12.71 12.695 12.685 12.672 12.652 12.63 12.613 12.6 12.59 12.58 12.567 12.547 12.525 12.498 12.473 12.47 12.475 12.46 12.433 12.408 12.395 12.4 12.397 12.37 12.33 12.29 12.265 12.27 12.295 12.322 12.34 12.343 12.447 12.527 12.11 11.72 11.72 11.72 11.72 11.72 11.72 11.72 11.72 12.1 12.575 12.625 12.52 12.405 12.358 12.453 12.625 12.772 12.887 12.992 13.095 13.18 13.212 13.247 13.31 13.287 13.197 13.133 13.12 13.177 13.207 13.078 12.895 12.818 12.843 12.905 12.978 13.065 13.125 13.117 13.075 13.037 13.012 12.997 12.98 12.947 12.903 12.893 12.915 12.93 12.94 12.947 12.937 12.877 12.79 12.74 12.71 12.662 12.605 12.55 12.53
13.688 13.662 13.613 13.54 13.473 13.423 13.385 13.348 13.313 13.278 13.28 13.33 13.393 13.448 13.467 13.465 13.467 13.462 13.432 13.385 13.335 13.283 13.243 13.225 13.22 13.225 13.253 13.3 13.355 13.415 13.467 13.51 13.548 13.841 14.713 15.692 15.802 15.205 14.88 14.88 14.88 14.88 14.88 14.88 14.88 15.53 15.944 14.943 14.013 13.89 14.035 14.297 14.172 13.548 13.198 13.205 13.238 13.275 13.282 13.268 13.265 13.265 13.278 13.305 13.335 13.365 13.387 13.38 13.34 13.29 13.25 13.22 13.198 13.185 13.18 13.18 13.18 13.18 13.188 13.218 13.26 13.305 13.322 13.295 13.26 13.217 13.165 13.115 13.06 13 12.955 12.925 12.895 12.865 12.847 12.842 12.837 12.83 12.822 12.807 12.785 12.765 12.747 12.73 12.71 12.69 12.675 12.668 12.66 12.65 12.638 12.625 12.613 12.6 12.588 12.567 12.543 12.52 12.505 12.508 12.52 12.527 12.512 12.48 12.45 12.43 12.418 12.39 12.35 12.31 12.288 12.298 12.325 12.358 12.387 12.407 12.413 12.532 12.415 11.955 11.738 11.733 11.723 11.72 11.72 11.72 11.721 11.811 12.288 12.64 12.735 12.995 13.09 13.083 13.227 13.425 13.445 13.33 13.225 13.165 13.173 13.225 13.267 13.29 13.315 13.34 13.37 13.302 13.27 13.315 13.237 13.137 13.082 13.06 13.08 13.122 13.15 13.137 13.092 13.027 12.967 12.942 12.947 12.95 12.947 12.94 12.947 12.972 12.992 13.005 13.005 12.96 12.867 12.77 12.705 12.657 12.6 12.54 12.483 12.45
13.68 13.673 13.635 13.56 13.485 13.42 13.375 13.34 13.31 13.28 13.273 13.313 13.377 13.42 13.425 13.415 13.408 13.398 13.368 13.335 13.315 13.305 13.303 13.3 13.3 13.305 13.31 13.323 13.353 13.393 13.435 13.475 13.512 13.55 13.866 14.775 15.754 15.824 15.205 14.88 14.88 14.88 14.88 14.88 15.205 15.854 15.58 14.413 13.85 13.86 14.085 14.602 14.672 13.91 13.3 13.235 13.255 13.28 13.288 13.275 13.27 13.268 13.278 13.305 13.332 13.36 13.38 13.365 13.32 13.27 13.23 13.2 13.17 13.138 13.12 13.12 13.12 13.118 13.138 13.182 13.227 13.267 13.287 13.277 13.247 13.212 13.167 13.115 13.063 13.015 12.978 12.945 12.915 12.885 12.855 12.835 12.83 12.825 12.812 12.792 12.77 12.75 12.735 12.72 12.7 12.68 12.673 12.673 12.668 12.663 12.655 12.645 12.635 12.628 12.603 12.568 12.545 12.525 12.525 12.545 12.56 12.572 12.562 12.53 12.498 12.478 12.468 12.44 12.398 12.355 12.348 12.375 12.405 12.438 12.44 12.403 12.52 12.812 12.608 12.016 11.781 11.778 11.788 11.821 12.033 12.435 12.762 12.96 13.16 13.263 13.367 13.622 13.73 13.68 13.627 13.515 13.338 13.19 13.115 13.13 13.195 13.26 13.275 13.238 13.218 13.23 13.265 13.307 13.345 13.355 13.335 13.305 13.275 13.25 13.21 13.16 13.092 13.005 12.932 12.855 12.795 12.79 12.813 12.863 12.92 12.942 12.95 12.957 12.985 13.04 13.037 12.95 12.84 12.743 12.67 12.61 12.547 12.485 12.422 12.372
13.685 13.712 13.687 13.608 13.533 13.465 13.408 13.358 13.32 13.29 13.27 13.298 13.355 13.385 13.385 13.375 13.36 13.36 13.363 13.36 13.373 13.387 13.39 13.383 13.38 13.385 13.39 13.395 13.402 13.403 13.41 13.44 13.475 13.51 13.55 13.911 14.868 15.824 15.847 15.205 14.88 14.88 14.88 14.88 15.53 15.994 15.065 14.093 13.873 13.883 14.238 14.975 15.322 14.46 13.456 13.285 13.305 13.32 13.31 13.283 13.268 13.263 13.273 13.3 13.328 13.355 13.37 13.357 13.325 13.28 13.24 13.21 13.167 13.113 13.085 13.085 13.082 13.075 13.093 13.135 13.17 13.192 13.21 13.225 13.222 13.197 13.153 13.105 13.068 13.04 13.008 12.965 12.93 12.9 12.863 12.825 12.808 12.802 12.79 12.77 12.75 12.728 12.717 12.715 12.7 12.68 12.68 12.69 12.69 12.687 12.68 12.67 12.67 12.677 12.635 12.578 12.555 12.538 12.548 12.575 12.593 12.61 12.605 12.575 12.548 12.54 12.552 12.552 12.532 12.498 12.478 12.495 12.525 12.56 12.548 12.54 12.885 13.302 13.212 12.983 12.938 12.94 12.96 12.998 13.212 13.605 13.907 13.984 13.94 13.905 13.86 13.782 13.703 13.647 13.58 13.443 13.288 13.198 13.165 13.178 13.228 13.292 13.305 13.263 13.225 13.223 13.26 13.31 13.332 13.31 13.288 13.282 13.275 13.252 13.16 13.02 12.89 12.768 12.693 12.645 12.648 12.718 12.795 12.865 12.907 12.915 12.905 12.895 12.908 12.95 12.96 12.897 12.8 12.717 12.63 12.46 12.133 11.765 11.725 11.965
13.72 13.765 13.742 13.658 13.58 13.515 13.455 13.395 13.34 13.298 13.268 13.285 13.327 13.345 13.345 13.335 13.343 13.38 13.417 13.44 13.462 13.48 13.48 13.47 13.465 13.467 13.47 13.467 13.457 13.43 13.395 13.398 13.433 13.47 13.51 13.578 13.993 14.975 15.884 15.854 15.205 14.88 14.88 15.205 15.855 15.65 14.54 13.928 13.895 13.89 14.358 15.325 15.912 15.197 13.878 13.358 13.36 13.362 13.34 13.305 13.273 13.26 13.27 13.295 13.323 13.35 13.357 13.342 13.322 13.287 13.247 13.207 13.15 13.085 13.055 13.05 13.04 13.03 13.043 13.072 13.09 13.1 13.115 13.138 13.16 13.167 13.15 13.123 13.1 13.08 13.047 12.998 12.948 12.91 12.875 12.833 12.795 12.78 12.768 12.745 12.725 12.703 12.693 12.697 12.692 12.678 12.68 12.697 12.707 12.71 12.705 12.703 12.718 12.735 12.685 12.603 12.565 12.555 12.573 12.602 12.63 12.655 12.647 12.618 12.608 12.615 12.63 12.645 12.652 12.648 12.63 12.635 12.67 12.715 12.85 13.173 13.592 13.812 13.827 13.952 14.074 14.074 14.074 14.079 14.082 14.055 14 13.94 13.885 13.838 13.793 13.742 13.675 13.612 13.525 13.403 13.328 13.313 13.298 13.273 13.28 13.325 13.335 13.298 13.268 13.258 13.285 13.31 13.29 13.25 13.225 13.215 13.2 13.157 13.05 12.903 12.778 12.675 12.608 12.6 12.68 12.797 12.875 12.9 12.89 12.88 12.87 12.86 12.85 12.69 12.398 12.09 11.965 12.143 12.35 12.307 11.978 11.61 11.575 11.838
13.77 13.815 13.795 13.712 13.632 13.565 13.505 13.445 13.383 13.323 13.275 13.273 13.295 13.305 13.31 13.325 13.373 13.432 13.475 13.505 13.535 13.557 13.562 13.555 13.55 13.547 13.537 13.515 13.485 13.45 13.4 13.37 13.39 13.43 13.47 13.515 13.613 14.083 15.057 15.907 15.854 15.205 15.205 15.855 16.034 15.197 14.205 13.905 13.9 13.885 14.463 15.64 16.394 15.977 14.455 13.483 13.435 13.402 13.37 13.335 13.298 13.273 13.275 13.3 13.325 13.345 13.345 13.328 13.31 13.287 13.25 13.193 13.125 13.06 13.028 13.018 13.005 12.993 12.99 12.998 13.003 13.013 13.035 13.068 13.105 13.142 13.155 13.145 13.132 13.117 13.09 13.04 12.98 12.93 12.888 12.848 12.808 12.778 12.758 12.733 12.71 12.688 12.675 12.678 12.678 12.675 12.683 12.7 12.718 12.728 12.733 12.748 12.772 12.792 12.745 12.643 12.58 12.573 12.598 12.63 12.665 12.698 12.692 12.673 12.68 12.695 12.708 12.723 12.738 12.893 13.195 13.402 13.46 13.468 13.585 13.857 14.045 14.08 14.085 14.085 14.085 14.085 14.085 14.09 14.085 14.045 13.985 13.925 13.865 13.805 13.748 13.698 13.64 13.575 13.508 13.46 13.452 13.457 13.442 13.407 13.377 13.372 13.365 13.337 13.312 13.292 13.287 13.272 13.235 13.177 13.137 13.125 13.107 13.077 13.005 12.908 12.835 12.775 12.715 12.74 12.825 12.872 12.88 12.847 12.643 12.288 12.048 12.145 12.462 12.495 12.203 11.868 11.748 11.923 12.148 12.21 12.145 12.09 12.057 12.057
13.82 13.867 13.845 13.757 13.67 13.602 13.55 13.49 13.43 13.368 13.308 13.285 13.298 13.313 13.328 13.365 13.428 13.49 13.535 13.565 13.592 13.61 13.615 13.612 13.607 13.602 13.582 13.548 13.513 13.477 13.43 13.375 13.36 13.393 13.435 13.478 13.52 13.643 14.143 15.087 15.904 15.852 15.855 16.179 15.722 14.668 13.993 13.905 13.89 13.875 14.568 15.912 16.785 16.612 15.055 13.748 13.515 13.428 13.405 13.372 13.338 13.305 13.303 13.328 13.347 13.357 13.35 13.33 13.31 13.287 13.25 13.192 13.125 13.06 13.023 13.01 12.997 12.973 12.953 12.95 12.953 12.968 13.003 13.048 13.095 13.14 13.155 13.15 13.145 13.143 13.145 13.118 13.063 13.008 12.958 12.92 12.885 12.858 12.84 12.815 12.79 12.768 12.753 12.75 12.75 12.748 12.735 12.735 12.753 12.768 12.785 12.807 12.83 12.85 12.805 12.695 12.625 12.695 12.87 13.048 12.978 12.785 12.745 12.84 13.07 13.353 13.525 13.54 13.533 13.665 13.955 14.145 14.165 14.132 14.102 14.087 14.085 14.088 14.092 14.095 14.095 14.095 14.095 14.1 14.085 14.035 13.975 13.915 13.855 13.795 13.735 13.675 13.615 13.55 13.5 13.482 13.482 13.485 13.475 13.445 13.407 13.377 13.355 13.337 13.317 13.295 13.27 13.24 13.177 13.072 12.995 12.962 12.942 12.947 12.975 12.99 12.975 12.89 12.74 12.49 12.135 12.1 12.393 12.647 12.562 12.168 11.903 12.003 12.313 12.465 12.44 12.37 12.297 12.225 12.16 12.105 12.06 12.028 12.018 12.028
13.858 13.902 13.877 13.79 13.695 13.623 13.577 13.527 13.47 13.41 13.358 13.348 13.37 13.39 13.41 13.438 13.488 13.55 13.595 13.622 13.64 13.642 13.643 13.647 13.645 13.64 13.62 13.585 13.55 13.512 13.465 13.403 13.358 13.365 13.405 13.445 13.485 13.528 13.665 14.14 15.045 15.872 16.165 16.075 15.34 14.315 13.918 13.9 13.883 13.865 14.673 16.15 17.14 17.247 16.03 14.365 13.568 13.435 13.425 13.41 13.382 13.35 13.348 13.367 13.377 13.377 13.367 13.35 13.327 13.292 13.247 13.197 13.14 13.08 13.038 13.017 12.992 12.95 12.925 12.928 12.94 12.968 13.008 13.052 13.097 13.14 13.155 13.15 13.148 13.168 13.212 13.225 13.19 13.135 13.085 13.05 13.023 13.008 12.997 12.977 12.953 12.933 12.92 12.913 12.91 12.9 12.86 12.823 12.82 12.835 12.855 12.865 12.855 12.838 12.788 12.821 13.238 13.66 13.82 13.98 13.892 13.675 13.62 13.705 13.912 14.17 14.32 14.312 14.28 14.25 14.217 14.182 14.15 14.12 14.1 14.095 14.095 14.095 14.1 14.105 14.105 14.105 14.105 14.105 14.077 14.02 13.96 13.9 13.84 13.782 13.722 13.66 13.597 13.532 13.47 13.42 13.39 13.388 13.39 13.367 13.337 13.317 13.3 13.285 13.27 13.245 13.172 13.04 12.855 12.808 12.83 12.76 12.72 12.738 12.82 12.915 12.98 12.947 12.81 12.508 12.078 12.003 12.258 12.495 12.57 12.5 12.475 12.507 12.505 12.44 12.37 12.3 12.228 12.163 12.11 12.068 12.04 12.028 12.02 12.018
13.895 13.91 13.875 13.802 13.72 13.64 13.588 13.55 13.505 13.45 13.418 13.435 13.467 13.492 13.515 13.535 13.565 13.612 13.652 13.67 13.672 13.668 13.67 13.68 13.682 13.68 13.66 13.623 13.587 13.55 13.5 13.443 13.388 13.358 13.375 13.415 13.458 13.505 13.545 13.65 14.083 14.99 15.842 16.002 15.258 14.28 13.915 13.9 13.88 13.86 14.78 16.37 17.477 17.882 17.057 15.018 13.618 13.445 13.42 13.422 13.415 13.395 13.388 13.397 13.397 13.39 13.382 13.367 13.335 13.29 13.24 13.193 13.145 13.095 13.05 13.013 12.97 12.923 12.9 12.913 12.94 12.973 13.01 13.055 13.1 13.14 13.155 13.15 13.165 13.215 13.275 13.307 13.302 13.262 13.215 13.185 13.17 13.16 13.152 13.14 13.118 13.1 13.09 13.08 13.073 13.06 13.015 12.953 12.933 13.02 13.18 13.333 13.465 13.588 13.645 13.735 14.172 14.517 14.52 14.522 14.52 14.497 14.462 14.43 14.397 14.362 14.33 14.3 14.267 14.235 14.203 14.17 14.14 14.115 14.105 14.105 14.105 14.105 14.11 14.115 14.115 14.115 14.115 14.105 14.065 14.005 13.945 13.885 13.825 13.765 13.703 13.64 13.575 13.51 13.452 13.397 13.347 13.32 13.307 13.262 13.167 13.055 12.942 12.818 12.743 12.73 12.68 12.573 12.448 12.548 12.667 12.583 12.515 12.515 12.59 12.662 12.707 12.717 12.69 12.662 12.612 12.535 12.45 12.37 12.313 12.278 12.3 12.38 12.427 12.392 12.32 12.253 12.188 12.13 12.083 12.053 12.04 12.035 12.027 12.015
13.978 13.915 13.86 13.793 13.725 13.655 13.6 13.565 13.53 13.495 13.493 13.525 13.562 13.595 13.62 13.637 13.655 13.68 13.7 13.705 13.7 13.695 13.7 13.707 13.712 13.715 13.697 13.66 13.622 13.587 13.54 13.485 13.433 13.38 13.363 13.39 13.435 13.485 13.525 13.55 13.633 14.038 14.937 15.654 15.432 14.515 13.94 13.903 13.88 13.848 14.88 16.59 17.782 18.464 17.852 15.893 14.111 13.463 13.405 13.412 13.42 13.422 13.422 13.422 13.415 13.405 13.398 13.378 13.335 13.285 13.238 13.198 13.16 13.123 13.095 13.043 12.958 12.898 12.888 12.912 12.945 12.975 13.01 13.055 13.1 13.14 13.155 13.16 13.205 13.275 13.335 13.372 13.39 13.38 13.35 13.33 13.32 13.312 13.308 13.298 13.28 13.265 13.255 13.295 13.435 13.588 13.703 13.82 13.897 13.98 14.112 14.25 14.385 14.517 14.585 14.57 14.545 14.54 14.545 14.55 14.54 14.505 14.463 14.423 14.385 14.35 14.32 14.287 14.253 14.22 14.19 14.16 14.133 14.118 14.115 14.115 14.115 14.115 14.12 14.125 14.125 14.125 14.125 14.105 14.055 13.995 13.932 13.87 13.81 13.745 13.685 13.632 13.577 13.437 13.18 12.977 12.862 12.763 12.72 12.695 12.62 12.533 12.455 12.358 12.303 12.315 12.34 12.365 12.398 12.485 12.507 12.423 12.34 12.31 12.34 12.353 12.338 12.325 12.313 12.305 12.283 12.235 12.193 12.17 12.165 12.165 12.198 12.26 12.322 12.33 12.272 12.21 12.145 12.093 12.065 12.055 12.05 12.045 12.035 12.02
14.025 13.94 13.878 13.81 13.745 13.695 13.65 13.61 13.578 13.558 13.573 13.607 13.642 13.667 13.68 13.692 13.707 13.722 13.727 13.725 13.722 13.72 13.725 13.73 13.735 13.735 13.715 13.68 13.64 13.61 13.585 13.545 13.493 13.438 13.403 13.4 13.423 13.465 13.502 13.528 13.553 13.625 13.97 14.618 15.032 14.667 14.083 13.9 13.862 13.816 14.973 16.812 18.055 18.914 18.547 17.037 14.89 13.496 13.385 13.398 13.415 13.437 13.452 13.452 13.445 13.435 13.428 13.415 13.38 13.33 13.285 13.25 13.22 13.203 13.207 13.167 13.063 12.938 12.873 12.89 12.92 12.95 12.99 13.042 13.095 13.14 13.163 13.195 13.263 13.338 13.4 13.44 13.47 13.485 13.478 13.468 13.46 13.453 13.48 13.578 13.725 13.905 14.087 14.215 14.35 14.495 14.617 14.75 14.82 14.807 14.772 14.74 14.705 14.67 14.637 14.603 14.575 14.57 14.575 14.575 14.555 14.512 14.467 14.423 14.38 14.34 14.305 14.273 14.24 14.21 14.177 14.148 14.13 14.125 14.125 14.125 14.125 14.125 14.13 14.135 14.135 14.135 14.13 14.097 14.04 13.98 13.92 13.777 13.505 13.182 12.933 12.838 12.825 12.727 12.508 12.335 12.25 12.185 12.17 12.19 12.203 12.233 12.298 12.365 12.415 12.445 12.47 12.497 12.512 12.457 12.358 12.273 12.21 12.188 12.18 12.17 12.163 12.16 12.148 12.12 12.093 12.08 12.088 12.108 12.13 12.153 12.183 12.215 12.255 12.262 12.21 12.14 12.085 12.068 12.07 12.067 12.06 12.052 12.04 12.025
14.03 13.982 13.922 13.86 13.81 13.778 13.737 13.688 13.65 13.633 13.648 13.677 13.697 13.702 13.703 13.71 13.72 13.735 13.742 13.738 13.738 13.74 13.745 13.75 13.75 13.74 13.715 13.68 13.645 13.625 13.62 13.607 13.567 13.515 13.483 13.465 13.455 13.463 13.49 13.535 13.578 13.61 13.615 13.788 14.135 14.277 14.087 13.888 13.828 13.778 15.068 17.032 18.315 19.254 19.117 17.904 15.441 13.581 13.408 13.403 13.425 13.453 13.472 13.482 13.482 13.475 13.47 13.472 13.457 13.415 13.373 13.338 13.318 13.325 13.345 13.34 13.267 13.085 12.893 12.84 12.87 12.908 12.96 13.02 13.08 13.138 13.19 13.255 13.335 13.415 13.488 13.54 13.57 13.615 13.718 13.855 14 14.15 14.292 14.42 14.557 14.737 14.925 15.005 14.987 14.962 14.937 14.907 14.872 14.84 14.805 14.77 14.737 14.703 14.67 14.638 14.61 14.603 14.605 14.595 14.562 14.517 14.472 14.427 14.383 14.338 14.295 14.26 14.23 14.197 14.163 14.14 14.135 14.135 14.135 14.135 14.135 14.135 14.14 14.145 14.145 14.07 13.877 13.617 13.333 13.163 13.11 12.975 12.708 12.375 12.135 12.073 12.073 12.08 12.1 12.118 12.135 12.155 12.172 12.185 12.19 12.218 12.293 12.387 12.472 12.54 12.592 12.605 12.532 12.365 12.215 12.15 12.133 12.137 12.135 12.125 12.123 12.125 12.112 12.088 12.078 12.093 12.107 12.115 12.13 12.155 12.185 12.212 12.217 12.182 12.115 12.06 12.053 12.073 12.085 12.08 12.067 12.055 12.04 12.033
14.06 14.022 13.97 13.923 13.895 13.87 13.83 13.775 13.725 13.705 13.717 13.732 13.732 13.728 13.728 13.733 13.738 13.748 13.755 13.753 13.755 13.76 13.765 13.765 13.755 13.74 13.712 13.683 13.663 13.65 13.645 13.645 13.632 13.597 13.568 13.552 13.538 13.523 13.543 13.595 13.635 13.652 13.645 13.628 13.643 13.753 13.887 13.91 13.858 13.803 15.188 17.25 18.547 19.542 19.617 18.595 16.535 14.403 13.553 13.515 13.498 13.485 13.49 13.505 13.515 13.517 13.515 13.52 13.522 13.497 13.458 13.433 13.435 13.455 13.475 13.492 13.455 13.277 12.973 12.803 12.825 12.875 12.938 13.008 13.08 13.155 13.248 13.39 13.583 13.79 13.995 14.185 14.35 14.472 14.577 14.695 14.82 14.952 15.042 15.045 15.017 15.01 15.007 15.002 14.992 14.975 14.955 14.932 14.905 14.872 14.837 14.803 14.77 14.737 14.703 14.67 14.645 14.635 14.632 14.61 14.567 14.523 14.478 14.433 14.388 14.345 14.3 14.258 14.22 14.182 14.152 14.142 14.145 14.145 14.102 13.965 13.772 13.58 13.388 13.298 13.323 13.283 13.123 12.863 12.565 12.4 12.35 12.288 12.208 12.115 12.1 12.152 12.153 12.125 12.115 12.125 12.145 12.16 12.17 12.175 12.175 12.203 12.277 12.372 12.462 12.552 12.632 12.622 12.462 12.23 12.095 12.078 12.083 12.09 12.093 12.088 12.09 12.095 12.083 12.073 12.09 12.117 12.13 12.13 12.138 12.157 12.177 12.175 12.135 12.08 12.043 12.04 12.063 12.085 12.095 12.087 12.07 12.053 12.043 12.075
14.092 14.06 14.03 14.007 13.99 13.962 13.92 13.865 13.807 13.773 13.767 13.767 13.76 13.755 13.758 13.763 13.765 13.77 13.773 13.773 13.777 13.78 13.78 13.77 13.753 13.735 13.713 13.695 13.685 13.675 13.673 13.675 13.677 13.67 13.652 13.64 13.632 13.625 13.635 13.66 13.68 13.687 13.675 13.637 13.603 13.63 13.758 13.905 13.937 13.893 15.338 17.46 18.762 19.812 20.094 19.227 17.777 15.417 13.728 13.662 13.595 13.545 13.54 13.553 13.56 13.565 13.565 13.57 13.578 13.57 13.55 13.548 13.565 13.585 13.605 13.625 13.622 13.47 13.113 12.883 12.953 13.121 13.296 13.493 13.705 13.915 14.138 14.412 14.64 14.785 14.927 15.062 15.192 15.26 15.24 15.195 15.15 15.105 15.06 15.02 15.005 15.005 15.003 15 14.995 14.98 14.96 14.94 14.92 14.895 14.867 14.837 14.802 14.77 14.737 14.703 14.675 14.665 14.652 14.617 14.573 14.528 14.485 14.44 14.395 14.352 14.307 14.262 14.162 13.997 13.82 13.645 13.475 13.355 13.257 13.083 12.873 12.705 12.56 12.515 12.588 12.673 12.735 12.693 12.588 12.5 12.412 12.312 12.193 12.113 12.14 12.225 12.27 12.247 12.2 12.173 12.163 12.163 12.168 12.173 12.178 12.185 12.235 12.322 12.407 12.492 12.565 12.58 12.437 12.188 12.065 12.068 12.068 12.063 12.06 12.06 12.063 12.068 12.07 12.085 12.115 12.142 12.155 12.155 12.155 12.157 12.15 12.118 12.073 12.03 12.025 12.052 12.077 12.1 12.105 12.09 12.07 12.05 12.073 12.165
14.107 14.082 14.07 14.06 14.045 14.015 13.967 13.91 13.855 13.82 13.808 13.803 13.798 13.798 13.815 13.833 13.838 13.84 13.82 13.8 13.8 13.8 13.798 13.785 13.765 13.745 13.73 13.72 13.71 13.7 13.698 13.703 13.71 13.72 13.72 13.71 13.702 13.687 13.68 13.695 13.715 13.712 13.67 13.613 13.608 13.663 13.73 13.843 13.952 13.973 15.45 17.635 18.977 20.082 20.552 19.842 18.487 15.851 13.806 13.725 13.65 13.615 13.623 13.635 13.643 13.643 13.64 13.645 13.65 13.653 13.66 13.675 13.695 13.718 13.74 13.76 13.778 13.75 13.703 13.778 14.028 14.355 14.625 14.825 15.015 15.2 15.354 15.437 15.445 15.425 15.39 15.345 15.3 15.255 15.21 15.165 15.12 15.075 15.033 15.005 15 15 15 15 14.995 14.98 14.96 14.94 14.92 14.9 14.88 14.857 14.83 14.8 14.77 14.737 14.708 14.69 14.665 14.625 14.58 14.535 14.492 14.415 14.235 13.98 13.755 13.602 13.475 13.305 13.103 12.893 12.683 12.525 12.433 12.37 12.345 12.385 12.473 12.567 12.665 12.757 12.795 12.742 12.632 12.507 12.382 12.257 12.148 12.118 12.18 12.265 12.337 12.357 12.315 12.255 12.208 12.195 12.2 12.205 12.202 12.178 12.18 12.24 12.322 12.402 12.462 12.505 12.437 12.235 12.115 12.108 12.097 12.075 12.058 12.055 12.055 12.06 12.078 12.105 12.135 12.16 12.17 12.17 12.165 12.155 12.133 12.098 12.065 12.033 12.03 12.057 12.085 12.107 12.105 12.085 12.065 12.045 12.068 12.157
14.108 14.09 14.08 14.067 14.047 14.017 13.967 13.91 13.875 13.86 13.853 13.848 13.848 13.855 13.887 13.93 13.95 13.947 13.903 13.845 13.825 13.825 13.822 13.812 13.795 13.775 13.76 13.75 13.738 13.728 13.725 13.733 13.748 13.762 13.765 13.757 13.74 13.703 13.688 13.71 13.725 13.692 13.615 13.583 13.63 13.697 13.763 13.83 13.925 14.001 15.5 17.735 19.162 20.352 20.927 20.39 19.169 16.972 14.596 13.758 13.7 13.69 13.707 13.722 13.737 13.745 13.745 13.75 13.76 13.773 13.79 13.878 14.043 14.218 14.395 14.583 14.742 14.852 15.005 15.215 15.422 15.627 15.764 15.804 15.805 15.777 15.637 15.435 15.353 15.357 15.347 15.315 15.27 15.225 15.18 15.135 15.09 15.045 15.013 15 15 15 15 15 14.995 14.98 14.96 14.94 14.92 14.9 14.88 14.86 14.84 14.817 14.792 14.767 14.74 14.709 14.664 14.51 14.25 13.955 13.71 13.583 13.465 13.275 13.065 12.92 12.843 12.773 12.695 12.623 12.548 12.473 12.4 12.365 12.365 12.378 12.438 12.535 12.632 12.667 12.632 12.595 12.527 12.412 12.288 12.178 12.12 12.138 12.21 12.295 12.36 12.39 12.38 12.332 12.275 12.253 12.257 12.257 12.23 12.183 12.16 12.18 12.238 12.305 12.355 12.395 12.402 12.282 12.17 12.157 12.135 12.1 12.075 12.07 12.068 12.07 12.088 12.115 12.14 12.152 12.16 12.167 12.165 12.155 12.135 12.102 12.068 12.035 12.035 12.062 12.085 12.1 12.095 12.075 12.055 12.035 12.03 12.063
14.115 14.1 14.09 14.072 14.045 14.012 13.968 13.928 13.913 13.905 13.898 13.898 13.905 13.915 13.95 14.007 14.05 14.05 13.997 13.923 13.868 13.85 13.845 13.835 13.822 13.807 13.793 13.78 13.765 13.753 13.755 13.77 13.79 13.807 13.81 13.792 13.755 13.705 13.693 13.702 13.682 13.623 13.568 13.59 13.66 13.73 13.797 13.862 13.93 14.003 15.468 17.7 19.255 20.592 21.234 20.844 19.709 18.204 15.61 13.798 13.765 13.773 13.79 13.805 13.82 13.928 14.113 14.285 14.455 14.625 14.785 14.922 15.047 15.16 15.29 15.457 15.599 15.662 15.674 15.687 15.7 15.695 15.677 15.687 15.71 15.65 15.433 15.268 15.26 15.27 15.275 15.267 15.237 15.195 15.15 15.105 15.06 15.02 15.003 15 15 15 14.997 14.995 14.992 14.98 14.96 14.94 14.92 14.9 14.88 14.86 14.839 14.759 14.562 14.267 13.935 13.738 13.685 13.55 13.313 13.04 12.818 12.755 12.87 13.03 13.057 12.978 12.858 12.743 12.658 12.585 12.51 12.435 12.383 12.38 12.395 12.388 12.418 12.502 12.547 12.488 12.42 12.41 12.39 12.312 12.203 12.138 12.135 12.17 12.237 12.312 12.36 12.385 12.397 12.387 12.345 12.313 12.31 12.292 12.247 12.195 12.162 12.153 12.183 12.23 12.258 12.288 12.33 12.29 12.215 12.192 12.16 12.12 12.095 12.087 12.077 12.075 12.092 12.112 12.12 12.12 12.13 12.147 12.157 12.157 12.137 12.105 12.07 12.038 12.038 12.062 12.08 12.09 12.085 12.065 12.045 12.028 12.023 12.028
14.125 14.11 14.095 14.07 14.04 14.01 13.983 13.965 13.955 13.963 13.965 13.958 13.965 13.975 14.01 14.07 14.127 14.145 14.1 14.025 13.948 13.893 13.87 13.86 13.85 13.84 13.83 13.823 13.815 13.808 13.813 13.828 13.843 13.858 13.853 13.815 13.765 13.715 13.683 13.65 13.6 13.555 13.56 13.618 13.683 13.75 13.817 13.882 13.947 14.013 15.26 17.455 19.189 20.454 20.947 20.544 19.464 18.224 15.77 13.869 13.973 14.165 14.36 14.555 14.75 14.972 15.175 15.327 15.47 15.61 15.737 15.774 15.672 15.502 15.4 15.372 15.347 15.328 15.318 15.315 15.313 15.293 15.263 15.265 15.318 15.308 15.208 15.158 15.165 15.175 15.182 15.19 15.187 15.162 15.12 15.075 15.03 15 14.995 14.995 14.995 14.995 14.992 14.99 14.99 14.98 14.96 14.88 14.697 14.475 14.24 14.017 13.9 13.797 13.578 13.263 12.92 12.726 12.691 12.68 12.673 12.67 12.67 12.728 12.875 13.042 13.142 13.077 12.898 12.738 12.628 12.548 12.473 12.41 12.39 12.407 12.422 12.415 12.413 12.427 12.398 12.318 12.268 12.253 12.238 12.2 12.153 12.145 12.165 12.198 12.257 12.315 12.35 12.375 12.392 12.405 12.397 12.375 12.35 12.3 12.227 12.162 12.13 12.133 12.173 12.23 12.263 12.278 12.3 12.285 12.24 12.207 12.172 12.137 12.112 12.097 12.08 12.075 12.087 12.092 12.088 12.085 12.095 12.115 12.135 12.15 12.137 12.105 12.072 12.043 12.04 12.058 12.073 12.087 12.085 12.065 12.043 12.025 12.025 12.035
14.137 14.123 14.108 14.085 14.055 14.03 14.015 14.005 14.013 14.07 14.097 14.065 14.04 14.035 14.07 14.127 14.182 14.21 14.187 14.142 14.08 14.003 13.958 13.943 13.925 13.913 13.923 13.935 13.935 13.935 13.94 13.953 13.965 13.968 13.95 13.913 13.865 13.815 13.763 13.705 13.65 13.63 13.655 13.695 13.735 13.778 13.828 13.888 13.953 14.018 14.995 16.957 18.512 19.324 19.527 19.154 18.287 17.077 15.59 14.85 15.042 15.22 15.4 15.577 15.757 15.872 15.88 15.842 15.797 15.755 15.712 15.645 15.457 15.198 15.078 15.075 15.073 15.088 15.123 15.143 15.15 15.158 15.158 15.14 15.135 15.125 15.103 15.095 15.085 15.083 15.09 15.1 15.108 15.105 15.082 15.045 15.007 14.99 14.99 14.99 14.99 14.92 14.682 14.39 14.193 14.108 14.082 14 13.81 13.578 13.33 13.085 12.946 12.883 12.818 12.758 12.718 12.693 12.67 12.65 12.633 12.62 12.608 12.66 12.77 12.87 13.002 13.067 12.955 12.775 12.625 12.515 12.438 12.403 12.413 12.435 12.45 12.443 12.433 12.39 12.318 12.263 12.225 12.2 12.173 12.15 12.15 12.172 12.197 12.227 12.27 12.31 12.34 12.367 12.387 12.4 12.41 12.395 12.335 12.242 12.14 12.083 12.088 12.123 12.183 12.262 12.332 12.365 12.357 12.295 12.23 12.197 12.165 12.132 12.105 12.087 12.075 12.075 12.078 12.07 12.063 12.058 12.065 12.088 12.11 12.13 12.125 12.095 12.065 12.043 12.045 12.06 12.075 12.095 12.095 12.075 12.05 12.028 12.073 12.132
14.15 14.138 14.13 14.12 14.095 14.07 14.055 14.06 14.115 14.22 14.272 14.235 14.178 14.13 14.13 14.175 14.225 14.247 14.237 14.225 14.195 14.142 14.1 14.067 14.028 14.015 14.055 14.097 14.11 14.11 14.115 14.127 14.135 14.125 14.105 14.08 14.042 13.997 13.947 13.89 13.848 13.845 13.863 13.88 13.898 13.915 13.943 13.98 14.023 14.116 14.766 16.105 17.047 17.283 17.263 17.08 16.718 16.061 15.71 15.835 15.895 15.88 15.865 15.847 15.832 15.815 15.787 15.745 15.695 15.65 15.607 15.472 15.238 15.018 14.935 14.968 15.015 15.09 15.17 15.212 15.225 15.235 15.242 15.232 15.205 15.175 15.15 15.13 15.105 15.085 15.078 15.07 15.06 15.05 15.035 14.99 14.807 14.52 14.283 14.18 14.17 14.09 13.835 13.52 13.305 13.21 13.183 13.153 13.105 13.058 13.023 12.978 12.92 12.857 12.793 12.74 12.71 12.693 12.672 12.65 12.63 12.615 12.59 12.555 12.58 12.673 12.808 12.955 12.97 12.832 12.66 12.51 12.425 12.415 12.44 12.465 12.485 12.52 12.527 12.44 12.333 12.27 12.235 12.21 12.185 12.165 12.168 12.192 12.22 12.245 12.27 12.3 12.33 12.36 12.38 12.39 12.397 12.377 12.297 12.183 12.083 12.05 12.08 12.13 12.2 12.28 12.362 12.417 12.39 12.285 12.205 12.175 12.142 12.105 12.078 12.065 12.07 12.087 12.09 12.08 12.07 12.06 12.058 12.068 12.088 12.11 12.105 12.075 12.053 12.045 12.055 12.072 12.088 12.105 12.105 12.085 12.06 12.033 12.113 12.257
14.155 14.15 14.145 14.142 14.13 14.11 14.108 14.158 14.26 14.382 14.447 14.42 14.347 14.237 14.18 14.215 14.262 14.28 14.27 14.26 14.247 14.23 14.212 14.17 14.108 14.108 14.17 14.235 14.277 14.29 14.295 14.297 14.287 14.27 14.25 14.23 14.205 14.175 14.132 14.083 14.065 14.078 14.095 14.115 14.19 14.333 14.505 14.72 14.915 15.035 15.233 15.705 16.03 16.006 15.928 15.881 15.88 15.908 15.93 15.902 15.863 15.833 15.803 15.77 15.745 15.725 15.693 15.645 15.595 15.548 15.473 15.308 15.115 14.96 14.903 14.95 15.025 15.115 15.202 15.27 15.3 15.31 15.322 15.322 15.3 15.272 15.25 15.227 15.202 15.179 15.109 14.8 14.392 14.215 14.187 14.155 13.985 13.703 13.47 13.368 13.35 13.333 13.298 13.245 13.2 13.165 13.135 13.087 13.02 12.96 12.93 12.912 12.882 12.832 12.773 12.733 12.71 12.695 12.675 12.655 12.645 12.64 12.607 12.52 12.45 12.483 12.613 12.777 12.9 12.867 12.713 12.58 12.525 12.528 12.548 12.573 12.613 12.68 12.655 12.51 12.368 12.28 12.245 12.223 12.2 12.18 12.183 12.205 12.225 12.243 12.265 12.295 12.325 12.352 12.37 12.377 12.38 12.36 12.282 12.18 12.1 12.063 12.083 12.143 12.22 12.287 12.33 12.352 12.345 12.265 12.185 12.152 12.115 12.078 12.053 12.053 12.08 12.112 12.12 12.11 12.1 12.09 12.078 12.068 12.073 12.09 12.085 12.063 12.055 12.055 12.065 12.085 12.1 12.115 12.115 12.092 12.065 12.038 12.113 12.295
14.153 14.155 14.155 14.155 14.152 14.155 14.202 14.305 14.425 14.547 14.622 14.585 14.445 14.288 14.228 14.258 14.297 14.31 14.3 14.29 14.283 14.293 14.32 14.287 14.22 14.228 14.288 14.353 14.415 14.455 14.465 14.455 14.435 14.415 14.395 14.375 14.355 14.335 14.313 14.365 14.51 14.665 14.818 14.98 15.117 15.235 15.38 15.567 15.734 15.777 15.75 15.807 15.873 15.87 15.868 15.865 15.863 15.883 15.922 15.93 15.895 15.848 15.803 15.755 15.713 15.678 15.635 15.585 15.535 15.498 15.448 15.333 15.175 15.013 14.94 14.978 15.05 15.14 15.228 15.31 15.365 15.385 15.4 15.409 15.394 15.314 15.002 14.552 14.338 14.31 14.23 13.915 13.51 13.343 13.325 13.318 13.315 13.32 13.33 13.335 13.33 13.325 13.295 13.235 13.177 13.127 13.075 13.005 12.93 12.863 12.825 12.815 12.808 12.787 12.753 12.725 12.707 12.692 12.68 12.675 12.675 12.677 12.63 12.525 12.413 12.38 12.478 12.62 12.763 12.842 12.802 12.745 12.735 12.737 12.752 12.772 12.79 12.792 12.71 12.56 12.413 12.303 12.258 12.24 12.22 12.2 12.198 12.212 12.225 12.237 12.257 12.282 12.31 12.335 12.35 12.355 12.357 12.34 12.278 12.2 12.133 12.08 12.088 12.147 12.192 12.207 12.2 12.193 12.217 12.21 12.163 12.125 12.085 12.05 12.038 12.06 12.1 12.137 12.147 12.135 12.125 12.115 12.102 12.09 12.083 12.08 12.073 12.065 12.065 12.065 12.072 12.09 12.105 12.12 12.122 12.1 12.07 12.043 12.113 12.29
14.157 14.157 14.155 14.155 14.155 14.175 14.247 14.375 14.522 14.667 14.755 14.67 14.445 14.298 14.278 14.303 14.337 14.342 14.33 14.328 14.345 14.39 14.447 14.432 14.39 14.405 14.448 14.505 14.555 14.575 14.568 14.548 14.525 14.505 14.58 14.745 14.893 15.027 15.12 15.215 15.357 15.497 15.622 15.742 15.787 15.752 15.717 15.685 15.65 15.615 15.615 15.742 15.855 15.853 15.85 15.85 15.848 15.858 15.9 15.935 15.925 15.885 15.84 15.795 15.745 15.695 15.645 15.605 15.58 15.57 15.575 15.54 15.437 15.29 15.207 15.22 15.255 15.307 15.357 15.404 15.404 15.147 14.72 14.518 14.492 14.405 14.083 13.628 13.408 13.373 13.333 13.288 13.258 13.248 13.243 13.238 13.24 13.25 13.26 13.267 13.272 13.277 13.25 13.192 13.135 13.082 13.023 12.945 12.873 12.815 12.778 12.763 12.758 12.75 12.728 12.7 12.682 12.668 12.677 12.702 12.71 12.705 12.642 12.533 12.445 12.425 12.5 12.62 12.73 12.83 12.882 12.887 12.895 12.902 12.897 12.88 12.85 12.8 12.7 12.56 12.43 12.335 12.278 12.245 12.227 12.21 12.2 12.205 12.215 12.225 12.235 12.25 12.275 12.3 12.315 12.32 12.325 12.32 12.285 12.227 12.165 12.105 12.085 12.107 12.113 12.1 12.09 12.09 12.118 12.153 12.145 12.105 12.065 12.038 12.048 12.085 12.125 12.167 12.18 12.16 12.145 12.135 12.125 12.115 12.102 12.085 12.07 12.065 12.065 12.065 12.07 12.082 12.097 12.112 12.12 12.11 12.085 12.055 12.08 12.213
14.167 14.155 14.145 14.145 14.153 14.18 14.23 14.33 14.485 14.682 14.8 14.67 14.43 14.328 14.33 14.35 14.377 14.378 14.373 14.395 14.445 14.505 14.565 14.575 14.58 14.718 14.833 14.743 14.643 14.675 14.838 15.05 15.177 15.208 15.287 15.457 15.61 15.75 15.842 15.857 15.845 15.825 15.777 15.697 15.628 15.588 15.555 15.522 15.487 15.453 15.495 15.677 15.82 15.837 15.835 15.833 15.83 15.833 15.87 15.922 15.937 15.917 15.877 15.833 15.783 15.74 15.715 15.702 15.705 15.709 15.714 15.724 15.692 15.499 15.235 15.01 14.752 14.565 14.475 14.44 14.44 14.203 13.77 13.553 13.52 13.483 13.445 13.408 13.373 13.342 13.302 13.243 13.19 13.165 13.16 13.163 13.17 13.18 13.19 13.195 13.198 13.2 13.172 13.118 13.07 13.037 12.987 12.918 12.865 12.833 12.798 12.765 12.75 12.74 12.71 12.668 12.64 12.628 12.658 12.712 12.74 12.725 12.658 12.578 12.528 12.535 12.61 12.705 12.787 12.855 12.907 12.937 12.952 12.97 12.945 12.88 12.83 12.78 12.68 12.543 12.443 12.388 12.32 12.253 12.223 12.207 12.193 12.188 12.193 12.2 12.208 12.215 12.235 12.26 12.272 12.277 12.282 12.287 12.28 12.245 12.19 12.13 12.09 12.078 12.075 12.073 12.07 12.078 12.103 12.14 12.14 12.1 12.07 12.06 12.08 12.12 12.163 12.207 12.222 12.198 12.17 12.155 12.145 12.132 12.112 12.09 12.07 12.058 12.055 12.055 12.06 12.068 12.08 12.095 12.105 12.107 12.097 12.075 12.058 12.1
14.165 14.145 14.135 14.14 14.163 14.2 14.238 14.305 14.455 14.692 14.812 14.667 14.47 14.393 14.385 14.398 14.413 14.42 14.445 14.495 14.555 14.618 14.715 14.86 15.12 15.385 15.46 15.35 15.235 15.275 15.467 15.7 15.835 15.87 15.86 15.85 15.84 15.827 15.812 15.797 15.78 15.75 15.695 15.603 15.498 15.43 15.393 15.358 15.323 15.288 15.375 15.602 15.775 15.822 15.82 15.817 15.813 15.81 15.843 15.905 15.935 15.93 15.907 15.874 15.847 15.744 15.515 15.235 14.98 14.853 14.842 14.845 14.827 14.695 14.463 14.203 13.858 13.551 13.426 13.433 13.485 13.513 13.508 13.495 13.477 13.447 13.41 13.373 13.343 13.317 13.275 13.21 13.143 13.095 13.083 13.09 13.1 13.11 13.12 13.125 13.123 13.12 13.097 13.055 13.025 13.005 12.963 12.913 12.885 12.865 12.832 12.788 12.75 12.733 12.702 12.648 12.603 12.593 12.635 12.7 12.752 12.755 12.702 12.647 12.603 12.61 12.672 12.735 12.798 12.86 12.92 12.96 12.978 13 12.977 12.895 12.818 12.757 12.66 12.55 12.498 12.462 12.39 12.298 12.233 12.203 12.188 12.178 12.173 12.175 12.185 12.19 12.2 12.22 12.23 12.233 12.238 12.242 12.245 12.235 12.202 12.155 12.12 12.1 12.085 12.078 12.075 12.085 12.11 12.142 12.142 12.113 12.1 12.1 12.12 12.16 12.205 12.25 12.27 12.25 12.212 12.182 12.162 12.142 12.117 12.093 12.07 12.055 12.048 12.045 12.05 12.055 12.063 12.075 12.085 12.09 12.092 12.085 12.073 12.07
14.155 14.135 14.13 14.15 14.185 14.225 14.288 14.405 14.585 14.772 14.807 14.685 14.57 14.508 14.47 14.453 14.463 14.565 14.753 14.948 15.142 15.275 15.36 15.49 15.702 15.777 15.715 15.72 15.73 15.737 15.762 15.787 15.805 15.815 15.81 15.797 15.782 15.767 15.75 15.732 15.707 15.67 15.612 15.522 15.405 15.295 15.23 15.195 15.16 15.145 15.275 15.525 15.732 15.81 15.803 15.801 15.893 15.998 15.921 15.87 15.88 15.542 15.095 14.925 14.897 14.812 14.58 14.293 14.033 13.903 13.888 13.883 13.88 13.883 13.87 13.805 13.67 13.503 13.438 13.47 13.48 13.468 13.45 13.435 13.425 13.405 13.373 13.343 13.318 13.292 13.25 13.19 13.128 13.07 13.045 13.048 13.05 13.053 13.055 13.055 13.05 13.045 13.035 13.015 12.995 12.975 12.95 12.927 12.912 12.897 12.867 12.82 12.77 12.738 12.698 12.635 12.578 12.558 12.593 12.645 12.697 12.73 12.712 12.662 12.65 12.693 12.725 12.758 12.813 12.87 12.93 12.977 13.005 13.03 13.015 12.932 12.83 12.745 12.663 12.6 12.57 12.535 12.467 12.37 12.278 12.213 12.185 12.175 12.165 12.16 12.163 12.168 12.173 12.183 12.19 12.19 12.193 12.198 12.2 12.2 12.192 12.175 12.155 12.132 12.107 12.09 12.088 12.1 12.122 12.147 12.152 12.14 12.135 12.135 12.152 12.19 12.232 12.277 12.305 12.287 12.24 12.192 12.16 12.14 12.12 12.098 12.075 12.058 12.043 12.035 12.04 12.045 12.05 12.058 12.065 12.073 12.08 12.085 12.09 12.095
14.12 14.123 14.145 14.175 14.215 14.293 14.435 14.565 14.635 14.655 14.625 14.705 14.918 15.102 15.19 15.19 15.187 15.275 15.435 15.605 15.78 15.882 15.9 15.895 15.845 15.728 15.643 15.638 15.653 15.665 15.688 15.723 15.76 15.777 15.76 15.738 15.72 15.703 15.687 15.665 15.63 15.59 15.53 15.437 15.322 15.198 15.093 15.033 14.998 15.025 15.195 15.445 15.683 15.965 16.478 16.993 17.343 17.455 17.085 16.603 15.625 14.518 14.081 13.923 13.896 13.895 13.89 13.878 13.87 13.87 13.865 13.86 13.863 13.87 13.85 13.772 13.667 13.567 13.51 13.495 13.483 13.47 13.45 13.428 13.413 13.388 13.353 13.323 13.298 13.275 13.245 13.2 13.145 13.09 13.06 13.055 13.05 13.04 13.023 13.005 12.998 12.995 12.992 12.982 12.965 12.945 12.93 12.92 12.91 12.907 12.885 12.835 12.79 12.763 12.723 12.66 12.598 12.56 12.565 12.585 12.605 12.63 12.645 12.63 12.708 12.827 12.828 12.81 12.848 12.903 12.955 12.987 12.997 13.01 13.007 12.95 12.852 12.753 12.688 12.657 12.632 12.602 12.535 12.432 12.328 12.255 12.22 12.2 12.193 12.178 12.155 12.148 12.153 12.158 12.158 12.155 12.155 12.16 12.165 12.165 12.165 12.165 12.157 12.14 12.117 12.097 12.093 12.105 12.125 12.145 12.155 12.152 12.15 12.15 12.153 12.175 12.215 12.257 12.285 12.272 12.227 12.173 12.138 12.123 12.113 12.108 12.095 12.073 12.048 12.033 12.035 12.045 12.053 12.055 12.06 12.07 12.078 12.085 12.112 12.132
14.068 14.118 14.185 14.223 14.315 14.543 14.868 15.137 15.227 15.18 15.155 15.28 15.517 15.72 15.827 15.842 15.832 15.835 15.842 15.86 15.877 15.88 15.88 15.875 15.852 15.762 15.68 15.67 15.675 15.688 15.713 15.747 15.77 15.765 15.728 15.683 15.658 15.64 15.62 15.59 15.55 15.51 15.447 15.35 15.24 15.122 14.995 14.89 14.833 14.903 15.115 15.383 15.673 16.638 18.112 19.332 20.009 19.882 19.119 18.109 15.723 13.831 13.858 13.885 13.89 13.89 13.882 13.865 13.853 13.85 13.845 13.843 13.85 13.86 13.83 13.743 13.648 13.568 13.528 13.532 13.532 13.52 13.5 13.475 13.447 13.402 13.355 13.315 13.285 13.262 13.24 13.212 13.17 13.12 13.093 13.085 13.07 13.045 13.012 12.983 12.965 12.96 12.955 12.945 12.932 12.915 12.9 12.89 12.888 12.9 12.885 12.838 12.81 12.805 12.775 12.715 12.65 12.603 12.59 12.59 12.59 12.593 12.605 12.648 12.81 12.972 12.965 12.903 12.9 12.945 12.99 12.99 12.953 12.94 12.942 12.92 12.855 12.763 12.705 12.685 12.665 12.64 12.57 12.463 12.38 12.345 12.308 12.263 12.25 12.227 12.175 12.138 12.135 12.14 12.135 12.128 12.125 12.13 12.135 12.135 12.137 12.14 12.135 12.12 12.1 12.085 12.083 12.098 12.12 12.14 12.15 12.148 12.148 12.15 12.14 12.135 12.16 12.2 12.225 12.225 12.197 12.148 12.115 12.105 12.115 12.137 12.135 12.11 12.08 12.055 12.05 12.062 12.067 12.063 12.065 12.075 12.08 12.085 12.125 12.167
14.977 14.983 15.023 15.087 15.14 15.29 15.497 15.702 15.812 15.81 15.797 15.79 15.78 15.767 15.765 15.77 15.78 15.803 15.828 15.85 15.86 15.86 15.858 15.853 15.845 15.788 15.73 15.715 15.705 15.713 15.737 15.762 15.765 15.755 15.72 15.66 15.613 15.58 15.547 15.51 15.47 15.43 15.362 15.262 15.157 15.042 14.917 14.793 14.705 14.815 15.092 15.392 15.713 17.192 19.179 20.722 21.751 21.459 20.324 18.981 16.02 13.731 13.78 13.837 13.872 13.885 13.875 13.858 13.843 13.833 13.828 13.83 13.84 13.852 13.815 13.728 13.65 13.58 13.543 13.555 13.572 13.57 13.547 13.512 13.467 13.413 13.363 13.318 13.28 13.25 13.225 13.205 13.18 13.147 13.12 13.097 13.067 13.033 13 12.968 12.938 12.923 12.915 12.905 12.895 12.883 12.87 12.868 12.883 12.902 12.888 12.858 12.853 12.857 12.83 12.767 12.698 12.645 12.63 12.63 12.633 12.635 12.643 12.738 12.952 13.117 13.115 13.035 12.98 12.988 13.01 12.98 12.918 12.878 12.868 12.857 12.827 12.765 12.715 12.695 12.672 12.647 12.583 12.503 12.473 12.467 12.425 12.353 12.313 12.28 12.213 12.143 12.118 12.12 12.115 12.105 12.1 12.102 12.105 12.105 12.11 12.115 12.11 12.097 12.08 12.065 12.068 12.088 12.112 12.135 12.145 12.143 12.145 12.15 12.14 12.12 12.118 12.143 12.162 12.165 12.155 12.123 12.098 12.108 12.148 12.185 12.182 12.155 12.125 12.093 12.078 12.08 12.077 12.07 12.068 12.073 12.078 12.088 12.128 12.187
15.897 15.885 15.857 15.86 15.81 15.76 15.722 15.7 15.693 15.695 15.69 15.683 15.675 15.678 15.703 15.732 15.763 15.793 15.818 15.835 15.843 15.848 15.85 15.85 15.843 15.815 15.788 15.77 15.753 15.745 15.752 15.757 15.75 15.742 15.71 15.645 15.575 15.512 15.465 15.425 15.385 15.345 15.275 15.175 15.07 14.96 14.84 14.708 14.625 14.73 15.01 15.33 15.648 17.12 19.175 20.777 21.972 21.804 20.595 19.149 16.085 13.709 13.693 13.758 13.82 13.865 13.87 13.853 13.835 13.818 13.813 13.823 13.835 13.845 13.807 13.73 13.66 13.59 13.558 13.575 13.602 13.61 13.58 13.53 13.475 13.42 13.37 13.325 13.285 13.245 13.215 13.195 13.172 13.15 13.122 13.087 13.053 13.02 12.988 12.953 12.92 12.895 12.88 12.87 12.863 12.855 12.853 12.865 12.888 12.907 12.908 12.903 12.908 12.912 12.885 12.817 12.743 12.69 12.675 12.675 12.678 12.688 12.723 12.863 13.097 13.26 13.26 13.18 13.097 13.047 13.015 12.957 12.89 12.828 12.798 12.79 12.78 12.755 12.725 12.702 12.678 12.655 12.615 12.582 12.58 12.58 12.542 12.462 12.392 12.335 12.26 12.175 12.12 12.103 12.095 12.085 12.078 12.075 12.075 12.075 12.08 12.085 12.083 12.075 12.06 12.045 12.053 12.075 12.1 12.127 12.14 12.14 12.142 12.147 12.14 12.12 12.103 12.1 12.105 12.103 12.1 12.093 12.1 12.14 12.193 12.232 12.227 12.195 12.162 12.122 12.098 12.09 12.082 12.075 12.07 12.07 12.073 12.088 12.13 12.195
15.875 15.907 15.86 15.768 15.693 15.633 15.598 15.59 15.59 15.59 15.585 15.58 15.588 15.613 15.65 15.685 15.753 15.815 15.833 15.843 15.85 15.86 15.87 15.875 15.872 15.87 15.865 15.85 15.82 15.762 15.712 15.697 15.69 15.68 15.647 15.58 15.5 15.428 15.375 15.335 15.295 15.255 15.185 15.083 14.99 14.902 14.783 14.658 14.613 14.68 14.858 15.138 15.465 16.795 18.755 20.345 21.584 21.652 20.595 19.209 16.215 13.774 13.643 13.7 13.77 13.835 13.862 13.85 13.83 13.81 13.808 13.823 13.835 13.842 13.805 13.73 13.66 13.59 13.568 13.598 13.63 13.642 13.61 13.553 13.493 13.435 13.383 13.335 13.295 13.25 13.208 13.18 13.157 13.132 13.105 13.072 13.038 13.005 12.98 12.963 12.943 12.92 12.905 12.895 12.885 12.868 12.865 12.885 12.905 12.925 12.95 12.965 12.968 12.97 12.935 12.863 12.79 12.738 12.72 12.72 12.728 12.755 12.83 13.005 13.222 13.335 13.3 13.21 13.127 13.047 12.975 12.907 12.84 12.793 12.775 12.768 12.76 12.75 12.735 12.71 12.685 12.655 12.627 12.617 12.615 12.615 12.58 12.507 12.442 12.387 12.317 12.233 12.158 12.118 12.105 12.095 12.085 12.068 12.055 12.055 12.058 12.06 12.06 12.058 12.048 12.038 12.048 12.073 12.1 12.125 12.132 12.13 12.13 12.132 12.127 12.11 12.09 12.078 12.073 12.068 12.068 12.095 12.148 12.2 12.25 12.28 12.265 12.23 12.192 12.14 12.105 12.095 12.085 12.078 12.075 12.075 12.073 12.085 12.133 12.198
15.852 15.872 15.822 15.715 15.615 15.54 15.503 15.493 15.49 15.49 15.488 15.493 15.52 15.605 15.713 15.765 15.818 15.865 15.875 15.882 15.887 15.895 15.905 15.842 15.805 15.862 15.91 15.907 15.835 15.717 15.63 15.598 15.58 15.57 15.537 15.477 15.405 15.333 15.283 15.245 15.205 15.165 15.092 14.998 14.93 14.862 14.748 14.665 14.67 14.718 14.818 14.993 15.278 16.238 17.98 19.747 21.112 21.439 20.54 19.194 16.26 13.838 13.673 13.688 13.738 13.802 13.84 13.842 13.83 13.813 13.813 13.825 13.838 13.85 13.81 13.725 13.653 13.585 13.575 13.622 13.662 13.68 13.65 13.59 13.533 13.48 13.423 13.36 13.308 13.26 13.21 13.168 13.14 13.115 13.085 13.055 13.025 13 12.993 13.002 13.005 12.993 12.98 12.967 12.942 12.905 12.895 12.917 12.937 12.955 12.985 13.022 13.04 13.032 12.985 12.91 12.84 12.783 12.76 12.768 12.795 12.838 12.948 13.132 13.28 13.327 13.26 13.145 13.055 12.975 12.9 12.835 12.793 12.788 12.79 12.78 12.77 12.76 12.745 12.722 12.69 12.64 12.605 12.595 12.588 12.585 12.55 12.49 12.458 12.437 12.382 12.3 12.228 12.178 12.158 12.145 12.117 12.075 12.05 12.05 12.05 12.05 12.05 12.05 12.048 12.045 12.055 12.08 12.105 12.12 12.12 12.113 12.11 12.11 12.102 12.088 12.073 12.065 12.06 12.055 12.08 12.153 12.225 12.275 12.312 12.32 12.297 12.26 12.21 12.145 12.105 12.095 12.088 12.085 12.085 12.083 12.08 12.095 12.143 12.205
