ncols         200
nrows         71
xllcorner     543000
yllcorner     260065
cellsize      5
NODATA_value  -9999.0
23.683 23.715 23.7 23.623 23.555 23.495 23.44 23.395 23.373 23.36 23.338 23.32 23.333 23.39 23.42 23.397 23.37 23.333 23.32 23.342 23.355 23.345 23.325 23.308 23.298 23.297 23.28 23.21 23.102 22.985 22.873 22.785 22.71 22.628 22.565 22.538 22.545 22.577 22.585 22.555 22.555 22.615 22.7 22.767 22.76 22.713 22.68 22.647 22.61 22.567 22.512 22.41 22.313 22.28 22.26 22.21 22.138 22.07 22.015 21.925 21.78 21.62 21.455 21.3 21.168 21.043 20.93 20.83 20.73 20.625 20.528 20.455 20.387 20.305 20.233 20.188 20.155 20.135 20.1 20.043 19.998 19.963 19.925 19.885 19.83 19.745 19.645 19.545 19.448 19.35 19.26 19.185 19.112 19.03 18.975 18.958 18.945 18.932 18.905 18.87 18.855 18.873 18.905 18.93 18.955 18.998 19.055 19.128 19.22 19.315 19.35 19.303 19.273 19.33 19.405 19.455 19.492 19.505 19.497 19.482 19.47 19.46 19.44 19.38 19.295 19.22 19.127 19.025 18.94 18.98 19.346 20.275 21.177 21.43 21.42 21.41 21.4 21 19.928 18.97 18.705 18.715 18.675 18.607 18.545 18.488 18.445 18.417 18.39 18.362 18.335 18.303 18.273 18.25 18.15 17.993 17.873 17.76 17.64 17.52 17.413 17.33 17.283 17.268 17.27 17.28 17.29 17.3 17.307 17.307 17.315 17.383 17.467 17.505 17.45 17.358 17.31 17.255 17.2 17.173 17.145 17.092 17.043 17.008 16.975 16.94 16.885 16.818 16.755 16.705 16.642 16.517 16.358 16.21 16.085 15.988 15.905 15.827 15.753 15.685
23.795 23.812 23.787 23.72 23.662 23.602 23.555 23.535 23.53 23.517 23.49 23.46 23.435 23.435 23.435 23.413 23.39 23.365 23.363 23.387 23.41 23.412 23.395 23.377 23.36 23.342 23.29 23.185 23.068 22.95 22.833 22.738 22.67 22.625 22.62 22.645 22.675 22.7 22.697 22.67 22.65 22.675 22.75 22.837 22.867 22.84 22.807 22.77 22.73 22.69 22.645 22.57 22.46 22.39 22.35 22.282 22.205 22.13 22.037 21.9 21.74 21.58 21.423 21.285 21.163 21.038 20.923 20.822 20.725 20.622 20.533 20.465 20.4 20.328 20.27 20.232 20.197 20.167 20.125 20.065 20.01 19.963 19.92 19.88 19.84 19.777 19.687 19.59 19.49 19.39 19.3 19.228 19.163 19.1 19.065 19.055 19.045 19.035 19.02 18.985 18.94 18.918 18.935 18.978 19.043 19.14 19.25 19.357 19.46 19.555 19.58 19.515 19.43 19.395 19.425 19.475 19.525 19.565 19.572 19.555 19.54 19.527 19.497 19.435 19.36 19.282 19.19 19.1 19.02 18.938 18.88 19.233 20.302 21.212 21.415 21.405 21.217 20.312 19.183 18.733 18.705 18.73 18.707 18.647 18.592 18.537 18.492 18.462 18.437 18.412 18.385 18.352 18.32 18.29 18.205 18.083 17.977 17.865 17.742 17.62 17.5 17.39 17.333 17.33 17.34 17.35 17.36 17.37 17.38 17.387 17.395 17.433 17.475 17.495 17.44 17.315 17.233 17.19 17.168 17.16 17.117 17.05 17 16.965 16.935 16.9 16.847 16.788 16.737 16.695 16.635 16.512 16.34 16.17 16.05 15.975 15.905 15.835 15.762 15.692
23.86 23.882 23.867 23.81 23.747 23.68 23.642 23.645 23.645 23.622 23.587 23.552 23.517 23.477 23.445 23.425 23.405 23.388 23.393 23.417 23.445 23.46 23.447 23.423 23.4 23.377 23.302 23.178 23.053 22.928 22.803 22.69 22.648 22.673 22.705 22.735 22.765 22.762 22.735 22.715 22.7 22.72 22.79 22.882 22.922 22.895 22.852 22.807 22.76 22.715 22.682 22.64 22.557 22.48 22.412 22.332 22.255 22.18 22.065 21.905 21.743 21.58 21.425 21.29 21.17 21.045 20.918 20.805 20.705 20.605 20.523 20.46 20.395 20.338 20.295 20.26 20.228 20.202 20.167 20.11 20.048 19.99 19.945 19.905 19.857 19.782 19.69 19.595 19.495 19.397 19.315 19.265 19.222 19.17 19.143 19.137 19.132 19.127 19.122 19.102 19.057 19.008 19.015 19.088 19.193 19.315 19.435 19.555 19.67 19.772 19.757 19.625 19.485 19.4 19.42 19.48 19.53 19.58 19.592 19.57 19.552 19.537 19.525 19.492 19.427 19.345 19.257 19.17 19.08 18.993 18.918 18.853 19.356 20.49 21.25 21.339 20.6 19.405 18.825 18.735 18.7 18.717 18.705 18.65 18.6 18.552 18.512 18.48 18.452 18.427 18.397 18.365 18.337 18.312 18.257 18.167 18.072 17.962 17.832 17.7 17.572 17.45 17.393 17.4 17.41 17.42 17.43 17.44 17.453 17.465 17.475 17.488 17.503 17.502 17.445 17.318 17.203 17.163 17.165 17.142 17.075 17.005 16.958 16.925 16.892 16.855 16.805 16.75 16.702 16.657 16.595 16.47 16.285 16.098 15.978 15.915 15.852 15.795 15.747 15.69
23.842 23.877 23.89 23.86 23.8 23.73 23.695 23.702 23.695 23.66 23.62 23.58 23.537 23.49 23.455 23.435 23.415 23.4 23.408 23.435 23.465 23.49 23.49 23.463 23.43 23.402 23.327 23.2 23.073 22.948 22.818 22.703 22.678 22.725 22.765 22.795 22.805 22.765 22.72 22.708 22.715 22.75 22.82 22.895 22.905 22.86 22.81 22.76 22.718 22.69 22.675 22.637 22.577 22.517 22.442 22.36 22.285 22.222 22.115 21.955 21.793 21.63 21.468 21.318 21.19 21.062 20.928 20.798 20.683 20.58 20.5 20.44 20.383 20.34 20.305 20.273 20.253 20.245 20.22 20.165 20.1 20.038 19.99 19.942 19.867 19.76 19.658 19.567 19.47 19.373 19.303 19.28 19.267 19.235 19.215 19.21 19.205 19.202 19.197 19.187 19.165 19.128 19.145 19.24 19.357 19.477 19.587 19.69 19.792 19.842 19.737 19.535 19.358 19.308 19.382 19.465 19.525 19.575 19.582 19.553 19.53 19.515 19.515 19.515 19.477 19.4 19.305 19.205 19.115 19.043 18.985 18.91 19.09 19.995 20.844 20.639 19.623 18.898 18.808 18.77 18.71 18.695 18.675 18.623 18.578 18.538 18.503 18.47 18.44 18.412 18.382 18.35 18.33 18.322 18.287 18.215 18.142 18.037 17.89 17.745 17.608 17.5 17.465 17.475 17.49 17.51 17.523 17.525 17.533 17.545 17.555 17.56 17.545 17.502 17.44 17.347 17.24 17.178 17.155 17.107 17.03 16.96 16.915 16.885 16.852 16.812 16.745 16.673 16.62 16.572 16.502 16.37 16.187 16.003 15.883 15.82 15.773 15.748 15.727 15.68
23.8 23.835 23.86 23.867 23.84 23.78 23.748 23.745 23.72 23.68 23.64 23.6 23.555 23.503 23.465 23.448 23.43 23.415 23.423 23.453 23.485 23.517 23.53 23.51 23.477 23.432 23.352 23.242 23.127 23.01 22.888 22.798 22.765 22.785 22.825 22.84 22.81 22.748 22.71 22.718 22.75 22.79 22.845 22.875 22.852 22.812 22.765 22.723 22.698 22.685 22.672 22.632 22.578 22.527 22.46 22.388 22.325 22.27 22.165 22.005 21.847 21.69 21.525 21.358 21.213 21.08 20.943 20.805 20.673 20.56 20.48 20.428 20.385 20.35 20.32 20.3 20.295 20.297 20.272 20.215 20.15 20.083 20.025 19.952 19.845 19.725 19.623 19.535 19.442 19.345 19.288 19.28 19.283 19.282 19.275 19.263 19.253 19.245 19.235 19.227 19.23 19.235 19.278 19.372 19.477 19.577 19.67 19.755 19.817 19.757 19.57 19.37 19.238 19.245 19.337 19.43 19.512 19.572 19.577 19.545 19.518 19.495 19.49 19.495 19.477 19.417 19.323 19.233 19.168 19.115 19.055 18.945 19.163 19.947 20.262 19.585 18.953 18.853 18.862 18.805 18.733 18.685 18.65 18.605 18.568 18.532 18.495 18.46 18.428 18.398 18.37 18.345 18.335 18.335 18.31 18.253 18.202 18.117 17.958 17.785 17.635 17.55 17.545 17.565 17.59 17.62 17.642 17.643 17.633 17.632 17.625 17.595 17.542 17.478 17.41 17.342 17.267 17.198 17.135 17.063 16.985 16.918 16.875 16.845 16.817 16.777 16.69 16.585 16.513 16.465 16.382 16.24 16.075 15.905 15.795 15.755 15.74 15.74 15.722 15.672
23.76 23.795 23.82 23.84 23.847 23.82 23.793 23.773 23.74 23.71 23.678 23.635 23.58 23.52 23.48 23.463 23.448 23.433 23.44 23.475 23.51 23.545 23.56 23.547 23.517 23.452 23.362 23.267 23.167 23.06 22.962 22.91 22.885 22.87 22.877 22.86 22.798 22.735 22.72 22.747 22.785 22.822 22.85 22.84 22.803 22.765 22.73 22.708 22.695 22.685 22.67 22.632 22.582 22.535 22.477 22.42 22.367 22.315 22.212 22.058 21.903 21.747 21.582 21.408 21.245 21.1 20.96 20.823 20.685 20.555 20.47 20.43 20.398 20.365 20.345 20.34 20.342 20.347 20.32 20.26 20.195 20.125 20.042 19.935 19.815 19.695 19.588 19.495 19.408 19.323 19.288 19.3 19.313 19.332 19.335 19.315 19.298 19.28 19.263 19.26 19.28 19.313 19.362 19.44 19.53 19.615 19.7 19.787 19.777 19.617 19.42 19.263 19.19 19.213 19.288 19.38 19.475 19.557 19.575 19.545 19.515 19.488 19.473 19.463 19.445 19.41 19.347 19.285 19.235 19.185 19.105 18.97 19.005 19.322 19.34 18.99 18.86 18.92 18.91 18.84 18.768 18.71 18.675 18.633 18.58 18.53 18.488 18.453 18.418 18.385 18.363 18.352 18.347 18.345 18.332 18.302 18.27 18.215 18.07 17.865 17.685 17.613 17.635 17.667 17.7 17.73 17.76 17.775 17.747 17.7 17.657 17.6 17.535 17.47 17.403 17.34 17.275 17.21 17.133 17.04 16.948 16.875 16.838 16.81 16.785 16.74 16.645 16.525 16.423 16.357 16.26 16.105 15.968 15.833 15.745 15.735 15.735 15.737 15.72 15.67
23.735 23.78 23.813 23.828 23.843 23.853 23.843 23.815 23.788 23.765 23.742 23.697 23.63 23.563 23.513 23.488 23.473 23.458 23.475 23.52 23.555 23.585 23.587 23.57 23.525 23.437 23.34 23.245 23.15 23.052 22.98 22.952 22.942 22.93 22.92 22.88 22.813 22.76 22.738 22.753 22.787 22.822 22.835 22.813 22.775 22.743 22.72 22.703 22.692 22.685 22.667 22.63 22.577 22.522 22.47 22.42 22.37 22.332 22.252 22.112 21.96 21.805 21.642 21.468 21.298 21.145 21.005 20.868 20.73 20.585 20.488 20.45 20.42 20.39 20.375 20.375 20.38 20.38 20.345 20.282 20.215 20.142 20.042 19.918 19.793 19.668 19.555 19.47 19.405 19.353 19.335 19.35 19.37 19.395 19.405 19.387 19.365 19.34 19.32 19.323 19.35 19.385 19.418 19.475 19.56 19.645 19.73 19.77 19.66 19.475 19.333 19.228 19.19 19.203 19.248 19.33 19.423 19.535 19.582 19.55 19.525 19.513 19.503 19.485 19.465 19.43 19.372 19.312 19.26 19.21 19.12 18.98 18.855 18.78 18.773 18.828 18.905 18.967 18.952 18.88 18.81 18.76 18.762 18.745 18.675 18.603 18.528 18.468 18.43 18.395 18.363 18.348 18.342 18.34 18.332 18.315 18.282 18.227 18.092 17.88 17.698 17.643 17.677 17.712 17.747 17.78 17.812 17.832 17.79 17.705 17.652 17.61 17.55 17.485 17.42 17.357 17.293 17.23 17.152 17.052 16.943 16.85 16.805 16.78 16.755 16.702 16.6 16.48 16.363 16.273 16.188 16.08 15.968 15.83 15.733 15.715 15.717 15.722 15.71 15.67
23.738 23.797 23.837 23.85 23.868 23.908 23.917 23.888 23.863 23.84 23.815 23.765 23.695 23.63 23.575 23.535 23.51 23.495 23.52 23.575 23.615 23.635 23.615 23.577 23.51 23.403 23.3 23.205 23.11 23.023 22.96 22.93 22.93 22.958 22.967 22.923 22.87 22.833 22.788 22.755 22.765 22.797 22.815 22.797 22.765 22.753 22.735 22.7 22.683 22.677 22.657 22.612 22.555 22.498 22.442 22.39 22.34 22.327 22.28 22.155 22.015 21.865 21.705 21.533 21.368 21.218 21.075 20.935 20.787 20.63 20.525 20.483 20.448 20.415 20.403 20.405 20.402 20.39 20.35 20.285 20.215 20.14 20.04 19.917 19.79 19.658 19.558 19.51 19.475 19.445 19.43 19.428 19.438 19.458 19.472 19.46 19.435 19.415 19.405 19.408 19.43 19.465 19.49 19.523 19.59 19.677 19.74 19.682 19.528 19.398 19.295 19.218 19.198 19.21 19.23 19.285 19.37 19.515 19.597 19.57 19.56 19.568 19.57 19.555 19.525 19.47 19.393 19.315 19.253 19.2 19.11 18.985 18.885 18.805 18.793 18.85 18.92 18.99 18.992 18.93 18.86 18.81 18.855 18.892 18.835 18.747 18.635 18.533 18.468 18.428 18.385 18.345 18.325 18.317 18.305 18.27 18.21 18.135 18.002 17.8 17.653 17.628 17.66 17.695 17.73 17.765 17.8 17.807 17.757 17.678 17.63 17.61 17.567 17.505 17.44 17.375 17.31 17.25 17.175 17.072 16.952 16.835 16.77 16.747 16.725 16.667 16.56 16.44 16.35 16.298 16.25 16.175 16.04 15.865 15.738 15.693 15.69 15.692 15.682 15.66
23.758 23.822 23.865 23.89 23.935 23.995 24.005 23.97 23.943 23.917 23.882 23.827 23.76 23.7 23.65 23.6 23.558 23.533 23.555 23.62 23.672 23.685 23.65 23.585 23.49 23.37 23.263 23.167 23.073 22.998 22.948 22.92 22.943 23.005 23.022 22.983 22.945 22.915 22.872 22.815 22.778 22.78 22.797 22.785 22.765 22.772 22.755 22.71 22.678 22.662 22.637 22.585 22.528 22.472 22.415 22.36 22.323 22.335 22.3 22.18 22.055 21.917 21.762 21.6 21.442 21.29 21.145 20.997 20.837 20.673 20.563 20.515 20.475 20.44 20.428 20.425 20.41 20.39 20.35 20.285 20.212 20.135 20.035 19.915 19.793 19.668 19.598 19.59 19.577 19.555 19.54 19.53 19.525 19.528 19.537 19.53 19.51 19.5 19.495 19.498 19.515 19.542 19.565 19.585 19.63 19.71 19.71 19.59 19.465 19.368 19.27 19.208 19.203 19.217 19.23 19.255 19.33 19.507 19.617 19.608 19.615 19.63 19.637 19.617 19.567 19.497 19.417 19.335 19.258 19.192 19.105 18.998 18.9 18.813 18.805 18.868 18.933 19.005 19.022 18.972 18.91 18.86 18.92 19.012 18.99 18.89 18.767 18.645 18.54 18.47 18.423 18.373 18.328 18.293 18.25 18.185 18.105 18.022 17.905 17.733 17.62 17.613 17.64 17.677 17.712 17.747 17.775 17.765 17.72 17.653 17.603 17.59 17.567 17.52 17.46 17.395 17.33 17.267 17.192 17.085 16.955 16.825 16.738 16.71 16.695 16.632 16.538 16.463 16.43 16.427 16.382 16.255 16.075 15.89 15.755 15.683 15.66 15.66 15.647 15.632
23.785 23.847 23.902 23.957 24.032 24.095 24.095 24.06 24.027 23.995 23.952 23.892 23.828 23.77 23.72 23.67 23.62 23.578 23.59 23.658 23.722 23.727 23.665 23.572 23.462 23.343 23.23 23.13 23.04 22.978 22.938 22.923 22.968 23.05 23.082 23.06 23.03 23 22.957 22.9 22.843 22.803 22.79 22.783 22.783 22.795 22.775 22.73 22.69 22.655 22.613 22.558 22.503 22.445 22.388 22.333 22.318 22.355 22.32 22.197 22.07 21.937 21.797 21.652 21.507 21.357 21.205 21.047 20.882 20.715 20.6 20.55 20.51 20.473 20.45 20.435 20.415 20.392 20.35 20.282 20.208 20.13 20.03 19.91 19.8 19.705 19.66 19.663 19.665 19.657 19.645 19.635 19.625 19.615 19.612 19.605 19.595 19.59 19.587 19.592 19.602 19.62 19.64 19.66 19.687 19.712 19.655 19.54 19.44 19.343 19.25 19.205 19.21 19.223 19.235 19.248 19.32 19.512 19.64 19.65 19.667 19.685 19.695 19.665 19.597 19.522 19.442 19.357 19.27 19.19 19.105 19.005 18.905 18.823 18.82 18.885 18.95 19.02 19.042 19.002 18.952 18.91 18.97 19.09 19.092 18.992 18.875 18.757 18.642 18.54 18.465 18.402 18.34 18.28 18.2 18.098 17.998 17.908 17.81 17.688 17.61 17.6 17.62 17.66 17.695 17.73 17.742 17.715 17.675 17.62 17.575 17.56 17.547 17.522 17.475 17.413 17.35 17.285 17.205 17.092 16.958 16.825 16.713 16.665 16.655 16.607 16.547 16.512 16.49 16.472 16.415 16.28 16.097 15.91 15.778 15.693 15.643 15.627 15.612 15.597
23.815 23.875 23.935 24.005 24.09 24.157 24.167 24.14 24.105 24.07 24.022 23.955 23.893 23.843 23.795 23.745 23.695 23.653 23.665 23.73 23.782 23.752 23.65 23.538 23.425 23.313 23.198 23.093 23.018 22.973 22.938 22.925 22.975 23.047 23.087 23.1 23.095 23.08 23.042 22.985 22.927 22.87 22.823 22.795 22.795 22.81 22.792 22.75 22.707 22.665 22.623 22.573 22.515 22.458 22.403 22.335 22.308 22.342 22.302 22.177 22.045 21.91 21.78 21.645 21.51 21.377 21.242 21.092 20.925 20.758 20.648 20.6 20.56 20.52 20.478 20.445 20.425 20.4 20.35 20.278 20.205 20.132 20.05 19.955 19.865 19.788 19.75 19.75 19.737 19.725 19.72 19.71 19.7 19.69 19.68 19.672 19.67 19.665 19.665 19.672 19.677 19.687 19.705 19.725 19.727 19.687 19.61 19.515 19.417 19.32 19.238 19.21 19.22 19.23 19.243 19.265 19.323 19.495 19.63 19.645 19.665 19.685 19.695 19.662 19.592 19.517 19.435 19.345 19.257 19.177 19.1 19.01 18.91 18.833 18.838 18.903 18.967 19.032 19.06 19.03 18.982 18.94 18.955 19.017 19.02 18.94 18.83 18.72 18.627 18.56 18.495 18.418 18.343 18.277 18.19 18.073 17.953 17.843 17.735 17.648 17.605 17.588 17.598 17.635 17.672 17.705 17.702 17.665 17.625 17.585 17.553 17.533 17.52 17.507 17.48 17.43 17.367 17.295 17.207 17.095 16.96 16.82 16.678 16.605 16.587 16.547 16.502 16.46 16.425 16.395 16.342 16.237 16.09 15.925 15.8 15.715 15.64 15.588 15.557 15.537
23.848 23.905 23.96 24.018 24.092 24.165 24.197 24.195 24.172 24.14 24.09 24.025 23.97 23.923 23.875 23.828 23.785 23.758 23.78 23.84 23.85 23.767 23.645 23.525 23.408 23.29 23.17 23.07 23.013 22.978 22.943 22.925 22.955 22.995 23.022 23.06 23.092 23.102 23.097 23.067 23.01 22.953 22.898 22.84 22.803 22.8 22.787 22.755 22.72 22.685 22.655 22.62 22.57 22.513 22.455 22.365 22.29 22.29 22.242 22.117 21.99 21.86 21.73 21.597 21.463 21.345 21.245 21.125 20.97 20.803 20.698 20.66 20.625 20.582 20.523 20.468 20.44 20.407 20.347 20.275 20.203 20.133 20.073 20.015 19.953 19.888 19.84 19.81 19.78 19.77 19.772 19.765 19.755 19.74 19.728 19.727 19.73 19.725 19.725 19.735 19.735 19.738 19.752 19.752 19.715 19.65 19.575 19.487 19.392 19.295 19.23 19.22 19.23 19.248 19.273 19.305 19.345 19.478 19.592 19.6 19.615 19.635 19.64 19.612 19.555 19.48 19.395 19.308 19.228 19.155 19.085 19.007 18.913 18.84 18.855 18.92 18.98 19.025 19.042 19.027 18.985 18.935 18.898 18.883 18.858 18.775 18.67 18.61 18.583 18.563 18.52 18.435 18.348 18.273 18.192 18.087 17.965 17.837 17.703 17.623 17.598 17.575 17.578 17.608 17.642 17.67 17.66 17.625 17.605 17.595 17.575 17.548 17.525 17.503 17.478 17.442 17.38 17.292 17.2 17.092 16.96 16.805 16.63 16.535 16.497 16.438 16.388 16.348 16.32 16.297 16.25 16.152 16.03 15.918 15.828 15.748 15.66 15.568 15.49 15.445
23.888 23.932 23.985 24.035 24.093 24.157 24.197 24.212 24.215 24.202 24.162 24.105 24.057 24.01 23.96 23.92 23.893 23.873 23.895 23.927 23.887 23.78 23.655 23.535 23.415 23.298 23.193 23.11 23.06 23.028 22.993 22.955 22.923 22.923 22.95 22.99 23.035 23.068 23.097 23.112 23.087 23.037 22.98 22.915 22.85 22.803 22.768 22.737 22.71 22.682 22.662 22.647 22.617 22.567 22.5 22.387 22.268 22.228 22.175 22.052 21.927 21.802 21.677 21.55 21.42 21.31 21.22 21.125 21.005 20.85 20.748 20.717 20.687 20.647 20.585 20.51 20.463 20.415 20.345 20.278 20.208 20.165 20.14 20.098 20.052 19.98 19.888 19.83 19.815 19.82 19.825 19.82 19.807 19.785 19.77 19.777 19.787 19.787 19.788 19.79 19.782 19.782 19.777 19.735 19.67 19.6 19.53 19.452 19.365 19.27 19.223 19.233 19.253 19.285 19.32 19.355 19.395 19.483 19.56 19.567 19.57 19.585 19.582 19.552 19.507 19.44 19.358 19.278 19.205 19.135 19.065 18.995 18.913 18.853 18.872 18.92 18.945 18.957 18.965 18.967 18.952 18.915 18.87 18.838 18.805 18.733 18.65 18.628 18.627 18.61 18.557 18.467 18.373 18.283 18.2 18.097 17.97 17.832 17.695 17.618 17.593 17.57 17.57 17.59 17.613 17.635 17.64 17.635 17.643 17.65 17.635 17.605 17.575 17.54 17.5 17.452 17.367 17.272 17.192 17.09 16.95 16.775 16.585 16.463 16.398 16.325 16.275 16.248 16.225 16.202 16.16 16.077 15.983 15.915 15.86 15.787 15.695 15.585 15.47 15.378
23.927 23.95 23.995 24.047 24.102 24.16 24.197 24.215 24.233 24.242 24.225 24.185 24.142 24.095 24.053 24.025 24.007 23.99 23.995 23.977 23.9 23.792 23.668 23.548 23.445 23.358 23.278 23.205 23.153 23.12 23.085 23.025 22.945 22.89 22.883 22.915 22.968 23.043 23.1 23.123 23.132 23.11 23.052 22.97 22.887 22.82 22.76 22.713 22.683 22.66 22.647 22.64 22.625 22.602 22.535 22.402 22.255 22.178 22.107 21.985 21.863 21.738 21.618 21.498 21.388 21.293 21.198 21.105 21.01 20.885 20.798 20.77 20.742 20.71 20.647 20.56 20.49 20.427 20.358 20.293 20.238 20.24 20.265 20.24 20.165 20.037 19.913 19.865 19.868 19.873 19.875 19.87 19.853 19.828 19.815 19.823 19.838 19.847 19.847 19.84 19.825 19.805 19.76 19.69 19.62 19.548 19.475 19.403 19.328 19.255 19.233 19.26 19.295 19.335 19.37 19.405 19.445 19.495 19.532 19.535 19.527 19.527 19.515 19.482 19.45 19.4 19.327 19.255 19.185 19.115 19.045 18.975 18.902 18.853 18.858 18.877 18.873 18.865 18.868 18.875 18.882 18.875 18.845 18.817 18.8 18.755 18.702 18.68 18.667 18.65 18.592 18.5 18.402 18.302 18.207 18.095 17.96 17.815 17.683 17.613 17.593 17.578 17.578 17.593 17.61 17.625 17.653 17.687 17.707 17.715 17.697 17.665 17.632 17.587 17.532 17.46 17.33 17.215 17.152 17.062 16.91 16.72 16.53 16.395 16.32 16.25 16.188 16.15 16.13 16.107 16.072 16.01 15.94 15.882 15.835 15.782 15.712 15.617 15.5 15.38
23.93 23.938 23.975 24.03 24.09 24.145 24.195 24.232 24.255 24.272 24.267 24.24 24.205 24.165 24.137 24.12 24.105 24.095 24.067 24 23.91 23.805 23.695 23.603 23.528 23.458 23.38 23.303 23.245 23.21 23.17 23.1 23.013 22.928 22.865 22.875 22.958 23.075 23.147 23.16 23.165 23.14 23.067 22.967 22.883 22.83 22.77 22.7 22.658 22.635 22.62 22.61 22.6 22.59 22.525 22.395 22.255 22.145 22.043 21.923 21.808 21.688 21.57 21.473 21.405 21.33 21.228 21.128 21.03 20.928 20.85 20.81 20.782 20.747 20.68 20.592 20.515 20.448 20.385 20.32 20.293 20.328 20.377 20.352 20.222 20.073 19.968 19.93 19.932 19.935 19.93 19.93 19.92 19.89 19.88 19.89 19.905 19.91 19.89 19.865 19.845 19.812 19.753 19.678 19.605 19.533 19.458 19.388 19.33 19.285 19.265 19.285 19.325 19.362 19.397 19.435 19.472 19.497 19.485 19.455 19.44 19.43 19.41 19.382 19.355 19.315 19.262 19.197 19.125 19.055 18.985 18.915 18.858 18.833 18.835 18.84 18.828 18.808 18.795 18.79 18.795 18.805 18.8 18.787 18.772 18.73 18.69 18.68 18.677 18.67 18.612 18.512 18.412 18.307 18.202 18.08 17.94 17.798 17.673 17.613 17.6 17.59 17.593 17.61 17.625 17.63 17.663 17.722 17.765 17.78 17.76 17.717 17.67 17.61 17.545 17.46 17.305 17.148 17.065 16.985 16.832 16.638 16.46 16.345 16.28 16.22 16.143 16.065 16.025 16.005 15.972 15.917 15.852 15.795 15.755 15.728 15.7 15.615 15.482 15.36
23.9 23.903 23.938 23.992 24.048 24.103 24.17 24.237 24.28 24.305 24.3 24.27 24.237 24.202 24.18 24.167 24.157 24.16 24.117 24.023 23.935 23.85 23.773 23.71 23.642 23.565 23.485 23.405 23.34 23.3 23.25 23.17 23.08 22.995 22.923 22.928 23.025 23.145 23.212 23.207 23.175 23.117 23.03 22.945 22.89 22.85 22.79 22.708 22.643 22.608 22.593 22.582 22.567 22.547 22.475 22.352 22.23 22.115 22 21.885 21.773 21.658 21.548 21.483 21.462 21.405 21.302 21.198 21.1 21.02 20.928 20.843 20.8 20.757 20.688 20.61 20.54 20.475 20.413 20.36 20.368 20.41 20.43 20.362 20.218 20.108 20.038 20.003 19.997 19.99 19.983 20 20.015 19.99 19.98 19.995 19.995 19.96 19.903 19.863 19.848 19.827 19.775 19.702 19.628 19.558 19.498 19.448 19.41 19.375 19.333 19.313 19.333 19.368 19.405 19.442 19.467 19.472 19.427 19.358 19.32 19.305 19.285 19.257 19.22 19.175 19.137 19.092 19.027 18.955 18.885 18.828 18.808 18.82 18.832 18.825 18.8 18.773 18.753 18.738 18.73 18.73 18.733 18.74 18.74 18.707 18.673 18.665 18.665 18.667 18.615 18.508 18.405 18.3 18.185 18.055 17.915 17.775 17.665 17.62 17.61 17.603 17.61 17.625 17.63 17.63 17.655 17.722 17.795 17.825 17.8 17.745 17.685 17.622 17.557 17.46 17.295 17.105 16.978 16.88 16.73 16.543 16.393 16.31 16.255 16.2 16.117 16.015 15.938 15.9 15.862 15.808 15.758 15.725 15.705 15.693 15.687 15.62 15.45 15.28
23.873 23.865 23.898 23.952 24.005 24.06 24.128 24.205 24.277 24.327 24.33 24.297 24.257 24.218 24.195 24.19 24.195 24.207 24.165 24.065 23.993 23.943 23.885 23.822 23.75 23.67 23.59 23.51 23.438 23.387 23.327 23.24 23.15 23.065 23.018 23.053 23.14 23.222 23.247 23.205 23.143 23.078 23.008 22.95 22.91 22.87 22.812 22.73 22.648 22.59 22.565 22.55 22.527 22.5 22.422 22.305 22.198 22.097 21.987 21.868 21.75 21.635 21.545 21.51 21.51 21.47 21.38 21.283 21.205 21.145 21.04 20.908 20.825 20.768 20.7 20.633 20.568 20.505 20.44 20.415 20.43 20.425 20.395 20.302 20.188 20.125 20.08 20.05 20.04 20.028 20.03 20.065 20.102 20.102 20.1 20.097 20.052 19.975 19.9 19.863 19.855 19.845 19.797 19.73 19.673 19.623 19.585 19.555 19.522 19.485 19.435 19.385 19.36 19.375 19.412 19.435 19.44 19.435 19.385 19.298 19.225 19.185 19.16 19.123 19.073 19.025 18.99 18.963 18.922 18.858 18.795 18.775 18.795 18.82 18.822 18.8 18.77 18.738 18.715 18.702 18.687 18.673 18.668 18.68 18.695 18.68 18.655 18.653 18.657 18.662 18.612 18.505 18.398 18.288 18.165 18.03 17.893 17.755 17.658 17.628 17.622 17.62 17.625 17.63 17.63 17.63 17.645 17.7 17.772 17.812 17.795 17.745 17.692 17.635 17.57 17.46 17.285 17.085 16.913 16.773 16.623 16.458 16.343 16.285 16.235 16.177 16.092 15.988 15.888 15.813 15.765 15.73 15.708 15.7 15.698 15.693 15.69 15.65 15.49 15.253
23.86 23.835 23.855 23.91 23.965 24.018 24.083 24.16 24.242 24.315 24.337 24.315 24.275 24.235 24.22 24.228 24.247 24.262 24.215 24.125 24.078 24.05 23.997 23.927 23.85 23.77 23.69 23.61 23.535 23.472 23.4 23.31 23.223 23.143 23.115 23.165 23.245 23.297 23.277 23.215 23.153 23.088 23.03 22.983 22.938 22.892 22.835 22.755 22.665 22.588 22.543 22.518 22.49 22.455 22.38 22.28 22.185 22.09 21.983 21.858 21.735 21.623 21.56 21.55 21.55 21.53 21.467 21.387 21.32 21.255 21.147 21.002 20.878 20.79 20.722 20.657 20.592 20.53 20.47 20.44 20.417 20.373 20.328 20.255 20.178 20.128 20.09 20.07 20.063 20.065 20.088 20.13 20.175 20.202 20.197 20.147 20.065 19.975 19.9 19.868 19.865 19.86 19.827 19.78 19.745 19.715 19.687 19.66 19.627 19.59 19.54 19.485 19.433 19.403 19.405 19.405 19.4 19.392 19.34 19.25 19.16 19.088 19.045 19.005 18.958 18.915 18.878 18.845 18.813 18.765 18.738 18.758 18.792 18.815 18.805 18.775 18.743 18.708 18.678 18.657 18.64 18.623 18.615 18.623 18.64 18.645 18.64 18.645 18.652 18.657 18.61 18.507 18.4 18.285 18.155 18.015 17.88 17.745 17.653 17.63 17.633 17.638 17.643 17.645 17.645 17.645 17.653 17.685 17.728 17.76 17.755 17.715 17.675 17.63 17.575 17.46 17.277 17.08 16.885 16.71 16.538 16.393 16.315 16.265 16.215 16.155 16.067 15.963 15.858 15.775 15.728 15.708 15.705 15.703 15.7 15.697 15.692 15.657 15.547 15.315
23.865 23.83 23.833 23.875 23.925 23.978 24.043 24.12 24.197 24.265 24.292 24.282 24.257 24.243 24.257 24.28 24.302 24.312 24.263 24.198 24.175 24.155 24.11 24.04 23.958 23.875 23.793 23.71 23.633 23.558 23.48 23.398 23.318 23.245 23.213 23.245 23.312 23.36 23.335 23.268 23.205 23.143 23.085 23.033 22.98 22.925 22.86 22.782 22.695 22.608 22.55 22.52 22.49 22.44 22.36 22.267 22.173 22.088 22 21.888 21.765 21.66 21.613 21.61 21.607 21.587 21.535 21.465 21.392 21.317 21.21 21.07 20.925 20.81 20.737 20.672 20.608 20.555 20.51 20.458 20.405 20.355 20.305 20.248 20.183 20.125 20.095 20.095 20.108 20.135 20.175 20.218 20.262 20.287 20.25 20.165 20.078 19.99 19.913 19.88 19.88 19.867 19.837 19.805 19.775 19.747 19.722 19.695 19.65 19.605 19.577 19.537 19.482 19.427 19.398 19.39 19.38 19.347 19.275 19.185 19.1 19.043 19.008 18.97 18.93 18.89 18.85 18.81 18.765 18.71 18.7 18.735 18.775 18.81 18.802 18.77 18.737 18.69 18.638 18.605 18.585 18.568 18.56 18.568 18.585 18.6 18.61 18.62 18.625 18.63 18.595 18.512 18.415 18.3 18.167 18.023 17.88 17.738 17.653 17.643 17.653 17.665 17.677 17.685 17.685 17.688 17.695 17.713 17.737 17.737 17.7 17.655 17.62 17.582 17.535 17.442 17.28 17.088 16.893 16.715 16.533 16.378 16.298 16.245 16.195 16.135 16.045 15.94 15.855 15.805 15.76 15.72 15.71 15.707 15.703 15.7 15.697 15.665 15.575 15.42
23.872 23.84 23.833 23.855 23.89 23.94 24.007 24.08 24.145 24.2 24.22 24.208 24.203 24.23 24.282 24.327 24.357 24.362 24.323 24.283 24.262 24.235 24.21 24.175 24.105 24.018 23.933 23.848 23.765 23.68 23.593 23.51 23.435 23.365 23.328 23.338 23.383 23.422 23.395 23.325 23.258 23.195 23.14 23.087 23.025 22.95 22.875 22.807 22.73 22.643 22.58 22.545 22.507 22.44 22.35 22.258 22.175 22.11 22.045 21.95 21.833 21.738 21.698 21.692 21.672 21.625 21.562 21.497 21.427 21.352 21.247 21.105 20.95 20.82 20.74 20.68 20.63 20.6 20.565 20.508 20.448 20.39 20.335 20.275 20.205 20.153 20.14 20.16 20.195 20.24 20.285 20.325 20.35 20.337 20.277 20.19 20.102 20.015 19.938 19.903 19.895 19.87 19.83 19.793 19.76 19.733 19.705 19.662 19.58 19.518 19.52 19.522 19.487 19.433 19.403 19.392 19.357 19.285 19.195 19.11 19.055 19.045 19.03 18.99 18.95 18.91 18.87 18.825 18.76 18.683 18.663 18.7 18.75 18.807 18.817 18.785 18.74 18.665 18.598 18.56 18.533 18.51 18.503 18.515 18.532 18.545 18.557 18.57 18.575 18.577 18.552 18.492 18.42 18.32 18.19 18.042 17.885 17.725 17.655 17.673 17.69 17.705 17.717 17.73 17.735 17.74 17.75 17.767 17.767 17.712 17.638 17.585 17.545 17.5 17.45 17.39 17.275 17.1 16.908 16.737 16.577 16.415 16.3 16.23 16.175 16.112 16.023 15.94 15.895 15.867 15.82 15.753 15.715 15.71 15.707 15.703 15.7 15.675 15.592 15.49
23.862 23.847 23.84 23.853 23.873 23.908 23.965 24.027 24.08 24.127 24.147 24.145 24.165 24.215 24.28 24.345 24.4 24.417 24.392 24.36 24.325 24.29 24.28 24.282 24.26 24.195 24.11 24.027 23.945 23.857 23.755 23.65 23.56 23.485 23.45 23.45 23.465 23.485 23.455 23.385 23.315 23.248 23.187 23.125 23.045 22.955 22.878 22.817 22.752 22.675 22.61 22.565 22.51 22.43 22.343 22.265 22.205 22.152 22.095 22.007 21.903 21.82 21.78 21.757 21.707 21.642 21.58 21.52 21.457 21.387 21.28 21.13 20.97 20.833 20.75 20.71 20.685 20.665 20.63 20.567 20.495 20.433 20.377 20.315 20.26 20.235 20.237 20.26 20.3 20.35 20.39 20.41 20.4 20.365 20.302 20.215 20.125 20.038 19.963 19.923 19.9 19.865 19.825 19.785 19.748 19.715 19.677 19.6 19.48 19.413 19.425 19.455 19.465 19.435 19.402 19.367 19.295 19.203 19.118 19.065 19.055 19.065 19.052 19.013 18.968 18.925 18.882 18.82 18.73 18.645 18.628 18.675 18.735 18.797 18.822 18.79 18.717 18.625 18.56 18.52 18.483 18.455 18.448 18.46 18.475 18.488 18.502 18.515 18.522 18.525 18.497 18.442 18.387 18.31 18.187 18.032 17.865 17.708 17.66 17.702 17.727 17.743 17.755 17.77 17.782 17.79 17.802 17.795 17.74 17.655 17.573 17.513 17.462 17.407 17.358 17.31 17.242 17.107 16.92 16.75 16.605 16.455 16.328 16.24 16.165 16.093 16.023 15.98 15.955 15.927 15.885 15.81 15.74 15.713 15.71 15.708 15.702 15.682 15.617 15.525
23.825 23.835 23.843 23.857 23.873 23.893 23.928 23.97 24.01 24.053 24.083 24.108 24.15 24.203 24.268 24.34 24.412 24.452 24.437 24.4 24.36 24.33 24.325 24.335 24.347 24.33 24.267 24.192 24.117 24.04 23.94 23.82 23.707 23.61 23.565 23.565 23.565 23.557 23.515 23.445 23.373 23.303 23.228 23.138 23.045 22.955 22.88 22.82 22.763 22.7 22.638 22.577 22.505 22.427 22.355 22.295 22.245 22.195 22.14 22.065 21.98 21.9 21.84 21.787 21.722 21.657 21.595 21.532 21.47 21.405 21.295 21.14 20.98 20.85 20.788 20.768 20.75 20.73 20.695 20.63 20.55 20.48 20.42 20.37 20.342 20.327 20.315 20.31 20.345 20.415 20.452 20.447 20.43 20.395 20.327 20.24 20.15 20.062 19.982 19.93 19.895 19.855 19.815 19.775 19.735 19.692 19.622 19.505 19.37 19.308 19.325 19.355 19.39 19.41 19.385 19.315 19.223 19.133 19.078 19.07 19.08 19.09 19.08 19.04 18.99 18.94 18.877 18.79 18.69 18.605 18.598 18.658 18.723 18.785 18.812 18.77 18.68 18.585 18.52 18.48 18.44 18.408 18.395 18.403 18.418 18.433 18.445 18.458 18.47 18.472 18.44 18.382 18.322 18.252 18.14 17.982 17.818 17.695 17.675 17.72 17.757 17.78 17.795 17.81 17.825 17.835 17.825 17.765 17.68 17.595 17.505 17.43 17.37 17.313 17.265 17.22 17.175 17.092 16.935 16.765 16.622 16.48 16.358 16.262 16.168 16.088 16.04 16.01 15.98 15.947 15.907 15.847 15.777 15.73 15.715 15.715 15.715 15.695 15.637 15.557
23.795 23.825 23.845 23.858 23.872 23.888 23.91 23.943 23.975 24.008 24.045 24.09 24.14 24.193 24.26 24.335 24.402 24.45 24.445 24.405 24.368 24.353 24.36 24.37 24.377 24.372 24.332 24.265 24.195 24.127 24.047 23.94 23.82 23.703 23.645 23.645 23.642 23.622 23.57 23.5 23.433 23.382 23.308 23.198 23.095 22.99 22.903 22.84 22.785 22.73 22.665 22.59 22.503 22.412 22.342 22.287 22.235 22.187 22.145 22.097 22.03 21.942 21.865 21.802 21.737 21.67 21.6 21.528 21.46 21.395 21.282 21.125 20.983 20.885 20.843 20.825 20.807 20.785 20.742 20.677 20.602 20.527 20.463 20.425 20.402 20.372 20.337 20.293 20.303 20.382 20.422 20.415 20.405 20.38 20.322 20.24 20.15 20.06 19.978 19.92 19.877 19.835 19.795 19.755 19.717 19.672 19.572 19.425 19.283 19.225 19.26 19.308 19.353 19.387 19.372 19.3 19.208 19.123 19.09 19.1 19.11 19.12 19.102 19.05 18.992 18.932 18.85 18.753 18.658 18.585 18.59 18.65 18.715 18.78 18.797 18.737 18.643 18.55 18.488 18.453 18.418 18.388 18.373 18.375 18.388 18.393 18.395 18.408 18.42 18.417 18.375 18.31 18.245 18.175 18.067 17.915 17.773 17.713 17.73 17.765 17.8 17.815 17.817 17.827 17.84 17.835 17.787 17.705 17.62 17.53 17.43 17.348 17.283 17.22 17.17 17.127 17.085 17.035 16.93 16.78 16.635 16.492 16.365 16.26 16.16 16.078 16.03 15.997 15.965 15.93 15.89 15.842 15.79 15.755 15.748 15.75 15.735 15.69 15.637 15.577
23.8 23.84 23.86 23.86 23.868 23.883 23.905 23.937 23.967 23.988 24.023 24.077 24.13 24.188 24.257 24.325 24.382 24.432 24.437 24.4 24.373 24.373 24.382 24.385 24.377 24.362 24.325 24.26 24.19 24.128 24.072 23.992 23.88 23.76 23.698 23.695 23.687 23.667 23.62 23.553 23.505 23.485 23.427 23.32 23.205 23.065 22.953 22.893 22.835 22.77 22.692 22.61 22.502 22.368 22.275 22.228 22.188 22.155 22.13 22.095 22.037 21.957 21.878 21.815 21.747 21.672 21.595 21.515 21.443 21.375 21.26 21.113 21.008 20.94 20.898 20.875 20.855 20.825 20.775 20.707 20.635 20.56 20.493 20.45 20.42 20.387 20.345 20.28 20.253 20.302 20.337 20.33 20.322 20.31 20.267 20.197 20.117 20.03 19.953 19.898 19.853 19.81 19.768 19.728 19.695 19.657 19.555 19.398 19.27 19.228 19.268 19.327 19.367 19.38 19.365 19.32 19.242 19.158 19.125 19.135 19.14 19.14 19.107 19.035 18.965 18.9 18.815 18.723 18.648 18.6 18.608 18.655 18.715 18.78 18.78 18.7 18.608 18.525 18.473 18.448 18.42 18.395 18.38 18.38 18.38 18.362 18.355 18.365 18.375 18.365 18.307 18.23 18.163 18.095 17.992 17.848 17.763 17.78 17.82 17.847 17.85 17.825 17.813 17.82 17.815 17.777 17.72 17.645 17.56 17.457 17.35 17.273 17.208 17.143 17.08 17.025 16.98 16.94 16.882 16.777 16.637 16.49 16.358 16.245 16.14 16.05 15.998 15.972 15.945 15.912 15.873 15.828 15.795 15.792 15.802 15.787 15.732 15.66 15.615 15.582
23.828 23.855 23.875 23.872 23.87 23.88 23.905 23.93 23.947 23.963 24 24.062 24.12 24.18 24.247 24.305 24.36 24.415 24.427 24.403 24.39 24.39 24.387 24.377 24.362 24.347 24.315 24.252 24.18 24.123 24.08 24.022 23.932 23.82 23.753 23.742 23.732 23.715 23.673 23.623 23.6 23.587 23.542 23.442 23.302 23.133 23.013 22.952 22.882 22.805 22.72 22.632 22.497 22.323 22.223 22.19 22.165 22.145 22.122 22.082 22.03 21.967 21.895 21.825 21.75 21.67 21.59 21.508 21.428 21.352 21.245 21.133 21.06 21 20.953 20.92 20.887 20.85 20.8 20.732 20.657 20.583 20.51 20.46 20.43 20.4 20.35 20.278 20.218 20.225 20.25 20.243 20.237 20.227 20.192 20.135 20.072 19.997 19.928 19.875 19.828 19.785 19.743 19.705 19.675 19.64 19.542 19.413 19.333 19.295 19.31 19.347 19.362 19.362 19.345 19.315 19.265 19.193 19.16 19.165 19.16 19.147 19.105 19.023 18.938 18.868 18.788 18.71 18.663 18.63 18.633 18.67 18.72 18.775 18.757 18.67 18.588 18.515 18.47 18.45 18.427 18.405 18.387 18.377 18.357 18.325 18.315 18.323 18.33 18.312 18.247 18.163 18.085 18.015 17.918 17.82 17.813 17.867 17.905 17.907 17.87 17.818 17.8 17.795 17.757 17.703 17.65 17.582 17.492 17.375 17.268 17.2 17.14 17.077 17.008 16.935 16.873 16.823 16.782 16.722 16.617 16.482 16.353 16.238 16.128 16.025 15.965 15.942 15.917 15.892 15.862 15.83 15.812 15.81 15.802 15.767 15.702 15.628 15.58 15.56
23.88 23.883 23.887 23.885 23.882 23.883 23.895 23.913 23.925 23.938 23.978 24.045 24.11 24.17 24.227 24.282 24.337 24.392 24.415 24.405 24.397 24.39 24.377 24.362 24.347 24.332 24.305 24.247 24.175 24.12 24.08 24.037 23.97 23.87 23.805 23.788 23.775 23.762 23.737 23.712 23.7 23.687 23.65 23.54 23.37 23.193 23.07 22.99 22.902 22.815 22.722 22.637 22.505 22.323 22.22 22.188 22.16 22.14 22.112 22.07 22.018 21.962 21.905 21.835 21.753 21.67 21.59 21.508 21.423 21.34 21.255 21.18 21.117 21.055 21 20.955 20.915 20.875 20.822 20.755 20.68 20.605 20.53 20.473 20.44 20.407 20.35 20.275 20.2 20.163 20.163 20.158 20.153 20.145 20.115 20.065 20.015 19.958 19.9 19.85 19.802 19.755 19.713 19.682 19.655 19.622 19.552 19.47 19.41 19.355 19.338 19.345 19.347 19.342 19.32 19.292 19.262 19.217 19.188 19.178 19.165 19.15 19.102 19.017 18.925 18.845 18.778 18.725 18.688 18.655 18.658 18.695 18.737 18.767 18.732 18.65 18.575 18.505 18.46 18.44 18.417 18.395 18.375 18.352 18.322 18.29 18.278 18.282 18.287 18.26 18.19 18.105 18.02 17.943 17.868 17.843 17.877 17.922 17.942 17.915 17.862 17.81 17.775 17.74 17.685 17.63 17.578 17.513 17.415 17.288 17.19 17.133 17.077 17.015 16.943 16.868 16.793 16.72 16.658 16.607 16.547 16.457 16.347 16.232 16.117 16.008 15.938 15.908 15.885 15.862 15.835 15.807 15.785 15.765 15.74 15.702 15.65 15.588 15.543 15.522
23.922 23.91 23.903 23.897 23.892 23.885 23.885 23.9 23.915 23.943 24 24.07 24.133 24.173 24.193 24.23 24.29 24.35 24.392 24.4 24.39 24.377 24.362 24.347 24.333 24.317 24.292 24.24 24.17 24.118 24.08 24.045 23.995 23.91 23.85 23.832 23.812 23.78 23.77 23.775 23.765 23.755 23.71 23.587 23.415 23.238 23.083 22.967 22.872 22.775 22.675 22.602 22.512 22.358 22.248 22.205 22.168 22.14 22.107 22.06 22.008 21.955 21.905 21.845 21.77 21.69 21.61 21.528 21.443 21.368 21.298 21.23 21.165 21.1 21.04 20.988 20.945 20.905 20.847 20.772 20.695 20.617 20.54 20.483 20.45 20.412 20.35 20.275 20.203 20.143 20.12 20.115 20.11 20.1 20.068 20.023 19.975 19.923 19.87 19.823 19.775 19.723 19.678 19.647 19.622 19.595 19.562 19.515 19.45 19.385 19.35 19.343 19.34 19.322 19.29 19.262 19.235 19.225 19.222 19.205 19.188 19.172 19.115 19.02 18.93 18.845 18.785 18.745 18.707 18.675 18.678 18.715 18.747 18.747 18.695 18.615 18.537 18.465 18.42 18.397 18.372 18.35 18.33 18.302 18.27 18.24 18.225 18.23 18.232 18.202 18.135 18.052 17.968 17.898 17.853 17.848 17.877 17.912 17.915 17.877 17.83 17.782 17.74 17.698 17.645 17.59 17.535 17.47 17.375 17.248 17.14 17.07 17.015 16.955 16.88 16.805 16.722 16.622 16.535 16.478 16.445 16.407 16.325 16.21 16.093 15.993 15.92 15.875 15.85 15.827 15.79 15.745 15.715 15.695 15.667 15.625 15.575 15.535 15.505 15.483
23.937 23.923 23.915 23.91 23.9 23.888 23.885 23.9 23.933 23.993 24.065 24.132 24.182 24.205 24.195 24.188 24.22 24.275 24.33 24.362 24.37 24.362 24.347 24.333 24.317 24.302 24.282 24.235 24.165 24.115 24.08 24.045 24.007 23.942 23.89 23.865 23.822 23.76 23.75 23.79 23.802 23.795 23.73 23.595 23.437 23.265 23.083 22.923 22.805 22.705 22.61 22.553 22.507 22.39 22.28 22.235 22.19 22.145 22.1 22.053 22.005 21.955 21.905 21.85 21.787 21.72 21.645 21.563 21.49 21.433 21.36 21.278 21.205 21.14 21.08 21.025 20.98 20.932 20.862 20.78 20.7 20.62 20.543 20.49 20.46 20.417 20.352 20.28 20.213 20.15 20.12 20.117 20.11 20.09 20.052 20.005 19.952 19.897 19.845 19.797 19.745 19.688 19.64 19.603 19.575 19.552 19.535 19.512 19.46 19.395 19.36 19.35 19.332 19.295 19.255 19.225 19.218 19.25 19.267 19.253 19.238 19.225 19.16 19.043 18.94 18.855 18.795 18.755 18.72 18.69 18.693 18.72 18.727 18.705 18.645 18.565 18.485 18.41 18.363 18.335 18.31 18.29 18.267 18.237 18.203 18.17 18.155 18.157 18.155 18.137 18.085 18.005 17.933 17.89 17.86 17.83 17.835 17.867 17.865 17.822 17.778 17.738 17.705 17.675 17.632 17.58 17.525 17.455 17.365 17.252 17.125 17.02 16.953 16.89 16.817 16.732 16.625 16.5 16.413 16.38 16.375 16.36 16.285 16.17 16.065 15.985 15.915 15.853 15.813 15.79 15.75 15.693 15.65 15.625 15.592 15.548 15.513 15.495 15.475 15.448
23.95 23.935 23.925 23.917 23.905 23.89 23.888 23.92 23.983 24.057 24.127 24.185 24.225 24.255 24.25 24.215 24.2 24.21 24.243 24.285 24.32 24.337 24.332 24.317 24.302 24.288 24.272 24.23 24.163 24.115 24.08 24.045 24.01 23.962 23.912 23.86 23.795 23.728 23.72 23.775 23.82 23.825 23.74 23.593 23.448 23.298 23.123 22.93 22.765 22.64 22.553 22.51 22.485 22.402 22.31 22.262 22.212 22.155 22.098 22.048 22.002 21.955 21.903 21.847 21.79 21.73 21.665 21.595 21.553 21.51 21.43 21.338 21.25 21.18 21.12 21.065 21.017 20.955 20.87 20.782 20.7 20.62 20.548 20.5 20.467 20.422 20.36 20.293 20.228 20.163 20.125 20.117 20.102 20.075 20.035 19.985 19.93 19.872 19.82 19.767 19.712 19.655 19.603 19.56 19.528 19.505 19.49 19.48 19.455 19.405 19.368 19.345 19.305 19.255 19.215 19.205 19.243 19.3 19.315 19.3 19.29 19.28 19.215 19.085 18.96 18.865 18.805 18.765 18.73 18.7 18.695 18.7 18.685 18.655 18.595 18.515 18.435 18.36 18.31 18.28 18.253 18.23 18.205 18.172 18.135 18.098 18.083 18.082 18.072 18.06 18.025 17.968 17.928 17.91 17.882 17.835 17.81 17.822 17.812 17.767 17.723 17.687 17.662 17.64 17.61 17.567 17.512 17.435 17.345 17.247 17.125 16.993 16.895 16.825 16.74 16.63 16.508 16.4 16.343 16.33 16.335 16.32 16.245 16.143 16.06 15.99 15.918 15.845 15.788 15.753 15.71 15.65 15.595 15.558 15.525 15.493 15.48 15.475 15.455 15.425
23.96 23.945 23.935 23.925 23.908 23.893 23.908 23.97 24.047 24.122 24.185 24.23 24.267 24.302 24.305 24.275 24.243 24.213 24.203 24.213 24.243 24.28 24.302 24.302 24.288 24.273 24.26 24.222 24.16 24.115 24.08 24.045 23.997 23.952 23.907 23.838 23.763 23.695 23.693 23.75 23.81 23.83 23.745 23.6 23.475 23.355 23.19 22.99 22.795 22.62 22.513 22.473 22.445 22.398 22.338 22.282 22.225 22.165 22.105 22.048 21.998 21.952 21.9 21.843 21.785 21.727 21.67 21.63 21.627 21.59 21.5 21.405 21.308 21.225 21.16 21.097 21.015 20.927 20.852 20.777 20.7 20.62 20.553 20.508 20.47 20.428 20.373 20.308 20.243 20.18 20.135 20.11 20.088 20.06 20.017 19.962 19.905 19.845 19.79 19.735 19.677 19.62 19.568 19.525 19.485 19.455 19.44 19.43 19.423 19.402 19.368 19.323 19.268 19.215 19.193 19.222 19.282 19.34 19.362 19.355 19.345 19.335 19.267 19.137 19.002 18.885 18.815 18.775 18.735 18.697 18.675 18.66 18.64 18.607 18.545 18.465 18.385 18.318 18.273 18.238 18.203 18.173 18.142 18.105 18.065 18.025 18.008 18.003 17.988 17.978 17.963 17.947 17.942 17.935 17.905 17.855 17.81 17.785 17.757 17.715 17.673 17.625 17.592 17.577 17.56 17.537 17.49 17.41 17.32 17.227 17.117 16.983 16.858 16.758 16.648 16.528 16.438 16.375 16.333 16.313 16.303 16.28 16.215 16.135 16.065 15.995 15.922 15.848 15.778 15.723 15.67 15.61 15.553 15.505 15.478 15.468 15.462 15.455 15.435 15.405
23.962 23.948 23.942 23.94 23.928 23.913 23.945 24.025 24.105 24.18 24.235 24.275 24.31 24.335 24.34 24.325 24.297 24.265 24.235 24.21 24.205 24.213 24.238 24.267 24.27 24.26 24.247 24.212 24.16 24.118 24.08 24.02 23.953 23.92 23.895 23.835 23.753 23.685 23.685 23.74 23.802 23.832 23.76 23.628 23.533 23.437 23.275 23.073 22.87 22.69 22.563 22.49 22.45 22.42 22.365 22.293 22.23 22.17 22.11 22.05 21.995 21.948 21.897 21.84 21.78 21.723 21.685 21.68 21.68 21.632 21.547 21.457 21.365 21.277 21.19 21.087 20.955 20.85 20.79 20.727 20.663 20.608 20.565 20.528 20.49 20.45 20.408 20.35 20.285 20.223 20.16 20.115 20.09 20.067 20.008 19.933 19.875 19.815 19.757 19.7 19.642 19.585 19.533 19.487 19.443 19.418 19.415 19.413 19.408 19.4 19.375 19.325 19.265 19.21 19.18 19.2 19.255 19.31 19.34 19.345 19.345 19.34 19.275 19.145 19.002 18.875 18.805 18.77 18.725 18.68 18.65 18.63 18.605 18.562 18.495 18.415 18.343 18.293 18.255 18.215 18.175 18.133 18.088 18.045 18.003 17.96 17.94 17.933 17.923 17.923 17.92 17.912 17.915 17.92 17.892 17.837 17.785 17.745 17.71 17.67 17.63 17.57 17.51 17.485 17.475 17.465 17.445 17.385 17.295 17.205 17.1 16.97 16.845 16.715 16.573 16.453 16.41 16.385 16.338 16.315 16.295 16.265 16.21 16.138 16.065 15.995 15.925 15.847 15.768 15.71 15.668 15.618 15.565 15.513 15.468 15.45 15.447 15.437 15.415 15.388
23.958 23.943 23.943 23.957 23.96 23.948 23.983 24.067 24.152 24.23 24.285 24.317 24.337 24.35 24.355 24.352 24.34 24.317 24.29 24.26 24.235 24.213 24.205 24.215 24.23 24.24 24.232 24.2 24.157 24.12 24.047 23.95 23.9 23.89 23.877 23.835 23.763 23.705 23.705 23.75 23.807 23.845 23.782 23.673 23.605 23.52 23.36 23.158 22.973 22.828 22.7 22.585 22.513 22.475 22.402 22.305 22.235 22.175 22.115 22.055 21.998 21.945 21.895 21.84 21.78 21.74 21.727 21.715 21.687 21.637 21.562 21.477 21.392 21.29 21.162 21.022 20.875 20.77 20.718 20.675 20.64 20.62 20.6 20.57 20.532 20.49 20.455 20.415 20.36 20.295 20.22 20.153 20.115 20.092 20.017 19.913 19.843 19.785 19.725 19.665 19.607 19.55 19.493 19.44 19.395 19.383 19.402 19.42 19.422 19.415 19.392 19.35 19.297 19.243 19.185 19.153 19.17 19.217 19.25 19.26 19.265 19.26 19.21 19.09 18.945 18.825 18.765 18.74 18.702 18.66 18.628 18.602 18.567 18.512 18.44 18.368 18.315 18.28 18.245 18.205 18.162 18.11 18.05 17.998 17.953 17.91 17.888 17.883 17.883 17.89 17.887 17.86 17.845 17.855 17.83 17.77 17.725 17.697 17.665 17.625 17.587 17.53 17.45 17.395 17.375 17.368 17.37 17.347 17.275 17.185 17.077 16.948 16.842 16.725 16.558 16.453 16.43 16.388 16.34 16.32 16.297 16.267 16.215 16.142 16.065 15.985 15.905 15.82 15.748 15.715 15.697 15.667 15.625 15.572 15.508 15.45 15.43 15.42 15.398 15.375
23.958 23.938 23.94 23.965 23.982 23.98 24.015 24.103 24.195 24.277 24.327 24.342 24.35 24.36 24.365 24.365 24.36 24.35 24.335 24.312 24.287 24.265 24.24 24.215 24.208 24.208 24.207 24.19 24.147 24.067 23.953 23.88 23.865 23.86 23.85 23.827 23.785 23.74 23.735 23.773 23.82 23.855 23.817 23.74 23.685 23.6 23.44 23.258 23.11 22.983 22.855 22.725 22.613 22.54 22.455 22.34 22.25 22.185 22.125 22.065 22.005 21.948 21.895 21.84 21.795 21.775 21.752 21.717 21.682 21.64 21.57 21.475 21.365 21.23 21.08 20.933 20.803 20.73 20.705 20.69 20.68 20.67 20.65 20.615 20.572 20.53 20.493 20.462 20.427 20.372 20.3 20.22 20.155 20.117 20.045 19.923 19.82 19.75 19.69 19.63 19.57 19.513 19.455 19.398 19.348 19.338 19.37 19.405 19.427 19.43 19.405 19.365 19.325 19.275 19.217 19.163 19.125 19.135 19.16 19.165 19.16 19.15 19.117 19.017 18.885 18.775 18.715 18.695 18.67 18.637 18.605 18.567 18.517 18.458 18.393 18.338 18.3 18.27 18.235 18.192 18.142 18.085 18.022 17.96 17.91 17.868 17.843 17.84 17.848 17.862 17.857 17.82 17.783 17.772 17.747 17.7 17.673 17.65 17.617 17.58 17.542 17.49 17.408 17.325 17.28 17.273 17.28 17.282 17.245 17.165 17.055 16.935 16.85 16.755 16.623 16.538 16.477 16.395 16.343 16.317 16.292 16.262 16.21 16.132 16.042 15.95 15.86 15.78 15.74 15.735 15.725 15.705 15.675 15.632 15.57 15.49 15.433 15.405 15.385 15.365
23.97 23.94 23.94 23.963 23.988 24.005 24.05 24.14 24.24 24.325 24.36 24.358 24.36 24.37 24.375 24.373 24.368 24.365 24.365 24.342 24.29 24.252 24.232 24.212 24.195 24.177 24.175 24.157 24.075 23.945 23.858 23.835 23.827 23.817 23.805 23.802 23.8 23.777 23.768 23.797 23.837 23.857 23.842 23.807 23.765 23.682 23.54 23.393 23.265 23.138 23.012 22.885 22.753 22.635 22.528 22.41 22.3 22.215 22.148 22.08 22.013 21.95 21.895 21.848 21.815 21.785 21.748 21.713 21.675 21.638 21.565 21.448 21.313 21.168 21.023 20.895 20.798 20.75 20.742 20.735 20.725 20.717 20.697 20.655 20.61 20.568 20.528 20.498 20.472 20.437 20.377 20.3 20.22 20.157 20.072 19.948 19.828 19.728 19.655 19.595 19.538 19.483 19.43 19.378 19.325 19.313 19.343 19.38 19.415 19.432 19.415 19.377 19.342 19.3 19.25 19.195 19.135 19.095 19.083 19.073 19.055 19.038 19.018 18.945 18.833 18.73 18.67 18.65 18.63 18.608 18.578 18.53 18.473 18.418 18.368 18.325 18.29 18.26 18.225 18.175 18.115 18.055 17.995 17.932 17.873 17.823 17.8 17.805 17.82 17.84 17.832 17.787 17.735 17.7 17.673 17.645 17.627 17.605 17.572 17.535 17.497 17.45 17.372 17.278 17.203 17.18 17.19 17.2 17.195 17.142 17.038 16.938 16.867 16.782 16.692 16.602 16.495 16.392 16.327 16.295 16.265 16.23 16.175 16.092 15.995 15.9 15.818 15.768 15.76 15.765 15.755 15.732 15.707 15.672 15.607 15.525 15.45 15.4 15.375 15.355
23.99 23.978 23.99 24.01 24.033 24.055 24.108 24.2 24.305 24.385 24.405 24.393 24.385 24.385 24.385 24.385 24.39 24.398 24.405 24.392 24.278 24.15 24.118 24.115 24.115 24.115 24.117 24.062 23.933 23.83 23.793 23.78 23.77 23.755 23.74 23.748 23.772 23.785 23.792 23.805 23.812 23.807 23.797 23.79 23.775 23.74 23.655 23.54 23.422 23.295 23.167 23.04 22.907 22.768 22.635 22.52 22.408 22.303 22.218 22.143 22.068 21.998 21.925 21.873 21.843 21.805 21.77 21.738 21.7 21.665 21.582 21.448 21.31 21.17 21.033 20.93 20.853 20.795 20.778 20.772 20.765 20.757 20.735 20.692 20.647 20.603 20.565 20.538 20.515 20.492 20.442 20.365 20.285 20.207 20.107 19.985 19.863 19.748 19.668 19.613 19.558 19.503 19.453 19.405 19.355 19.335 19.355 19.39 19.422 19.427 19.4 19.362 19.325 19.287 19.257 19.217 19.16 19.1 19.06 19.04 19.018 18.995 18.985 18.94 18.845 18.738 18.66 18.63 18.613 18.6 18.573 18.52 18.463 18.41 18.365 18.325 18.288 18.252 18.21 18.152 18.09 18.027 17.965 17.905 17.842 17.785 17.765 17.78 17.797 17.815 17.802 17.753 17.7 17.66 17.628 17.6 17.582 17.56 17.525 17.488 17.452 17.407 17.337 17.248 17.158 17.115 17.115 17.118 17.122 17.102 17.027 16.942 16.867 16.777 16.687 16.587 16.472 16.358 16.28 16.242 16.207 16.17 16.112 16.03 15.938 15.855 15.803 15.785 15.79 15.795 15.782 15.757 15.727 15.677 15.602 15.52 15.453 15.405 15.37 15.345
24.033 24.055 24.085 24.105 24.122 24.133 24.18 24.278 24.385 24.455 24.465 24.45 24.438 24.433 24.425 24.428 24.443 24.455 24.462 24.465 24.337 24.133 24.028 24.005 24.018 24.03 24.012 23.923 23.815 23.758 23.73 23.713 23.7 23.685 23.673 23.688 23.72 23.735 23.737 23.74 23.732 23.715 23.703 23.713 23.74 23.767 23.73 23.63 23.525 23.412 23.297 23.182 23.055 22.905 22.767 22.655 22.545 22.435 22.333 22.248 22.173 22.095 21.995 21.913 21.88 21.855 21.825 21.795 21.76 21.722 21.632 21.49 21.35 21.21 21.08 20.983 20.905 20.843 20.815 20.808 20.8 20.79 20.765 20.725 20.68 20.635 20.603 20.585 20.567 20.545 20.497 20.417 20.335 20.255 20.155 20.035 19.915 19.805 19.73 19.677 19.622 19.57 19.52 19.468 19.415 19.383 19.393 19.427 19.435 19.4 19.355 19.315 19.278 19.248 19.235 19.222 19.18 19.12 19.08 19.06 19.043 19.033 19.035 19 18.907 18.79 18.68 18.63 18.638 18.635 18.595 18.54 18.48 18.425 18.38 18.337 18.28 18.21 18.155 18.105 18.045 17.982 17.92 17.858 17.803 17.765 17.753 17.76 17.773 17.787 17.77 17.723 17.688 17.668 17.625 17.568 17.538 17.515 17.48 17.44 17.392 17.337 17.282 17.22 17.14 17.08 17.063 17.06 17.057 17.04 16.985 16.905 16.815 16.715 16.622 16.525 16.415 16.303 16.225 16.185 16.147 16.11 16.05 15.965 15.89 15.848 15.833 15.825 15.82 15.82 15.807 15.775 15.725 15.655 15.575 15.505 15.455 15.415 15.373 15.338
24.113 24.147 24.175 24.192 24.202 24.208 24.253 24.353 24.462 24.522 24.527 24.52 24.515 24.517 24.505 24.495 24.505 24.512 24.515 24.517 24.44 24.26 24.08 23.968 23.943 23.947 23.895 23.81 23.75 23.703 23.67 23.65 23.633 23.615 23.61 23.622 23.627 23.61 23.59 23.595 23.61 23.62 23.638 23.682 23.742 23.792 23.767 23.667 23.565 23.465 23.365 23.257 23.132 22.997 22.877 22.777 22.68 22.575 22.465 22.363 22.28 22.19 22.07 21.96 21.908 21.892 21.872 21.847 21.817 21.775 21.677 21.535 21.395 21.255 21.13 21.035 20.958 20.888 20.853 20.845 20.835 20.825 20.797 20.755 20.712 20.668 20.638 20.627 20.617 20.597 20.55 20.472 20.388 20.305 20.205 20.09 19.98 19.875 19.8 19.745 19.688 19.635 19.585 19.532 19.478 19.43 19.428 19.44 19.407 19.353 19.305 19.268 19.235 19.21 19.2 19.202 19.187 19.14 19.1 19.085 19.08 19.085 19.095 19.062 18.965 18.84 18.718 18.66 18.687 18.685 18.625 18.563 18.5 18.443 18.375 18.292 18.192 18.098 18.053 18.025 17.977 17.917 17.855 17.805 17.778 17.765 17.76 17.757 17.757 17.762 17.748 17.72 17.71 17.705 17.655 17.57 17.508 17.47 17.427 17.37 17.305 17.243 17.197 17.157 17.105 17.048 17.018 17.002 16.975 16.932 16.872 16.802 16.72 16.625 16.535 16.447 16.35 16.245 16.17 16.13 16.09 16.05 15.99 15.925 15.893 15.888 15.89 15.877 15.858 15.847 15.825 15.77 15.703 15.635 15.58 15.525 15.468 15.425 15.38 15.338
24.202 24.242 24.265 24.272 24.277 24.283 24.325 24.422 24.53 24.587 24.595 24.597 24.602 24.607 24.592 24.568 24.563 24.568 24.573 24.58 24.53 24.382 24.197 24.028 23.913 23.858 23.803 23.743 23.698 23.65 23.613 23.59 23.57 23.548 23.538 23.533 23.51 23.48 23.458 23.46 23.488 23.523 23.572 23.64 23.705 23.757 23.762 23.692 23.592 23.495 23.387 23.265 23.145 23.042 22.937 22.832 22.745 22.657 22.562 22.467 22.38 22.272 22.137 22.01 21.938 21.917 21.9 21.882 21.862 21.822 21.722 21.58 21.44 21.3 21.177 21.085 21.01 20.935 20.89 20.88 20.872 20.862 20.83 20.785 20.745 20.703 20.673 20.663 20.66 20.65 20.602 20.525 20.437 20.347 20.252 20.15 20.047 19.945 19.87 19.815 19.755 19.7 19.647 19.595 19.54 19.483 19.45 19.417 19.365 19.313 19.265 19.23 19.2 19.175 19.165 19.167 19.167 19.147 19.128 19.128 19.135 19.145 19.155 19.125 19.017 18.87 18.735 18.68 18.702 18.742 18.73 18.66 18.593 18.515 18.388 18.223 18.06 17.963 17.938 17.92 17.892 17.85 17.805 17.778 17.762 17.747 17.742 17.742 17.737 17.745 17.747 17.74 17.74 17.732 17.677 17.582 17.493 17.418 17.35 17.28 17.21 17.15 17.108 17.07 17.035 17 16.963 16.918 16.863 16.805 16.74 16.673 16.605 16.528 16.443 16.358 16.273 16.18 16.11 16.07 16.033 15.995 15.953 15.928 15.925 15.927 15.927 15.912 15.89 15.872 15.837 15.773 15.705 15.66 15.648 15.61 15.533 15.458 15.39 15.342
24.247 24.285 24.315 24.332 24.337 24.34 24.383 24.482 24.565 24.605 24.63 24.642 24.65 24.655 24.642 24.625 24.628 24.64 24.648 24.645 24.572 24.42 24.25 24.08 23.918 23.815 23.765 23.718 23.673 23.625 23.57 23.53 23.507 23.483 23.478 23.475 23.453 23.428 23.403 23.388 23.4 23.43 23.478 23.545 23.605 23.645 23.672 23.667 23.605 23.51 23.395 23.27 23.165 23.08 22.975 22.85 22.745 22.662 22.585 22.502 22.41 22.305 22.192 22.07 21.978 21.943 21.925 21.905 21.882 21.85 21.76 21.618 21.475 21.332 21.19 21.082 21.012 20.945 20.91 20.905 20.897 20.89 20.862 20.82 20.778 20.735 20.708 20.7 20.697 20.687 20.64 20.555 20.46 20.365 20.282 20.195 20.095 20 19.932 19.88 19.823 19.767 19.698 19.63 19.575 19.515 19.458 19.403 19.348 19.285 19.228 19.19 19.16 19.138 19.13 19.13 19.133 19.138 19.162 19.192 19.205 19.215 19.225 19.15 18.975 18.795 18.67 18.653 18.683 18.73 18.817 18.83 18.76 18.652 18.475 18.255 18.028 17.895 17.865 17.843 17.818 17.79 17.765 17.745 17.722 17.703 17.695 17.698 17.708 17.738 17.757 17.755 17.75 17.725 17.655 17.557 17.465 17.37 17.278 17.2 17.13 17.07 17.03 16.998 16.97 16.952 16.917 16.86 16.798 16.745 16.688 16.613 16.54 16.47 16.393 16.31 16.23 16.148 16.083 16.04 16.003 15.965 15.943 15.94 15.94 15.94 15.932 15.915 15.897 15.88 15.852 15.8 15.748 15.733 15.742 15.727 15.645 15.502 15.373 15.308
24.237 24.26 24.305 24.36 24.38 24.38 24.43 24.517 24.552 24.568 24.607 24.64 24.657 24.665 24.655 24.663 24.702 24.727 24.732 24.695 24.575 24.41 24.243 24.088 23.933 23.825 23.775 23.73 23.685 23.627 23.548 23.478 23.443 23.42 23.43 23.45 23.437 23.415 23.39 23.36 23.343 23.35 23.388 23.445 23.482 23.505 23.535 23.565 23.567 23.507 23.395 23.285 23.203 23.125 23.02 22.888 22.76 22.658 22.572 22.477 22.37 22.275 22.19 22.092 22.005 21.963 21.942 21.915 21.885 21.855 21.782 21.652 21.507 21.357 21.178 21.033 20.958 20.908 20.9 20.91 20.907 20.902 20.885 20.852 20.812 20.768 20.74 20.735 20.725 20.695 20.64 20.557 20.46 20.368 20.295 20.222 20.13 20.04 19.98 19.937 19.887 19.83 19.745 19.65 19.583 19.525 19.465 19.407 19.342 19.258 19.185 19.145 19.115 19.095 19.09 19.09 19.098 19.115 19.167 19.235 19.272 19.29 19.285 19.145 18.89 18.668 18.585 18.632 18.665 18.663 18.757 18.91 18.927 18.79 18.572 18.327 18.073 17.895 17.835 17.81 17.77 17.73 17.71 17.697 17.68 17.66 17.65 17.66 17.693 17.74 17.765 17.76 17.735 17.682 17.605 17.513 17.423 17.332 17.233 17.135 17.055 17 16.968 16.945 16.93 16.917 16.89 16.84 16.78 16.74 16.7 16.63 16.55 16.475 16.4 16.32 16.238 16.155 16.09 16.043 15.998 15.958 15.94 15.94 15.94 15.94 15.927 15.905 15.887 15.872 15.862 15.837 15.815 15.817 15.822 15.81 15.697 15.502 15.345 15.25
24.202 24.215 24.268 24.347 24.402 24.423 24.467 24.515 24.515 24.525 24.563 24.607 24.645 24.667 24.678 24.71 24.77 24.807 24.8 24.717 24.567 24.405 24.255 24.122 23.965 23.845 23.795 23.747 23.697 23.627 23.535 23.445 23.388 23.36 23.37 23.402 23.415 23.402 23.375 23.347 23.32 23.3 23.308 23.333 23.343 23.36 23.395 23.425 23.457 23.462 23.402 23.317 23.245 23.17 23.065 22.932 22.8 22.673 22.555 22.44 22.325 22.228 22.14 22.063 22.008 21.968 21.938 21.912 21.885 21.855 21.797 21.682 21.535 21.38 21.185 20.998 20.898 20.87 20.88 20.895 20.902 20.902 20.89 20.87 20.842 20.803 20.775 20.762 20.73 20.675 20.615 20.547 20.46 20.37 20.3 20.237 20.16 20.08 20.025 19.987 19.945 19.89 19.805 19.695 19.6 19.533 19.472 19.402 19.317 19.223 19.145 19.103 19.078 19.058 19.05 19.055 19.068 19.085 19.14 19.227 19.302 19.352 19.322 19.132 18.845 18.578 18.515 18.618 18.655 18.635 18.643 18.805 18.965 18.87 18.63 18.375 18.118 17.903 17.803 17.767 17.71 17.663 17.648 17.642 17.632 17.615 17.61 17.638 17.692 17.75 17.77 17.745 17.692 17.627 17.555 17.468 17.38 17.295 17.195 17.085 16.99 16.94 16.92 16.905 16.895 16.882 16.862 16.82 16.77 16.74 16.71 16.65 16.57 16.495 16.42 16.337 16.253 16.17 16.105 16.055 16.005 15.958 15.935 15.937 15.94 15.94 15.922 15.893 15.873 15.858 15.855 15.86 15.842 15.822 15.812 15.785 15.652 15.465 15.333 15.22
24.163 24.175 24.23 24.315 24.393 24.447 24.477 24.485 24.475 24.483 24.518 24.563 24.607 24.65 24.695 24.752 24.817 24.872 24.84 24.715 24.568 24.425 24.3 24.16 23.983 23.863 23.815 23.765 23.702 23.617 23.523 23.43 23.348 23.3 23.31 23.345 23.375 23.382 23.36 23.33 23.3 23.27 23.248 23.23 23.215 23.228 23.26 23.293 23.325 23.36 23.362 23.317 23.265 23.205 23.102 22.967 22.83 22.688 22.558 22.433 22.298 22.183 22.103 22.048 22.008 21.965 21.928 21.902 21.877 21.852 21.812 21.707 21.555 21.4 21.202 20.973 20.85 20.845 20.858 20.873 20.885 20.895 20.892 20.877 20.86 20.832 20.802 20.767 20.712 20.65 20.59 20.53 20.457 20.373 20.303 20.245 20.18 20.118 20.07 20.03 19.992 19.945 19.86 19.75 19.64 19.545 19.462 19.375 19.282 19.187 19.105 19.06 19.04 19.017 19.01 19.025 19.04 19.05 19.092 19.165 19.235 19.3 19.262 19.052 18.765 18.613 18.843 19.107 18.932 18.638 18.558 18.68 18.857 18.827 18.612 18.372 18.127 17.898 17.765 17.71 17.645 17.6 17.588 17.585 17.583 17.575 17.583 17.625 17.687 17.747 17.755 17.702 17.638 17.572 17.503 17.423 17.338 17.253 17.158 17.053 16.955 16.9 16.883 16.87 16.86 16.85 16.837 16.802 16.763 16.74 16.715 16.665 16.59 16.515 16.437 16.352 16.268 16.185 16.12 16.07 16.015 15.953 15.92 15.925 15.93 15.935 15.92 15.883 15.858 15.84 15.838 15.852 15.842 15.795 15.735 15.68 15.577 15.438 15.317 15.203
24.158 24.188 24.253 24.338 24.412 24.45 24.452 24.445 24.435 24.44 24.473 24.518 24.565 24.618 24.68 24.75 24.822 24.895 24.86 24.72 24.59 24.472 24.352 24.187 23.993 23.88 23.835 23.777 23.7 23.605 23.51 23.42 23.325 23.255 23.253 23.288 23.325 23.347 23.335 23.3 23.265 23.235 23.205 23.173 23.145 23.138 23.145 23.17 23.205 23.24 23.257 23.24 23.21 23.182 23.112 22.982 22.837 22.695 22.575 22.457 22.313 22.178 22.095 22.053 22.015 21.97 21.925 21.89 21.865 21.845 21.805 21.702 21.56 21.415 21.23 21.005 20.865 20.848 20.86 20.875 20.89 20.897 20.895 20.88 20.865 20.835 20.782 20.722 20.66 20.617 20.572 20.51 20.445 20.372 20.308 20.25 20.192 20.14 20.095 20.055 20.015 19.957 19.87 19.765 19.655 19.545 19.433 19.328 19.232 19.137 19.048 18.99 18.965 18.945 18.95 18.975 18.992 19 18.99 18.98 19.005 19.057 19.04 18.86 18.598 18.83 19.392 19.584 19.067 18.5 18.485 18.582 18.69 18.695 18.53 18.3 18.07 17.87 17.75 17.683 17.62 17.583 17.573 17.57 17.57 17.57 17.57 17.595 17.652 17.712 17.71 17.645 17.58 17.518 17.46 17.398 17.318 17.235 17.14 17.035 16.94 16.88 16.855 16.835 16.82 16.81 16.802 16.782 16.755 16.735 16.712 16.675 16.61 16.532 16.452 16.368 16.282 16.198 16.133 16.082 16.015 15.938 15.903 15.908 15.918 15.935 15.925 15.885 15.853 15.828 15.82 15.822 15.817 15.76 15.66 15.588 15.515 15.412 15.295 15.18
24.2 24.255 24.33 24.405 24.442 24.425 24.398 24.395 24.395 24.398 24.428 24.475 24.525 24.583 24.65 24.723 24.8 24.882 24.867 24.743 24.628 24.522 24.387 24.2 24.005 23.898 23.847 23.777 23.69 23.595 23.5 23.413 23.33 23.26 23.238 23.253 23.278 23.305 23.297 23.263 23.228 23.195 23.165 23.138 23.112 23.09 23.073 23.07 23.088 23.12 23.14 23.125 23.108 23.112 23.082 22.98 22.842 22.703 22.585 22.48 22.355 22.223 22.118 22.058 22.02 21.977 21.93 21.885 21.853 21.83 21.772 21.66 21.533 21.41 21.277 21.115 20.95 20.88 20.89 20.905 20.915 20.907 20.895 20.88 20.85 20.792 20.717 20.645 20.588 20.58 20.56 20.495 20.43 20.365 20.31 20.255 20.198 20.145 20.1 20.057 20.002 19.925 19.835 19.74 19.635 19.525 19.405 19.28 19.17 19.075 18.98 18.898 18.855 18.843 18.863 18.902 18.927 18.935 18.888 18.803 18.753 18.75 18.76 18.618 18.713 19.265 19.597 19.325 18.673 18.353 18.435 18.475 18.505 18.545 18.44 18.21 18.003 17.855 17.763 17.693 17.64 17.61 17.598 17.595 17.595 17.592 17.575 17.563 17.598 17.655 17.65 17.585 17.523 17.47 17.433 17.4 17.337 17.25 17.143 17.028 16.928 16.865 16.837 16.81 16.785 16.768 16.758 16.75 16.735 16.715 16.695 16.675 16.625 16.545 16.465 16.382 16.297 16.213 16.147 16.09 16.007 15.92 15.885 15.895 15.918 15.945 15.935 15.895 15.86 15.815 15.772 15.747 15.722 15.66 15.575 15.513 15.455 15.37 15.255 15.14
24.27 24.335 24.402 24.437 24.42 24.38 24.343 24.333 24.345 24.355 24.385 24.435 24.488 24.548 24.62 24.7 24.783 24.867 24.872 24.77 24.663 24.567 24.415 24.205 24.018 23.915 23.852 23.77 23.68 23.588 23.505 23.435 23.37 23.313 23.28 23.27 23.27 23.28 23.265 23.228 23.19 23.155 23.125 23.1 23.078 23.055 23.035 23.015 23.005 23.013 23.023 23.02 23.028 23.05 23.027 22.952 22.842 22.71 22.595 22.498 22.397 22.283 22.165 22.078 22.025 21.982 21.935 21.885 21.843 21.81 21.735 21.618 21.505 21.4 21.305 21.197 21.055 20.945 20.923 20.932 20.927 20.91 20.895 20.865 20.802 20.725 20.645 20.568 20.533 20.56 20.55 20.485 20.42 20.355 20.305 20.257 20.202 20.15 20.102 20.045 19.97 19.887 19.798 19.705 19.607 19.502 19.385 19.25 19.123 19.018 18.92 18.823 18.755 18.74 18.77 18.817 18.855 18.87 18.822 18.725 18.625 18.55 18.513 18.658 19.19 19.595 19.447 18.835 18.358 18.35 18.405 18.405 18.378 18.395 18.327 18.135 17.975 17.865 17.775 17.71 17.67 17.64 17.625 17.622 17.62 17.615 17.595 17.565 17.56 17.595 17.59 17.53 17.478 17.435 17.41 17.402 17.365 17.275 17.152 17.025 16.915 16.85 16.823 16.795 16.768 16.745 16.725 16.713 16.703 16.685 16.668 16.66 16.627 16.555 16.475 16.395 16.31 16.225 16.155 16.082 15.99 15.903 15.87 15.89 15.925 15.952 15.942 15.902 15.847 15.767 15.695 15.65 15.613 15.56 15.498 15.445 15.395 15.322 15.21 15.088
24.353 24.41 24.435 24.417 24.38 24.34 24.3 24.273 24.278 24.3 24.337 24.39 24.448 24.518 24.598 24.683 24.767 24.852 24.877 24.797 24.695 24.58 24.415 24.212 24.03 23.93 23.852 23.763 23.683 23.61 23.548 23.49 23.43 23.375 23.338 23.32 23.31 23.298 23.27 23.228 23.183 23.133 23.09 23.065 23.045 23.022 23 22.98 22.96 22.943 22.935 22.943 22.965 22.99 22.965 22.9 22.825 22.717 22.61 22.525 22.445 22.347 22.23 22.118 22.038 21.988 21.94 21.89 21.843 21.792 21.708 21.6 21.5 21.4 21.305 21.215 21.117 21.012 20.958 20.947 20.93 20.91 20.882 20.828 20.75 20.673 20.595 20.515 20.495 20.537 20.53 20.47 20.407 20.345 20.292 20.247 20.202 20.152 20.092 20.017 19.933 19.85 19.76 19.665 19.573 19.477 19.365 19.23 19.093 18.97 18.863 18.758 18.665 18.64 18.678 18.723 18.77 18.8 18.755 18.655 18.555 18.455 18.51 19.03 19.54 19.545 19.007 18.418 18.298 18.347 18.367 18.338 18.295 18.27 18.213 18.093 17.975 17.875 17.79 17.738 17.702 17.67 17.655 17.65 17.645 17.64 17.617 17.585 17.558 17.553 17.535 17.488 17.445 17.408 17.39 17.39 17.372 17.292 17.162 17.03 16.908 16.838 16.813 16.79 16.77 16.75 16.723 16.695 16.678 16.66 16.648 16.645 16.625 16.565 16.485 16.405 16.322 16.237 16.155 16.068 15.973 15.888 15.865 15.897 15.935 15.96 15.937 15.875 15.79 15.69 15.618 15.573 15.533 15.493 15.445 15.393 15.338 15.277 15.177 15.045
24.452 24.475 24.417 24.348 24.305 24.267 24.23 24.2 24.198 24.218 24.26 24.318 24.403 24.51 24.595 24.67 24.753 24.837 24.88 24.825 24.697 24.525 24.36 24.2 24.04 23.938 23.86 23.785 23.72 23.665 23.61 23.55 23.492 23.437 23.393 23.368 23.355 23.34 23.312 23.27 23.212 23.127 23.058 23.03 23.01 22.987 22.963 22.94 22.92 22.9 22.885 22.888 22.905 22.927 22.905 22.84 22.767 22.692 22.632 22.57 22.495 22.412 22.305 22.178 22.068 21.998 21.95 21.9 21.85 21.787 21.7 21.6 21.497 21.397 21.302 21.207 21.112 21.028 20.978 20.955 20.932 20.907 20.875 20.828 20.76 20.685 20.61 20.528 20.478 20.49 20.482 20.427 20.372 20.32 20.272 20.227 20.18 20.12 20.057 19.99 19.905 19.818 19.728 19.633 19.54 19.45 19.34 19.205 19.068 18.94 18.825 18.715 18.618 18.595 18.638 18.688 18.74 18.762 18.692 18.575 18.475 18.39 18.79 19.435 19.642 19.18 18.478 18.258 18.302 18.347 18.347 18.303 18.258 18.215 18.163 18.08 17.98 17.883 17.808 17.765 17.732 17.7 17.682 17.677 17.672 17.665 17.64 17.605 17.575 17.54 17.5 17.46 17.42 17.383 17.36 17.35 17.335 17.262 17.135 17.008 16.915 16.86 16.825 16.808 16.79 16.772 16.742 16.703 16.673 16.653 16.643 16.64 16.625 16.57 16.49 16.41 16.33 16.245 16.153 16.058 15.963 15.873 15.845 15.88 15.922 15.947 15.907 15.818 15.723 15.635 15.578 15.543 15.508 15.47 15.425 15.37 15.313 15.255 15.16 15.04
24.542 24.51 24.403 24.288 24.21 24.163 24.128 24.108 24.108 24.123 24.163 24.238 24.37 24.52 24.617 24.683 24.753 24.828 24.882 24.827 24.64 24.43 24.275 24.148 24.033 23.95 23.885 23.825 23.765 23.707 23.65 23.59 23.535 23.488 23.448 23.42 23.4 23.38 23.357 23.312 23.227 23.108 23.018 22.988 22.97 22.95 22.927 22.905 22.882 22.86 22.848 22.85 22.858 22.867 22.827 22.735 22.642 22.595 22.592 22.575 22.532 22.47 22.377 22.255 22.128 22.023 21.955 21.905 21.855 21.787 21.695 21.595 21.49 21.382 21.28 21.18 21.09 21.025 20.988 20.96 20.93 20.898 20.872 20.85 20.807 20.745 20.67 20.583 20.493 20.448 20.417 20.37 20.328 20.285 20.245 20.197 20.132 20.055 20 19.957 19.887 19.8 19.708 19.61 19.515 19.425 19.312 19.178 19.045 18.92 18.805 18.703 18.633 18.625 18.668 18.72 18.757 18.757 18.642 18.488 18.385 18.63 19.275 19.667 19.365 18.608 18.22 18.265 18.305 18.345 18.342 18.3 18.258 18.215 18.162 18.08 17.983 17.893 17.82 17.775 17.745 17.715 17.695 17.687 17.682 17.675 17.655 17.625 17.592 17.537 17.48 17.44 17.405 17.373 17.33 17.288 17.26 17.195 17.083 17 16.978 16.94 16.873 16.833 16.813 16.797 16.765 16.718 16.68 16.658 16.647 16.64 16.622 16.57 16.49 16.41 16.327 16.242 16.15 16.052 15.958 15.863 15.808 15.825 15.875 15.902 15.86 15.768 15.683 15.618 15.575 15.545 15.51 15.472 15.427 15.37 15.31 15.247 15.153 15.065
24.592 24.52 24.41 24.278 24.158 24.07 24.028 24.02 24.02 24.03 24.075 24.188 24.357 24.532 24.65 24.715 24.775 24.837 24.88 24.777 24.54 24.33 24.193 24.095 24.02 23.96 23.9 23.84 23.78 23.72 23.663 23.615 23.575 23.54 23.513 23.487 23.46 23.435 23.41 23.34 23.213 23.07 22.975 22.943 22.927 22.91 22.89 22.87 22.845 22.82 22.81 22.815 22.815 22.802 22.722 22.578 22.48 22.46 22.475 22.49 22.492 22.475 22.43 22.332 22.19 22.043 21.95 21.905 21.855 21.785 21.69 21.587 21.475 21.353 21.238 21.148 21.088 21.05 21.002 20.952 20.917 20.883 20.858 20.842 20.822 20.79 20.73 20.64 20.535 20.435 20.368 20.33 20.295 20.257 20.215 20.152 20.07 19.983 19.925 19.895 19.852 19.785 19.695 19.595 19.495 19.4 19.287 19.155 19.028 18.903 18.79 18.715 18.68 18.675 18.707 18.742 18.75 18.74 18.612 18.42 18.56 19.165 19.635 19.5 18.79 18.248 18.223 18.265 18.302 18.34 18.34 18.3 18.263 18.227 18.17 18.083 17.993 17.908 17.828 17.775 17.745 17.715 17.693 17.683 17.677 17.672 17.662 17.64 17.597 17.525 17.458 17.423 17.405 17.39 17.338 17.263 17.203 17.14 17.085 17.075 17.082 17.037 16.953 16.88 16.84 16.82 16.785 16.735 16.69 16.663 16.65 16.635 16.615 16.567 16.487 16.405 16.322 16.237 16.145 16.048 15.952 15.855 15.773 15.765 15.815 15.847 15.812 15.735 15.67 15.615 15.573 15.543 15.512 15.477 15.43 15.367 15.3 15.232 15.15 15.103
24.61 24.522 24.405 24.262 24.12 23.99 23.933 23.935 23.935 23.938 24 24.147 24.325 24.525 24.67 24.732 24.787 24.842 24.845 24.69 24.433 24.245 24.148 24.08 24.02 23.96 23.9 23.84 23.785 23.738 23.695 23.665 23.64 23.61 23.585 23.56 23.53 23.5 23.462 23.38 23.233 23.063 22.945 22.9 22.883 22.868 22.85 22.83 22.808 22.783 22.768 22.76 22.743 22.718 22.655 22.503 22.38 22.368 22.385 22.405 22.425 22.443 22.437 22.36 22.21 22.04 21.94 21.902 21.855 21.785 21.687 21.575 21.448 21.318 21.223 21.173 21.142 21.085 20.987 20.923 20.895 20.865 20.842 20.827 20.812 20.797 20.76 20.672 20.552 20.425 20.33 20.285 20.255 20.222 20.167 20.085 19.998 19.91 19.848 19.815 19.785 19.745 19.672 19.575 19.475 19.377 19.265 19.135 19.01 18.888 18.798 18.76 18.74 18.725 18.73 18.738 18.733 18.722 18.597 18.375 18.84 19.537 19.577 18.982 18.318 18.18 18.22 18.26 18.303 18.34 18.337 18.302 18.27 18.237 18.177 18.092 18.01 17.925 17.84 17.78 17.745 17.715 17.69 17.68 17.675 17.67 17.665 17.645 17.59 17.505 17.443 17.422 17.42 17.415 17.367 17.272 17.168 17.118 17.13 17.15 17.155 17.112 17.04 16.962 16.89 16.845 16.805 16.755 16.703 16.668 16.65 16.63 16.61 16.562 16.483 16.4 16.31 16.212 16.127 16.042 15.945 15.848 15.753 15.718 15.758 15.802 15.788 15.728 15.673 15.62 15.575 15.543 15.515 15.48 15.43 15.365 15.295 15.228 15.168 15.153
24.552 24.46 24.34 24.195 24.045 23.9 23.835 23.84 23.837 23.818 23.865 24.015 24.198 24.473 24.677 24.727 24.777 24.83 24.79 24.593 24.368 24.235 24.165 24.103 24.038 23.973 23.908 23.855 23.82 23.79 23.76 23.735 23.71 23.68 23.652 23.622 23.587 23.55 23.505 23.435 23.3 23.115 22.968 22.903 22.88 22.86 22.84 22.818 22.795 22.77 22.74 22.713 22.688 22.665 22.637 22.552 22.418 22.36 22.383 22.408 22.425 22.427 22.4 22.32 22.19 22.03 21.928 21.895 21.855 21.782 21.675 21.555 21.433 21.33 21.28 21.26 21.207 21.082 20.945 20.88 20.86 20.835 20.812 20.795 20.777 20.76 20.73 20.655 20.535 20.403 20.295 20.235 20.202 20.17 20.105 20.015 19.928 19.84 19.775 19.74 19.71 19.68 19.62 19.527 19.433 19.35 19.267 19.155 19.03 18.915 18.853 18.835 18.815 18.795 18.778 18.765 18.753 18.74 18.607 18.348 18.807 19.527 19.155 18.388 18.143 18.19 18.24 18.293 18.342 18.345 18.312 18.285 18.257 18.232 18.175 18.09 18.01 17.925 17.84 17.778 17.74 17.713 17.698 17.693 17.688 17.683 17.677 17.645 17.57 17.483 17.415 17.373 17.352 17.35 17.315 17.215 17.123 17.12 17.157 17.177 17.172 17.135 17.08 17.012 16.937 16.878 16.83 16.78 16.725 16.678 16.648 16.625 16.605 16.557 16.48 16.39 16.277 16.16 16.085 16.025 15.935 15.84 15.745 15.703 15.743 15.8 15.8 15.748 15.695 15.645 15.6 15.565 15.535 15.5 15.45 15.385 15.315 15.25 15.203 15.19
24.453 24.343 24.227 24.087 23.94 23.798 23.735 23.735 23.71 23.655 23.665 23.8 24.15 24.535 24.677 24.715 24.763 24.817 24.737 24.528 24.378 24.29 24.218 24.15 24.083 24.015 23.935 23.878 23.857 23.84 23.817 23.792 23.767 23.74 23.71 23.675 23.635 23.592 23.545 23.48 23.367 23.205 23.055 22.965 22.925 22.9 22.875 22.85 22.825 22.8 22.745 22.695 22.675 22.652 22.62 22.585 22.507 22.43 22.427 22.437 22.427 22.402 22.345 22.255 22.147 22.013 21.91 21.875 21.847 21.78 21.673 21.56 21.463 21.405 21.38 21.33 21.21 21.043 20.903 20.838 20.812 20.788 20.763 20.743 20.725 20.705 20.672 20.605 20.502 20.378 20.265 20.193 20.148 20.11 20.042 19.95 19.868 19.795 19.733 19.68 19.64 19.61 19.552 19.465 19.383 19.328 19.285 19.205 19.09 18.988 18.94 18.927 18.91 18.89 18.87 18.85 18.835 18.825 18.695 18.443 18.52 18.787 18.48 18.133 18.185 18.245 18.305 18.367 18.387 18.327 18.268 18.245 18.23 18.222 18.17 18.073 17.985 17.903 17.82 17.763 17.735 17.72 17.718 17.717 17.715 17.71 17.695 17.635 17.54 17.455 17.378 17.305 17.25 17.215 17.173 17.108 17.088 17.132 17.172 17.182 17.16 17.122 17.075 17.012 16.95 16.908 16.865 16.81 16.757 16.703 16.658 16.623 16.595 16.552 16.472 16.36 16.23 16.103 16.025 15.987 15.922 15.833 15.75 15.73 15.773 15.83 15.832 15.78 15.733 15.685 15.64 15.605 15.572 15.537 15.487 15.422 15.355 15.29 15.24 15.215
24.393 24.233 24.11 23.972 23.832 23.695 23.628 23.602 23.545 23.478 23.468 23.75 24.312 24.637 24.675 24.71 24.752 24.785 24.69 24.528 24.43 24.35 24.275 24.205 24.137 24.052 23.953 23.888 23.865 23.857 23.847 23.83 23.81 23.787 23.757 23.72 23.68 23.637 23.587 23.52 23.43 23.3 23.16 23.048 22.98 22.95 22.925 22.9 22.872 22.847 22.778 22.698 22.663 22.635 22.6 22.565 22.53 22.48 22.447 22.427 22.392 22.352 22.282 22.185 22.085 21.975 21.888 21.848 21.825 21.782 21.697 21.598 21.53 21.495 21.457 21.352 21.18 21 20.858 20.79 20.763 20.74 20.713 20.688 20.67 20.65 20.612 20.542 20.455 20.35 20.238 20.155 20.1 20.05 19.983 19.903 19.838 19.782 19.72 19.65 19.59 19.545 19.487 19.415 19.36 19.322 19.285 19.232 19.145 19.063 19.03 19.02 19.005 18.987 18.97 18.955 18.95 18.947 18.847 18.658 18.483 18.348 18.295 18.283 18.288 18.335 18.395 18.422 18.372 18.283 18.233 18.223 18.22 18.22 18.167 18.063 17.965 17.88 17.803 17.755 17.743 17.74 17.74 17.74 17.74 17.737 17.7 17.61 17.51 17.428 17.355 17.285 17.218 17.153 17.095 17.073 17.098 17.148 17.18 17.172 17.14 17.105 17.062 17.005 16.958 16.94 16.907 16.845 16.79 16.737 16.688 16.64 16.597 16.542 16.442 16.312 16.18 16.05 15.965 15.93 15.89 15.82 15.768 15.778 15.813 15.86 15.865 15.815 15.77 15.725 15.68 15.645 15.61 15.572 15.522 15.46 15.395 15.33 15.283 15.255
24.365 24.148 23.99 23.855 23.72 23.593 23.52 23.47 23.4 23.338 23.463 24.005 24.507 24.637 24.672 24.71 24.747 24.752 24.68 24.575 24.49 24.41 24.335 24.265 24.172 24.058 23.96 23.895 23.865 23.858 23.852 23.845 23.835 23.822 23.797 23.76 23.72 23.68 23.63 23.563 23.487 23.385 23.262 23.145 23.05 23 22.975 22.95 22.917 22.887 22.817 22.715 22.65 22.612 22.575 22.54 22.505 22.455 22.407 22.375 22.342 22.297 22.223 22.128 22.033 21.938 21.868 21.83 21.803 21.775 21.722 21.65 21.595 21.547 21.485 21.355 21.168 20.99 20.858 20.798 20.775 20.753 20.718 20.678 20.64 20.603 20.553 20.478 20.395 20.307 20.205 20.12 20.06 20 19.938 19.877 19.825 19.77 19.705 19.635 19.565 19.498 19.435 19.383 19.345 19.31 19.272 19.235 19.18 19.127 19.102 19.087 19.067 19.055 19.052 19.05 19.05 19.05 18.997 18.885 18.78 18.687 18.61 18.542 18.48 18.455 18.457 18.422 18.338 18.255 18.22 18.22 18.22 18.217 18.162 18.06 17.96 17.863 17.79 17.763 17.76 17.76 17.76 17.762 17.765 17.755 17.69 17.577 17.485 17.418 17.35 17.283 17.218 17.155 17.118 17.125 17.153 17.18 17.185 17.158 17.12 17.085 17.048 17.005 16.985 16.982 16.95 16.885 16.822 16.77 16.72 16.662 16.597 16.535 16.42 16.265 16.13 16 15.908 15.865 15.835 15.803 15.795 15.823 15.857 15.895 15.897 15.855 15.81 15.765 15.72 15.685 15.65 15.61 15.56 15.5 15.435 15.37 15.328 15.305
24.282 24.04 23.873 23.758 23.648 23.543 23.47 23.418 23.363 23.38 23.765 24.34 24.595 24.63 24.66 24.692 24.725 24.75 24.725 24.643 24.553 24.47 24.392 24.305 24.177 24.058 23.978 23.908 23.868 23.855 23.85 23.845 23.84 23.837 23.817 23.78 23.742 23.71 23.675 23.622 23.555 23.467 23.357 23.24 23.125 23.038 22.99 22.96 22.927 22.895 22.825 22.718 22.633 22.583 22.545 22.507 22.465 22.395 22.33 22.3 22.283 22.255 22.188 22.095 22.008 21.92 21.858 21.825 21.795 21.76 21.72 21.675 21.62 21.557 21.487 21.357 21.178 21.025 20.918 20.865 20.845 20.817 20.772 20.72 20.665 20.603 20.53 20.445 20.355 20.268 20.17 20.08 20.01 19.947 19.89 19.835 19.795 19.76 19.685 19.595 19.525 19.452 19.39 19.345 19.307 19.25 19.22 19.212 19.175 19.14 19.115 19.095 19.077 19.077 19.092 19.102 19.105 19.105 19.077 19.01 18.93 18.84 18.73 18.645 18.582 18.525 18.48 18.412 18.328 18.253 18.22 18.22 18.22 18.225 18.175 18.07 17.97 17.865 17.79 17.76 17.74 17.733 17.737 17.745 17.75 17.717 17.627 17.53 17.473 17.425 17.362 17.298 17.233 17.18 17.178 17.207 17.23 17.23 17.2 17.165 17.13 17.093 17.053 17.015 17.005 16.997 16.952 16.89 16.83 16.775 16.715 16.64 16.57 16.53 16.44 16.273 16.103 15.95 15.848 15.805 15.795 15.805 15.83 15.862 15.897 15.925 15.917 15.875 15.83 15.787 15.745 15.707 15.672 15.647 15.607 15.545 15.483 15.42 15.38 15.36
24.107 23.868 23.75 23.687 23.63 23.552 23.473 23.415 23.375 23.603 24.157 24.51 24.567 24.595 24.62 24.645 24.695 24.772 24.787 24.72 24.635 24.548 24.452 24.315 24.17 24.07 23.995 23.923 23.87 23.853 23.848 23.843 23.84 23.84 23.82 23.783 23.755 23.74 23.722 23.685 23.627 23.547 23.442 23.322 23.2 23.088 22.998 22.94 22.905 22.872 22.802 22.7 22.61 22.55 22.512 22.472 22.412 22.325 22.253 22.225 22.233 22.237 22.18 22.083 21.993 21.91 21.855 21.82 21.782 21.74 21.695 21.657 21.615 21.562 21.495 21.365 21.208 21.09 20.993 20.935 20.915 20.88 20.827 20.772 20.71 20.632 20.545 20.455 20.365 20.273 20.16 20.04 19.948 19.885 19.833 19.793 19.775 19.762 19.685 19.56 19.468 19.395 19.338 19.292 19.232 19.135 19.11 19.155 19.147 19.115 19.088 19.07 19.07 19.085 19.105 19.122 19.132 19.135 19.105 19.035 18.94 18.817 18.675 18.57 18.523 18.502 18.472 18.41 18.335 18.26 18.225 18.225 18.23 18.247 18.202 18.093 17.99 17.893 17.818 17.768 17.725 17.698 17.683 17.668 17.663 17.625 17.548 17.49 17.46 17.427 17.375 17.312 17.248 17.223 17.255 17.292 17.307 17.277 17.218 17.185 17.165 17.13 17.08 17.023 16.997 16.972 16.91 16.845 16.787 16.732 16.662 16.583 16.533 16.515 16.477 16.345 16.145 15.955 15.82 15.78 15.8 15.83 15.863 15.897 15.925 15.935 15.915 15.872 15.83 15.79 15.747 15.708 15.688 15.69 15.662 15.598 15.538 15.483 15.443 15.42
23.895 23.688 23.608 23.582 23.56 23.522 23.467 23.408 23.49 23.96 24.432 24.517 24.505 24.535 24.56 24.59 24.68 24.807 24.84 24.787 24.725 24.642 24.522 24.37 24.235 24.13 24.03 23.94 23.875 23.85 23.848 23.845 23.845 23.842 23.825 23.8 23.788 23.785 23.767 23.732 23.69 23.625 23.527 23.405 23.28 23.165 23.055 22.96 22.895 22.85 22.78 22.683 22.593 22.523 22.477 22.427 22.347 22.25 22.178 22.168 22.208 22.232 22.18 22.08 21.983 21.9 21.845 21.802 21.757 21.712 21.67 21.633 21.597 21.557 21.497 21.39 21.27 21.167 21.065 21.005 20.98 20.937 20.88 20.815 20.74 20.655 20.565 20.475 20.388 20.3 20.17 20 19.883 19.83 19.795 19.778 19.77 19.76 19.702 19.573 19.435 19.34 19.282 19.217 19.12 19.005 18.98 19.05 19.095 19.09 19.065 19.06 19.075 19.095 19.115 19.137 19.157 19.165 19.132 19.042 18.912 18.765 18.615 18.51 18.475 18.472 18.447 18.392 18.332 18.265 18.23 18.235 18.253 18.275 18.235 18.125 18.013 17.925 17.86 17.803 17.755 17.715 17.675 17.635 17.605 17.563 17.51 17.468 17.438 17.42 17.382 17.325 17.28 17.29 17.34 17.377 17.37 17.31 17.233 17.19 17.18 17.16 17.105 17.025 16.975 16.93 16.86 16.79 16.725 16.667 16.6 16.538 16.51 16.5 16.49 16.407 16.23 15.988 15.813 15.798 15.832 15.865 15.897 15.925 15.935 15.93 15.905 15.865 15.825 15.785 15.743 15.718 15.725 15.74 15.715 15.655 15.598 15.545 15.508 15.477
23.693 23.538 23.473 23.458 23.445 23.435 23.42 23.448 23.775 24.292 24.485 24.443 24.448 24.475 24.5 24.548 24.677 24.842 24.89 24.835 24.775 24.71 24.617 24.505 24.387 24.263 24.135 24.018 23.915 23.863 23.86 23.86 23.86 23.853 23.84 23.835 23.835 23.832 23.812 23.777 23.737 23.682 23.6 23.485 23.36 23.245 23.135 23.023 22.92 22.843 22.762 22.67 22.58 22.5 22.437 22.365 22.273 22.175 22.118 22.138 22.192 22.225 22.18 22.08 21.97 21.873 21.815 21.775 21.73 21.685 21.645 21.608 21.573 21.54 21.497 21.432 21.347 21.245 21.14 21.078 21.042 20.99 20.922 20.842 20.76 20.675 20.585 20.495 20.41 20.332 20.2 19.985 19.835 19.795 19.783 19.775 19.765 19.755 19.72 19.61 19.45 19.313 19.21 19.105 18.99 18.875 18.85 18.923 18.995 19.037 19.047 19.06 19.08 19.1 19.12 19.145 19.17 19.182 19.137 19.017 18.87 18.723 18.575 18.48 18.458 18.45 18.42 18.368 18.315 18.263 18.24 18.258 18.283 18.307 18.27 18.157 18.04 17.957 17.9 17.842 17.79 17.745 17.705 17.662 17.612 17.553 17.495 17.445 17.415 17.405 17.385 17.348 17.34 17.38 17.43 17.452 17.41 17.33 17.25 17.195 17.18 17.175 17.125 17.033 16.948 16.878 16.81 16.74 16.67 16.605 16.545 16.508 16.495 16.485 16.472 16.435 16.272 15.968 15.8 15.823 15.86 15.897 15.925 15.935 15.93 15.922 15.9 15.86 15.82 15.78 15.753 15.755 15.775 15.792 15.77 15.715 15.662 15.61 15.567 15.525
23.533 23.428 23.4 23.405 23.395 23.385 23.378 23.59 24.105 24.435 24.407 24.365 24.39 24.407 24.385 24.443 24.635 24.822 24.885 24.832 24.77 24.727 24.682 24.605 24.515 24.402 24.262 24.12 23.983 23.905 23.895 23.895 23.892 23.87 23.85 23.855 23.86 23.855 23.835 23.797 23.75 23.697 23.63 23.537 23.432 23.322 23.21 23.095 22.977 22.86 22.755 22.665 22.575 22.488 22.4 22.31 22.22 22.128 22.09 22.128 22.18 22.217 22.175 22.06 21.932 21.823 21.765 21.735 21.7 21.657 21.615 21.58 21.553 21.53 21.5 21.452 21.39 21.312 21.22 21.15 21.097 21.027 20.95 20.865 20.78 20.695 20.605 20.523 20.45 20.382 20.252 20.02 19.853 19.8 19.778 19.77 19.76 19.75 19.732 19.65 19.5 19.348 19.228 19.1 18.943 18.783 18.735 18.81 18.888 18.955 18.992 19.012 19.035 19.055 19.075 19.097 19.12 19.127 19.09 18.987 18.848 18.705 18.565 18.483 18.465 18.458 18.433 18.385 18.338 18.295 18.285 18.308 18.332 18.337 18.275 18.157 18.043 17.96 17.905 17.86 17.815 17.77 17.728 17.68 17.625 17.562 17.493 17.428 17.395 17.385 17.375 17.385 17.425 17.473 17.515 17.507 17.437 17.355 17.275 17.213 17.188 17.185 17.147 17.055 16.935 16.828 16.745 16.673 16.605 16.538 16.488 16.462 16.45 16.44 16.425 16.41 16.28 15.99 15.843 15.878 15.912 15.925 15.915 15.905 15.898 15.902 15.892 15.857 15.82 15.78 15.773 15.795 15.815 15.832 15.817 15.77 15.717 15.665 15.615 15.565
23.425 23.35 23.365 23.4 23.39 23.383 23.44 23.858 24.347 24.405 24.31 24.305 24.312 24.215 24.148 24.295 24.537 24.74 24.817 24.785 24.745 24.727 24.692 24.627 24.565 24.475 24.335 24.185 24.053 23.968 23.945 23.945 23.925 23.875 23.848 23.852 23.852 23.845 23.825 23.79 23.745 23.695 23.63 23.55 23.467 23.375 23.267 23.147 23.02 22.88 22.76 22.67 22.577 22.485 22.385 22.285 22.193 22.1 22.075 22.12 22.17 22.212 22.155 22.013 21.878 21.765 21.705 21.68 21.655 21.623 21.59 21.565 21.548 21.53 21.497 21.445 21.39 21.335 21.27 21.202 21.13 21.05 20.97 20.885 20.798 20.715 20.638 20.57 20.505 20.44 20.31 20.093 19.938 19.865 19.808 19.77 19.75 19.74 19.727 19.68 19.565 19.425 19.342 19.247 19.073 18.853 18.705 18.723 18.805 18.867 18.897 18.917 18.94 18.96 18.98 19 19.01 19 18.98 18.932 18.83 18.695 18.568 18.5 18.493 18.502 18.49 18.448 18.405 18.365 18.355 18.375 18.38 18.34 18.25 18.135 18.025 17.933 17.87 17.833 17.805 17.797 17.762 17.693 17.633 17.575 17.503 17.428 17.388 17.375 17.38 17.44 17.527 17.582 17.59 17.542 17.465 17.385 17.31 17.25 17.213 17.198 17.172 17.087 16.943 16.803 16.695 16.605 16.525 16.463 16.425 16.398 16.38 16.37 16.355 16.337 16.282 16.073 15.928 15.962 15.967 15.917 15.868 15.853 15.858 15.877 15.877 15.85 15.817 15.78 15.78 15.817 15.845 15.86 15.847 15.81 15.762 15.71 15.66 15.61
23.35 23.28 23.313 23.38 23.385 23.378 23.608 24.137 24.4 24.285 24.218 24.215 24.097 23.905 23.935 24.162 24.365 24.517 24.577 24.6 24.655 24.71 24.697 24.635 24.575 24.505 24.39 24.253 24.13 24.035 24 23.982 23.932 23.87 23.843 23.842 23.835 23.825 23.805 23.775 23.74 23.695 23.63 23.553 23.478 23.402 23.305 23.175 23.032 22.888 22.77 22.677 22.58 22.485 22.388 22.283 22.18 22.088 22.065 22.11 22.16 22.207 22.142 21.978 21.828 21.708 21.648 21.625 21.605 21.588 21.575 21.565 21.552 21.532 21.493 21.438 21.393 21.355 21.32 21.257 21.163 21.073 20.99 20.908 20.825 20.753 20.69 20.63 20.565 20.5 20.37 20.175 20.043 19.968 19.893 19.823 19.77 19.738 19.712 19.68 19.612 19.503 19.435 19.397 19.277 19.04 18.768 18.668 18.73 18.782 18.803 18.82 18.84 18.86 18.88 18.892 18.885 18.863 18.84 18.82 18.775 18.677 18.573 18.528 18.535 18.555 18.547 18.512 18.475 18.435 18.422 18.422 18.385 18.315 18.22 18.113 18.013 17.915 17.835 17.8 17.808 17.845 17.825 17.735 17.655 17.59 17.52 17.448 17.398 17.375 17.41 17.507 17.612 17.665 17.635 17.565 17.49 17.413 17.35 17.3 17.255 17.22 17.195 17.117 16.96 16.803 16.68 16.58 16.493 16.428 16.383 16.343 16.315 16.3 16.285 16.265 16.245 16.115 16.013 16.015 15.957 15.868 15.813 15.813 15.835 15.86 15.86 15.835 15.807 15.778 15.78 15.825 15.867 15.887 15.872 15.837 15.797 15.752 15.705 15.655
23.273 23.21 23.248 23.345 23.383 23.45 23.885 24.325 24.305 24.175 24.147 24.055 23.785 23.585 23.62 23.762 23.905 23.992 24.055 24.17 24.332 24.487 24.602 24.65 24.617 24.553 24.455 24.33 24.21 24.103 24.043 23.997 23.935 23.878 23.845 23.833 23.818 23.803 23.78 23.753 23.725 23.69 23.632 23.56 23.492 23.425 23.327 23.19 23.04 22.895 22.778 22.68 22.583 22.49 22.4 22.308 22.213 22.123 22.078 22.098 22.145 22.195 22.145 21.978 21.803 21.663 21.6 21.588 21.575 21.568 21.562 21.557 21.55 21.532 21.502 21.47 21.445 21.425 21.4 21.33 21.218 21.11 21.02 20.945 20.875 20.81 20.75 20.687 20.623 20.56 20.43 20.258 20.148 20.073 19.997 19.922 19.847 19.76 19.693 19.655 19.615 19.557 19.51 19.49 19.41 19.19 18.883 18.678 18.675 18.725 18.73 18.735 18.748 18.765 18.775 18.768 18.75 18.728 18.705 18.685 18.665 18.622 18.578 18.57 18.585 18.602 18.6 18.572 18.537 18.502 18.472 18.43 18.363 18.285 18.195 18.098 18.005 17.913 17.823 17.798 17.837 17.885 17.872 17.787 17.695 17.618 17.553 17.49 17.43 17.398 17.445 17.547 17.645 17.69 17.655 17.582 17.508 17.44 17.385 17.337 17.297 17.257 17.222 17.142 16.988 16.82 16.693 16.605 16.525 16.453 16.39 16.335 16.288 16.253 16.228 16.205 16.183 16.125 16.067 16.013 15.928 15.84 15.793 15.8 15.82 15.84 15.84 15.818 15.795 15.773 15.778 15.823 15.875 15.907 15.897 15.86 15.823 15.785 15.742 15.695
23.193 23.165 23.205 23.297 23.36 23.658 24.172 24.335 24.168 24.068 24.045 23.857 23.575 23.4 23.313 23.29 23.308 23.375 23.518 23.7 23.893 24.088 24.305 24.507 24.632 24.63 24.527 24.41 24.29 24.173 24.085 24.025 23.965 23.91 23.875 23.855 23.835 23.798 23.758 23.733 23.705 23.675 23.627 23.56 23.493 23.435 23.342 23.2 23.05 22.91 22.798 22.7 22.605 22.515 22.433 22.357 22.275 22.188 22.123 22.103 22.13 22.18 22.145 21.992 21.81 21.648 21.573 21.565 21.558 21.552 21.547 21.537 21.517 21.492 21.475 21.465 21.452 21.43 21.397 21.36 21.282 21.168 21.07 21 20.935 20.87 20.81 20.745 20.68 20.62 20.49 20.34 20.253 20.177 20.102 20.01 19.895 19.752 19.65 19.613 19.588 19.575 19.555 19.522 19.45 19.255 18.97 18.738 18.715 18.78 18.775 18.77 18.768 18.755 18.718 18.68 18.663 18.645 18.625 18.605 18.585 18.573 18.588 18.615 18.635 18.65 18.652 18.63 18.595 18.545 18.502 18.46 18.385 18.308 18.215 18.113 18.02 17.93 17.84 17.815 17.857 17.902 17.887 17.805 17.718 17.658 17.628 17.583 17.515 17.47 17.488 17.56 17.647 17.7 17.672 17.598 17.538 17.49 17.42 17.355 17.317 17.28 17.242 17.17 17.03 16.86 16.735 16.655 16.575 16.5 16.435 16.375 16.315 16.265 16.233 16.208 16.183 16.155 16.112 16.048 15.97 15.89 15.85 15.855 15.863 15.865 15.855 15.838 15.82 15.8 15.788 15.813 15.865 15.905 15.907 15.88 15.847 15.812 15.772 15.725
23.16 23.16 23.2 23.275 23.458 23.942 24.277 24.182 24.038 23.958 23.89 23.705 23.493 23.358 23.238 23.128 23.04 23.053 23.153 23.303 23.498 23.695 23.908 24.152 24.432 24.62 24.605 24.49 24.37 24.25 24.153 24.08 24.018 23.965 23.93 23.905 23.865 23.795 23.74 23.717 23.69 23.66 23.612 23.548 23.488 23.442 23.355 23.21 23.068 22.94 22.835 22.743 22.648 22.558 22.48 22.412 22.337 22.253 22.185 22.143 22.135 22.17 22.145 22.005 21.82 21.643 21.555 21.548 21.542 21.532 21.515 21.49 21.455 21.42 21.395 21.38 21.36 21.307 21.268 21.29 21.302 21.232 21.135 21.063 20.995 20.93 20.87 20.805 20.74 20.68 20.56 20.433 20.357 20.27 20.16 20.022 19.862 19.698 19.595 19.573 19.575 19.585 19.57 19.522 19.452 19.27 19.008 18.838 18.855 18.92 18.915 18.9 18.87 18.822 18.745 18.668 18.633 18.615 18.597 18.58 18.565 18.565 18.595 18.64 18.677 18.7 18.705 18.687 18.64 18.543 18.498 18.512 18.465 18.385 18.282 18.163 18.055 17.96 17.87 17.835 17.87 17.915 17.892 17.805 17.74 17.72 17.722 17.697 17.638 17.585 17.563 17.585 17.653 17.71 17.687 17.623 17.593 17.565 17.478 17.378 17.32 17.283 17.245 17.182 17.067 16.91 16.785 16.705 16.625 16.55 16.483 16.42 16.365 16.32 16.288 16.26 16.232 16.202 16.167 16.125 16.062 15.985 15.945 15.95 15.947 15.93 15.91 15.895 15.88 15.862 15.833 15.815 15.845 15.882 15.892 15.882 15.862 15.835 15.798 15.765
23.175 23.173 23.21 23.33 23.752 24.17 24.167 24.01 23.905 23.84 23.758 23.62 23.455 23.315 23.198 23.098 23.02 22.993 23 23.053 23.153 23.303 23.508 23.758 24.088 24.445 24.622 24.57 24.45 24.33 24.23 24.15 24.078 24.02 23.98 23.932 23.857 23.773 23.72 23.698 23.672 23.647 23.6 23.54 23.498 23.46 23.37 23.23 23.1 22.98 22.875 22.785 22.69 22.603 22.53 22.465 22.4 22.32 22.248 22.2 22.165 22.165 22.145 22.017 21.823 21.63 21.538 21.53 21.512 21.487 21.455 21.42 21.385 21.35 21.317 21.28 21.22 21.125 21.09 21.147 21.217 21.242 21.2 21.127 21.055 20.99 20.927 20.862 20.8 20.74 20.642 20.532 20.427 20.292 20.137 19.973 19.808 19.645 19.56 19.565 19.587 19.602 19.575 19.515 19.452 19.285 19.088 19.01 19.027 19.055 19.035 18.995 18.942 18.887 18.805 18.703 18.628 18.59 18.573 18.56 18.558 18.565 18.595 18.645 18.697 18.74 18.757 18.732 18.642 18.508 18.463 18.515 18.527 18.465 18.355 18.23 18.108 17.998 17.9 17.855 17.88 17.922 17.895 17.825 17.8 17.8 17.805 17.8 17.762 17.715 17.68 17.658 17.675 17.72 17.71 17.67 17.665 17.642 17.55 17.428 17.338 17.288 17.242 17.175 17.087 16.957 16.835 16.755 16.675 16.598 16.528 16.468 16.418 16.375 16.34 16.31 16.28 16.247 16.212 16.18 16.14 16.078 16.04 16.035 16.015 15.99 15.97 15.955 15.94 15.925 15.895 15.85 15.84 15.86 15.868 15.86 15.853 15.848 15.84 15.84
23.192 23.188 23.22 23.533 24.02 24.142 23.995 23.895 23.84 23.807 23.732 23.592 23.43 23.28 23.165 23.078 23.005 22.98 22.987 22.993 23 23.053 23.158 23.393 23.77 24.173 24.512 24.612 24.507 24.382 24.29 24.215 24.137 24.067 24.002 23.925 23.838 23.753 23.7 23.678 23.653 23.63 23.592 23.547 23.512 23.475 23.39 23.26 23.132 23.012 22.91 22.82 22.728 22.647 22.58 22.515 22.455 22.385 22.313 22.26 22.218 22.185 22.15 22.025 21.82 21.62 21.505 21.467 21.43 21.392 21.352 21.312 21.275 21.235 21.192 21.13 21.035 20.933 20.918 20.99 21.078 21.172 21.195 21.142 21.087 21.037 20.98 20.915 20.852 20.79 20.702 20.582 20.437 20.275 20.115 19.955 19.795 19.645 19.57 19.575 19.6 19.615 19.58 19.513 19.447 19.338 19.24 19.202 19.18 19.157 19.115 19.06 19.005 18.95 18.867 18.762 18.663 18.585 18.55 18.548 18.555 18.565 18.593 18.64 18.692 18.745 18.782 18.737 18.602 18.465 18.428 18.475 18.517 18.52 18.44 18.31 18.18 18.055 17.94 17.875 17.89 17.927 17.912 17.883 17.88 17.88 17.882 17.89 17.877 17.842 17.81 17.775 17.75 17.753 17.747 17.735 17.735 17.705 17.615 17.495 17.38 17.298 17.237 17.167 17.092 16.992 16.885 16.802 16.725 16.645 16.575 16.52 16.472 16.427 16.39 16.357 16.322 16.287 16.257 16.227 16.195 16.155 16.125 16.105 16.075 16.05 16.03 16.015 16 15.985 15.955 15.905 15.863 15.853 15.863 15.868 15.873 15.885 15.905 15.922
23.205 23.2 23.363 23.85 24.107 23.983 23.875 23.833 23.827 23.81 23.725 23.567 23.405 23.26 23.153 23.065 22.993 22.97 22.975 22.99 23.018 23.043 23.08 23.253 23.588 23.975 24.377 24.547 24.45 24.36 24.305 24.235 24.16 24.092 24.015 23.928 23.843 23.76 23.703 23.673 23.648 23.625 23.587 23.54 23.5 23.462 23.382 23.255 23.133 23.028 22.935 22.845 22.755 22.68 22.617 22.557 22.5 22.437 22.372 22.32 22.277 22.227 22.162 22.02 21.81 21.615 21.49 21.393 21.29 21.23 21.185 21.14 21.1 21.055 21 20.925 20.83 20.75 20.765 20.86 20.973 21.09 21.125 21.087 21.055 21.032 20.99 20.925 20.862 20.805 20.73 20.607 20.453 20.295 20.14 19.985 19.83 19.698 19.625 19.6 19.608 19.625 19.595 19.525 19.453 19.385 19.332 19.29 19.252 19.207 19.155 19.1 19.045 18.99 18.91 18.807 18.705 18.608 18.55 18.543 18.548 18.558 18.58 18.618 18.665 18.715 18.755 18.695 18.548 18.433 18.388 18.408 18.45 18.497 18.507 18.425 18.29 18.155 18.025 17.915 17.89 17.925 17.937 17.935 17.935 17.937 17.942 17.945 17.935 17.91 17.88 17.847 17.815 17.795 17.775 17.76 17.755 17.727 17.65 17.537 17.42 17.313 17.23 17.16 17.085 17.005 16.92 16.837 16.76 16.68 16.61 16.555 16.507 16.457 16.415 16.38 16.34 16.308 16.29 16.27 16.24 16.21 16.185 16.16 16.13 16.097 16.07 16.052 16.037 16.022 15.99 15.94 15.898 15.888 15.905 15.923 15.938 15.952 15.97 15.99
23.215 23.27 23.702 24.112 24.042 23.875 23.763 23.743 23.775 23.767 23.672 23.52 23.385 23.265 23.163 23.068 23.005 23.003 23.028 23.063 23.108 23.153 23.225 23.373 23.605 23.91 24.275 24.417 24.34 24.32 24.292 24.223 24.158 24.105 24.037 23.952 23.87 23.795 23.735 23.69 23.655 23.63 23.585 23.52 23.465 23.425 23.345 23.223 23.123 23.04 22.955 22.865 22.778 22.703 22.64 22.585 22.53 22.472 22.405 22.34 22.287 22.227 22.137 21.99 21.795 21.615 21.51 21.41 21.26 21.118 21.008 20.94 20.9 20.852 20.788 20.705 20.638 20.615 20.665 20.775 20.897 21.015 21.05 21.015 20.998 20.995 20.962 20.9 20.845 20.8 20.74 20.645 20.51 20.345 20.18 20.025 19.87 19.755 19.7 19.66 19.635 19.64 19.615 19.542 19.462 19.385 19.328 19.293 19.27 19.232 19.177 19.122 19.067 19.007 18.925 18.828 18.735 18.65 18.59 18.563 18.545 18.545 18.565 18.593 18.63 18.675 18.705 18.635 18.51 18.433 18.378 18.35 18.37 18.418 18.48 18.5 18.422 18.29 18.153 18.01 17.908 17.903 17.927 17.93 17.935 17.947 17.962 17.962 17.947 17.925 17.895 17.865 17.843 17.832 17.8 17.758 17.738 17.72 17.657 17.55 17.437 17.32 17.225 17.152 17.075 16.997 16.917 16.835 16.755 16.675 16.61 16.562 16.515 16.463 16.418 16.38 16.345 16.32 16.31 16.305 16.287 16.26 16.235 16.21 16.172 16.123 16.085 16.065 16.05 16.035 16 15.958 15.94 15.948 15.967 15.987 16.003 16.018 16.035 16.052
23.208 23.453 24.002 24.155 23.923 23.76 23.64 23.62 23.682 23.705 23.63 23.503 23.392 23.285 23.183 23.115 23.098 23.115 23.153 23.197 23.243 23.288 23.38 23.548 23.74 23.953 24.205 24.315 24.298 24.31 24.28 24.218 24.167 24.12 24.057 23.978 23.9 23.833 23.775 23.725 23.675 23.638 23.59 23.52 23.45 23.392 23.315 23.215 23.133 23.057 22.975 22.888 22.803 22.725 22.663 22.607 22.547 22.487 22.405 22.313 22.245 22.175 22.067 21.93 21.765 21.615 21.528 21.46 21.352 21.178 20.988 20.84 20.728 20.65 20.608 20.57 20.553 20.573 20.633 20.725 20.828 20.935 20.977 20.96 20.958 20.962 20.937 20.885 20.84 20.8 20.74 20.66 20.562 20.415 20.238 20.07 19.915 19.818 19.775 19.735 19.695 19.67 19.63 19.553 19.468 19.385 19.328 19.303 19.285 19.252 19.202 19.147 19.09 19.025 18.945 18.858 18.775 18.7 18.645 18.61 18.578 18.558 18.558 18.575 18.605 18.64 18.652 18.593 18.513 18.458 18.403 18.348 18.315 18.333 18.39 18.46 18.485 18.417 18.287 18.14 17.993 17.905 17.893 17.903 17.92 17.943 17.96 17.962 17.955 17.937 17.91 17.888 17.883 17.88 17.845 17.788 17.743 17.712 17.657 17.557 17.44 17.32 17.223 17.145 17.062 16.98 16.895 16.81 16.73 16.65 16.59 16.55 16.51 16.465 16.42 16.385 16.358 16.335 16.328 16.33 16.325 16.307 16.285 16.252 16.2 16.14 16.1 16.08 16.063 16.045 16.018 15.995 15.995 16.005 16.025 16.05 16.068 16.085 16.102 16.115
23.27 23.752 24.152 24.017 23.77 23.6 23.508 23.495 23.555 23.602 23.567 23.47 23.375 23.287 23.225 23.21 23.222 23.24 23.27 23.322 23.377 23.422 23.535 23.705 23.847 23.975 24.125 24.235 24.27 24.29 24.272 24.222 24.177 24.13 24.075 24.007 23.935 23.87 23.812 23.76 23.708 23.657 23.595 23.52 23.447 23.378 23.302 23.222 23.145 23.07 22.992 22.91 22.825 22.745 22.68 22.62 22.557 22.495 22.4 22.283 22.197 22.112 21.99 21.855 21.718 21.608 21.537 21.475 21.407 21.297 21.11 20.88 20.67 20.555 20.538 20.545 20.555 20.578 20.635 20.715 20.798 20.877 20.912 20.91 20.91 20.912 20.9 20.872 20.84 20.797 20.738 20.66 20.58 20.477 20.322 20.14 19.985 19.903 19.868 19.83 19.792 19.735 19.658 19.575 19.488 19.4 19.343 19.318 19.295 19.27 19.227 19.17 19.11 19.052 18.985 18.905 18.828 18.753 18.698 18.663 18.64 18.618 18.58 18.563 18.58 18.61 18.62 18.587 18.535 18.482 18.427 18.37 18.313 18.283 18.31 18.375 18.445 18.47 18.382 18.227 18.07 17.943 17.898 17.908 17.925 17.948 17.96 17.96 17.955 17.942 17.928 17.923 17.927 17.925 17.892 17.835 17.777 17.72 17.647 17.545 17.425 17.307 17.21 17.13 17.045 16.96 16.875 16.79 16.71 16.63 16.573 16.535 16.497 16.458 16.42 16.395 16.37 16.348 16.343 16.345 16.347 16.345 16.322 16.275 16.217 16.16 16.118 16.095 16.075 16.058 16.048 16.047 16.055 16.065 16.082 16.107 16.13 16.15 16.165 16.175
23.483 24.05 24.14 23.825 23.553 23.443 23.405 23.393 23.42 23.467 23.442 23.358 23.288 23.24 23.225 23.235 23.245 23.257 23.282 23.345 23.425 23.492 23.577 23.675 23.75 23.838 23.985 24.14 24.22 24.247 24.24 24.195 24.15 24.112 24.072 24.015 23.945 23.88 23.832 23.787 23.735 23.682 23.605 23.515 23.44 23.37 23.295 23.22 23.148 23.077 23.005 22.922 22.84 22.763 22.685 22.615 22.555 22.495 22.395 22.255 22.145 22.043 21.93 21.83 21.698 21.588 21.53 21.47 21.407 21.322 21.142 20.882 20.678 20.583 20.56 20.56 20.563 20.583 20.637 20.707 20.772 20.825 20.845 20.842 20.842 20.845 20.837 20.825 20.807 20.792 20.76 20.69 20.61 20.53 20.42 20.265 20.113 20.03 20 19.96 19.897 19.802 19.703 19.615 19.525 19.438 19.38 19.35 19.323 19.3 19.25 19.18 19.117 19.065 19.02 18.957 18.882 18.805 18.75 18.72 18.713 18.702 18.65 18.593 18.568 18.58 18.595 18.58 18.547 18.505 18.453 18.4 18.35 18.303 18.288 18.318 18.375 18.44 18.39 18.227 18.083 17.99 17.96 17.963 17.97 17.968 17.96 17.96 17.955 17.948 17.947 17.955 17.96 17.94 17.89 17.825 17.757 17.685 17.58 17.455 17.335 17.227 17.15 17.08 16.997 16.915 16.84 16.77 16.692 16.613 16.558 16.52 16.483 16.455 16.435 16.413 16.388 16.365 16.35 16.348 16.352 16.355 16.33 16.275 16.22 16.17 16.135 16.115 16.095 16.078 16.075 16.085 16.095 16.107 16.125 16.15 16.175 16.197 16.215 16.225
