ncols         200
nrows         73
xllcorner     543000
yllcorner     258370
cellsize      5
NODATA_value  -9999.0
14.395 14.29 14.17 14.048 13.94 13.843 13.745 13.653 13.57 13.49 13.185 12.913 12.905 13.023 13.105 12.948 12.823 12.843 12.935 13.005 12.818 12.6 12.57 12.57 12.57 12.57 12.57 12.57 12.57 12.57 12.962 13.29 13.188 13.653 14.645 15.215 14.817 13.948 13.485 13.367 13.272 13.175 13.078 13.008 12.965 12.94 12.945 12.965 12.985 12.972 12.925 12.875 12.827 12.78 12.712 12.615 12.503 12.4 12.338 12.303 12.268 12.233 12.21 12.195 12.18 12.173 12.16 12.14 12.118 12.095 12.088 12.095 12.105 12.087 12.042 11.995 11.95 11.93 11.912 11.877 11.84 11.802 11.76 11.71 11.66 11.613 11.58 11.56 11.542 11.522 11.485 11.43 11.375 11.333 11.305 11.288 11.27 11.25 11.233 11.218 11.205 11.195 11.185 11.173 11.158 11.14 11.14 11.168 11.197 11.205 11.178 11.135 11.1 11.07 11.045 11.03 11.02 11.005 11.015 11.097 11.222 11.312 11.237 11.037 10.842 10.635 10.495 10.483 10.535 10.578 10.525 10.405 10.308 10.263 10.293 10.383 10.535 10.632 10.508 10.375 10.395 10.432 10.377 10.233 10.15 10.15 10.15 10.328 10.755 11.047 10.995 10.632 10.258 10.15 10.235 10.4 10.512 10.56 10.462 10.205 9.915 9.73 9.715 9.76 9.805 9.83 9.795 9.715 9.625 9.535 9.51 9.562 9.622 9.66 9.635 9.568 9.5 9.435 9.36 9.29 9.24 9.205 9.268 9.418 9.57 9.725 9.85 9.89 9.877 9.825 9.73 9.63 9.53 9.43 9.385 9.46 9.635 9.837 9.97 10.068
14.38 14.295 14.192 14.085 13.985 13.887 13.79 13.695 13.608 13.535 13.455 13.392 13.375 13.345 13.3 13.267 13.262 13.292 13.387 13.457 13.252 13.023 12.997 12.97 12.82 12.635 12.57 12.57 12.57 12.57 13 13.345 13.188 13.595 14.632 15.13 14.532 13.67 13.315 13.247 13.172 13.092 13.018 12.97 12.935 12.91 12.915 12.935 12.952 12.947 12.905 12.848 12.795 12.745 12.685 12.595 12.488 12.405 12.355 12.315 12.278 12.238 12.205 12.188 12.175 12.165 12.15 12.13 12.11 12.09 12.078 12.08 12.09 12.095 12.075 12.035 11.995 11.96 11.92 11.875 11.835 11.795 11.75 11.7 11.653 11.608 11.573 11.55 11.53 11.507 11.467 11.41 11.355 11.31 11.283 11.27 11.258 11.24 11.225 11.213 11.2 11.193 11.183 11.17 11.158 11.153 11.17 11.2 11.233 11.252 11.23 11.18 11.135 11.098 11.073 11.06 11.06 11.07 11.083 11.14 11.24 11.227 11.057 10.875 10.72 10.58 10.53 10.57 10.678 10.857 10.897 10.735 10.558 10.395 10.32 10.38 10.488 10.58 10.547 10.408 10.355 10.395 10.437 10.392 10.238 10.15 10.15 10.15 10.34 10.707 10.965 10.81 10.362 10.15 10.15 10.285 10.492 10.58 10.537 10.292 9.915 9.728 9.76 9.818 9.847 9.82 9.747 9.66 9.573 9.483 9.435 9.463 9.505 9.495 9.435 9.368 9.315 9.283 9.243 9.213 9.21 9.218 9.295 9.44 9.585 9.732 9.825 9.825 9.797 9.752 9.67 9.57 9.47 9.385 9.37 9.425 9.528 9.67 9.803 9.935
14.33 14.28 14.205 14.107 14.012 13.917 13.822 13.733 13.66 13.618 13.597 13.58 13.567 13.565 13.56 13.537 13.505 13.49 13.492 13.48 13.43 13.397 13.405 13.392 13.257 13.075 13.01 13.018 13.023 13.023 13.217 13.36 13.255 13.468 14.49 15.079 14.2 13.328 13.14 13.08 13.02 12.98 12.957 12.93 12.897 12.878 12.885 12.902 12.917 12.925 12.895 12.835 12.773 12.713 12.657 12.58 12.498 12.445 12.405 12.362 12.315 12.263 12.218 12.19 12.173 12.16 12.147 12.132 12.115 12.095 12.08 12.075 12.078 12.08 12.06 12.023 11.99 11.965 11.925 11.87 11.825 11.785 11.74 11.69 11.645 11.603 11.565 11.538 11.515 11.492 11.452 11.395 11.348 11.315 11.295 11.285 11.27 11.247 11.228 11.215 11.208 11.205 11.197 11.185 11.18 11.193 11.22 11.25 11.287 11.317 11.3 11.243 11.183 11.13 11.108 11.115 11.135 11.165 11.13 11.123 11.205 11.11 10.853 10.655 10.543 10.518 10.578 10.673 10.805 11.057 11.297 11.275 11.02 10.708 10.543 10.495 10.478 10.53 10.585 10.532 10.44 10.433 10.458 10.49 10.41 10.23 10.15 10.15 10.15 10.293 10.525 10.487 10.255 10.15 10.15 10.198 10.4 10.547 10.505 10.302 9.975 9.843 9.9 9.927 9.885 9.795 9.703 9.62 9.537 9.45 9.373 9.355 9.358 9.325 9.29 9.263 9.25 9.255 9.248 9.233 9.23 9.243 9.325 9.47 9.615 9.742 9.782 9.748 9.715 9.68 9.61 9.51 9.41 9.36 9.393 9.46 9.528 9.608 9.723 9.86
14.29 14.26 14.195 14.098 14.005 13.915 13.828 13.768 13.743 13.722 13.7 13.68 13.663 13.652 13.635 13.6 13.56 13.533 13.52 13.485 13.415 13.368 13.37 13.405 13.442 13.457 13.465 13.49 13.512 13.51 13.46 13.37 13.283 13.278 13.807 14.204 13.628 13.068 12.958 12.903 12.873 12.88 12.89 12.872 12.848 12.835 12.845 12.865 12.885 12.9 12.877 12.82 12.758 12.695 12.64 12.583 12.53 12.49 12.447 12.397 12.34 12.285 12.24 12.203 12.173 12.155 12.145 12.135 12.12 12.1 12.085 12.075 12.068 12.065 12.048 12.018 11.998 11.98 11.94 11.878 11.82 11.775 11.73 11.683 11.64 11.6 11.565 11.533 11.503 11.477 11.438 11.39 11.36 11.338 11.318 11.302 11.28 11.253 11.233 11.223 11.218 11.215 11.21 11.205 11.215 11.238 11.265 11.3 11.348 11.385 11.367 11.308 11.245 11.19 11.18 11.21 11.24 11.265 11.2 11.133 11.127 10.95 10.648 10.485 10.485 10.55 10.635 10.76 10.933 11.192 11.51 11.595 11.307 10.983 10.832 10.685 10.565 10.55 10.58 10.61 10.55 10.498 10.52 10.542 10.532 10.33 10.15 10.15 10.15 10.15 10.168 10.163 10.143 10.147 10.15 10.15 10.335 10.497 10.445 10.287 10.06 9.985 10 9.947 9.852 9.75 9.66 9.577 9.493 9.41 9.328 9.285 9.273 9.26 9.265 9.275 9.285 9.295 9.287 9.265 9.253 9.268 9.355 9.5 9.645 9.732 9.725 9.678 9.635 9.6 9.542 9.45 9.37 9.368 9.428 9.498 9.57 9.645 9.745 9.868
14.278 14.255 14.19 14.09 13.99 13.898 13.838 13.825 13.83 13.82 13.8 13.78 13.757 13.732 13.7 13.66 13.62 13.58 13.538 13.478 13.403 13.343 13.34 13.385 13.43 13.465 13.495 13.537 13.582 13.572 13.495 13.395 13.297 13.205 13.188 13.183 13.04 12.868 12.785 12.765 12.78 12.81 12.817 12.803 12.8 12.813 12.828 12.845 12.863 12.875 12.86 12.813 12.755 12.698 12.645 12.598 12.555 12.507 12.452 12.405 12.36 12.308 12.26 12.22 12.183 12.155 12.14 12.13 12.118 12.103 12.09 12.08 12.07 12.063 12.048 12.028 12.012 11.995 11.955 11.892 11.828 11.773 11.725 11.68 11.64 11.598 11.56 11.528 11.495 11.468 11.433 11.4 11.38 11.36 11.34 11.318 11.29 11.263 11.245 11.238 11.233 11.23 11.228 11.233 11.255 11.285 11.318 11.365 11.428 11.467 11.445 11.385 11.328 11.283 11.283 11.315 11.345 11.362 11.29 11.168 11.04 10.833 10.603 10.525 10.588 10.66 10.73 10.845 11.027 11.27 11.532 11.67 11.487 11.21 10.995 10.78 10.68 10.643 10.62 10.635 10.637 10.598 10.585 10.602 10.587 10.452 10.245 10.15 10.15 10.147 10.133 10.12 10.125 10.137 10.147 10.15 10.315 10.447 10.38 10.265 10.135 10.072 10.01 9.91 9.81 9.71 9.618 9.533 9.45 9.37 9.31 9.283 9.283 9.297 9.31 9.32 9.33 9.34 9.332 9.305 9.28 9.293 9.385 9.522 9.645 9.695 9.665 9.613 9.563 9.52 9.47 9.39 9.353 9.398 9.468 9.542 9.617 9.692 9.79 9.9
14.28 14.26 14.195 14.095 13.99 13.878 13.83 13.852 13.872 13.887 13.887 13.865 13.832 13.795 13.755 13.715 13.675 13.632 13.575 13.5 13.423 13.365 13.37 13.42 13.465 13.493 13.525 13.577 13.617 13.59 13.5 13.402 13.305 13.217 13.118 12.983 12.845 12.73 12.678 12.685 12.71 12.74 12.753 12.76 12.795 12.835 12.855 12.868 12.878 12.883 12.867 12.823 12.768 12.713 12.66 12.613 12.567 12.502 12.428 12.385 12.36 12.327 12.29 12.253 12.218 12.185 12.158 12.138 12.128 12.12 12.11 12.1 12.09 12.078 12.058 12.04 12.025 12.005 11.965 11.905 11.845 11.793 11.745 11.7 11.658 11.615 11.58 11.55 11.52 11.493 11.468 11.445 11.425 11.4 11.38 11.363 11.335 11.308 11.29 11.28 11.273 11.268 11.27 11.288 11.315 11.35 11.395 11.46 11.532 11.567 11.537 11.478 11.423 11.383 11.388 11.42 11.453 11.48 11.412 11.268 11.12 10.95 10.808 10.778 10.828 10.885 10.957 11.007 11.053 11.21 11.452 11.672 11.627 11.342 11.045 10.853 10.798 10.76 10.723 10.693 10.693 10.677 10.658 10.657 10.625 10.575 10.445 10.245 10.15 10.14 10.113 10.098 10.105 10.12 10.138 10.238 10.39 10.41 10.333 10.26 10.173 10.07 9.97 9.87 9.77 9.67 9.575 9.49 9.41 9.35 9.33 9.32 9.313 9.33 9.352 9.365 9.375 9.385 9.375 9.345 9.315 9.323 9.4 9.505 9.597 9.637 9.61 9.555 9.503 9.453 9.4 9.353 9.367 9.44 9.505 9.562 9.62 9.68 9.775 9.875
14.287 14.272 14.21 14.107 13.987 13.84 13.775 13.807 13.845 13.895 13.927 13.917 13.887 13.85 13.808 13.765 13.728 13.69 13.635 13.56 13.493 13.455 13.47 13.517 13.542 13.538 13.558 13.6 13.607 13.562 13.477 13.383 13.3 13.24 13.15 13.013 12.86 12.743 12.705 12.708 12.707 12.688 12.703 12.767 12.827 12.875 12.9 12.91 12.915 12.915 12.895 12.842 12.783 12.728 12.673 12.625 12.572 12.492 12.405 12.355 12.335 12.315 12.312 12.312 12.287 12.255 12.223 12.19 12.168 12.152 12.14 12.13 12.12 12.105 12.08 12.055 12.035 12.015 11.975 11.918 11.87 11.83 11.785 11.74 11.7 11.665 11.635 11.605 11.575 11.55 11.53 11.51 11.487 11.455 11.435 11.43 11.412 11.385 11.365 11.355 11.345 11.343 11.353 11.37 11.398 11.433 11.485 11.567 11.647 11.675 11.635 11.573 11.515 11.48 11.493 11.528 11.568 11.615 11.565 11.443 11.352 11.225 11.105 11.088 11.128 11.182 11.202 11.12 10.99 11.058 11.312 11.557 11.612 11.375 11.088 10.953 10.913 10.877 10.84 10.803 10.768 10.74 10.727 10.707 10.665 10.618 10.575 10.452 10.343 10.27 10.138 10.075 10.098 10.125 10.14 10.322 10.47 10.413 10.36 10.32 10.23 10.078 9.938 9.825 9.725 9.625 9.533 9.45 9.39 9.37 9.37 9.36 9.34 9.348 9.38 9.402 9.415 9.425 9.415 9.385 9.35 9.333 9.37 9.448 9.532 9.582 9.562 9.505 9.45 9.395 9.33 9.278 9.29 9.345 9.39 9.43 9.475 9.528 9.64 9.78
14.295 14.285 14.225 14.107 13.957 13.79 13.718 13.75 13.803 13.877 13.93 13.94 13.932 13.905 13.862 13.82 13.783 13.747 13.695 13.63 13.588 13.565 13.575 13.597 13.587 13.57 13.582 13.595 13.575 13.53 13.455 13.375 13.32 13.28 13.2 13.075 12.935 12.837 12.802 12.76 12.692 12.608 12.615 12.725 12.825 12.905 12.942 12.945 12.945 12.945 12.922 12.867 12.805 12.745 12.687 12.635 12.565 12.475 12.383 12.325 12.302 12.275 12.295 12.345 12.357 12.34 12.307 12.272 12.23 12.18 12.157 12.157 12.147 12.132 12.11 12.08 12.053 12.027 11.99 11.943 11.903 11.867 11.825 11.783 11.75 11.72 11.692 11.665 11.638 11.615 11.595 11.572 11.542 11.503 11.483 11.49 11.485 11.463 11.445 11.435 11.43 11.44 11.455 11.463 11.483 11.515 11.575 11.67 11.76 11.785 11.735 11.67 11.61 11.583 11.603 11.643 11.69 11.745 11.72 11.635 11.575 11.48 11.4 11.4 11.417 11.382 11.258 11.083 10.908 10.918 11.137 11.352 11.477 11.352 11.143 11.068 11.028 10.992 10.955 10.917 10.882 10.835 10.785 10.75 10.713 10.67 10.63 10.595 10.572 10.507 10.385 10.31 10.22 10.145 10.15 10.328 10.495 10.477 10.457 10.43 10.347 10.178 9.985 9.82 9.688 9.58 9.49 9.43 9.41 9.413 9.412 9.4 9.375 9.365 9.393 9.43 9.455 9.47 9.46 9.42 9.357 9.31 9.323 9.385 9.467 9.527 9.515 9.458 9.402 9.335 9.245 9.153 9.098 9.1 9.135 9.18 9.243 9.325 9.448 9.62
14.305 14.297 14.225 14.077 13.91 13.74 13.668 13.713 13.788 13.872 13.925 13.94 13.947 13.942 13.915 13.877 13.84 13.802 13.76 13.715 13.68 13.652 13.642 13.632 13.61 13.595 13.585 13.565 13.535 13.5 13.447 13.392 13.35 13.31 13.232 13.115 12.985 12.875 12.792 12.692 12.58 12.485 12.488 12.6 12.735 12.88 12.932 12.905 12.902 12.9 12.872 12.822 12.78 12.735 12.692 12.637 12.552 12.458 12.363 12.3 12.268 12.233 12.248 12.312 12.367 12.392 12.36 12.292 12.222 12.165 12.153 12.162 12.16 12.155 12.14 12.107 12.075 12.048 12.015 11.977 11.94 11.905 11.87 11.835 11.805 11.775 11.748 11.723 11.7 11.68 11.66 11.63 11.59 11.548 11.53 11.545 11.552 11.537 11.52 11.518 11.528 11.545 11.56 11.565 11.573 11.6 11.67 11.77 11.865 11.89 11.835 11.767 11.705 11.688 11.723 11.77 11.822 11.872 11.867 11.817 11.767 11.702 11.652 11.635 11.61 11.522 11.38 11.13 10.858 10.803 10.948 11.123 11.27 11.298 11.228 11.183 11.142 11.107 11.067 11.017 10.96 10.892 10.82 10.787 10.77 10.73 10.69 10.655 10.643 10.645 10.615 10.562 10.435 10.33 10.33 10.425 10.52 10.52 10.515 10.502 10.45 10.305 10.105 9.905 9.723 9.568 9.473 9.45 9.453 9.46 9.457 9.438 9.413 9.393 9.403 9.442 9.482 9.51 9.49 9.417 9.328 9.28 9.298 9.34 9.405 9.47 9.465 9.41 9.34 9.24 9.132 9.035 8.948 8.913 8.968 9.07 9.175 9.265 9.35 9.48
14.282 14.28 14.197 14.03 13.86 13.698 13.64 13.7 13.783 13.867 13.917 13.93 13.94 13.947 13.932 13.897 13.862 13.825 13.785 13.745 13.705 13.667 13.64 13.622 13.605 13.577 13.545 13.515 13.485 13.455 13.427 13.392 13.35 13.307 13.23 13.115 12.972 12.81 12.67 12.557 12.448 12.36 12.36 12.455 12.623 12.842 12.89 12.793 12.765 12.765 12.735 12.677 12.637 12.612 12.61 12.595 12.537 12.45 12.348 12.275 12.24 12.215 12.187 12.21 12.28 12.34 12.317 12.22 12.145 12.128 12.14 12.15 12.158 12.17 12.165 12.132 12.1 12.075 12.047 12.012 11.978 11.968 11.958 11.925 11.893 11.858 11.828 11.8 11.773 11.748 11.718 11.678 11.635 11.593 11.578 11.595 11.613 11.61 11.6 11.61 11.63 11.65 11.665 11.67 11.67 11.695 11.778 11.89 11.967 11.975 11.927 11.86 11.808 11.813 11.86 11.91 11.947 11.965 11.957 11.922 11.877 11.832 11.802 11.77 11.72 11.67 11.602 11.415 11.123 10.88 10.898 11.115 11.298 11.383 11.355 11.298 11.252 11.202 11.142 11.07 10.992 10.917 10.84 10.81 10.812 10.785 10.745 10.715 10.707 10.682 10.607 10.547 10.515 10.492 10.487 10.495 10.51 10.517 10.52 10.52 10.497 10.375 10.18 9.985 9.787 9.605 9.513 9.508 9.513 9.518 9.508 9.48 9.453 9.43 9.423 9.448 9.493 9.535 9.502 9.395 9.29 9.253 9.283 9.315 9.355 9.412 9.415 9.342 9.237 9.115 9.008 8.935 8.893 8.895 8.99 9.132 9.237 9.295 9.35 9.435
14.223 14.23 14.15 13.98 13.818 13.678 13.643 13.703 13.778 13.862 13.912 13.925 13.932 13.935 13.92 13.885 13.848 13.812 13.767 13.718 13.675 13.635 13.605 13.587 13.56 13.512 13.475 13.452 13.425 13.393 13.37 13.352 13.322 13.282 13.205 13.077 12.907 12.713 12.543 12.415 12.307 12.225 12.212 12.32 12.583 12.857 12.875 12.72 12.628 12.608 12.587 12.515 12.442 12.422 12.467 12.51 12.49 12.427 12.315 12.135 12.028 12.02 11.96 11.953 12.087 12.207 12.2 12.135 12.095 12.105 12.13 12.138 12.153 12.182 12.187 12.157 12.128 12.105 12.08 12.045 12.03 12.067 12.085 12.053 12.018 11.985 11.958 11.928 11.898 11.875 11.858 11.83 11.785 11.733 11.708 11.713 11.718 11.715 11.708 11.715 11.735 11.755 11.77 11.775 11.785 11.823 11.915 12.015 12.052 12.05 12.015 11.95 11.925 11.96 11.997 12.02 12.022 12.01 11.997 11.967 11.928 11.893 11.877 11.865 11.825 11.775 11.725 11.677 11.56 11.26 11.198 11.455 11.592 11.585 11.513 11.425 11.34 11.255 11.17 11.093 11.018 10.94 10.86 10.82 10.835 10.835 10.8 10.777 10.747 10.655 10.545 10.498 10.48 10.452 10.435 10.445 10.472 10.495 10.512 10.52 10.512 10.405 10.21 10.02 9.838 9.678 9.598 9.588 9.588 9.59 9.575 9.545 9.515 9.485 9.463 9.47 9.51 9.56 9.525 9.405 9.305 9.273 9.293 9.318 9.343 9.375 9.35 9.245 9.12 9.013 8.95 8.93 8.938 8.995 9.107 9.207 9.265 9.305 9.36 9.435
14.17 14.182 14.1 13.938 13.793 13.68 13.663 13.718 13.783 13.857 13.905 13.917 13.922 13.925 13.907 13.872 13.835 13.797 13.752 13.698 13.648 13.605 13.575 13.545 13.495 13.44 13.403 13.38 13.357 13.328 13.305 13.295 13.28 13.252 13.175 13.022 12.83 12.63 12.438 12.277 12.083 11.938 11.95 12.195 12.617 12.892 12.875 12.705 12.553 12.462 12.245 12.02 11.975 12.1 12.325 12.42 12.422 12.403 12.342 12.103 11.893 11.848 11.728 11.583 11.603 11.748 11.937 12.062 12.062 12.085 12.118 12.138 12.165 12.197 12.21 12.183 12.155 12.135 12.11 12.09 12.115 12.177 12.21 12.19 12.16 12.14 12.115 12.088 12.068 12.058 12.062 12.065 12.04 11.995 11.965 11.955 11.945 11.938 11.925 11.915 11.915 11.913 11.908 11.915 11.945 11.99 12.057 12.105 12.115 12.12 12.097 12.058 12.06 12.097 12.1 12.08 12.065 12.05 12.04 12.02 11.988 11.955 11.94 11.942 11.922 11.878 11.84 11.823 11.827 11.712 11.692 11.825 11.82 11.755 11.687 11.577 11.443 11.328 11.228 11.138 11.048 10.96 10.88 10.83 10.843 10.872 10.86 10.815 10.727 10.59 10.478 10.44 10.43 10.397 10.373 10.385 10.415 10.442 10.46 10.485 10.512 10.427 10.248 10.075 9.91 9.763 9.69 9.678 9.668 9.665 9.65 9.622 9.595 9.56 9.533 9.53 9.55 9.59 9.557 9.455 9.385 9.348 9.345 9.365 9.375 9.375 9.315 9.198 9.088 9.01 8.993 9.007 9.025 9.09 9.18 9.235 9.275 9.315 9.37 9.445
14.13 14.137 14.057 13.913 13.78 13.688 13.688 13.743 13.8 13.86 13.892 13.892 13.89 13.885 13.867 13.842 13.815 13.782 13.737 13.682 13.627 13.575 13.53 13.48 13.42 13.365 13.328 13.305 13.285 13.26 13.242 13.232 13.22 13.205 13.125 12.955 12.755 12.555 12.355 12.095 11.828 11.72 11.795 12.165 12.677 12.927 12.875 12.705 12.535 12.355 11.93 11.6 11.6 11.733 11.923 12.115 12.332 12.413 12.417 12.353 12.253 12.185 12.01 11.558 11.24 11.3 11.49 11.633 11.807 12.035 12.117 12.157 12.182 12.21 12.23 12.21 12.185 12.168 12.15 12.16 12.215 12.282 12.33 12.332 12.312 12.295 12.275 12.26 12.25 12.245 12.25 12.265 12.27 12.257 12.25 12.25 12.247 12.242 12.227 12.195 12.157 12.117 12.088 12.1 12.14 12.17 12.185 12.188 12.188 12.188 12.178 12.175 12.192 12.212 12.187 12.143 12.12 12.105 12.093 12.087 12.07 12.03 12.008 12.013 12.01 11.995 11.992 12.007 12.032 12.037 12.052 12.045 11.98 11.915 11.85 11.737 11.578 11.443 11.335 11.228 11.123 11.023 10.928 10.855 10.85 10.895 10.902 10.825 10.695 10.553 10.433 10.378 10.36 10.33 10.313 10.33 10.35 10.36 10.363 10.398 10.462 10.447 10.322 10.158 9.995 9.85 9.78 9.767 9.752 9.74 9.722 9.697 9.67 9.637 9.617 9.615 9.617 9.632 9.605 9.537 9.485 9.435 9.412 9.415 9.405 9.387 9.332 9.235 9.145 9.075 9.058 9.082 9.105 9.15 9.205 9.245 9.285 9.325 9.378 9.45
14.09 14.092 14.025 13.9 13.77 13.695 13.713 13.767 13.82 13.86 13.855 13.823 13.805 13.792 13.777 13.762 13.745 13.722 13.69 13.642 13.585 13.527 13.467 13.405 13.345 13.29 13.245 13.215 13.192 13.167 13.16 13.157 13.145 13.135 13.05 12.875 12.687 12.497 12.297 11.96 11.723 11.72 11.87 12.29 12.815 13.032 12.907 12.733 12.555 12.347 11.915 11.6 11.6 11.6 11.6 11.728 12.165 12.495 12.548 12.635 12.682 12.642 12.48 11.948 11.408 11.255 11.24 11.24 11.405 11.617 11.747 11.912 12.042 12.14 12.22 12.237 12.217 12.208 12.205 12.233 12.292 12.355 12.405 12.425 12.42 12.415 12.425 12.435 12.432 12.43 12.427 12.427 12.427 12.427 12.44 12.455 12.46 12.46 12.455 12.422 12.367 12.313 12.283 12.3 12.33 12.332 12.315 12.3 12.293 12.29 12.283 12.285 12.305 12.317 12.285 12.223 12.183 12.163 12.148 12.152 12.16 12.13 12.1 12.103 12.092 12.07 12.075 12.095 12.127 12.185 12.212 12.177 12.117 12.052 11.98 11.87 11.715 11.568 11.45 11.343 11.237 11.13 11.02 10.933 10.928 10.98 10.99 10.91 10.778 10.64 10.51 10.413 10.34 10.275 10.248 10.258 10.26 10.255 10.255 10.293 10.367 10.425 10.407 10.285 10.12 9.965 9.858 9.815 9.797 9.782 9.765 9.742 9.717 9.692 9.677 9.672 9.67 9.667 9.645 9.6 9.55 9.497 9.452 9.425 9.405 9.385 9.347 9.277 9.195 9.12 9.1 9.127 9.147 9.175 9.215 9.255 9.295 9.335 9.385 9.455
14.04 14.03 13.987 13.89 13.76 13.703 13.738 13.787 13.822 13.837 13.805 13.74 13.698 13.678 13.663 13.647 13.63 13.61 13.592 13.565 13.517 13.462 13.402 13.34 13.283 13.23 13.173 13.118 13.08 13.053 13.05 13.065 13.065 13.047 12.95 12.778 12.605 12.428 12.252 11.945 11.72 11.77 12.05 12.55 13.035 13.16 12.98 12.797 12.61 12.42 12.025 11.685 11.653 11.685 11.73 11.83 12.225 12.637 12.78 12.887 12.955 12.935 12.77 12.362 11.853 11.495 11.31 11.24 11.24 11.24 11.305 11.448 11.57 11.653 11.72 11.8 12.07 12.295 12.32 12.335 12.35 12.395 12.44 12.462 12.465 12.483 12.532 12.58 12.595 12.595 12.575 12.548 12.535 12.533 12.547 12.567 12.577 12.585 12.595 12.59 12.552 12.498 12.473 12.49 12.495 12.47 12.443 12.425 12.42 12.435 12.425 12.403 12.415 12.422 12.385 12.315 12.255 12.22 12.205 12.21 12.235 12.232 12.213 12.205 12.162 12.095 12.07 12.103 12.17 12.255 12.3 12.285 12.24 12.177 12.095 11.98 11.845 11.698 11.565 11.458 11.35 11.24 11.13 11.05 11.063 11.125 11.132 11.065 10.95 10.818 10.69 10.57 10.45 10.338 10.26 10.225 10.2 10.173 10.155 10.188 10.263 10.337 10.4 10.392 10.28 10.115 9.963 9.855 9.805 9.788 9.77 9.75 9.73 9.712 9.7 9.69 9.682 9.675 9.657 9.625 9.58 9.53 9.475 9.425 9.395 9.375 9.345 9.292 9.22 9.148 9.13 9.15 9.16 9.185 9.225 9.265 9.305 9.345 9.395 9.465
13.97 13.95 13.925 13.862 13.753 13.713 13.755 13.785 13.797 13.8 13.762 13.688 13.62 13.573 13.548 13.53 13.51 13.493 13.478 13.462 13.44 13.395 13.335 13.28 13.23 13.183 13.125 13.053 12.99 12.945 12.933 12.955 12.972 12.952 12.845 12.693 12.555 12.415 12.285 12.075 11.923 12.043 12.39 12.895 13.232 13.19 12.99 12.785 12.577 12.43 12.255 12.078 12.053 12.118 12.198 12.368 12.615 12.84 13.015 13.145 13.23 13.233 13.055 12.705 12.317 11.91 11.47 11.24 11.24 11.24 11.24 11.24 11.24 11.24 11.24 11.295 11.81 12.362 12.49 12.512 12.48 12.46 12.48 12.5 12.5 12.53 12.6 12.675 12.73 12.747 12.715 12.663 12.635 12.635 12.65 12.67 12.69 12.705 12.715 12.725 12.717 12.68 12.66 12.66 12.635 12.6 12.57 12.553 12.565 12.597 12.577 12.528 12.525 12.525 12.482 12.415 12.345 12.29 12.263 12.265 12.295 12.322 12.322 12.285 12.212 12.13 12.1 12.155 12.245 12.335 12.377 12.372 12.352 12.302 12.21 12.085 11.955 11.817 11.69 11.575 11.458 11.345 11.235 11.165 11.193 11.265 11.27 11.205 11.112 10.992 10.868 10.747 10.625 10.503 10.383 10.293 10.23 10.17 10.123 10.133 10.19 10.248 10.31 10.375 10.382 10.275 10.113 9.963 9.848 9.795 9.775 9.755 9.735 9.72 9.71 9.7 9.69 9.68 9.662 9.637 9.605 9.56 9.505 9.445 9.398 9.37 9.337 9.29 9.232 9.173 9.155 9.165 9.17 9.195 9.235 9.275 9.315 9.355 9.405 9.467
13.89 13.87 13.845 13.808 13.745 13.723 13.747 13.757 13.762 13.762 13.72 13.645 13.573 13.515 13.483 13.455 13.425 13.398 13.375 13.358 13.345 13.32 13.275 13.23 13.188 13.145 13.093 13.023 12.953 12.893 12.87 12.888 12.913 12.907 12.823 12.705 12.6 12.495 12.38 12.268 12.273 12.46 12.775 13.11 13.215 13.055 12.835 12.613 12.463 12.475 12.515 12.54 12.58 12.61 12.7 12.885 13.115 13.318 13.495 13.67 13.793 13.793 13.535 13.103 12.73 12.382 11.93 11.45 11.24 11.24 11.24 11.24 11.24 11.24 11.24 11.265 11.755 12.412 12.65 12.71 12.69 12.618 12.593 12.618 12.615 12.62 12.68 12.758 12.835 12.887 12.865 12.798 12.75 12.738 12.753 12.775 12.8 12.822 12.835 12.845 12.852 12.845 12.83 12.805 12.765 12.727 12.698 12.7 12.737 12.757 12.715 12.648 12.63 12.625 12.577 12.512 12.445 12.378 12.328 12.318 12.348 12.395 12.4 12.337 12.252 12.168 12.153 12.23 12.325 12.415 12.455 12.447 12.44 12.407 12.312 12.177 12.045 11.912 11.792 11.68 11.562 11.45 11.34 11.278 11.315 11.397 11.405 11.335 11.257 11.16 11.042 10.922 10.798 10.672 10.535 10.385 10.275 10.205 10.15 10.148 10.185 10.225 10.27 10.325 10.38 10.375 10.267 10.112 9.955 9.835 9.785 9.768 9.75 9.73 9.715 9.705 9.695 9.685 9.667 9.645 9.62 9.585 9.535 9.475 9.417 9.373 9.33 9.283 9.238 9.193 9.173 9.177 9.183 9.203 9.24 9.28 9.32 9.36 9.405 9.455
13.895 13.865 13.833 13.798 13.758 13.735 13.735 13.73 13.728 13.723 13.685 13.63 13.578 13.535 13.505 13.473 13.435 13.395 13.365 13.348 13.333 13.303 13.263 13.225 13.185 13.145 13.1 13.043 12.978 12.915 12.893 12.913 12.927 12.92 12.885 12.8 12.688 12.578 12.458 12.443 12.605 12.787 12.945 13.037 12.977 12.807 12.59 12.455 12.495 12.655 12.75 12.868 12.97 12.918 13.04 13.368 13.735 14.105 14.352 14.52 14.647 14.637 14.342 13.87 13.36 12.868 12.475 12.115 11.703 11.353 11.24 11.24 11.24 11.24 11.31 11.513 11.98 12.495 12.74 12.83 12.898 12.93 12.93 12.908 12.835 12.78 12.805 12.88 12.948 13.007 13.012 12.958 12.893 12.853 12.86 12.888 12.915 12.942 12.96 12.97 12.977 12.982 12.965 12.925 12.885 12.845 12.82 12.85 12.915 12.917 12.85 12.773 12.74 12.727 12.675 12.61 12.545 12.475 12.413 12.38 12.408 12.475 12.47 12.378 12.285 12.203 12.2 12.295 12.4 12.492 12.53 12.512 12.487 12.455 12.38 12.257 12.122 11.985 11.865 11.76 11.65 11.54 11.417 11.35 11.392 11.475 11.49 11.427 11.355 11.29 11.21 11.097 10.973 10.85 10.695 10.458 10.288 10.225 10.178 10.18 10.215 10.255 10.293 10.333 10.378 10.407 10.34 10.182 10.02 9.875 9.8 9.785 9.767 9.74 9.718 9.705 9.695 9.685 9.67 9.65 9.625 9.592 9.545 9.485 9.425 9.378 9.338 9.295 9.258 9.22 9.193 9.19 9.195 9.21 9.245 9.285 9.325 9.357 9.387 9.43
13.99 13.955 13.915 13.873 13.825 13.79 13.775 13.763 13.75 13.73 13.698 13.665 13.633 13.6 13.57 13.54 13.505 13.465 13.438 13.422 13.392 13.335 13.285 13.252 13.215 13.175 13.135 13.09 13.03 12.968 12.953 12.97 12.962 12.938 12.922 12.887 12.845 12.84 12.788 12.728 12.725 12.71 12.705 12.708 12.675 12.553 12.445 12.513 12.688 12.88 13.018 13.212 13.365 13.325 13.5 13.832 14.17 14.632 14.927 15.027 15.107 15.12 14.995 14.8 14.402 13.71 13 12.678 12.467 12.11 11.86 11.728 11.715 11.73 11.873 12.153 12.403 12.61 12.863 13.113 13.343 13.528 13.585 13.52 13.238 12.985 12.968 13.022 13.067 13.115 13.157 13.132 13.047 12.97 12.963 13.002 13.035 13.065 13.087 13.097 13.102 13.107 13.085 13.038 12.995 12.955 12.94 12.985 13.055 13.057 12.99 12.908 12.86 12.832 12.775 12.708 12.643 12.575 12.53 12.485 12.493 12.57 12.547 12.433 12.325 12.238 12.25 12.355 12.46 12.545 12.567 12.535 12.497 12.46 12.4 12.31 12.192 12.058 11.938 11.83 11.712 11.582 11.435 11.373 11.428 11.505 11.532 11.485 11.423 11.382 11.342 11.262 11.15 11.027 10.852 10.555 10.32 10.238 10.203 10.213 10.243 10.288 10.338 10.388 10.43 10.425 10.33 10.173 10.02 9.89 9.823 9.805 9.78 9.747 9.723 9.71 9.7 9.69 9.672 9.65 9.622 9.582 9.53 9.473 9.425 9.398 9.37 9.33 9.295 9.263 9.23 9.21 9.205 9.22 9.255 9.292 9.322 9.34 9.36 9.4
14.087 14.062 14.022 13.975 13.925 13.883 13.858 13.842 13.82 13.787 13.755 13.725 13.695 13.665 13.635 13.605 13.572 13.538 13.512 13.482 13.425 13.355 13.303 13.27 13.237 13.202 13.165 13.125 13.075 13.025 13.01 13.007 12.985 12.955 12.93 12.925 13.283 13.76 13.842 13.74 13.605 13.445 13.298 13.175 13.053 12.903 12.833 12.863 12.943 13.105 13.3 13.557 13.727 13.692 13.71 13.822 14.08 14.625 14.977 15.005 15.055 15.12 15.15 15.162 15.049 14.654 14.089 13.517 13.082 12.822 12.618 12.485 12.453 12.465 12.588 12.82 13.038 13.23 13.533 13.872 14.127 14.235 14.22 14.202 13.977 13.57 13.25 13.143 13.17 13.22 13.29 13.295 13.192 13.07 13.05 13.105 13.15 13.185 13.21 13.222 13.227 13.232 13.207 13.155 13.108 13.065 13.06 13.105 13.155 13.172 13.13 13.045 12.983 12.938 12.875 12.82 12.793 12.775 12.757 12.68 12.63 12.66 12.612 12.498 12.383 12.288 12.295 12.385 12.473 12.55 12.565 12.528 12.495 12.46 12.402 12.327 12.237 12.125 12.01 11.887 11.742 11.582 11.435 11.403 11.468 11.537 11.577 11.55 11.503 11.47 11.44 11.397 11.317 11.202 11.01 10.69 10.38 10.243 10.228 10.25 10.293 10.348 10.41 10.46 10.465 10.422 10.32 10.173 10.035 9.913 9.845 9.82 9.787 9.75 9.725 9.715 9.705 9.695 9.675 9.645 9.61 9.567 9.515 9.47 9.448 9.432 9.407 9.37 9.335 9.305 9.275 9.245 9.225 9.233 9.262 9.287 9.3 9.31 9.33 9.37
14.16 14.137 14.102 14.06 14.017 13.975 13.942 13.915 13.88 13.842 13.81 13.782 13.755 13.725 13.695 13.665 13.637 13.61 13.572 13.515 13.445 13.375 13.32 13.285 13.255 13.225 13.19 13.152 13.112 13.075 13.05 13.028 13.003 12.975 12.945 13.028 13.777 14.489 14.51 14.45 14.409 14.314 14.162 14.017 13.892 13.815 13.792 13.78 13.815 13.727 13.653 13.857 14.037 13.897 13.65 13.618 13.785 14.14 14.355 14.318 14.335 14.42 14.48 14.5 14.455 14.342 14.202 13.885 13.5 13.317 13.322 13.395 13.44 13.455 13.49 13.63 13.832 13.982 14.187 14.492 14.627 14.507 14.407 14.45 14.452 14.202 13.76 13.388 13.27 13.33 13.395 13.402 13.302 13.16 13.125 13.185 13.242 13.292 13.33 13.347 13.352 13.357 13.33 13.275 13.225 13.175 13.168 13.205 13.245 13.28 13.262 13.185 13.105 13.057 13.03 13.015 13.027 13.05 13.027 12.91 12.798 12.752 12.68 12.57 12.465 12.388 12.38 12.433 12.5 12.568 12.57 12.525 12.495 12.462 12.407 12.33 12.25 12.175 12.063 11.903 11.738 11.57 11.45 11.448 11.513 11.578 11.627 11.625 11.59 11.56 11.53 11.5 11.455 11.372 11.17 10.83 10.463 10.265 10.263 10.315 10.38 10.438 10.49 10.507 10.473 10.422 10.33 10.193 10.058 9.933 9.86 9.828 9.79 9.75 9.725 9.715 9.705 9.695 9.672 9.635 9.595 9.555 9.515 9.49 9.48 9.467 9.445 9.412 9.377 9.345 9.315 9.285 9.258 9.245 9.255 9.265 9.27 9.28 9.3 9.345
14.195 14.17 14.14 14.105 14.07 14.035 14.005 13.97 13.93 13.89 13.858 13.832 13.805 13.77 13.732 13.7 13.672 13.642 13.59 13.52 13.45 13.388 13.34 13.305 13.275 13.245 13.21 13.175 13.14 13.108 13.08 13.05 13.023 12.998 12.973 13.245 14.052 14.502 14.375 14.27 14.188 14.148 14.137 14.142 14.165 14.22 14.31 14.412 14.494 14.297 14.025 14.06 14.072 13.822 13.61 13.6 13.643 13.715 13.738 13.683 13.673 13.735 13.805 13.84 13.8 13.675 13.533 13.453 13.452 13.522 13.632 13.747 13.862 13.932 13.967 14.025 14.11 14.09 14.065 14.262 14.427 14.375 14.345 14.437 14.487 14.425 14.257 13.82 13.433 13.395 13.432 13.41 13.33 13.225 13.198 13.252 13.307 13.362 13.415 13.45 13.465 13.47 13.442 13.387 13.335 13.295 13.295 13.328 13.363 13.387 13.357 13.272 13.185 13.14 13.14 13.15 13.162 13.177 13.145 13.042 12.935 12.852 12.765 12.668 12.58 12.53 12.52 12.543 12.595 12.647 12.627 12.558 12.505 12.465 12.41 12.338 12.29 12.27 12.167 11.968 11.763 11.565 11.465 11.495 11.568 11.64 11.705 11.72 11.688 11.655 11.625 11.595 11.562 11.51 11.305 10.94 10.555 10.33 10.33 10.405 10.477 10.535 10.572 10.557 10.505 10.46 10.38 10.25 10.11 9.97 9.883 9.845 9.805 9.76 9.725 9.71 9.7 9.69 9.665 9.625 9.585 9.553 9.528 9.51 9.5 9.487 9.467 9.44 9.407 9.372 9.342 9.315 9.285 9.258 9.25 9.258 9.265 9.273 9.293 9.345
14.218 14.192 14.16 14.125 14.095 14.073 14.05 14.015 13.972 13.93 13.897 13.87 13.84 13.8 13.75 13.705 13.67 13.635 13.58 13.513 13.453 13.405 13.365 13.328 13.295 13.265 13.23 13.195 13.163 13.135 13.11 13.08 13.05 13.03 13.02 13.47 14.245 14.46 14.3 14.185 14.095 14.068 14.075 14.095 14.125 14.173 14.255 14.34 14.367 14.302 14.197 14.162 14.017 13.698 13.545 13.57 13.598 13.655 13.672 13.638 13.64 13.688 13.75 13.757 13.692 13.572 13.445 13.348 13.285 13.29 13.345 13.428 13.53 13.635 13.725 13.778 13.862 13.877 13.773 13.78 13.938 14.08 14.19 14.34 14.472 14.5 14.455 14.225 13.708 13.413 13.41 13.368 13.33 13.298 13.285 13.31 13.355 13.405 13.46 13.515 13.555 13.57 13.545 13.493 13.453 13.438 13.45 13.48 13.495 13.475 13.405 13.31 13.233 13.183 13.163 13.163 13.17 13.182 13.15 13.07 13.007 12.952 12.875 12.785 12.713 12.68 12.67 12.67 12.705 12.752 12.725 12.638 12.558 12.493 12.445 12.415 12.415 12.43 12.345 12.132 11.885 11.67 11.595 11.638 11.695 11.755 11.812 11.825 11.79 11.752 11.717 11.682 11.642 11.582 11.365 10.985 10.658 10.485 10.458 10.505 10.573 10.635 10.657 10.625 10.57 10.522 10.45 10.33 10.182 10.023 9.92 9.88 9.835 9.778 9.73 9.708 9.693 9.68 9.655 9.618 9.585 9.565 9.545 9.52 9.505 9.492 9.472 9.445 9.412 9.377 9.35 9.327 9.3 9.27 9.26 9.27 9.28 9.288 9.31 9.365
14.24 14.215 14.183 14.153 14.133 14.12 14.097 14.057 14.01 13.965 13.93 13.9 13.867 13.827 13.775 13.718 13.668 13.625 13.575 13.52 13.473 13.43 13.39 13.353 13.318 13.285 13.25 13.218 13.19 13.165 13.14 13.115 13.095 13.085 13.085 13.693 14.43 14.422 14.23 14.143 14.105 14.098 14.09 14.09 14.1 14.128 14.188 14.228 14.228 14.225 14.215 14.167 13.927 13.628 13.535 13.548 13.565 13.605 13.617 13.605 13.62 13.653 13.687 13.66 13.577 13.47 13.37 13.318 13.305 13.32 13.35 13.405 13.48 13.575 13.645 13.645 13.653 13.675 13.63 13.585 13.62 13.718 13.893 14.128 14.362 14.452 14.432 14.422 14.04 13.558 13.433 13.418 13.42 13.425 13.41 13.393 13.403 13.443 13.5 13.56 13.617 13.657 13.647 13.613 13.597 13.592 13.602 13.61 13.58 13.517 13.435 13.355 13.288 13.235 13.205 13.19 13.185 13.187 13.152 13.09 13.06 13.04 12.987 12.908 12.853 12.835 12.825 12.815 12.828 12.855 12.822 12.735 12.655 12.588 12.558 12.568 12.582 12.597 12.522 12.323 12.1 11.938 11.9 11.937 11.952 11.942 11.93 11.91 11.875 11.835 11.795 11.75 11.687 11.602 11.377 11.055 10.84 10.708 10.643 10.648 10.68 10.732 10.742 10.695 10.64 10.587 10.517 10.402 10.24 10.065 9.96 9.915 9.857 9.79 9.74 9.715 9.693 9.673 9.648 9.62 9.6 9.585 9.565 9.535 9.513 9.497 9.475 9.442 9.405 9.37 9.345 9.327 9.307 9.28 9.27 9.28 9.29 9.3 9.328 9.385
14.263 14.235 14.21 14.193 14.18 14.17 14.14 14.09 14.04 13.998 13.963 13.93 13.895 13.855 13.805 13.745 13.688 13.643 13.595 13.543 13.498 13.455 13.415 13.378 13.34 13.31 13.283 13.253 13.225 13.198 13.178 13.168 13.163 13.158 13.22 13.982 14.62 14.388 14.185 14.15 14.14 14.13 14.12 14.113 14.108 14.113 14.14 14.163 14.183 14.218 14.232 14.185 13.835 13.528 13.53 13.538 13.548 13.568 13.58 13.585 13.6 13.62 13.615 13.56 13.483 13.408 13.363 13.363 13.38 13.397 13.42 13.45 13.488 13.543 13.573 13.555 13.53 13.523 13.508 13.495 13.505 13.533 13.69 13.96 14.222 14.358 14.393 14.455 14.29 13.783 13.493 13.525 13.552 13.57 13.56 13.525 13.498 13.498 13.535 13.597 13.66 13.717 13.737 13.73 13.73 13.73 13.717 13.675 13.61 13.537 13.467 13.405 13.343 13.285 13.25 13.23 13.213 13.2 13.175 13.145 13.13 13.115 13.085 13.035 13 12.992 12.985 12.975 12.97 12.965 12.925 12.852 12.783 12.73 12.717 12.732 12.747 12.757 12.697 12.54 12.365 12.242 12.192 12.177 12.14 12.075 12.017 11.98 11.945 11.905 11.857 11.792 11.705 11.61 11.435 11.225 11.07 10.92 10.837 10.825 10.822 10.837 10.825 10.77 10.712 10.655 10.587 10.465 10.285 10.105 9.993 9.935 9.87 9.8 9.753 9.728 9.7 9.675 9.655 9.638 9.623 9.607 9.585 9.555 9.53 9.507 9.477 9.44 9.4 9.363 9.335 9.32 9.307 9.287 9.28 9.29 9.3 9.31 9.343 9.405
14.313 14.285 14.268 14.26 14.248 14.232 14.198 14.143 14.09 14.045 14.003 13.96 13.923 13.885 13.838 13.788 13.748 13.715 13.665 13.6 13.543 13.488 13.448 13.425 13.405 13.395 13.38 13.35 13.318 13.273 13.24 13.235 13.235 13.23 13.438 14.292 14.75 14.375 14.18 14.17 14.16 14.15 14.142 14.135 14.13 14.138 14.16 14.19 14.222 14.25 14.252 14.22 13.927 13.59 13.525 13.535 13.542 13.545 13.558 13.577 13.593 13.605 13.593 13.543 13.475 13.423 13.41 13.425 13.445 13.457 13.472 13.497 13.525 13.55 13.55 13.528 13.503 13.478 13.455 13.45 13.465 13.493 13.635 13.885 14.125 14.365 14.497 14.515 14.435 13.948 13.545 13.565 13.61 13.645 13.652 13.627 13.595 13.563 13.57 13.628 13.69 13.75 13.782 13.782 13.782 13.787 13.75 13.667 13.585 13.508 13.462 13.442 13.397 13.335 13.295 13.275 13.252 13.228 13.212 13.202 13.19 13.175 13.157 13.137 13.12 13.11 13.1 13.09 13.077 13.057 13.017 12.962 12.905 12.852 12.832 12.832 12.832 12.837 12.795 12.675 12.522 12.402 12.325 12.255 12.185 12.12 12.075 12.045 12.012 11.965 11.898 11.823 11.743 11.63 11.472 11.307 11.15 11.015 10.952 10.942 10.935 10.927 10.897 10.842 10.785 10.722 10.645 10.502 10.313 10.153 10.05 9.983 9.915 9.838 9.778 9.745 9.718 9.693 9.675 9.66 9.645 9.627 9.597 9.565 9.537 9.51 9.475 9.435 9.395 9.353 9.323 9.307 9.295 9.283 9.283 9.295 9.302 9.313 9.353 9.42
14.393 14.368 14.353 14.342 14.327 14.31 14.272 14.218 14.165 14.115 14.065 14.015 13.97 13.93 13.893 13.863 13.84 13.815 13.765 13.695 13.628 13.573 13.545 13.538 13.538 13.542 13.53 13.497 13.447 13.375 13.325 13.31 13.305 13.3 13.67 14.515 14.787 14.393 14.188 14.175 14.168 14.163 14.157 14.153 14.158 14.18 14.21 14.24 14.265 14.275 14.262 14.197 13.985 13.67 13.52 13.53 13.532 13.525 13.54 13.575 13.597 13.61 13.61 13.585 13.532 13.478 13.463 13.477 13.49 13.495 13.503 13.52 13.545 13.57 13.57 13.552 13.53 13.505 13.473 13.44 13.438 13.458 13.593 13.835 14.055 14.31 14.615 14.747 14.582 14.058 13.64 13.593 13.608 13.65 13.672 13.667 13.645 13.613 13.615 13.658 13.71 13.77 13.8 13.79 13.78 13.777 13.73 13.638 13.545 13.468 13.433 13.428 13.42 13.387 13.347 13.32 13.287 13.258 13.245 13.242 13.235 13.222 13.207 13.195 13.185 13.172 13.16 13.147 13.13 13.11 13.077 13.025 12.96 12.892 12.852 12.84 12.838 12.845 12.805 12.697 12.558 12.44 12.365 12.295 12.225 12.17 12.135 12.105 12.08 12.04 11.973 11.903 11.812 11.642 11.435 11.258 11.12 11.038 11.005 10.998 10.993 10.99 10.962 10.907 10.847 10.775 10.675 10.518 10.35 10.228 10.138 10.067 9.992 9.895 9.815 9.773 9.743 9.715 9.695 9.682 9.662 9.635 9.602 9.568 9.535 9.505 9.47 9.427 9.382 9.338 9.308 9.293 9.28 9.273 9.278 9.29 9.298 9.315 9.365 9.44
14.488 14.458 14.438 14.42 14.403 14.385 14.347 14.295 14.242 14.19 14.142 14.095 14.05 14.01 13.98 13.96 13.937 13.912 13.865 13.803 13.755 13.725 13.71 13.698 13.693 13.695 13.677 13.627 13.55 13.465 13.415 13.395 13.383 13.375 13.863 14.655 14.79 14.423 14.203 14.183 14.18 14.177 14.173 14.178 14.2 14.23 14.26 14.285 14.295 14.287 14.267 14.165 13.955 13.673 13.513 13.517 13.515 13.505 13.52 13.56 13.595 13.615 13.615 13.602 13.575 13.53 13.513 13.522 13.525 13.525 13.53 13.545 13.565 13.587 13.59 13.572 13.555 13.532 13.497 13.455 13.428 13.428 13.553 13.775 13.972 14.163 14.542 14.917 14.717 14.123 13.775 13.688 13.635 13.645 13.67 13.677 13.675 13.658 13.665 13.7 13.74 13.792 13.82 13.805 13.785 13.765 13.708 13.63 13.56 13.503 13.465 13.44 13.438 13.427 13.39 13.35 13.308 13.28 13.275 13.275 13.272 13.265 13.252 13.24 13.23 13.22 13.207 13.19 13.17 13.15 13.115 13.05 12.965 12.883 12.838 12.835 12.848 12.85 12.8 12.705 12.585 12.475 12.403 12.335 12.27 12.228 12.205 12.183 12.165 12.145 12.097 12.012 11.852 11.615 11.383 11.225 11.143 11.09 11.063 11.055 11.05 11.05 11.027 10.97 10.895 10.81 10.695 10.553 10.428 10.32 10.225 10.147 10.055 9.94 9.855 9.81 9.77 9.738 9.717 9.7 9.672 9.64 9.607 9.573 9.538 9.502 9.462 9.417 9.37 9.323 9.29 9.278 9.27 9.265 9.27 9.283 9.295 9.323 9.385 9.473
14.59 14.553 14.525 14.503 14.48 14.46 14.425 14.372 14.318 14.265 14.22 14.18 14.143 14.105 14.075 14.055 14.033 14.01 13.977 13.94 13.915 13.895 13.88 13.865 13.852 13.845 13.807 13.73 13.64 13.553 13.503 13.485 13.47 13.473 14.013 14.735 14.785 14.45 14.225 14.195 14.195 14.192 14.198 14.22 14.25 14.28 14.305 14.315 14.307 14.29 14.262 14.127 13.89 13.638 13.503 13.498 13.49 13.48 13.498 13.54 13.58 13.612 13.617 13.605 13.59 13.565 13.552 13.555 13.552 13.55 13.557 13.575 13.59 13.607 13.61 13.59 13.572 13.552 13.52 13.48 13.44 13.413 13.505 13.7 13.888 14.075 14.39 14.907 14.815 14.19 13.91 13.82 13.73 13.673 13.665 13.678 13.69 13.695 13.713 13.747 13.782 13.822 13.842 13.827 13.802 13.775 13.727 13.67 13.618 13.575 13.545 13.52 13.495 13.468 13.43 13.38 13.328 13.3 13.3 13.3 13.3 13.297 13.29 13.28 13.267 13.252 13.232 13.207 13.182 13.157 13.112 13.035 12.945 12.863 12.835 12.855 12.87 12.862 12.802 12.708 12.603 12.508 12.443 12.385 12.328 12.295 12.287 12.277 12.265 12.252 12.207 12.067 11.838 11.585 11.36 11.235 11.185 11.14 11.12 11.115 11.11 11.11 11.09 11.027 10.938 10.845 10.738 10.623 10.517 10.41 10.31 10.212 10.103 9.985 9.9 9.853 9.808 9.768 9.738 9.71 9.68 9.648 9.613 9.577 9.54 9.5 9.455 9.408 9.36 9.31 9.275 9.265 9.26 9.255 9.26 9.275 9.29 9.333 9.415 9.51
14.687 14.65 14.62 14.595 14.57 14.545 14.505 14.453 14.4 14.35 14.315 14.29 14.255 14.218 14.183 14.153 14.13 14.11 14.09 14.07 14.052 14.035 14.02 14.005 13.987 13.97 13.915 13.825 13.735 13.645 13.593 13.578 13.56 13.608 14.178 14.795 14.772 14.46 14.24 14.203 14.2 14.2 14.212 14.24 14.27 14.3 14.317 14.312 14.295 14.28 14.25 14.107 13.868 13.625 13.498 13.485 13.475 13.468 13.483 13.52 13.56 13.6 13.61 13.595 13.583 13.575 13.572 13.57 13.567 13.563 13.57 13.59 13.607 13.622 13.62 13.6 13.58 13.56 13.532 13.497 13.46 13.42 13.483 13.655 13.835 14.015 14.315 14.907 14.945 14.313 13.965 13.86 13.78 13.715 13.685 13.693 13.708 13.723 13.748 13.785 13.82 13.855 13.867 13.85 13.82 13.78 13.755 13.73 13.685 13.65 13.622 13.59 13.555 13.517 13.475 13.42 13.36 13.328 13.325 13.325 13.325 13.32 13.302 13.285 13.272 13.252 13.22 13.185 13.155 13.125 13.075 12.995 12.908 12.838 12.835 12.877 12.9 12.895 12.835 12.735 12.643 12.573 12.52 12.47 12.405 12.35 12.332 12.327 12.322 12.315 12.27 12.11 11.87 11.633 11.418 11.275 11.208 11.17 11.165 11.175 11.173 11.17 11.15 11.087 10.998 10.905 10.805 10.695 10.587 10.482 10.38 10.273 10.16 10.045 9.96 9.913 9.868 9.82 9.773 9.733 9.7 9.668 9.625 9.583 9.545 9.505 9.457 9.405 9.355 9.308 9.27 9.253 9.245 9.24 9.245 9.26 9.27 9.308 9.4 9.515
14.782 14.75 14.72 14.695 14.665 14.632 14.59 14.54 14.488 14.438 14.417 14.412 14.387 14.355 14.313 14.265 14.233 14.21 14.19 14.173 14.158 14.142 14.127 14.11 14.092 14.072 14.015 13.925 13.835 13.745 13.69 13.672 13.643 13.758 14.362 14.852 14.752 14.46 14.26 14.218 14.203 14.2 14.208 14.228 14.255 14.285 14.297 14.285 14.273 14.275 14.247 14.105 13.875 13.635 13.505 13.49 13.48 13.475 13.483 13.505 13.54 13.58 13.59 13.575 13.57 13.575 13.577 13.573 13.57 13.568 13.573 13.59 13.61 13.625 13.62 13.6 13.58 13.56 13.537 13.51 13.475 13.443 13.513 13.68 13.845 14.003 14.308 14.915 15.05 14.475 14.005 13.835 13.788 13.755 13.733 13.725 13.735 13.75 13.775 13.812 13.848 13.885 13.892 13.865 13.825 13.77 13.738 13.74 13.737 13.715 13.68 13.64 13.6 13.562 13.52 13.462 13.4 13.36 13.35 13.35 13.345 13.325 13.29 13.265 13.255 13.237 13.2 13.155 13.118 13.085 13.035 12.957 12.875 12.82 12.833 12.885 12.922 12.935 12.885 12.788 12.715 12.673 12.63 12.58 12.497 12.41 12.363 12.338 12.33 12.327 12.282 12.16 11.965 11.743 11.533 11.345 11.228 11.18 11.188 11.222 11.235 11.232 11.207 11.15 11.07 10.98 10.875 10.758 10.645 10.54 10.44 10.337 10.23 10.115 10.033 9.987 9.94 9.89 9.835 9.78 9.738 9.705 9.653 9.593 9.55 9.51 9.462 9.41 9.36 9.315 9.275 9.243 9.225 9.218 9.223 9.235 9.233 9.24 9.32 9.452
14.862 14.845 14.817 14.79 14.755 14.72 14.68 14.627 14.573 14.523 14.505 14.512 14.51 14.49 14.447 14.395 14.348 14.313 14.293 14.278 14.263 14.25 14.235 14.215 14.197 14.177 14.12 14.03 13.94 13.85 13.793 13.76 13.71 13.905 14.55 14.91 14.73 14.46 14.288 14.248 14.218 14.203 14.205 14.218 14.238 14.265 14.272 14.265 14.273 14.29 14.252 14.095 13.872 13.643 13.513 13.498 13.493 13.49 13.495 13.508 13.528 13.56 13.572 13.565 13.57 13.577 13.58 13.577 13.573 13.57 13.575 13.59 13.61 13.627 13.625 13.605 13.583 13.56 13.54 13.515 13.485 13.473 13.555 13.712 13.862 14.005 14.283 14.897 15.075 14.562 14.065 13.845 13.832 13.81 13.788 13.773 13.77 13.78 13.805 13.84 13.875 13.912 13.915 13.875 13.822 13.765 13.713 13.705 13.75 13.762 13.725 13.685 13.645 13.607 13.565 13.505 13.44 13.39 13.37 13.365 13.345 13.31 13.27 13.245 13.235 13.222 13.19 13.138 13.088 13.048 12.995 12.922 12.845 12.803 12.828 12.882 12.932 12.965 12.93 12.853 12.805 12.775 12.737 12.685 12.59 12.493 12.43 12.378 12.345 12.33 12.272 12.165 12.025 11.847 11.655 11.455 11.28 11.19 11.2 11.247 11.282 11.295 11.267 11.207 11.137 11.055 10.947 10.825 10.708 10.598 10.495 10.397 10.297 10.188 10.108 10.06 10.01 9.96 9.905 9.845 9.79 9.745 9.687 9.615 9.558 9.513 9.465 9.418 9.372 9.328 9.285 9.245 9.213 9.195 9.198 9.2 9.185 9.175 9.233 9.368
14.923 14.93 14.912 14.88 14.845 14.81 14.767 14.713 14.658 14.608 14.59 14.6 14.61 14.61 14.582 14.532 14.478 14.43 14.4 14.383 14.37 14.357 14.34 14.322 14.302 14.28 14.225 14.137 14.05 13.96 13.89 13.832 13.77 14.043 14.7 14.942 14.707 14.46 14.315 14.277 14.24 14.21 14.205 14.215 14.228 14.245 14.255 14.265 14.285 14.307 14.255 14.082 13.865 13.645 13.52 13.505 13.505 13.505 13.51 13.52 13.53 13.548 13.56 13.565 13.575 13.582 13.582 13.58 13.575 13.57 13.578 13.593 13.61 13.63 13.63 13.61 13.587 13.565 13.543 13.518 13.495 13.5 13.585 13.723 13.86 14 14.26 14.887 15.09 14.587 14.085 13.855 13.857 13.85 13.84 13.827 13.815 13.813 13.835 13.87 13.905 13.937 13.927 13.877 13.82 13.76 13.705 13.68 13.73 13.785 13.77 13.727 13.68 13.63 13.58 13.525 13.47 13.42 13.385 13.362 13.33 13.29 13.25 13.225 13.215 13.205 13.175 13.123 13.07 13.025 12.965 12.89 12.818 12.79 12.825 12.88 12.935 12.98 12.98 12.94 12.902 12.867 12.83 12.767 12.662 12.567 12.502 12.44 12.385 12.335 12.257 12.153 12.042 11.9 11.725 11.542 11.353 11.22 11.21 11.257 11.302 11.34 11.325 11.262 11.197 11.125 11.022 10.897 10.775 10.657 10.55 10.452 10.357 10.257 10.18 10.13 10.08 10.03 9.972 9.91 9.847 9.787 9.722 9.645 9.573 9.518 9.473 9.428 9.385 9.343 9.3 9.26 9.22 9.188 9.173 9.16 9.143 9.128 9.178 9.325
15 15.02 15.012 14.978 14.94 14.902 14.857 14.803 14.748 14.708 14.698 14.708 14.72 14.73 14.715 14.667 14.615 14.565 14.523 14.495 14.48 14.465 14.435 14.407 14.385 14.36 14.315 14.237 14.152 14.065 13.973 13.893 13.853 14.175 14.78 14.93 14.683 14.453 14.328 14.29 14.25 14.213 14.205 14.22 14.23 14.24 14.258 14.28 14.3 14.322 14.255 14.07 13.855 13.638 13.52 13.51 13.51 13.51 13.515 13.525 13.535 13.548 13.558 13.565 13.575 13.585 13.585 13.58 13.575 13.573 13.585 13.6 13.615 13.63 13.625 13.605 13.585 13.57 13.553 13.53 13.513 13.523 13.61 13.745 13.878 14.01 14.283 14.91 15.072 14.55 14.073 13.86 13.86 13.865 13.865 13.855 13.842 13.835 13.853 13.887 13.922 13.947 13.93 13.88 13.827 13.77 13.713 13.693 13.74 13.792 13.785 13.735 13.675 13.615 13.562 13.515 13.47 13.43 13.387 13.348 13.31 13.27 13.23 13.205 13.195 13.18 13.16 13.127 13.083 13.037 12.968 12.878 12.795 12.783 12.84 12.903 12.965 12.997 12.987 12.957 12.92 12.88 12.84 12.762 12.662 12.59 12.527 12.462 12.402 12.347 12.262 12.15 12.04 11.907 11.745 11.575 11.408 11.27 11.223 11.253 11.297 11.345 11.34 11.28 11.217 11.16 11.072 10.945 10.82 10.7 10.59 10.49 10.395 10.308 10.24 10.19 10.137 10.085 10.022 9.952 9.887 9.822 9.752 9.675 9.598 9.538 9.495 9.45 9.405 9.36 9.315 9.275 9.235 9.195 9.163 9.14 9.123 9.108 9.168 9.328
15.103 15.12 15.115 15.08 15.04 15 14.955 14.903 14.858 14.835 14.83 14.835 14.845 14.855 14.84 14.8 14.755 14.705 14.66 14.623 14.595 14.577 14.537 14.483 14.445 14.417 14.382 14.325 14.25 14.162 14.048 13.95 13.975 14.333 14.83 14.902 14.663 14.443 14.323 14.285 14.245 14.208 14.203 14.225 14.24 14.25 14.27 14.297 14.32 14.34 14.257 14.057 13.825 13.613 13.52 13.513 13.51 13.51 13.515 13.525 13.538 13.552 13.56 13.565 13.573 13.58 13.582 13.58 13.578 13.583 13.597 13.612 13.625 13.627 13.615 13.595 13.58 13.578 13.57 13.55 13.54 13.55 13.635 13.777 13.915 14.045 14.35 14.905 14.952 14.435 14.018 13.86 13.863 13.865 13.865 13.855 13.848 13.845 13.86 13.892 13.922 13.937 13.92 13.88 13.837 13.787 13.73 13.725 13.757 13.757 13.737 13.7 13.642 13.585 13.54 13.497 13.457 13.422 13.382 13.34 13.3 13.258 13.22 13.217 13.202 13.15 13.13 13.13 13.11 13.067 12.99 12.913 12.86 12.853 12.905 12.975 13.017 12.992 12.928 12.888 12.86 12.82 12.78 12.703 12.623 12.57 12.51 12.448 12.395 12.362 12.29 12.168 12.045 11.917 11.768 11.608 11.455 11.323 11.255 11.253 11.283 11.327 11.32 11.26 11.213 11.18 11.097 10.965 10.84 10.718 10.605 10.508 10.42 10.348 10.288 10.235 10.18 10.125 10.06 9.983 9.913 9.847 9.777 9.703 9.63 9.57 9.525 9.48 9.43 9.372 9.32 9.282 9.245 9.205 9.17 9.143 9.12 9.105 9.175 9.342
15.22 15.225 15.215 15.18 15.14 15.1 15.055 15.013 14.988 14.973 14.965 14.965 14.968 14.975 14.962 14.927 14.89 14.845 14.8 14.76 14.723 14.695 14.65 14.58 14.52 14.478 14.44 14.397 14.34 14.255 14.13 14.018 14.108 14.5 14.882 14.882 14.653 14.44 14.32 14.278 14.235 14.2 14.195 14.22 14.242 14.258 14.28 14.31 14.337 14.355 14.255 14.025 13.76 13.578 13.53 13.52 13.513 13.51 13.515 13.528 13.543 13.557 13.565 13.568 13.57 13.575 13.58 13.583 13.588 13.597 13.61 13.62 13.625 13.62 13.605 13.59 13.588 13.592 13.587 13.575 13.573 13.58 13.658 13.802 13.947 14.09 14.46 14.862 14.745 14.3 13.953 13.86 13.877 13.868 13.865 13.858 13.858 13.86 13.87 13.892 13.912 13.922 13.905 13.867 13.83 13.787 13.737 13.715 13.7 13.665 13.647 13.635 13.6 13.552 13.507 13.462 13.42 13.377 13.352 13.332 13.3 13.267 13.237 13.225 13.18 13.105 13.08 13.095 13.102 13.087 13.052 13.027 13.022 13.012 13.022 13.047 13.02 12.94 12.853 12.808 12.792 12.762 12.715 12.653 12.6 12.552 12.493 12.438 12.4 12.375 12.32 12.21 12.078 11.943 11.803 11.657 11.513 11.38 11.31 11.29 11.285 11.31 11.302 11.258 11.233 11.21 11.125 10.99 10.863 10.735 10.623 10.535 10.46 10.393 10.333 10.277 10.22 10.165 10.1 10.02 9.943 9.873 9.803 9.733 9.665 9.603 9.552 9.502 9.442 9.378 9.325 9.288 9.252 9.215 9.18 9.15 9.122 9.103 9.178 9.335
15.34 15.332 15.312 15.275 15.237 15.2 15.163 15.138 15.122 15.107 15.1 15.097 15.095 15.097 15.085 15.052 15.017 14.98 14.94 14.897 14.852 14.81 14.755 14.685 14.612 14.55 14.505 14.463 14.415 14.34 14.215 14.09 14.218 14.645 14.94 14.872 14.648 14.435 14.315 14.27 14.225 14.19 14.188 14.213 14.238 14.263 14.29 14.32 14.35 14.357 14.227 13.965 13.698 13.558 13.54 13.53 13.52 13.513 13.518 13.535 13.55 13.565 13.575 13.575 13.575 13.577 13.582 13.59 13.6 13.61 13.615 13.615 13.613 13.608 13.6 13.597 13.602 13.607 13.607 13.607 13.61 13.615 13.675 13.795 13.922 14.055 14.357 14.607 14.435 14.065 13.873 13.892 13.905 13.878 13.868 13.868 13.872 13.875 13.878 13.888 13.9 13.907 13.887 13.837 13.782 13.727 13.677 13.637 13.6 13.565 13.55 13.55 13.507 13.427 13.365 13.315 13.265 13.23 13.262 13.29 13.265 13.242 13.21 13.16 13.098 13.045 13.033 13.05 13.068 13.08 13.09 13.095 13.097 13.095 13.085 13.047 12.967 12.875 12.783 12.725 12.71 12.697 12.66 12.613 12.575 12.532 12.48 12.438 12.41 12.382 12.342 12.25 12.115 11.978 11.842 11.705 11.565 11.438 11.368 11.345 11.323 11.315 11.303 11.28 11.265 11.24 11.155 11.02 10.887 10.755 10.648 10.57 10.502 10.435 10.375 10.32 10.26 10.205 10.14 10.06 9.98 9.903 9.833 9.767 9.702 9.637 9.575 9.512 9.447 9.382 9.332 9.292 9.252 9.215 9.18 9.15 9.12 9.103 9.17 9.303
15.43 15.42 15.395 15.357 15.323 15.295 15.275 15.26 15.245 15.217 15.197 15.192 15.187 15.18 15.16 15.127 15.092 15.065 15.037 14.995 14.945 14.895 14.835 14.765 14.693 14.633 14.59 14.545 14.495 14.415 14.29 14.16 14.305 14.712 14.925 14.84 14.632 14.415 14.288 14.242 14.2 14.18 14.195 14.225 14.255 14.283 14.31 14.34 14.367 14.372 14.235 13.968 13.705 13.565 13.545 13.535 13.525 13.52 13.53 13.547 13.562 13.577 13.585 13.585 13.582 13.565 13.567 13.59 13.6 13.61 13.612 13.608 13.603 13.597 13.583 13.572 13.577 13.585 13.59 13.595 13.6 13.602 13.645 13.735 13.835 13.945 14.07 14.182 14.095 13.895 13.875 13.932 13.927 13.893 13.878 13.882 13.885 13.882 13.883 13.893 13.902 13.892 13.842 13.77 13.7 13.63 13.573 13.533 13.495 13.468 13.465 13.447 13.355 13.225 13.133 13.075 13.025 13.04 13.157 13.22 13.195 13.162 13.115 13.065 13.028 13 12.998 13.02 13.037 13.05 13.06 13.065 13.07 13.075 13.057 12.995 12.905 12.812 12.718 12.66 12.645 12.632 12.605 12.567 12.532 12.497 12.462 12.43 12.4 12.367 12.33 12.265 12.15 12.013 11.878 11.742 11.608 11.495 11.428 11.395 11.372 11.35 11.333 11.318 11.3 11.267 11.175 11.04 10.905 10.77 10.66 10.58 10.515 10.452 10.395 10.34 10.282 10.23 10.17 10.097 10.02 9.94 9.868 9.802 9.737 9.657 9.575 9.507 9.442 9.37 9.312 9.272 9.23 9.187 9.15 9.12 9.098 9.108 9.173 9.285
15.503 15.49 15.467 15.433 15.405 15.395 15.385 15.367 15.34 15.287 15.248 15.237 15.23 15.212 15.185 15.153 15.123 15.105 15.085 15.052 15.01 14.96 14.9 14.83 14.768 14.723 14.685 14.64 14.575 14.472 14.348 14.23 14.31 14.612 14.777 14.717 14.577 14.385 14.243 14.19 14.173 14.195 14.23 14.265 14.297 14.32 14.342 14.367 14.385 14.39 14.282 14.04 13.773 13.593 13.54 13.533 13.528 13.53 13.545 13.56 13.572 13.585 13.59 13.587 13.567 13.523 13.523 13.567 13.59 13.6 13.605 13.6 13.595 13.59 13.56 13.523 13.515 13.522 13.527 13.532 13.537 13.54 13.58 13.665 13.753 13.845 13.893 13.913 13.905 13.893 13.925 13.94 13.932 13.908 13.893 13.895 13.892 13.885 13.883 13.902 13.92 13.885 13.798 13.7 13.62 13.548 13.485 13.44 13.403 13.388 13.385 13.32 13.19 13.05 12.925 12.84 12.815 12.9 13.065 13.143 13.118 13.083 13.053 13.03 13.015 12.985 12.973 12.995 13.01 13.02 13.03 13.035 13.04 13.037 13.002 12.93 12.842 12.75 12.66 12.615 12.597 12.567 12.53 12.495 12.465 12.427 12.397 12.387 12.37 12.335 12.295 12.25 12.17 12.047 11.913 11.778 11.66 11.575 11.508 11.455 11.42 11.395 11.377 11.36 11.332 11.285 11.185 11.05 10.917 10.785 10.662 10.572 10.51 10.45 10.395 10.34 10.285 10.235 10.18 10.12 10.052 9.977 9.905 9.837 9.757 9.65 9.555 9.49 9.417 9.33 9.265 9.225 9.185 9.143 9.105 9.08 9.085 9.13 9.2 9.295
15.577 15.562 15.54 15.513 15.5 15.5 15.49 15.457 15.402 15.338 15.29 15.27 15.255 15.233 15.205 15.18 15.16 15.145 15.125 15.1 15.07 15.025 14.965 14.903 14.858 14.82 14.78 14.722 14.635 14.52 14.408 14.323 14.298 14.455 14.572 14.51 14.427 14.307 14.198 14.163 14.19 14.24 14.28 14.315 14.342 14.357 14.37 14.382 14.39 14.39 14.32 14.115 13.85 13.63 13.535 13.533 13.538 13.545 13.558 13.57 13.58 13.59 13.59 13.567 13.522 13.468 13.465 13.522 13.57 13.59 13.595 13.59 13.585 13.58 13.547 13.495 13.463 13.458 13.462 13.468 13.473 13.478 13.518 13.598 13.68 13.76 13.798 13.81 13.85 13.892 13.922 13.93 13.925 13.915 13.902 13.897 13.89 13.88 13.878 13.91 13.932 13.875 13.77 13.663 13.565 13.478 13.408 13.363 13.333 13.322 13.282 13.17 13.03 12.89 12.75 12.62 12.653 12.833 13.04 13.16 13.113 13.063 13.06 13.062 13.045 12.983 12.95 12.967 12.98 12.99 13 13.005 13.005 12.985 12.935 12.862 12.777 12.688 12.61 12.567 12.532 12.49 12.45 12.415 12.38 12.328 12.283 12.287 12.31 12.3 12.263 12.218 12.165 12.075 11.948 11.83 11.745 11.675 11.605 11.54 11.485 11.445 11.42 11.392 11.35 11.295 11.197 11.065 10.927 10.772 10.61 10.498 10.465 10.463 10.43 10.37 10.31 10.253 10.193 10.13 10.07 10.008 9.94 9.857 9.75 9.633 9.54 9.465 9.377 9.283 9.215 9.177 9.14 9.098 9.063 9.063 9.105 9.165 9.235 9.318
15.65 15.637 15.62 15.605 15.6 15.597 15.575 15.52 15.45 15.385 15.333 15.303 15.285 15.265 15.243 15.22 15.2 15.185 15.165 15.14 15.115 15.082 15.035 14.988 14.953 14.917 14.87 14.787 14.683 14.583 14.502 14.44 14.38 14.388 14.393 14.333 14.273 14.213 14.17 14.183 14.235 14.285 14.33 14.362 14.377 14.382 14.372 14.362 14.37 14.38 14.355 14.192 13.93 13.683 13.553 13.548 13.56 13.57 13.58 13.588 13.593 13.597 13.58 13.53 13.473 13.415 13.41 13.468 13.528 13.57 13.585 13.583 13.578 13.568 13.533 13.48 13.43 13.4 13.398 13.408 13.418 13.428 13.468 13.535 13.608 13.683 13.732 13.77 13.822 13.87 13.902 13.907 13.895 13.882 13.875 13.872 13.87 13.867 13.873 13.915 13.93 13.855 13.745 13.637 13.53 13.425 13.343 13.295 13.27 13.235 13.135 12.985 12.833 12.678 12.525 12.365 12.433 12.777 13.065 13.16 13.125 13.09 13.09 13.092 13.06 12.973 12.925 12.935 12.945 12.957 12.97 12.975 12.962 12.922 12.867 12.797 12.71 12.622 12.552 12.505 12.46 12.413 12.373 12.333 12.283 12.22 12.16 12.153 12.2 12.245 12.238 12.195 12.153 12.087 11.992 11.905 11.837 11.77 11.697 11.627 11.56 11.497 11.452 11.41 11.36 11.305 11.207 11.07 10.923 10.758 10.585 10.478 10.48 10.525 10.51 10.443 10.378 10.313 10.245 10.178 10.115 10.042 9.942 9.832 9.722 9.612 9.518 9.428 9.333 9.238 9.168 9.13 9.095 9.053 9.04 9.08 9.14 9.2 9.27 9.345
15.725 15.715 15.702 15.69 15.685 15.68 15.645 15.58 15.51 15.455 15.415 15.375 15.35 15.335 15.313 15.288 15.263 15.245 15.228 15.205 15.183 15.15 15.115 15.085 15.05 15.015 14.957 14.86 14.745 14.648 14.58 14.52 14.457 14.385 14.323 14.28 14.235 14.19 14.178 14.215 14.27 14.322 14.367 14.387 14.39 14.377 14.342 14.315 14.318 14.335 14.352 14.282 14.077 13.825 13.638 13.583 13.595 13.605 13.615 13.62 13.62 13.617 13.588 13.533 13.475 13.415 13.413 13.47 13.528 13.575 13.595 13.595 13.593 13.58 13.545 13.493 13.44 13.398 13.385 13.398 13.413 13.43 13.47 13.53 13.593 13.637 13.655 13.685 13.732 13.775 13.817 13.837 13.825 13.807 13.802 13.805 13.81 13.823 13.855 13.91 13.897 13.8 13.687 13.575 13.465 13.355 13.275 13.238 13.215 13.152 13.015 12.85 12.685 12.518 12.363 12.228 12.295 12.72 13.067 13.108 13.083 13.063 13.055 13.055 13.025 12.95 12.903 12.9 12.903 12.915 12.932 12.935 12.907 12.855 12.795 12.717 12.622 12.532 12.465 12.42 12.377 12.332 12.297 12.263 12.215 12.165 12.115 12.108 12.16 12.235 12.255 12.215 12.165 12.09 12.002 11.925 11.862 11.807 11.745 11.675 11.605 11.535 11.473 11.42 11.37 11.315 11.227 11.1 10.955 10.805 10.663 10.59 10.6 10.622 10.597 10.53 10.462 10.397 10.322 10.24 10.157 10.065 9.903 9.75 9.657 9.555 9.497 9.452 9.363 9.243 9.15 9.11 9.078 9.043 9.038 9.082 9.142 9.192 9.245 9.305
15.805 15.795 15.78 15.763 15.753 15.747 15.712 15.645 15.593 15.573 15.552 15.498 15.445 15.423 15.4 15.375 15.355 15.34 15.325 15.305 15.275 15.223 15.185 15.172 15.147 15.112 15.052 14.95 14.823 14.703 14.62 14.557 14.485 14.4 14.338 14.3 14.255 14.21 14.203 14.245 14.3 14.352 14.385 14.387 14.38 14.347 14.3 14.268 14.258 14.27 14.31 14.347 14.26 14.042 13.815 13.67 13.635 13.648 13.657 13.66 13.657 13.65 13.62 13.57 13.517 13.465 13.47 13.525 13.572 13.612 13.63 13.63 13.627 13.617 13.585 13.535 13.49 13.453 13.435 13.438 13.45 13.47 13.51 13.57 13.607 13.6 13.573 13.565 13.588 13.625 13.675 13.725 13.735 13.72 13.715 13.718 13.73 13.77 13.842 13.885 13.825 13.707 13.592 13.478 13.365 13.26 13.2 13.185 13.167 13.097 12.957 12.793 12.633 12.495 12.383 12.288 12.348 12.72 13.08 13.145 13.095 13.05 13.018 12.993 12.962 12.92 12.89 12.88 12.872 12.872 12.877 12.867 12.83 12.78 12.717 12.622 12.508 12.408 12.345 12.302 12.257 12.212 12.195 12.22 12.23 12.203 12.168 12.168 12.215 12.285 12.305 12.257 12.182 12.072 11.965 11.885 11.825 11.78 11.735 11.682 11.622 11.555 11.488 11.43 11.38 11.325 11.25 11.15 11.027 10.885 10.763 10.715 10.72 10.72 10.682 10.612 10.532 10.45 10.36 10.26 10.16 10.065 9.868 9.655 9.552 9.463 9.42 9.452 9.427 9.285 9.165 9.125 9.105 9.072 9.033 9.043 9.087 9.12 9.153 9.198
15.89 15.875 15.86 15.84 15.823 15.812 15.778 15.73 15.718 15.725 15.71 15.642 15.56 15.513 15.488 15.468 15.458 15.45 15.432 15.4 15.35 15.288 15.25 15.245 15.235 15.207 15.145 15.032 14.892 14.755 14.658 14.587 14.505 14.415 14.353 14.315 14.272 14.228 14.225 14.275 14.325 14.367 14.39 14.375 14.342 14.3 14.258 14.225 14.205 14.21 14.258 14.337 14.367 14.247 14.037 13.84 13.715 13.693 13.7 13.697 13.69 13.677 13.647 13.6 13.553 13.515 13.523 13.565 13.605 13.645 13.665 13.665 13.662 13.657 13.632 13.592 13.555 13.518 13.495 13.49 13.495 13.51 13.547 13.582 13.572 13.538 13.507 13.48 13.465 13.48 13.525 13.59 13.632 13.632 13.625 13.64 13.685 13.76 13.84 13.832 13.73 13.61 13.495 13.382 13.273 13.175 13.128 13.125 13.117 13.045 12.903 12.763 12.645 12.548 12.465 12.383 12.445 12.758 13.1 13.21 13.158 13.105 13.055 12.987 12.902 12.837 12.805 12.787 12.775 12.762 12.752 12.752 12.74 12.702 12.64 12.535 12.41 12.298 12.213 12.155 12.105 12.055 12.055 12.135 12.217 12.252 12.242 12.243 12.285 12.342 12.347 12.272 12.162 12.038 11.928 11.845 11.788 11.745 11.705 11.665 11.62 11.567 11.505 11.443 11.387 11.33 11.257 11.17 11.07 10.952 10.868 10.842 10.837 10.81 10.742 10.655 10.56 10.457 10.355 10.255 10.158 10.067 9.877 9.6 9.435 9.357 9.283 9.295 9.297 9.213 9.155 9.14 9.137 9.09 9.008 8.985 9.01 9.035 9.065 9.098
15.98 15.958 15.94 15.92 15.9 15.883 15.863 15.857 15.872 15.885 15.867 15.797 15.703 15.623 15.58 15.568 15.562 15.555 15.527 15.472 15.41 15.35 15.315 15.31 15.307 15.295 15.23 15.102 14.957 14.813 14.695 14.607 14.52 14.43 14.365 14.325 14.285 14.245 14.248 14.295 14.335 14.367 14.375 14.34 14.29 14.25 14.223 14.195 14.168 14.165 14.215 14.3 14.387 14.38 14.237 14.047 13.868 13.763 13.737 13.727 13.715 13.7 13.675 13.638 13.595 13.565 13.57 13.603 13.64 13.677 13.692 13.685 13.675 13.665 13.647 13.625 13.605 13.58 13.555 13.547 13.55 13.552 13.56 13.55 13.515 13.475 13.44 13.41 13.38 13.365 13.385 13.44 13.502 13.532 13.55 13.6 13.68 13.77 13.815 13.755 13.635 13.515 13.398 13.285 13.185 13.1 13.06 13.06 13.06 13.012 12.908 12.808 12.725 12.642 12.558 12.475 12.553 12.823 13.137 13.275 13.222 13.157 13.052 12.902 12.788 12.728 12.668 12.615 12.588 12.573 12.568 12.59 12.615 12.612 12.56 12.463 12.365 12.25 12.108 12.003 11.948 11.9 11.905 11.99 12.102 12.205 12.267 12.3 12.33 12.36 12.325 12.232 12.127 12.005 11.89 11.805 11.755 11.715 11.675 11.635 11.593 11.552 11.507 11.452 11.395 11.335 11.265 11.18 11.085 10.985 10.925 10.907 10.887 10.837 10.752 10.655 10.555 10.452 10.35 10.25 10.158 10.072 9.912 9.573 9.313 9.237 9.16 9.133 9.13 9.123 9.138 9.15 9.147 9.082 8.983 8.94 8.95 8.973 8.998 9.02
16.06 16.035 16.015 15.995 15.975 15.958 15.942 15.942 15.96 15.977 15.977 15.927 15.835 15.74 15.68 15.663 15.657 15.65 15.612 15.548 15.483 15.423 15.378 15.36 15.357 15.35 15.282 15.147 15.002 14.852 14.718 14.615 14.525 14.433 14.368 14.332 14.295 14.258 14.245 14.265 14.295 14.325 14.32 14.278 14.238 14.218 14.21 14.19 14.16 14.155 14.208 14.295 14.382 14.417 14.325 14.15 13.967 13.818 13.755 13.74 13.722 13.707 13.697 13.68 13.645 13.613 13.618 13.65 13.685 13.71 13.697 13.67 13.65 13.63 13.615 13.605 13.597 13.587 13.572 13.567 13.567 13.56 13.54 13.51 13.472 13.41 13.353 13.32 13.292 13.265 13.238 13.253 13.317 13.382 13.45 13.535 13.627 13.727 13.755 13.67 13.553 13.435 13.315 13.203 13.105 13.027 12.987 12.97 12.952 12.94 12.932 12.895 12.817 12.735 12.652 12.57 12.66 12.925 13.212 13.33 13.23 13.085 12.897 12.688 12.625 12.642 12.57 12.477 12.408 12.375 12.38 12.41 12.445 12.47 12.47 12.425 12.352 12.235 12.058 11.89 11.795 11.745 11.755 11.845 11.957 12.067 12.17 12.24 12.265 12.27 12.202 12.09 12.002 11.935 11.85 11.767 11.723 11.683 11.648 11.613 11.575 11.538 11.5 11.452 11.397 11.34 11.272 11.187 11.09 10.99 10.928 10.905 10.865 10.8 10.73 10.647 10.548 10.445 10.345 10.248 10.16 10.077 9.95 9.545 9.188 9.113 9.075 9.085 9.103 9.123 9.145 9.162 9.145 9.073 8.985 8.923 8.91 8.93 8.95 8.965
16.127 16.103 16.08 16.06 16.043 16.03 16.008 15.983 15.985 16.003 16.02 16.012 15.945 15.853 15.79 15.758 15.743 15.735 15.695 15.63 15.57 15.518 15.463 15.415 15.393 15.38 15.31 15.172 15.02 14.86 14.718 14.61 14.52 14.425 14.36 14.332 14.3 14.263 14.235 14.225 14.23 14.25 14.245 14.215 14.2 14.2 14.205 14.197 14.175 14.17 14.225 14.312 14.392 14.42 14.325 14.15 13.98 13.83 13.753 13.737 13.72 13.705 13.707 13.712 13.692 13.66 13.665 13.7 13.722 13.722 13.687 13.64 13.61 13.588 13.573 13.565 13.555 13.548 13.545 13.545 13.54 13.53 13.512 13.48 13.415 13.323 13.25 13.213 13.187 13.15 13.088 13.043 13.08 13.165 13.252 13.347 13.445 13.575 13.662 13.602 13.478 13.362 13.245 13.135 13.02 12.912 12.857 12.827 12.793 12.785 12.83 12.87 12.872 12.827 12.745 12.675 12.78 13.05 13.205 13.145 12.962 12.752 12.542 12.4 12.41 12.452 12.402 12.317 12.235 12.183 12.183 12.21 12.237 12.26 12.302 12.342 12.327 12.217 12.032 11.837 11.675 11.585 11.603 11.7 11.805 11.902 11.997 12.085 12.13 12.122 12.042 11.908 11.793 11.715 11.665 11.677 11.695 11.667 11.637 11.605 11.575 11.542 11.5 11.445 11.39 11.335 11.27 11.187 11.09 10.99 10.923 10.885 10.825 10.75 10.69 10.63 10.542 10.44 10.34 10.248 10.163 10.08 9.985 9.53 9.08 9.03 9.06 9.09 9.103 9.127 9.152 9.172 9.147 9.075 8.995 8.915 8.878 8.89 8.907 8.905
16.19 16.167 16.143 16.123 16.113 16.105 16.082 16.048 16.025 16.028 16.045 16.06 16.037 15.97 15.91 15.87 15.838 15.817 15.777 15.72 15.67 15.622 15.567 15.503 15.45 15.42 15.337 15.185 15.022 14.858 14.713 14.603 14.507 14.413 14.35 14.325 14.3 14.268 14.24 14.22 14.203 14.2 14.193 14.183 14.185 14.19 14.195 14.197 14.187 14.188 14.243 14.322 14.395 14.42 14.325 14.153 13.99 13.838 13.75 13.735 13.72 13.705 13.71 13.725 13.727 13.71 13.713 13.735 13.732 13.717 13.682 13.625 13.575 13.543 13.528 13.52 13.515 13.515 13.512 13.51 13.507 13.5 13.485 13.427 13.322 13.223 13.15 13.108 13.077 13.027 12.955 12.88 12.86 12.915 13 13.095 13.213 13.385 13.562 13.56 13.415 13.29 13.175 13.047 12.88 12.73 12.67 12.65 12.623 12.605 12.64 12.713 12.787 12.82 12.805 12.782 12.85 12.932 12.822 12.587 12.357 12.145 12.055 12.088 12.125 12.155 12.132 12.07 12.012 11.975 11.973 11.988 12.003 12.02 12.067 12.135 12.062 11.862 11.73 11.662 11.575 11.463 11.448 11.54 11.635 11.725 11.82 11.92 11.985 11.977 11.887 11.75 11.61 11.473 11.4 11.46 11.582 11.632 11.61 11.582 11.557 11.535 11.495 11.435 11.38 11.325 11.26 11.18 11.085 10.988 10.915 10.852 10.775 10.7 10.64 10.587 10.522 10.435 10.34 10.252 10.167 10.082 10 9.547 9.033 8.958 9.025 9.077 9.105 9.125 9.135 9.142 9.127 9.077 9.003 8.918 8.858 8.848 8.847 8.82
16.252 16.23 16.21 16.195 16.187 16.18 16.157 16.123 16.088 16.065 16.07 16.088 16.097 16.075 16.03 15.987 15.945 15.907 15.862 15.815 15.77 15.722 15.665 15.592 15.52 15.457 15.347 15.182 15.017 14.853 14.708 14.595 14.495 14.4 14.338 14.31 14.29 14.27 14.25 14.23 14.213 14.205 14.203 14.2 14.198 14.195 14.193 14.193 14.19 14.203 14.255 14.325 14.395 14.42 14.325 14.16 14.002 13.848 13.755 13.733 13.718 13.705 13.71 13.725 13.74 13.745 13.745 13.742 13.728 13.712 13.677 13.618 13.555 13.508 13.485 13.478 13.478 13.48 13.478 13.475 13.472 13.467 13.442 13.345 13.22 13.128 13.05 13 12.96 12.9 12.825 12.75 12.688 12.683 12.75 12.853 13.008 13.215 13.432 13.492 13.37 13.23 13.085 12.905 12.69 12.535 12.488 12.475 12.458 12.443 12.478 12.555 12.633 12.707 12.765 12.745 12.652 12.467 12.208 11.948 11.698 11.573 11.68 11.807 11.833 11.86 11.847 11.798 11.76 11.748 11.755 11.765 11.775 11.79 11.755 11.62 11.333 10.985 10.858 10.978 11.15 11.257 11.325 11.398 11.473 11.553 11.645 11.745 11.827 11.83 11.73 11.598 11.483 11.383 11.305 11.318 11.44 11.535 11.542 11.525 11.505 11.49 11.47 11.425 11.37 11.315 11.25 11.17 11.077 10.982 10.882 10.792 10.72 10.647 10.585 10.527 10.465 10.385 10.307 10.235 10.147 10.06 9.93 9.512 9 8.848 8.938 9.037 9.075 9.07 9.057 9.045 9.037 9.045 9.027 8.953 8.863 8.803 8.765 8.725
16.292 16.275 16.267 16.262 16.257 16.25 16.23 16.2 16.173 16.143 16.135 16.153 16.157 16.14 16.105 16.06 16.015 15.972 15.912 15.855 15.81 15.765 15.705 15.625 15.545 15.462 15.335 15.17 15.005 14.84 14.695 14.583 14.488 14.423 14.348 14.28 14.26 14.265 14.272 14.255 14.243 14.248 14.255 14.252 14.245 14.235 14.225 14.218 14.213 14.218 14.258 14.325 14.395 14.407 14.292 14.112 13.935 13.813 13.768 13.745 13.728 13.715 13.723 13.743 13.76 13.767 13.757 13.743 13.728 13.715 13.68 13.618 13.553 13.49 13.453 13.445 13.445 13.445 13.445 13.442 13.438 13.435 13.395 13.278 13.143 13.038 12.95 12.893 12.84 12.77 12.695 12.618 12.543 12.488 12.508 12.633 12.83 13.05 13.255 13.327 13.235 13.097 12.962 12.82 12.638 12.473 12.408 12.395 12.38 12.373 12.415 12.495 12.557 12.572 12.545 12.455 12.252 11.988 11.723 11.485 11.323 11.325 11.45 11.525 11.545 11.568 11.568 11.545 11.528 11.525 11.538 11.555 11.58 11.63 11.597 11.365 11.005 10.615 10.376 10.47 10.773 11.08 11.255 11.318 11.385 11.458 11.533 11.608 11.68 11.687 11.61 11.518 11.443 11.373 11.313 11.328 11.405 11.457 11.465 11.45 11.433 11.42 11.415 11.4 11.36 11.305 11.24 11.16 11.07 10.955 10.803 10.675 10.6 10.535 10.472 10.412 10.345 10.267 10.177 10.072 10.02 9.975 9.767 9.393 8.985 8.81 8.89 8.972 8.97 8.94 8.92 8.903 8.915 8.98 9.042 9.022 8.93 8.79 8.678 8.63
16.308 16.308 16.31 16.31 16.31 16.31 16.3 16.282 16.267 16.25 16.237 16.23 16.21 16.175 16.135 16.092 16.05 16.01 15.943 15.86 15.803 15.757 15.695 15.615 15.535 15.45 15.32 15.153 14.985 14.82 14.678 14.575 14.518 14.51 14.385 14.24 14.235 14.273 14.297 14.285 14.283 14.295 14.305 14.305 14.302 14.295 14.285 14.275 14.252 14.225 14.248 14.315 14.35 14.29 14.127 13.928 13.798 13.785 13.8 13.785 13.765 13.753 13.763 13.785 13.795 13.785 13.765 13.75 13.738 13.73 13.697 13.63 13.56 13.493 13.448 13.43 13.425 13.425 13.42 13.41 13.405 13.402 13.35 13.23 13.098 12.975 12.863 12.783 12.715 12.64 12.568 12.493 12.42 12.348 12.323 12.448 12.67 12.89 13.045 13.07 12.992 12.888 12.802 12.73 12.625 12.495 12.42 12.397 12.38 12.38 12.405 12.41 12.375 12.292 12.175 12.055 11.86 11.593 11.38 11.263 11.225 11.233 11.25 11.273 11.298 11.323 11.33 11.318 11.315 11.33 11.355 11.393 11.468 11.565 11.605 11.527 11.29 10.933 10.643 10.57 10.76 11.052 11.21 11.278 11.358 11.437 11.503 11.555 11.6 11.61 11.575 11.52 11.457 11.375 11.315 11.343 11.402 11.405 11.385 11.375 11.358 11.345 11.343 11.345 11.332 11.292 11.23 11.15 11.04 10.885 10.703 10.535 10.425 10.36 10.3 10.24 10.175 10.1 9.99 9.848 9.763 9.752 9.635 9.36 9.043 8.848 8.862 8.882 8.825 8.785 8.765 8.77 8.825 8.91 9 9.055 9.025 8.857 8.64 8.525
16.338 16.345 16.353 16.355 16.358 16.362 16.36 16.35 16.342 16.335 16.312 16.275 16.238 16.203 16.165 16.128 16.092 16.055 15.987 15.89 15.808 15.75 15.685 15.605 15.525 15.437 15.305 15.135 14.968 14.803 14.673 14.613 14.61 14.63 14.425 14.21 14.235 14.295 14.322 14.32 14.33 14.345 14.355 14.355 14.355 14.35 14.34 14.325 14.28 14.223 14.232 14.257 14.192 14.05 13.878 13.758 13.76 13.825 13.85 13.835 13.818 13.807 13.812 13.82 13.81 13.79 13.773 13.76 13.755 13.755 13.722 13.652 13.577 13.508 13.462 13.44 13.427 13.42 13.405 13.388 13.378 13.37 13.307 13.187 13.062 12.93 12.788 12.678 12.613 12.55 12.48 12.41 12.343 12.293 12.268 12.33 12.51 12.71 12.797 12.782 12.747 12.69 12.617 12.542 12.47 12.405 12.365 12.35 12.337 12.325 12.277 12.158 12.013 11.885 11.765 11.65 11.47 11.278 11.193 11.17 11.157 11.135 11.103 11.083 11.095 11.12 11.125 11.123 11.14 11.173 11.223 11.308 11.44 11.535 11.545 11.53 11.447 11.222 10.982 10.82 10.828 11.023 11.17 11.25 11.34 11.427 11.497 11.542 11.565 11.57 11.56 11.527 11.465 11.37 11.315 11.345 11.365 11.328 11.303 11.3 11.285 11.27 11.27 11.275 11.275 11.265 11.22 11.122 10.972 10.792 10.608 10.425 10.273 10.18 10.12 10.052 9.97 9.877 9.775 9.657 9.54 9.488 9.437 9.285 9.075 8.887 8.807 8.762 8.683 8.635 8.63 8.673 8.753 8.84 8.93 9.015 9.065 8.962 8.705 8.47
16.383 16.39 16.4 16.405 16.41 16.417 16.415 16.408 16.403 16.397 16.372 16.325 16.278 16.238 16.203 16.168 16.135 16.1 16.032 15.935 15.838 15.755 15.68 15.6 15.52 15.427 15.292 15.125 14.958 14.793 14.698 14.7 14.727 14.747 14.475 14.205 14.247 14.315 14.352 14.365 14.382 14.397 14.405 14.405 14.405 14.402 14.392 14.357 14.292 14.22 14.17 14.095 13.96 13.82 13.733 13.743 13.81 13.875 13.9 13.885 13.865 13.85 13.842 13.832 13.815 13.795 13.782 13.777 13.775 13.772 13.735 13.662 13.585 13.507 13.452 13.42 13.392 13.382 13.377 13.362 13.35 13.34 13.272 13.14 13 12.852 12.695 12.568 12.507 12.48 12.43 12.368 12.325 12.31 12.298 12.29 12.378 12.497 12.525 12.51 12.517 12.497 12.427 12.352 12.28 12.24 12.235 12.235 12.237 12.21 12.118 11.983 11.823 11.66 11.508 11.355 11.215 11.145 11.128 11.103 11.077 11.048 11 10.948 10.92 10.923 10.94 10.97 11.008 11.053 11.14 11.278 11.427 11.497 11.49 11.478 11.46 11.382 11.247 11.11 11.015 11.043 11.14 11.232 11.327 11.42 11.485 11.51 11.512 11.51 11.51 11.495 11.447 11.36 11.315 11.322 11.292 11.24 11.215 11.217 11.212 11.2 11.198 11.202 11.205 11.205 11.162 11.047 10.885 10.7 10.515 10.332 10.153 10.01 9.915 9.825 9.722 9.62 9.517 9.415 9.325 9.23 9.123 9.017 8.91 8.797 8.702 8.625 8.543 8.495 8.523 8.595 8.677 8.765 8.852 8.935 9.017 8.965 8.717 8.407
16.44 16.45 16.46 16.465 16.47 16.477 16.475 16.47 16.465 16.46 16.435 16.385 16.338 16.293 16.255 16.223 16.188 16.145 16.072 15.975 15.878 15.79 15.71 15.63 15.548 15.447 15.302 15.13 14.963 14.805 14.743 14.775 14.81 14.762 14.498 14.248 14.233 14.3 14.35 14.38 14.41 14.437 14.45 14.45 14.45 14.45 14.42 14.347 14.262 14.175 14.062 13.925 13.81 13.738 13.728 13.778 13.845 13.905 13.892 13.842 13.817 13.815 13.817 13.802 13.787 13.785 13.755 13.717 13.71 13.697 13.662 13.6 13.525 13.445 13.38 13.335 13.31 13.32 13.332 13.325 13.315 13.297 13.21 13.055 12.9 12.745 12.585 12.45 12.365 12.345 12.347 12.342 12.347 12.35 12.335 12.287 12.26 12.262 12.253 12.258 12.292 12.295 12.235 12.16 12.1 12.09 12.105 12.105 12.127 12.107 12.01 11.905 11.782 11.635 11.465 11.288 11.19 11.165 11.125 11.062 11 10.993 11.005 10.965 10.885 10.818 10.823 10.868 10.918 10.985 11.1 11.255 11.38 11.432 11.445 11.445 11.432 11.397 11.32 11.215 11.092 11.022 11.072 11.172 11.27 11.37 11.437 11.455 11.45 11.445 11.445 11.42 11.362 11.312 11.29 11.26 11.205 11.15 11.128 11.133 11.133 11.127 11.125 11.11 11.06 10.985 10.902 10.822 10.732 10.587 10.402 10.212 10.022 9.845 9.688 9.545 9.425 9.322 9.217 9.115 9.015 8.915 8.81 8.703 8.618 8.578 8.532 8.46 8.418 8.415 8.445 8.51 8.59 8.672 8.755 8.835 8.915 8.86 8.62 8.333
16.513 16.518 16.525 16.533 16.54 16.545 16.54 16.533 16.528 16.522 16.495 16.448 16.403 16.358 16.32 16.287 16.245 16.187 16.105 16.008 15.923 15.85 15.775 15.692 15.597 15.485 15.327 15.145 14.978 14.838 14.795 14.825 14.847 14.767 14.58 14.375 14.243 14.25 14.305 14.345 14.392 14.445 14.47 14.47 14.47 14.47 14.415 14.303 14.188 14.075 13.963 13.865 13.808 13.78 13.78 13.813 13.867 13.902 13.812 13.708 13.698 13.728 13.75 13.74 13.743 13.772 13.698 13.583 13.56 13.54 13.507 13.467 13.412 13.337 13.273 13.243 13.248 13.272 13.287 13.285 13.272 13.235 13.12 12.955 12.795 12.635 12.475 12.34 12.235 12.178 12.19 12.225 12.242 12.247 12.225 12.15 12.062 12.013 11.998 12.02 12.065 12.085 12.045 11.97 11.935 11.953 11.972 11.985 12.027 12.005 11.89 11.778 11.675 11.57 11.442 11.312 11.222 11.16 11.085 10.99 10.903 10.938 11.057 11.09 10.955 10.78 10.748 10.798 10.865 10.95 11.07 11.21 11.295 11.335 11.375 11.405 11.412 11.37 11.28 11.155 10.985 10.89 10.945 11.05 11.152 11.26 11.34 11.375 11.38 11.375 11.372 11.327 11.238 11.195 11.192 11.175 11.14 11.08 11.05 11.057 11.057 11.022 10.952 10.86 10.732 10.588 10.485 10.442 10.41 10.335 10.22 10.06 9.865 9.68 9.498 9.315 9.155 9.013 8.888 8.785 8.688 8.593 8.493 8.393 8.37 8.385 8.34 8.328 8.423 8.498 8.49 8.488 8.51 8.568 8.65 8.73 8.81 8.745 8.528 8.358
16.595 16.595 16.598 16.603 16.61 16.615 16.61 16.6 16.592 16.585 16.557 16.512 16.467 16.425 16.387 16.345 16.287 16.22 16.137 16.053 15.983 15.915 15.84 15.747 15.635 15.515 15.357 15.168 14.99 14.873 14.84 14.825 14.807 14.765 14.645 14.485 14.332 14.248 14.258 14.308 14.37 14.437 14.47 14.47 14.47 14.467 14.402 14.27 14.12 13.97 13.888 13.875 13.862 13.84 13.838 13.858 13.897 13.892 13.735 13.593 13.603 13.66 13.69 13.703 13.735 13.78 13.675 13.478 13.403 13.378 13.345 13.313 13.275 13.222 13.177 13.175 13.2 13.227 13.245 13.242 13.222 13.16 13.027 12.862 12.697 12.525 12.35 12.217 12.117 12.023 11.985 11.99 11.985 11.978 11.955 11.888 11.808 11.758 11.755 11.793 11.835 11.87 11.85 11.795 11.79 11.82 11.843 11.878 11.93 11.895 11.775 11.658 11.55 11.45 11.352 11.257 11.16 11.06 10.965 10.87 10.803 10.868 11.03 11.12 10.965 10.725 10.678 10.745 10.83 10.92 11.037 11.142 11.19 11.225 11.267 11.31 11.34 11.32 11.215 11.04 10.835 10.74 10.805 10.912 11.02 11.13 11.215 11.27 11.302 11.307 11.292 11.23 11.13 11.048 11.02 11.032 11.032 10.987 10.94 10.92 10.897 10.81 10.65 10.483 10.315 10.155 10.058 10.018 9.978 9.935 9.892 9.812 9.69 9.538 9.365 9.19 9.015 8.848 8.75 8.675 8.558 8.44 8.323 8.198 8.185 8.223 8.245 8.383 8.592 8.692 8.653 8.6 8.558 8.55 8.573 8.625 8.705 8.645 8.53 8.51
16.675 16.675 16.675 16.675 16.677 16.677 16.672 16.665 16.655 16.645 16.617 16.572 16.527 16.482 16.432 16.372 16.305 16.235 16.165 16.102 16.042 15.975 15.892 15.785 15.665 15.542 15.39 15.2 15.01 14.895 14.84 14.77 14.71 14.66 14.57 14.455 14.342 14.23 14.205 14.272 14.345 14.405 14.43 14.432 14.437 14.43 14.34 14.177 13.997 13.835 13.793 13.837 13.872 13.885 13.892 13.91 13.937 13.887 13.687 13.495 13.478 13.555 13.607 13.652 13.707 13.765 13.67 13.43 13.308 13.29 13.27 13.245 13.19 13.095 13.04 13.062 13.11 13.157 13.195 13.182 13.125 13.015 12.845 12.662 12.48 12.292 12.132 12.052 11.98 11.868 11.8 11.785 11.77 11.753 11.745 11.715 11.645 11.578 11.563 11.588 11.613 11.648 11.65 11.638 11.66 11.69 11.727 11.785 11.83 11.78 11.66 11.54 11.427 11.328 11.24 11.147 11.043 10.94 10.845 10.75 10.71 10.803 10.962 11.027 10.86 10.648 10.63 10.713 10.8 10.89 10.985 11.042 11.052 11.062 11.087 11.122 11.16 11.172 11.07 10.87 10.665 10.578 10.643 10.752 10.867 10.982 11.057 11.12 11.192 11.227 11.205 11.12 11.007 10.898 10.833 10.828 10.84 10.807 10.737 10.682 10.635 10.522 10.34 10.153 9.968 9.8 9.688 9.633 9.595 9.558 9.52 9.488 9.492 9.442 9.293 9.128 8.963 8.823 8.808 8.8 8.68 8.54 8.363 8.175 8.118 8.19 8.353 8.58 8.8 8.882 8.83 8.775 8.725 8.675 8.63 8.618 8.638 8.65 8.7 8.735
16.695 16.695 16.692 16.69 16.69 16.687 16.682 16.677 16.667 16.645 16.605 16.56 16.515 16.465 16.4 16.325 16.252 16.182 16.125 16.072 16.017 15.945 15.84 15.72 15.6 15.477 15.332 15.155 14.988 14.88 14.8 14.713 14.63 14.56 14.472 14.363 14.258 14.155 14.143 14.217 14.285 14.31 14.305 14.31 14.317 14.3 14.185 13.995 13.818 13.683 13.658 13.72 13.79 13.82 13.795 13.775 13.775 13.76 13.627 13.385 13.283 13.345 13.4 13.445 13.51 13.585 13.6 13.49 13.398 13.385 13.317 13.18 13.01 12.87 12.823 12.842 12.9 12.965 13.017 12.997 12.91 12.76 12.547 12.337 12.135 11.945 11.843 11.837 11.81 11.715 11.645 11.628 11.613 11.608 11.615 11.61 11.562 11.488 11.45 11.453 11.46 11.478 11.498 11.528 11.568 11.582 11.58 11.62 11.667 11.62 11.51 11.397 11.292 11.208 11.135 11.045 10.933 10.823 10.723 10.628 10.62 10.738 10.882 10.885 10.7 10.573 10.608 10.693 10.777 10.84 10.865 10.865 10.852 10.84 10.845 10.875 10.912 10.922 10.847 10.675 10.498 10.435 10.478 10.56 10.67 10.787 10.835 10.843 10.9 10.98 11.027 10.975 10.85 10.738 10.658 10.628 10.63 10.58 10.485 10.418 10.36 10.232 10.048 9.863 9.693 9.545 9.413 9.32 9.27 9.235 9.2 9.198 9.295 9.357 9.257 9.092 8.928 8.823 8.865 8.927 8.855 8.717 8.48 8.238 8.15 8.225 8.477 8.772 8.997 8.98 8.91 8.93 8.89 8.85 8.807 8.765 8.73 8.76 8.835 8.832
16.66 16.66 16.657 16.655 16.655 16.652 16.647 16.64 16.617 16.575 16.525 16.48 16.435 16.385 16.312 16.225 16.148 16.078 16.02 15.965 15.895 15.797 15.675 15.55 15.43 15.31 15.165 15.015 14.913 14.837 14.755 14.665 14.573 14.48 14.385 14.285 14.188 14.09 14.078 14.147 14.182 14.162 14.135 14.135 14.127 14.092 13.98 13.805 13.66 13.545 13.52 13.587 13.632 13.597 13.505 13.425 13.38 13.407 13.41 13.255 13.088 13.075 13.115 13.13 13.178 13.265 13.47 13.597 13.5 13.352 13.152 12.885 12.67 12.595 12.585 12.578 12.613 12.675 12.72 12.702 12.617 12.452 12.228 12.005 11.79 11.625 11.575 11.595 11.602 11.555 11.495 11.473 11.468 11.483 11.495 11.49 11.47 11.413 11.37 11.37 11.375 11.393 11.43 11.48 11.502 11.472 11.405 11.388 11.43 11.4 11.3 11.2 11.13 11.09 11.035 10.942 10.825 10.708 10.6 10.505 10.528 10.662 10.787 10.735 10.578 10.54 10.593 10.68 10.735 10.727 10.687 10.65 10.625 10.61 10.605 10.625 10.652 10.645 10.6 10.47 10.34 10.323 10.348 10.388 10.463 10.557 10.58 10.53 10.518 10.56 10.677 10.755 10.682 10.575 10.49 10.44 10.415 10.345 10.24 10.158 10.08 9.94 9.76 9.598 9.453 9.315 9.175 9.05 8.963 8.915 8.885 8.938 9.095 9.202 9.18 9.057 8.893 8.823 8.91 9.012 9 8.84 8.557 8.315 8.22 8.245 8.432 8.77 8.61 8.583 8.957 8.992 8.96 8.93 8.895 8.86 8.83 8.807 8.82 8.808
16.625 16.625 16.622 16.62 16.62 16.617 16.61 16.587 16.545 16.495 16.445 16.397 16.35 16.3 16.227 16.135 16.048 15.973 15.91 15.835 15.735 15.62 15.495 15.37 15.248 15.123 14.998 14.905 14.852 14.795 14.715 14.62 14.515 14.405 14.305 14.212 14.12 14.025 14.01 14.05 14.035 13.995 13.963 13.945 13.915 13.87 13.772 13.633 13.515 13.405 13.383 13.427 13.397 13.29 13.178 13.08 12.995 12.965 12.997 13 12.897 12.83 12.842 12.845 12.86 12.948 13.18 13.337 13.237 13.002 12.728 12.49 12.378 12.365 12.357 12.338 12.34 12.387 12.422 12.405 12.32 12.14 11.913 11.713 11.55 11.445 11.408 11.393 11.383 11.37 11.343 11.328 11.343 11.365 11.372 11.365 11.357 11.325 11.29 11.29 11.31 11.35 11.4 11.427 11.397 11.327 11.25 11.185 11.188 11.162 11.065 10.995 10.97 10.965 10.93 10.84 10.72 10.6 10.485 10.4 10.44 10.57 10.667 10.615 10.525 10.53 10.58 10.632 10.615 10.56 10.503 10.455 10.418 10.39 10.37 10.375 10.382 10.363 10.335 10.255 10.193 10.208 10.232 10.258 10.295 10.343 10.35 10.32 10.293 10.283 10.363 10.475 10.485 10.417 10.332 10.26 10.195 10.105 10 9.903 9.8 9.66 9.5 9.36 9.225 9.085 8.948 8.813 8.688 8.603 8.593 8.7 8.88 9.007 9.045 8.992 8.868 8.833 8.95 9.064 8.67 8.153 7.998 7.98 8.1 8.015 7.956 8.393 8.458 8.6 9.012 8.985 8.95 8.92 8.885 8.85 8.82 8.788 8.775 8.783
16.592 16.59 16.587 16.582 16.58 16.577 16.555 16.51 16.46 16.41 16.362 16.315 16.265 16.215 16.142 16.05 15.957 15.867 15.777 15.672 15.558 15.443 15.32 15.195 15.073 14.958 14.878 14.832 14.795 14.74 14.655 14.55 14.435 14.322 14.225 14.135 14.045 13.953 13.917 13.91 13.87 13.833 13.798 13.76 13.718 13.673 13.593 13.483 13.375 13.268 13.225 13.195 13.09 12.97 12.873 12.788 12.7 12.625 12.608 12.63 12.613 12.575 12.568 12.573 12.578 12.613 12.678 12.705 12.67 12.535 12.313 12.165 12.135 12.137 12.132 12.11 12.088 12.103 12.12 12.103 12.015 11.86 11.7 11.568 11.473 11.408 11.363 11.315 11.273 11.25 11.23 11.218 11.23 11.245 11.247 11.24 11.232 11.22 11.213 11.23 11.27 11.32 11.35 11.325 11.255 11.175 11.097 11.013 10.97 10.928 10.86 10.838 10.832 10.83 10.812 10.735 10.615 10.495 10.375 10.298 10.343 10.465 10.547 10.545 10.52 10.517 10.522 10.5 10.44 10.377 10.315 10.268 10.23 10.192 10.158 10.143 10.135 10.118 10.1 10.078 10.073 10.09 10.11 10.127 10.145 10.173 10.195 10.208 10.21 10.22 10.25 10.272 10.24 10.062 9.867 9.767 9.735 9.77 9.757 9.665 9.548 9.413 9.27 9.133 8.998 8.86 8.733 8.608 8.473 8.355 8.353 8.488 8.665 8.827 8.887 8.877 8.845 8.86 8.822 8.507 7.856 8.018 8.257 7.761 7.958 8.137 8.043 8.395 8.847 9.02 9.005 8.972 8.938 8.905 8.872 8.84 8.807 8.773 8.753 8.773
16.52 16.515 16.515 16.51 16.505 16.5 16.467 16.412 16.36 16.31 16.265 16.222 16.175 16.125 16.05 15.952 15.857 15.755 15.638 15.515 15.395 15.28 15.16 15.038 14.925 14.83 14.773 14.737 14.697 14.635 14.54 14.43 14.317 14.21 14.115 14.027 13.94 13.847 13.797 13.775 13.735 13.7 13.665 13.623 13.578 13.53 13.46 13.36 13.248 13.135 13.053 12.968 12.855 12.755 12.67 12.595 12.52 12.443 12.398 12.385 12.375 12.368 12.368 12.375 12.375 12.348 12.29 12.225 12.168 12.078 11.963 11.91 11.91 11.913 11.908 11.895 11.898 11.92 11.935 11.915 11.833 11.72 11.623 11.53 11.45 11.4 11.365 11.323 11.28 11.235 11.195 11.175 11.168 11.145 11.12 11.11 11.103 11.118 11.14 11.17 11.222 11.272 11.25 11.175 11.105 11.025 10.945 10.86 10.78 10.715 10.683 10.677 10.67 10.662 10.657 10.61 10.505 10.385 10.265 10.175 10.19 10.297 10.382 10.392 10.375 10.36 10.327 10.285 10.242 10.19 10.13 10.082 10.04 9.99 9.955 9.96 9.97 9.96 9.953 9.945 9.935 9.937 9.95 9.96 9.983 10.03 10.075 10.11 10.125 10.125 10.12 10.077 9.962 9.673 9.31 9.018 8.933 9.09 9.26 9.37 9.352 9.225 9.093 8.96 8.833 8.705 8.608 8.518 8.395 8.28 8.275 8.418 8.585 8.715 8.5 8.18 8.13 8.152 8.052 7.678 7.963 9.086 8.794 7.936 8.227 8.485 8.522 8.687 8.915 9.017 8.992 8.96 8.925 8.89 8.858 8.825 8.792 8.76 8.748 8.778
16.41 16.405 16.405 16.4 16.395 16.392 16.362 16.305 16.25 16.2 16.155 16.115 16.075 16.03 15.95 15.843 15.74 15.637 15.517 15.385 15.258 15.133 15.013 14.903 14.803 14.715 14.658 14.615 14.562 14.492 14.395 14.285 14.175 14.07 13.975 13.885 13.792 13.695 13.653 13.652 13.625 13.59 13.555 13.515 13.472 13.425 13.352 13.247 13.127 13 12.898 12.818 12.73 12.64 12.555 12.477 12.4 12.325 12.283 12.268 12.255 12.245 12.242 12.235 12.207 12.162 12.085 11.98 11.88 11.795 11.745 11.733 11.728 11.723 11.735 11.778 11.845 11.902 11.91 11.872 11.802 11.702 11.593 11.488 11.425 11.41 11.385 11.345 11.3 11.245 11.198 11.177 11.135 11.043 10.985 10.978 10.995 11.04 11.06 11.085 11.153 11.225 11.165 11 10.885 10.81 10.75 10.695 10.62 10.538 10.495 10.477 10.465 10.46 10.465 10.457 10.39 10.275 10.155 10.058 10.018 10.075 10.155 10.14 10.088 10.06 10.035 10.01 9.985 9.952 9.917 9.875 9.82 9.763 9.758 9.82 9.857 9.847 9.83 9.8 9.765 9.755 9.765 9.78 9.823 9.887 9.935 9.965 9.96 9.92 9.877 9.792 9.657 9.437 9.052 8.583 8.37 8.528 8.828 9.117 9.205 9.105 8.98 8.855 8.735 8.633 8.578 8.522 8.415 8.323 8.335 8.46 8.632 8.397 7.813 7.49 7.43 7.43 7.43 7.431 8.387 9.009 8.288 8.17 8.435 8.418 8.458 8.675 8.935 9.012 8.98 8.947 8.913 8.878 8.843 8.81 8.778 8.745 8.738 8.775
16.305 16.298 16.295 16.29 16.285 16.285 16.255 16.198 16.143 16.09 16.045 16.008 15.975 15.937 15.855 15.738 15.625 15.52 15.402 15.268 15.14 15.018 14.9 14.79 14.688 14.6 14.535 14.48 14.417 14.345 14.25 14.14 14.033 13.93 13.83 13.73 13.63 13.53 13.49 13.505 13.502 13.48 13.445 13.405 13.365 13.32 13.242 13.125 12.992 12.855 12.753 12.685 12.61 12.525 12.44 12.36 12.28 12.205 12.165 12.152 12.137 12.122 12.1 12.06 12.013 11.967 11.895 11.8 11.72 11.655 11.615 11.6 11.588 11.575 11.61 11.69 11.767 11.82 11.812 11.777 11.755 11.685 11.56 11.455 11.423 11.432 11.415 11.37 11.315 11.255 11.205 11.157 11.057 10.918 10.853 10.878 10.945 10.98 10.968 10.995 11.098 11.215 11.145 10.91 10.708 10.555 10.465 10.455 10.447 10.385 10.313 10.27 10.25 10.253 10.265 10.275 10.252 10.165 10.045 9.953 9.89 9.883 9.922 9.897 9.82 9.768 9.738 9.718 9.708 9.705 9.687 9.637 9.575 9.548 9.595 9.682 9.72 9.707 9.68 9.64 9.602 9.583 9.585 9.615 9.675 9.745 9.795 9.8 9.755 9.69 9.613 9.49 9.343 9.175 8.862 8.46 8.283 8.42 8.72 8.982 9.075 9.015 8.892 8.768 8.658 8.593 8.565 8.527 8.435 8.368 8.403 8.49 8.515 7.96 7.43 7.43 7.43 7.43 7.43 7.675 8.252 8.168 8.043 8.337 8.345 8.343 8.373 8.655 8.96 9.002 8.97 8.935 8.9 8.865 8.83 8.797 8.762 8.73 8.728 8.773
16.205 16.198 16.193 16.185 16.18 16.177 16.147 16.092 16.037 15.983 15.94 15.91 15.88 15.845 15.765 15.645 15.525 15.407 15.292 15.17 15.05 14.94 14.825 14.705 14.59 14.493 14.415 14.348 14.278 14.2 14.108 14.005 13.905 13.805 13.7 13.593 13.485 13.383 13.345 13.358 13.363 13.36 13.335 13.295 13.255 13.21 13.123 12.99 12.85 12.708 12.605 12.542 12.475 12.402 12.325 12.242 12.16 12.09 12.048 12.028 12.012 11.995 11.955 11.895 11.838 11.783 11.718 11.648 11.588 11.533 11.493 11.475 11.46 11.443 11.463 11.515 11.563 11.605 11.62 11.623 11.65 11.647 11.567 11.493 11.472 11.465 11.435 11.38 11.32 11.262 11.205 11.11 10.97 10.818 10.765 10.835 10.925 10.92 10.873 10.93 11.09 11.23 11.147 10.91 10.675 10.44 10.26 10.208 10.22 10.21 10.155 10.085 10.048 10.05 10.065 10.075 10.08 10.037 9.935 9.845 9.787 9.74 9.71 9.66 9.578 9.503 9.468 9.47 9.485 9.495 9.462 9.395 9.345 9.363 9.432 9.5 9.505 9.46 9.427 9.417 9.425 9.415 9.412 9.462 9.535 9.605 9.637 9.613 9.58 9.558 9.45 9.255 9.055 8.88 8.638 8.4 8.345 8.41 8.625 8.85 8.927 8.905 8.805 8.688 8.608 8.575 8.557 8.535 8.455 8.41 8.468 8.545 8.397 7.82 7.431 7.583 7.82 7.972 8.03 8.057 7.915 7.888 8.175 8.297 8.28 8.265 8.283 8.605 8.942 8.97 8.937 8.902 8.87 8.835 8.8 8.767 8.735 8.702 8.715 8.778
16.12 16.115 16.11 16.097 16.082 16.067 16.032 15.977 15.922 15.865 15.825 15.802 15.777 15.742 15.66 15.537 15.415 15.29 15.183 15.087 14.98 14.87 14.755 14.635 14.52 14.418 14.333 14.258 14.183 14.105 14.003 13.893 13.795 13.697 13.592 13.48 13.368 13.265 13.25 13.285 13.29 13.29 13.228 13.118 13.048 13.072 13.05 12.91 12.75 12.56 12.443 12.4 12.34 12.275 12.205 12.12 12.043 11.993 11.945 11.9 11.88 11.865 11.825 11.76 11.693 11.628 11.573 11.523 11.47 11.418 11.378 11.358 11.34 11.315 11.31 11.338 11.375 11.415 11.443 11.467 11.502 11.537 11.547 11.522 11.485 11.447 11.41 11.37 11.32 11.262 11.2 11.09 10.94 10.778 10.715 10.792 10.882 10.847 10.795 10.91 11.112 11.245 11.15 10.913 10.677 10.43 10.203 10.095 10.075 10.058 9.997 9.903 9.843 9.838 9.857 9.872 9.885 9.882 9.822 9.74 9.672 9.592 9.51 9.433 9.355 9.275 9.24 9.26 9.282 9.267 9.207 9.143 9.125 9.168 9.232 9.27 9.235 9.16 9.103 9.073 9.087 9.112 9.147 9.222 9.312 9.422 9.515 9.543 9.555 9.58 9.465 9.215 8.965 8.74 8.528 8.408 8.42 8.453 8.575 8.715 8.76 8.775 8.715 8.625 8.585 8.565 8.55 8.537 8.478 8.46 8.525 8.575 8.432 8.06 8.025 8.33 8.495 8.537 8.282 7.813 7.765 8.15 8.355 8.315 8.28 8.245 8.255 8.573 8.905 8.912 8.84 8.79 8.757 8.722 8.69 8.66 8.627 8.61 8.68 8.79
16.045 16.03 16.017 15.997 15.972 15.947 15.907 15.852 15.795 15.735 15.695 15.675 15.65 15.607 15.525 15.407 15.285 15.16 15.063 14.992 14.905 14.8 14.685 14.568 14.46 14.363 14.278 14.203 14.127 14.05 13.935 13.798 13.688 13.592 13.487 13.375 13.27 13.173 13.173 13.25 13.282 13.28 13.165 12.96 12.858 12.975 13.03 12.86 12.635 12.385 12.258 12.242 12.202 12.145 12.075 11.998 11.943 11.912 11.862 11.798 11.755 11.732 11.692 11.627 11.56 11.493 11.44 11.4 11.355 11.303 11.265 11.245 11.22 11.183 11.17 11.193 11.225 11.26 11.278 11.29 11.315 11.35 11.397 11.43 11.412 11.37 11.34 11.322 11.297 11.255 11.2 11.1 10.945 10.763 10.663 10.72 10.8 10.765 10.763 10.923 11.137 11.257 11.15 10.915 10.667 10.395 10.163 10.053 10.007 9.945 9.837 9.713 9.628 9.608 9.632 9.655 9.672 9.69 9.667 9.595 9.5 9.39 9.293 9.215 9.14 9.06 9.028 9.045 9.042 8.995 8.923 8.885 8.908 8.958 9.017 9.027 8.965 8.888 8.813 8.735 8.688 8.685 8.758 8.89 9.03 9.195 9.392 9.56 9.635 9.66 9.545 9.295 9.053 8.83 8.638 8.503 8.468 8.497 8.542 8.56 8.57 8.61 8.617 8.595 8.575 8.555 8.54 8.532 8.508 8.51 8.552 8.577 8.525 8.445 8.615 8.752 8.6 8.218 7.88 7.878 8.177 8.42 8.392 8.348 8.31 8.275 8.313 8.615 8.897 8.875 8.76 8.668 8.598 8.55 8.52 8.487 8.453 8.478 8.628 8.81
15.942 15.92 15.897 15.873 15.848 15.822 15.782 15.725 15.665 15.608 15.568 15.54 15.502 15.452 15.372 15.265 15.152 15.033 14.94 14.88 14.81 14.722 14.617 14.508 14.405 14.308 14.223 14.147 14.07 13.99 13.877 13.73 13.595 13.485 13.38 13.275 13.18 13.088 13.08 13.17 13.247 13.265 13.14 12.945 12.893 12.995 12.965 12.725 12.45 12.188 12.063 12.057 12.042 12.007 11.95 11.895 11.863 11.835 11.787 11.72 11.653 11.605 11.558 11.493 11.428 11.36 11.305 11.27 11.235 11.19 11.153 11.125 11.09 11.048 11.035 11.053 11.078 11.107 11.12 11.123 11.133 11.155 11.2 11.26 11.295 11.285 11.26 11.245 11.235 11.215 11.182 11.097 10.935 10.74 10.613 10.622 10.662 10.643 10.737 10.955 11.162 11.27 11.15 10.902 10.632 10.33 10.083 9.963 9.89 9.81 9.69 9.538 9.42 9.38 9.4 9.425 9.445 9.417 9.373 9.318 9.243 9.16 9.068 8.993 8.918 8.84 8.805 8.798 8.755 8.693 8.65 8.66 8.703 8.75 8.79 8.77 8.7 8.638 8.585 8.53 8.475 8.44 8.49 8.623 8.785 8.963 9.188 9.45 9.652 9.74 9.627 9.395 9.188 9.005 8.835 8.665 8.538 8.508 8.502 8.443 8.39 8.388 8.49 8.577 8.56 8.543 8.53 8.53 8.535 8.538 8.545 8.558 8.57 8.57 8.582 8.49 8.173 7.958 8.143 8.382 8.432 8.437 8.422 8.382 8.34 8.303 8.388 8.677 8.895 8.867 8.75 8.63 8.518 8.428 8.36 8.313 8.28 8.353 8.568 8.817
15.823 15.8 15.775 15.75 15.728 15.702 15.66 15.6 15.54 15.483 15.435 15.393 15.348 15.3 15.22 15.113 15.007 14.9 14.815 14.755 14.692 14.625 14.542 14.447 14.352 14.255 14.167 14.09 14.007 13.92 13.805 13.662 13.517 13.385 13.275 13.18 13.09 13 12.988 13.07 13.17 13.202 13.062 12.878 12.852 12.902 12.79 12.525 12.248 11.99 11.868 11.865 11.863 11.852 11.827 11.8 11.777 11.752 11.72 11.67 11.608 11.548 11.463 11.37 11.303 11.235 11.175 11.135 11.105 11.07 11.032 10.995 10.953 10.91 10.9 10.918 10.938 10.958 10.968 10.975 10.983 10.993 11.028 11.085 11.148 11.197 11.21 11.203 11.198 11.19 11.16 11.055 10.882 10.695 10.548 10.488 10.473 10.458 10.6 10.892 11.165 11.282 11.13 10.822 10.487 10.175 9.965 9.845 9.75 9.67 9.547 9.38 9.233 9.163 9.168 9.192 9.187 9.145 9.118 9.07 9.008 8.94 8.855 8.783 8.71 8.65 8.615 8.583 8.535 8.493 8.5 8.545 8.583 8.623 8.648 8.61 8.548 8.508 8.475 8.443 8.41 8.393 8.408 8.475 8.593 8.738 8.955 9.235 9.515 9.73 9.707 9.52 9.345 9.175 9.005 8.835 8.665 8.55 8.488 8.41 8.323 8.278 8.415 8.55 8.54 8.543 8.555 8.57 8.588 8.593 8.585 8.58 8.58 8.58 8.58 8.498 8.26 8.3 8.472 8.44 8.438 8.45 8.445 8.415 8.373 8.358 8.493 8.765 8.915 8.863 8.745 8.625 8.505 8.385 8.275 8.188 8.14 8.258 8.523 8.805
15.723 15.7 15.672 15.64 15.612 15.582 15.535 15.475 15.415 15.355 15.3 15.25 15.203 15.155 15.077 14.97 14.865 14.765 14.69 14.632 14.57 14.51 14.44 14.355 14.267 14.175 14.072 13.977 13.887 13.79 13.67 13.53 13.395 13.273 13.17 13.08 12.99 12.895 12.88 12.965 13.045 13.042 12.885 12.683 12.59 12.59 12.505 12.285 12.03 11.815 11.715 11.695 11.695 11.698 11.692 11.675 11.655 11.648 11.665 11.687 11.67 11.607 11.473 11.31 11.21 11.14 11.073 11.013 10.97 10.94 10.905 10.863 10.82 10.783 10.775 10.795 10.828 10.858 10.87 10.88 10.89 10.898 10.928 10.988 11.053 11.138 11.207 11.223 11.22 11.22 11.137 10.965 10.785 10.613 10.473 10.383 10.33 10.295 10.398 10.708 11.055 11.177 10.967 10.595 10.223 9.975 9.863 9.75 9.625 9.527 9.4 9.233 9.07 8.958 8.935 8.953 8.955 8.983 9 8.942 8.855 8.765 8.685 8.615 8.57 8.565 8.54 8.493 8.458 8.435 8.48 8.55 8.588 8.66 8.707 8.643 8.538 8.473 8.44 8.407 8.375 8.365 8.375 8.41 8.483 8.6 8.825 9.117 9.37 9.592 9.66 9.53 9.36 9.19 9.02 8.847 8.675 8.553 8.5 8.455 8.398 8.388 8.478 8.55 8.56 8.588 8.62 8.647 8.67 8.682 8.68 8.675 8.67 8.663 8.655 8.647 8.635 8.582 8.498 8.443 8.44 8.457 8.465 8.445 8.435 8.51 8.705 8.915 8.985 8.952 8.905 8.847 8.755 8.635 8.518 8.4 8.325 8.39 8.573 8.82
15.63 15.6 15.565 15.527 15.492 15.455 15.405 15.345 15.285 15.228 15.175 15.125 15.073 15.02 14.945 14.84 14.735 14.635 14.563 14.512 14.455 14.395 14.322 14.235 14.145 14.047 13.93 13.813 13.708 13.605 13.485 13.355 13.243 13.148 13.06 12.97 12.875 12.773 12.763 12.842 12.862 12.802 12.65 12.473 12.333 12.248 12.16 11.985 11.818 11.725 11.653 11.578 11.55 11.553 11.547 11.53 11.525 11.548 11.595 11.687 11.765 11.727 11.565 11.353 11.18 11.073 11 10.925 10.86 10.815 10.775 10.735 10.7 10.673 10.67 10.703 10.76 10.802 10.815 10.825 10.835 10.843 10.875 10.94 11.005 11.103 11.22 11.267 11.265 11.222 11.062 10.855 10.678 10.528 10.415 10.33 10.265 10.233 10.315 10.528 10.757 10.857 10.66 10.27 9.975 9.845 9.777 9.67 9.528 9.403 9.273 9.118 8.963 8.823 8.753 8.763 8.813 8.877 8.882 8.812 8.72 8.625 8.545 8.508 8.54 8.585 8.55 8.478 8.435 8.413 8.475 8.577 8.638 8.765 8.845 8.777 8.643 8.498 8.415 8.373 8.343 8.34 8.355 8.373 8.42 8.568 8.8 9.032 9.227 9.392 9.487 9.415 9.245 9.075 8.905 8.733 8.578 8.51 8.512 8.51 8.515 8.55 8.592 8.605 8.623 8.66 8.69 8.72 8.747 8.767 8.77 8.765 8.76 8.755 8.75 8.745 8.692 8.605 8.525 8.458 8.443 8.46 8.493 8.533 8.598 8.758 8.957 9.047 9.042 9.047 9.072 9.087 9.065 9.015 8.965 8.897 8.842 8.845 8.898 9.015
15.515 15.475 15.438 15.402 15.365 15.325 15.275 15.215 15.158 15.103 15.05 15 14.945 14.887 14.812 14.71 14.605 14.505 14.43 14.382 14.335 14.28 14.205 14.11 14.007 13.9 13.782 13.658 13.538 13.425 13.313 13.208 13.118 13.035 12.95 12.855 12.753 12.653 12.642 12.672 12.622 12.54 12.412 12.27 12.13 11.975 11.848 11.745 11.708 11.707 11.645 11.535 11.453 11.418 11.405 11.405 11.43 11.472 11.515 11.607 11.73 11.732 11.58 11.372 11.167 11.015 10.927 10.852 10.778 10.708 10.658 10.625 10.595 10.57 10.583 10.64 10.707 10.745 10.755 10.768 10.78 10.79 10.823 10.888 10.958 11.073 11.23 11.31 11.292 11.167 10.95 10.748 10.59 10.47 10.37 10.28 10.223 10.243 10.317 10.362 10.37 10.412 10.297 10 9.823 9.755 9.69 9.585 9.45 9.335 9.248 9.173 9.1 9.012 8.915 8.818 8.753 8.773 8.762 8.673 8.575 8.483 8.443 8.488 8.585 8.63 8.565 8.475 8.42 8.39 8.455 8.59 8.738 8.9 8.955 8.912 8.815 8.64 8.473 8.363 8.315 8.318 8.333 8.35 8.378 8.495 8.675 8.837 9.002 9.165 9.305 9.29 9.13 8.958 8.785 8.615 8.513 8.5 8.508 8.545 8.617 8.67 8.697 8.685 8.683 8.725 8.76 8.79 8.822 8.85 8.857 8.855 8.85 8.845 8.84 8.775 8.66 8.58 8.522 8.473 8.49 8.558 8.638 8.733 8.848 9.007 9.11 9.095 9.058 9.055 9.078 9.1 9.122 9.145 9.165 9.177 9.19 9.227 9.282 9.337
15.39 15.35 15.313 15.275 15.235 15.195 15.145 15.088 15.033 14.977 14.923 14.87 14.815 14.755 14.677 14.577 14.475 14.375 14.3 14.25 14.205 14.157 14.08 13.975 13.865 13.755 13.64 13.518 13.398 13.28 13.173 13.083 13 12.92 12.832 12.732 12.63 12.535 12.485 12.44 12.358 12.275 12.172 12.062 11.935 11.788 11.693 11.675 11.698 11.705 11.645 11.532 11.418 11.323 11.28 11.295 11.335 11.375 11.415 11.46 11.502 11.495 11.39 11.23 11.067 10.925 10.837 10.772 10.695 10.615 10.56 10.53 10.5 10.483 10.515 10.587 10.655 10.69 10.7 10.713 10.725 10.735 10.768 10.835 10.917 11.05 11.227 11.335 11.272 11.07 10.84 10.655 10.528 10.425 10.325 10.228 10.185 10.22 10.252 10.205 10.105 10.05 9.965 9.825 9.73 9.665 9.6 9.51 9.405 9.315 9.267 9.26 9.247 9.202 9.105 8.94 8.78 8.713 8.65 8.545 8.445 8.388 8.432 8.54 8.64 8.662 8.577 8.48 8.415 8.37 8.43 8.633 8.895 9.057 9.065 9.025 8.965 8.832 8.64 8.455 8.343 8.325 8.348 8.375 8.39 8.408 8.478 8.613 8.775 8.935 9.095 9.137 9.015 8.842 8.67 8.52 8.478 8.5 8.523 8.613 8.72 8.777 8.8 8.765 8.743 8.783 8.825 8.86 8.895 8.927 8.942 8.945 8.94 8.935 8.922 8.762 8.588 8.535 8.495 8.505 8.608 8.757 8.892 8.992 9.092 9.172 9.165 9.115 9.07 9.063 9.085 9.105 9.128 9.152 9.175 9.225 9.277 9.33 9.412 9.495
