ncols         200
nrows         81
xllcorner     544000
yllcorner     258580
cellsize      5
NODATA_value  -9999.0
11.615 11.6 11.587 11.56 11.518 11.493 11.487 11.48 11.467 11.45 11.455 11.44 11.363 11.283 11.295 11.38 11.46 11.532 11.585 11.612 11.622 11.617 11.565 11.473 11.378 11.29 11.225 11.178 11.135 11.093 11.05 11.023 11.015 11.02 11.005 10.973 10.96 10.965 10.917 10.802 10.652 10.493 10.44 10.467 10.472 10.46 10.435 10.413 10.4 10.39 10.375 10.347 10.305 10.258 10.212 10.165 10.112 10.045 9.98 9.925 9.87 9.82 9.75 9.65 9.535 9.423 9.35 9.333 9.337 9.337 9.315 9.272 9.225 9.178 9.185 9.252 9.307 9.325 9.31 9.28 9.253 9.23 9.195 9.138 9.075 9.02 8.988 8.983 8.982 8.953 8.988 9.095 9.15 9.152 9.12 9.062 8.985 8.898 8.81 8.718 8.625 8.635 8.642 8.54 8.435 8.345 8.263 8.193 8.1 7.98 7.87 7.76 7.647 7.535 7.448 7.395 7.347 7.285 7.23 7.193 7.16 7.148 7.18 7.237 7.267 7.26 7.212 7.128 7.115 7.145 7.128 7.105 7.098 7.11 7.125 7.135 7.127 7.092 7.088 7.192 7.19 7.025 6.837 6.607 6.085 5.575 5.47 5.47 5.7 6.387 6.945 7.027 6.992 6.952 6.925 6.915 6.907 6.895 6.882 6.872 6.845 6.81 6.777 6.732 6.645 6.528 6.425 6.338 6.263 6.185 6.128 6.098 6.075 6.083 6.165 6.31 6.465 6.632 6.81 6.97 7.085 7.18 7.22 6.987 6.537 6.06 5.743 5.655 5.62 5.598 5.593 5.623 5.683 5.75 5.797 5.81 5.81 5.815 5.675 5.42
11.703 11.69 11.672 11.645 11.608 11.585 11.577 11.56 11.537 11.515 11.535 11.557 11.5 11.418 11.43 11.517 11.6 11.647 11.655 11.66 11.665 11.657 11.61 11.528 11.44 11.36 11.303 11.255 11.208 11.165 11.145 11.157 11.177 11.19 11.175 11.13 11.093 11.07 11 10.877 10.745 10.608 10.55 10.555 10.54 10.52 10.495 10.465 10.44 10.425 10.407 10.385 10.355 10.312 10.267 10.215 10.147 10.073 10.01 9.958 9.905 9.855 9.797 9.725 9.632 9.525 9.425 9.36 9.343 9.337 9.307 9.26 9.21 9.158 9.14 9.18 9.212 9.215 9.2 9.17 9.14 9.112 9.072 9.015 8.96 8.91 8.865 8.847 8.827 8.768 8.785 8.925 9.055 9.097 9.065 8.995 8.91 8.822 8.735 8.642 8.55 8.588 8.645 8.56 8.443 8.34 8.25 8.163 8.07 7.965 7.855 7.745 7.637 7.53 7.425 7.345 7.28 7.208 7.145 7.103 7.068 7.05 7.075 7.105 7.1 7.08 7.035 6.98 7.025 7.107 7.112 7.103 7.115 7.132 7.145 7.155 7.165 7.162 7.15 7.257 7.272 7.047 6.765 6.255 5.685 5.47 5.47 5.628 6.23 6.87 7.052 7.007 6.937 6.86 6.837 6.872 6.907 6.92 6.91 6.887 6.853 6.82 6.785 6.723 6.633 6.543 6.47 6.41 6.342 6.245 6.228 6.243 6.18 6.123 6.17 6.31 6.453 6.605 6.788 6.985 7.157 7.245 7.21 6.992 6.575 6.08 5.788 5.725 5.685 5.637 5.593 5.608 5.67 5.733 5.78 5.795 5.795 5.787 5.617 5.295
11.792 11.777 11.755 11.725 11.692 11.667 11.647 11.62 11.59 11.58 11.623 11.675 11.64 11.555 11.565 11.65 11.715 11.725 11.71 11.712 11.71 11.692 11.66 11.6 11.515 11.435 11.378 11.332 11.285 11.248 11.248 11.275 11.302 11.32 11.305 11.26 11.215 11.162 11.067 10.942 10.815 10.698 10.64 10.623 10.6 10.578 10.55 10.522 10.495 10.47 10.445 10.417 10.392 10.362 10.315 10.25 10.175 10.1 10.04 9.99 9.94 9.89 9.832 9.77 9.702 9.62 9.53 9.438 9.37 9.335 9.295 9.245 9.195 9.143 9.105 9.1 9.105 9.105 9.09 9.06 9.028 8.995 8.953 8.9 8.85 8.803 8.755 8.715 8.663 8.588 8.59 8.718 8.89 9.007 9.002 8.923 8.835 8.745 8.655 8.565 8.475 8.538 8.645 8.585 8.465 8.332 8.225 8.142 8.047 7.945 7.835 7.725 7.62 7.515 7.387 7.278 7.205 7.13 7.065 7.02 6.978 6.948 6.945 6.94 6.92 6.9 6.858 6.853 6.945 7.06 7.107 7.118 7.14 7.155 7.165 7.177 7.19 7.2 7.195 7.292 7.392 7.07 6.38 5.738 5.47 5.47 5.568 6.098 6.765 6.985 6.925 6.835 6.737 6.605 6.565 6.645 6.722 6.777 6.857 6.907 6.878 6.843 6.808 6.75 6.675 6.61 6.55 6.49 6.417 6.313 6.378 6.49 6.425 6.32 6.298 6.393 6.52 6.663 6.843 7.045 7.222 7.18 6.967 6.785 6.522 6.108 5.84 5.792 5.74 5.675 5.613 5.618 5.68 5.74 5.787 5.805 5.808 5.787 5.595 5.258
11.852 11.837 11.812 11.78 11.752 11.73 11.705 11.675 11.645 11.655 11.718 11.785 11.772 11.695 11.703 11.77 11.802 11.787 11.765 11.76 11.74 11.71 11.692 11.665 11.595 11.515 11.455 11.408 11.368 11.34 11.335 11.355 11.385 11.405 11.39 11.345 11.292 11.225 11.122 10.998 10.878 10.775 10.72 10.695 10.67 10.645 10.608 10.573 10.547 10.517 10.48 10.445 10.42 10.395 10.347 10.28 10.205 10.13 10.07 10.02 9.97 9.915 9.855 9.795 9.735 9.677 9.605 9.512 9.418 9.345 9.295 9.245 9.195 9.145 9.105 9.085 9.078 9.068 9.048 9.02 8.978 8.925 8.885 8.848 8.8 8.755 8.708 8.643 8.568 8.495 8.468 8.553 8.718 8.875 8.937 8.872 8.763 8.665 8.578 8.49 8.4 8.488 8.647 8.602 8.45 8.27 8.158 8.107 8.022 7.922 7.815 7.705 7.597 7.467 7.308 7.19 7.12 7.05 6.99 6.945 6.9 6.835 6.743 6.7 6.717 6.717 6.698 6.743 6.87 7.01 7.107 7.145 7.165 7.18 7.19 7.195 7.195 7.192 7.18 7.265 7.449 6.802 5.768 5.47 5.47 5.508 6.038 6.727 6.96 6.867 6.68 6.575 6.455 6.278 6.215 6.295 6.375 6.5 6.72 6.905 6.937 6.9 6.863 6.815 6.752 6.69 6.63 6.57 6.49 6.428 6.537 6.667 6.64 6.55 6.475 6.52 6.65 6.803 6.992 7.157 7.182 6.962 6.685 6.505 6.328 6.08 5.895 5.832 5.762 5.685 5.62 5.63 5.697 5.76 5.807 5.832 5.842 5.822 5.625 5.275
11.862 11.857 11.84 11.808 11.785 11.775 11.757 11.73 11.71 11.74 11.813 11.885 11.897 11.835 11.825 11.87 11.877 11.845 11.812 11.79 11.755 11.72 11.705 11.702 11.665 11.593 11.533 11.488 11.455 11.435 11.425 11.438 11.462 11.482 11.467 11.417 11.355 11.277 11.175 11.055 10.948 10.855 10.798 10.773 10.75 10.725 10.68 10.628 10.593 10.562 10.52 10.475 10.443 10.415 10.367 10.302 10.232 10.158 10.095 10.045 9.99 9.925 9.86 9.8 9.748 9.705 9.645 9.557 9.45 9.363 9.313 9.267 9.22 9.17 9.135 9.127 9.127 9.117 9.087 9.037 8.97 8.893 8.865 8.855 8.812 8.767 8.707 8.627 8.545 8.47 8.42 8.445 8.573 8.732 8.832 8.837 8.755 8.638 8.528 8.423 8.333 8.443 8.612 8.545 8.355 8.158 8.06 8.045 7.99 7.9 7.795 7.685 7.55 7.367 7.203 7.103 7.035 6.975 6.92 6.875 6.83 6.73 6.56 6.43 6.413 6.49 6.588 6.688 6.825 6.97 7.085 7.157 7.187 7.187 7.182 7.172 7.157 7.14 7.123 7.202 7.197 6.288 5.471 5.47 5.47 6 6.844 7.03 6.877 6.7 6.455 6.317 6.155 5.933 5.865 5.945 6.073 6.293 6.565 6.827 6.972 6.977 6.937 6.885 6.825 6.767 6.71 6.65 6.59 6.582 6.655 6.732 6.767 6.75 6.673 6.668 6.783 6.95 7.1 7.127 7.002 6.74 6.503 6.355 6.2 6.038 5.923 5.845 5.77 5.695 5.633 5.645 5.712 5.775 5.82 5.85 5.87 5.855 5.66 5.335
11.86 11.86 11.855 11.835 11.818 11.81 11.8 11.783 11.785 11.835 11.908 11.985 12.02 11.965 11.923 11.93 11.917 11.885 11.847 11.807 11.765 11.73 11.715 11.72 11.712 11.665 11.61 11.575 11.55 11.53 11.512 11.515 11.535 11.555 11.54 11.482 11.412 11.332 11.23 11.12 11.025 10.938 10.878 10.85 10.832 10.81 10.762 10.7 10.648 10.608 10.565 10.515 10.473 10.435 10.382 10.32 10.255 10.183 10.12 10.065 10 9.93 9.865 9.81 9.77 9.737 9.685 9.59 9.463 9.37 9.325 9.285 9.242 9.195 9.165 9.16 9.15 9.13 9.087 9.02 8.94 8.853 8.833 8.85 8.825 8.772 8.695 8.61 8.525 8.445 8.393 8.385 8.455 8.582 8.68 8.737 8.747 8.67 8.545 8.413 8.283 8.358 8.49 8.387 8.193 8.035 7.97 7.957 7.935 7.875 7.772 7.635 7.45 7.243 7.098 7.02 6.96 6.905 6.85 6.805 6.757 6.637 6.455 6.325 6.29 6.42 6.605 6.705 6.81 6.937 7.045 7.127 7.142 7.12 7.117 7.112 7.1 7.082 7.068 7.137 6.647 5.775 5.47 5.47 5.941 6.905 7.242 6.987 6.775 6.505 6.23 6.04 5.835 5.59 5.52 5.645 5.868 6.143 6.42 6.697 6.935 7.035 7.01 6.955 6.895 6.827 6.75 6.675 6.635 6.647 6.695 6.757 6.817 6.862 6.857 6.84 6.922 7.042 7.05 6.945 6.8 6.582 6.39 6.295 6.187 6.045 5.928 5.852 5.778 5.703 5.645 5.66 5.727 5.79 5.835 5.865 5.89 5.882 5.713 5.475
11.893 11.885 11.878 11.865 11.853 11.845 11.84 11.833 11.873 11.96 12.032 12.092 12.125 12.08 12 11.955 11.928 11.902 11.867 11.823 11.778 11.74 11.728 11.732 11.735 11.722 11.69 11.655 11.625 11.595 11.57 11.573 11.597 11.622 11.607 11.542 11.465 11.385 11.293 11.198 11.11 11.023 10.962 10.932 10.912 10.89 10.84 10.772 10.71 10.655 10.605 10.555 10.507 10.455 10.395 10.335 10.272 10.205 10.14 10.075 10.005 9.935 9.875 9.83 9.792 9.757 9.7 9.595 9.465 9.372 9.322 9.277 9.235 9.185 9.15 9.132 9.1 9.06 9.01 8.947 8.877 8.803 8.783 8.817 8.82 8.762 8.677 8.592 8.505 8.423 8.365 8.355 8.385 8.45 8.525 8.582 8.635 8.647 8.572 8.42 8.233 8.24 8.32 8.195 8.02 7.925 7.895 7.875 7.86 7.827 7.717 7.53 7.32 7.125 7.005 6.945 6.89 6.838 6.783 6.735 6.675 6.58 6.493 6.475 6.47 6.565 6.717 6.775 6.835 6.915 6.995 7.067 7.062 7.005 6.99 7 7.002 7.002 7.002 6.662 5.898 5.47 5.47 5.965 6.972 7.407 7.172 6.895 6.623 6.325 6.043 5.78 5.51 5.25 5.223 5.443 5.715 5.995 6.275 6.555 6.838 7.042 7.065 6.985 6.905 6.815 6.715 6.633 6.608 6.645 6.708 6.772 6.835 6.895 6.947 6.975 6.995 6.965 6.85 6.71 6.57 6.403 6.263 6.185 6.118 6.033 5.938 5.86 5.785 5.71 5.655 5.67 5.74 5.805 5.85 5.883 5.913 5.927 5.84 5.703
11.99 11.978 11.963 11.933 11.905 11.895 11.89 11.888 11.94 12.055 12.145 12.185 12.205 12.177 12.083 11.993 11.945 11.92 11.885 11.84 11.795 11.758 11.74 11.735 11.737 11.742 11.732 11.702 11.665 11.625 11.6 11.61 11.642 11.665 11.652 11.6 11.525 11.445 11.36 11.272 11.187 11.095 11.018 10.975 10.95 10.925 10.875 10.805 10.742 10.687 10.635 10.585 10.53 10.465 10.4 10.34 10.28 10.217 10.15 10.08 10.01 9.938 9.865 9.81 9.77 9.727 9.66 9.555 9.432 9.33 9.265 9.215 9.167 9.102 9.055 9.035 9 8.96 8.907 8.843 8.78 8.73 8.725 8.765 8.775 8.722 8.647 8.57 8.487 8.403 8.338 8.325 8.34 8.305 8.292 8.345 8.395 8.447 8.462 8.36 8.17 8.135 8.152 8.013 7.888 7.848 7.83 7.81 7.787 7.722 7.582 7.397 7.193 7.02 6.93 6.878 6.825 6.785 6.773 6.768 6.72 6.69 6.72 6.739 6.7 6.727 6.817 6.85 6.872 6.895 6.935 7 7.002 6.923 6.853 6.835 6.847 6.865 6.8 6.098 5.47 5.47 5.933 6.945 7.549 7.442 7.123 6.893 6.678 6.4 6.12 5.813 5.485 5.238 5.273 5.53 5.813 6.098 6.383 6.673 6.965 7.142 7.107 6.973 6.85 6.745 6.645 6.585 6.6 6.658 6.722 6.785 6.845 6.908 6.97 7.032 7.042 6.955 6.82 6.678 6.533 6.38 6.248 6.163 6.105 6.053 5.99 5.918 5.838 5.755 5.705 5.73 5.805 5.88 5.933 5.97 6.013 6.06 6.04 5.945
12.122 12.112 12.09 12.04 11.983 11.955 11.948 11.948 11.978 12.08 12.187 12.245 12.28 12.267 12.182 12.063 11.978 11.94 11.905 11.86 11.82 11.788 11.76 11.738 11.733 11.735 11.732 11.72 11.69 11.65 11.63 11.645 11.667 11.67 11.662 11.642 11.59 11.515 11.43 11.34 11.247 11.145 11.05 10.988 10.953 10.925 10.875 10.808 10.753 10.705 10.655 10.602 10.537 10.465 10.4 10.34 10.28 10.22 10.157 10.09 10.02 9.945 9.853 9.765 9.71 9.665 9.595 9.487 9.368 9.255 9.17 9.115 9.05 8.965 8.92 8.915 8.892 8.855 8.802 8.743 8.695 8.665 8.665 8.695 8.697 8.65 8.585 8.517 8.447 8.372 8.313 8.3 8.255 8.075 7.975 8.025 8.078 8.135 8.2 8.212 8.097 8.03 7.985 7.86 7.798 7.782 7.765 7.745 7.682 7.542 7.38 7.225 7.055 6.93 6.87 6.82 6.803 6.827 6.875 6.912 6.822 6.37 6.025 6.03 6.008 6.4 6.842 6.875 6.872 6.87 6.883 6.93 6.94 6.867 6.773 6.7 6.68 6.692 6.337 5.723 5.471 5.898 6.837 7.442 7.552 7.405 7.125 7.037 6.955 6.71 6.417 6.08 5.733 5.578 5.678 5.895 6.173 6.465 6.755 7.047 7.275 7.302 7.167 7.003 6.848 6.71 6.593 6.56 6.61 6.675 6.74 6.803 6.865 6.93 6.995 7.06 7.105 7.09 7.002 6.865 6.723 6.55 6.357 6.24 6.182 6.127 6.075 6.017 5.945 5.87 5.848 5.893 5.963 6.038 6.097 6.145 6.2 6.26 6.255 6.173
12.252 12.247 12.212 12.15 12.08 12.028 12.005 12.008 12.028 12.1 12.197 12.275 12.337 12.355 12.285 12.155 12.038 11.965 11.923 11.883 11.853 11.825 11.795 11.763 11.735 11.728 11.727 11.72 11.702 11.67 11.658 11.672 11.675 11.665 11.658 11.652 11.632 11.58 11.497 11.4 11.295 11.185 11.093 11.023 10.965 10.925 10.877 10.818 10.77 10.725 10.672 10.612 10.542 10.468 10.4 10.34 10.283 10.225 10.162 10.095 10.027 9.955 9.86 9.753 9.665 9.605 9.532 9.422 9.303 9.188 9.085 9.012 8.915 8.813 8.78 8.78 8.772 8.747 8.703 8.658 8.63 8.61 8.605 8.617 8.61 8.565 8.503 8.438 8.38 8.33 8.288 8.25 8.095 7.808 7.668 7.708 7.765 7.825 7.89 7.955 7.957 7.915 7.835 7.753 7.73 7.715 7.695 7.637 7.502 7.328 7.158 7.008 6.935 6.908 6.86 6.843 6.892 6.68 6.255 6.091 6.243 6.12 5.853 5.57 5.246 5.608 6.265 6.667 6.83 6.847 6.85 6.872 6.877 6.812 6.717 6.623 6.55 6.282 5.755 5.471 5.865 6.73 7.287 7.45 7.527 7.367 7.165 7.175 7.19 7.012 6.682 6.283 6 6.003 6.148 6.315 6.553 6.84 7.13 7.377 7.467 7.39 7.243 7.078 6.933 6.813 6.683 6.62 6.648 6.7 6.765 6.83 6.895 6.96 7.025 7.087 7.13 7.15 7.14 7.056 6.94 6.505 6.216 6.282 6.23 6.193 6.158 6.11 6.058 6.028 6.05 6.105 6.162 6.215 6.265 6.33 6.4 6.46 6.467 6.41
12.372 12.37 12.33 12.262 12.192 12.123 12.075 12.07 12.09 12.133 12.205 12.282 12.355 12.41 12.372 12.25 12.12 12.008 11.945 11.915 11.89 11.865 11.832 11.797 11.76 11.733 11.723 11.715 11.705 11.688 11.678 11.68 11.678 11.67 11.663 11.658 11.652 11.622 11.545 11.44 11.33 11.222 11.135 11.065 10.995 10.935 10.882 10.832 10.79 10.745 10.687 10.617 10.545 10.47 10.4 10.34 10.285 10.23 10.165 10.095 10.027 9.957 9.867 9.76 9.653 9.563 9.472 9.36 9.24 9.122 9.007 8.897 8.758 8.653 8.638 8.645 8.653 8.648 8.618 8.588 8.57 8.55 8.542 8.537 8.517 8.48 8.433 8.383 8.338 8.3 8.262 8.182 7.945 7.595 7.393 7.398 7.46 7.523 7.59 7.655 7.718 7.747 7.715 7.678 7.662 7.645 7.59 7.46 7.288 7.113 6.943 6.883 6.968 7.01 6.965 6.957 6.547 5.841 5.786 6.01 5.978 5.897 5.852 5.575 5.258 5.233 5.483 5.943 6.44 6.737 6.78 6.82 6.822 6.757 6.655 6.55 6.23 5.715 5.471 5.83 6.622 7.135 7.29 7.44 7.502 7.343 7.218 7.29 7.372 7.247 6.87 6.488 6.37 6.488 6.633 6.778 6.958 7.21 7.48 7.615 7.585 7.495 7.388 7.268 7.168 7.08 6.935 6.818 6.785 6.778 6.803 6.858 6.923 6.988 7.052 7.115 7.155 7.175 7.137 4.664 2.153 1.686 3.803 6.301 6.295 6.29 6.27 6.225 6.185 6.195 6.247 6.302 6.357 6.397 6.415 6.465 6.55 6.632 6.682 6.672
12.46 12.447 12.402 12.342 12.277 12.207 12.145 12.125 12.145 12.16 12.188 12.245 12.315 12.385 12.385 12.29 12.165 12.038 11.963 11.937 11.912 11.887 11.86 11.827 11.79 11.75 11.728 11.72 11.713 11.705 11.708 11.713 11.71 11.708 11.703 11.698 11.685 11.64 11.557 11.455 11.347 11.243 11.155 11.085 11.015 10.945 10.883 10.835 10.795 10.75 10.69 10.617 10.542 10.468 10.393 10.325 10.27 10.215 10.15 10.08 10.012 9.945 9.865 9.767 9.66 9.555 9.41 9.245 9.117 9 8.88 8.74 8.613 8.57 8.583 8.598 8.613 8.6 8.553 8.51 8.487 8.472 8.46 8.44 8.415 8.395 8.37 8.337 8.3 8.26 8.22 8.135 7.912 7.565 7.288 7.218 7.265 7.33 7.398 7.463 7.53 7.593 7.62 7.612 7.598 7.582 7.518 7.378 7.213 7.048 6.923 7.013 7.15 7.117 6.617 6.148 5.686 5.628 6.432 6.819 6.142 5.338 5.193 5.205 5.225 5.245 5.268 5.36 5.703 6.265 6.605 6.68 6.71 6.657 6.552 6.227 5.715 5.47 5.688 6.405 6.98 7.13 7.28 7.43 7.48 7.355 7.305 7.402 7.465 7.355 7.008 6.773 6.833 6.975 7.117 7.262 7.41 7.607 7.76 7.75 7.688 7.685 7.67 7.598 7.522 7.402 7.218 7.07 7.018 6.978 6.938 6.928 6.955 7.015 7.08 7.142 7.179 6.485 3.961 -0.266 -2.792 -3.036 1.096 5.88 6.42 6.43 6.41 6.365 6.34 6.37 6.43 6.487 6.542 6.58 6.575 6.575 6.64 6.742 6.827 6.857
12.515 12.485 12.432 12.38 12.325 12.265 12.2 12.173 12.182 12.172 12.16 12.18 12.235 12.305 12.32 12.262 12.165 12.043 11.965 11.94 11.918 11.898 11.877 11.847 11.81 11.77 11.745 11.735 11.73 11.725 11.74 11.767 11.775 11.772 11.767 11.76 11.72 11.64 11.55 11.455 11.352 11.248 11.16 11.09 11.02 10.95 10.883 10.828 10.782 10.735 10.677 10.612 10.54 10.465 10.385 10.303 10.238 10.182 10.12 10.05 9.985 9.922 9.85 9.765 9.667 9.56 9.37 9.128 8.948 8.815 8.695 8.568 8.53 8.585 8.617 8.632 8.63 8.58 8.505 8.443 8.398 8.373 8.355 8.327 8.303 8.295 8.29 8.27 8.235 8.197 8.16 8.085 7.932 7.662 7.36 7.208 7.205 7.25 7.305 7.37 7.44 7.495 7.527 7.54 7.535 7.525 7.517 7.442 7.295 7.175 7.153 7.222 7.214 6.677 5.743 5.366 5.751 6.465 6.872 6.9 6.058 5.193 5.203 5.22 5.24 5.26 5.283 5.305 5.325 5.62 6.16 6.452 6.497 6.482 6.205 5.71 5.47 5.47 6.038 6.767 6.992 7.125 7.27 7.42 7.457 7.395 7.412 7.467 7.46 7.387 7.22 7.175 7.305 7.422 7.535 7.647 7.762 7.865 7.885 7.823 7.808 7.897 7.977 7.952 7.857 7.697 7.49 7.31 7.245 7.235 7.185 7.12 7.083 7.078 7.11 7.168 5.777 2.57 -1.025 -2.806 -2.895 -3.114 -0.102 4.783 6.559 6.57 6.547 6.503 6.5 6.553 6.615 6.672 6.727 6.762 6.752 6.723 6.738 6.818 6.9 6.94
12.562 12.515 12.46 12.41 12.36 12.307 12.248 12.213 12.2 12.175 12.155 12.15 12.17 12.225 12.24 12.2 12.142 12.045 11.97 11.945 11.928 11.912 11.89 11.86 11.827 11.79 11.765 11.755 11.75 11.745 11.76 11.8 11.83 11.837 11.832 11.8 11.722 11.63 11.54 11.45 11.352 11.253 11.168 11.095 11.025 10.955 10.888 10.825 10.77 10.72 10.662 10.6 10.535 10.465 10.385 10.295 10.215 10.153 10.09 10.023 9.96 9.9 9.83 9.752 9.67 9.56 9.357 9.085 8.838 8.648 8.505 8.445 8.515 8.615 8.655 8.655 8.615 8.54 8.465 8.398 8.335 8.285 8.248 8.21 8.188 8.188 8.192 8.187 8.165 8.132 8.097 8.022 7.895 7.712 7.455 7.26 7.203 7.208 7.24 7.288 7.347 7.395 7.425 7.45 7.462 7.46 7.487 7.495 7.425 7.347 7.312 7.25 6.71 5.776 5.521 5.993 6.587 6.935 6.985 7.057 6.248 5.301 5.221 5.24 5.26 5.28 5.3 5.463 5.518 5.396 5.61 6.055 6.288 6.337 5.915 5.47 5.47 5.813 6.527 6.947 7.043 7.148 7.27 7.41 7.452 7.443 7.472 7.46 7.43 7.41 7.402 7.46 7.56 7.647 7.73 7.812 7.872 7.882 7.875 7.883 7.955 8.085 8.21 8.262 8.165 7.97 7.76 7.558 7.463 7.465 7.445 7.39 7.325 7.26 7.225 5.003 1.039 -1.82 -3.004 -3.008 -3.023 -3.142 -1.541 3.392 6.696 6.71 6.685 6.65 6.673 6.737 6.8 6.858 6.915 6.947 6.93 6.895 6.873 6.905 6.97 7.007
12.597 12.542 12.49 12.44 12.387 12.335 12.282 12.24 12.208 12.175 12.155 12.145 12.14 12.158 12.155 12.118 12.08 12.023 11.975 11.957 11.942 11.927 11.902 11.87 11.84 11.808 11.785 11.775 11.767 11.763 11.78 11.82 11.86 11.89 11.875 11.802 11.71 11.617 11.525 11.435 11.342 11.253 11.173 11.1 11.03 10.96 10.893 10.828 10.765 10.708 10.648 10.585 10.525 10.46 10.382 10.295 10.208 10.13 10.06 9.998 9.94 9.877 9.807 9.732 9.657 9.55 9.342 9.07 8.8 8.548 8.388 8.408 8.537 8.645 8.682 8.65 8.58 8.5 8.423 8.353 8.29 8.22 8.148 8.095 8.073 8.075 8.082 8.087 8.085 8.065 8.032 7.957 7.83 7.69 7.505 7.335 7.24 7.203 7.215 7.24 7.262 7.285 7.315 7.34 7.362 7.382 7.42 7.472 7.477 7.4 7.285 7.162 6.223 5.656 6.262 6.78 7.022 7.095 7.185 7.237 6.832 6.308 6.18 5.958 5.518 5.296 5.316 5.735 6.172 6.152 5.755 5.823 6.262 6.137 5.73 5.47 5.471 6.19 6.952 7.038 7.123 7.21 7.305 7.415 7.472 7.485 7.49 7.473 7.465 7.465 7.485 7.538 7.61 7.69 7.772 7.832 7.855 7.878 7.915 7.995 8.15 8.31 8.435 8.5 8.422 8.24 8.035 7.825 7.695 7.678 7.685 7.657 7.597 7.531 4.996 0.075 -2.702 -3.119 -3.24 -3.215 -3.163 -3.135 -2.515 2.415 6.818 6.85 6.825 6.813 6.858 6.92 6.98 7.042 7.102 7.127 7.107 7.075 7.04 7.025 7.045 7.073
12.617 12.562 12.51 12.46 12.405 12.35 12.303 12.263 12.225 12.18 12.15 12.14 12.13 12.125 12.108 12.073 12.038 12.003 11.978 11.962 11.947 11.935 11.912 11.88 11.85 11.82 11.795 11.78 11.772 11.768 11.785 11.825 11.865 11.887 11.847 11.76 11.67 11.587 11.505 11.415 11.33 11.255 11.185 11.115 11.042 10.968 10.898 10.833 10.768 10.705 10.645 10.585 10.523 10.455 10.38 10.295 10.205 10.115 10.035 9.973 9.915 9.85 9.777 9.702 9.63 9.53 9.327 9.055 8.785 8.513 8.358 8.408 8.55 8.667 8.685 8.62 8.54 8.46 8.38 8.307 8.235 8.14 8.048 7.988 7.958 7.955 7.965 7.975 7.982 7.982 7.965 7.892 7.765 7.622 7.475 7.347 7.255 7.2 7.177 7.162 7.137 7.132 7.16 7.187 7.218 7.265 7.325 7.382 7.4 7.34 7.227 6.657 5.738 6.03 6.882 7.1 7.22 7.315 7.405 7.455 7.4 7.297 7.214 6.942 6.45 6.175 5.973 6.215 6.767 6.854 6.445 5.978 6.037 5.872 5.513 5.47 5.885 6.695 7.13 7.202 7.265 7.325 7.387 7.447 7.495 7.53 7.545 7.548 7.55 7.553 7.575 7.62 7.675 7.738 7.81 7.863 7.905 7.973 8.048 8.163 8.367 8.557 8.675 8.692 8.595 8.457 8.292 8.1 7.935 7.885 7.905 7.91 7.87 7.706 2.545 -2.676 -3.082 -3.362 -3.462 -3.405 -3.297 -3.125 -2.7 2.215 6.928 6.99 6.97 6.98 7.04 7.1 7.163 7.227 7.287 7.307 7.285 7.23 7.165 7.127 7.123 7.143
12.633 12.575 12.52 12.47 12.415 12.365 12.325 12.287 12.245 12.183 12.14 12.13 12.123 12.122 12.107 12.073 12.04 12.01 11.985 11.965 11.948 11.935 11.915 11.885 11.855 11.825 11.798 11.778 11.768 11.76 11.775 11.812 11.835 11.827 11.775 11.69 11.61 11.553 11.485 11.4 11.328 11.267 11.202 11.13 11.055 10.975 10.903 10.838 10.775 10.715 10.655 10.595 10.527 10.455 10.38 10.295 10.202 10.105 10.018 9.95 9.887 9.817 9.743 9.67 9.602 9.51 9.312 9.04 8.77 8.498 8.345 8.393 8.532 8.642 8.637 8.562 8.485 8.407 8.33 8.247 8.15 8.035 7.943 7.885 7.843 7.83 7.84 7.85 7.86 7.872 7.865 7.782 7.657 7.535 7.397 7.262 7.17 7.11 7.052 7 6.955 6.948 6.973 7.005 7.058 7.13 7.207 7.27 7.292 7.27 7.194 6.178 5.279 6.085 6.922 7.11 7.28 7.422 7.56 7.64 7.585 7.47 7.38 7.3 7.217 7.135 6.887 6.8 6.892 6.83 6.755 6.375 5.9 5.618 5.47 5.47 6.32 7.197 7.255 7.31 7.355 7.392 7.425 7.45 7.477 7.537 7.607 7.635 7.635 7.638 7.663 7.71 7.76 7.813 7.883 7.965 8.045 8.12 8.195 8.33 8.58 8.8 8.885 8.845 8.725 8.605 8.48 8.332 8.168 8.095 8.115 8.122 8.01 5.198 -0.054 -2.604 -2.788 -3.247 -3.602 -3.585 -3.272 -2.424 -1.073 3.11 6.851 7.13 7.128 7.158 7.22 7.28 7.345 7.41 7.465 7.435 7.35 7.282 7.225 7.195 7.195 7.212
12.65 12.588 12.53 12.48 12.43 12.388 12.35 12.31 12.255 12.178 12.13 12.123 12.123 12.127 12.112 12.08 12.05 12.02 11.993 11.97 11.95 11.932 11.912 11.885 11.858 11.83 11.805 11.785 11.768 11.755 11.765 11.782 11.775 11.752 11.7 11.628 11.573 11.53 11.47 11.398 11.338 11.282 11.217 11.142 11.065 10.985 10.91 10.845 10.785 10.725 10.662 10.597 10.527 10.455 10.38 10.292 10.195 10.095 10.003 9.927 9.86 9.785 9.71 9.643 9.58 9.492 9.3 9.027 8.755 8.483 8.338 8.385 8.505 8.577 8.55 8.48 8.407 8.332 8.25 8.152 8.042 7.928 7.843 7.787 7.733 7.708 7.715 7.72 7.712 7.7 7.675 7.575 7.427 7.295 7.17 7.05 6.96 6.915 6.87 6.815 6.77 6.763 6.793 6.845 6.923 7.007 7.09 7.155 7.175 7.165 6.66 5.683 5.633 6.44 6.895 7.063 7.248 7.43 7.612 7.722 7.702 7.625 7.545 7.47 7.402 7.335 7.25 7.07 6.888 6.798 6.723 6.65 6.227 5.655 5.47 5.47 6.332 7.22 7.265 7.305 7.34 7.367 7.39 7.407 7.425 7.485 7.59 7.675 7.715 7.725 7.75 7.8 7.85 7.905 7.985 8.085 8.18 8.265 8.343 8.495 8.775 9.025 9.075 8.98 8.86 8.737 8.615 8.495 8.357 8.238 8.182 8.146 5.424 0.135 -2.455 -2.455 -2.453 -2.653 -3.194 -3.503 -2.271 0.363 2.806 4.388 6.098 7.254 7.29 7.34 7.4 7.452 7.502 7.552 7.552 7.452 7.348 7.31 7.288 7.268 7.263 7.263
12.667 12.602 12.542 12.492 12.45 12.41 12.37 12.325 12.26 12.178 12.128 12.12 12.122 12.125 12.112 12.085 12.055 12.025 11.998 11.975 11.955 11.932 11.91 11.885 11.86 11.835 11.81 11.79 11.77 11.752 11.742 11.73 11.708 11.683 11.64 11.588 11.545 11.505 11.455 11.4 11.35 11.297 11.232 11.155 11.072 10.99 10.917 10.855 10.795 10.732 10.665 10.595 10.525 10.455 10.375 10.28 10.18 10.08 9.982 9.898 9.825 9.75 9.678 9.617 9.56 9.477 9.287 9.012 8.74 8.468 8.325 8.373 8.472 8.505 8.455 8.385 8.317 8.24 8.142 8.035 7.928 7.823 7.743 7.687 7.63 7.588 7.565 7.543 7.508 7.468 7.425 7.312 7.135 6.963 6.813 6.693 6.62 6.62 6.673 6.68 6.613 6.588 6.638 6.715 6.8 6.883 6.968 7.035 7.055 6.615 5.693 5.583 6.372 6.85 6.963 7.09 7.265 7.45 7.63 7.727 7.725 7.702 7.665 7.62 7.582 7.537 7.402 7.13 6.883 6.763 6.69 6.617 6.31 5.755 5.47 5.47 6.31 7.192 7.255 7.287 7.31 7.33 7.348 7.363 7.38 7.425 7.518 7.632 7.73 7.792 7.84 7.89 7.942 7.995 8.07 8.175 8.282 8.382 8.475 8.645 8.922 9.16 9.192 9.087 8.977 8.857 8.735 8.612 8.487 8.33 8.16 7.453 2.242 -2.379 -2.42 -2.42 -2.34 -1.85 -1.395 -1.159 0.67 3.428 5.221 5.58 6.293 7.37 7.442 7.49 7.537 7.577 7.612 7.645 7.58 7.468 7.425 7.403 7.378 7.358 7.345 7.328
12.657 12.595 12.532 12.475 12.427 12.385 12.345 12.315 12.265 12.185 12.135 12.12 12.115 12.117 12.107 12.08 12.053 12.033 12.008 11.978 11.955 11.932 11.908 11.882 11.858 11.833 11.807 11.782 11.76 11.74 11.715 11.688 11.663 11.64 11.605 11.558 11.515 11.472 11.427 11.382 11.337 11.29 11.222 11.14 11.055 10.97 10.902 10.845 10.785 10.722 10.655 10.585 10.515 10.462 10.375 10.25 10.145 10.045 9.947 9.86 9.782 9.705 9.635 9.58 9.525 9.447 9.262 8.987 8.715 8.443 8.293 8.33 8.402 8.407 8.355 8.285 8.22 8.135 8.025 7.918 7.813 7.713 7.635 7.58 7.527 7.475 7.428 7.383 7.335 7.29 7.227 7.103 6.928 6.745 6.563 6.393 6.363 6.475 6.633 6.69 6.57 6.5 6.553 6.633 6.713 6.788 6.865 6.935 6.979 6.143 5.613 6.337 6.82 6.962 7.06 7.148 7.288 7.468 7.647 7.73 7.718 7.715 7.71 7.69 7.662 7.575 7.415 7.157 6.878 6.728 6.655 6.585 6.128 5.588 5.47 5.55 6.358 7.16 7.25 7.273 7.29 7.31 7.328 7.345 7.365 7.395 7.46 7.56 7.675 7.785 7.872 7.937 7.992 8.042 8.115 8.22 8.327 8.415 8.472 8.617 8.88 9.092 9.12 9.03 8.935 8.832 8.727 8.62 8.52 8.392 8.19 7.449 3.096 -1.522 -2.454 -2.372 -1.9 -0.767 0.627 1.636 2.966 4.319 5.24 6.265 7.119 7.48 7.542 7.59 7.625 7.66 7.695 7.687 7.613 7.553 7.532 7.508 7.485 7.468 7.453 7.435
12.62 12.56 12.497 12.435 12.378 12.325 12.28 12.267 12.255 12.195 12.145 12.125 12.113 12.112 12.1 12.075 12.058 12.05 12.025 11.98 11.95 11.93 11.905 11.88 11.855 11.83 11.802 11.77 11.745 11.725 11.7 11.668 11.64 11.617 11.577 11.528 11.483 11.438 11.392 11.347 11.302 11.257 11.19 11.1 11.013 10.928 10.863 10.812 10.755 10.695 10.63 10.563 10.513 10.492 10.405 10.24 10.105 10 9.903 9.815 9.735 9.655 9.585 9.53 9.477 9.405 9.225 8.95 8.675 8.405 8.245 8.263 8.302 8.29 8.25 8.185 8.115 8.017 7.903 7.8 7.695 7.598 7.525 7.47 7.42 7.373 7.327 7.282 7.235 7.17 7.072 6.947 6.795 6.618 6.43 6.275 6.333 6.56 6.765 6.79 6.605 6.498 6.54 6.613 6.688 6.76 6.833 6.892 6.655 6.02 6.168 6.772 6.935 7.072 7.165 7.235 7.33 7.485 7.657 7.725 7.718 7.73 7.73 7.7 7.61 7.427 7.26 7.11 6.873 6.693 6.62 6.557 6.018 5.488 5.47 5.693 6.44 7.065 7.235 7.315 7.335 7.355 7.375 7.395 7.42 7.453 7.485 7.53 7.61 7.715 7.822 7.915 7.987 8.045 8.12 8.217 8.285 8.31 8.313 8.43 8.687 8.9 8.93 8.84 8.75 8.66 8.578 8.513 8.465 8.385 8.2 8.107 6.413 1.729 -0.515 -0.731 -1.128 0.092 1.339 2.07 2.822 3.937 5.015 6.183 7.175 7.545 7.585 7.655 7.702 7.74 7.775 7.735 7.673 7.657 7.637 7.613 7.593 7.58 7.567 7.552
12.6 12.525 12.46 12.4 12.34 12.28 12.225 12.203 12.212 12.195 12.16 12.14 12.123 12.11 12.095 12.083 12.078 12.072 12.045 11.995 11.955 11.928 11.902 11.877 11.852 11.827 11.797 11.765 11.735 11.71 11.685 11.652 11.62 11.592 11.555 11.503 11.45 11.403 11.358 11.313 11.268 11.225 11.162 11.07 10.975 10.885 10.82 10.775 10.725 10.67 10.608 10.558 10.54 10.537 10.457 10.28 10.103 9.965 9.858 9.77 9.687 9.605 9.535 9.483 9.435 9.365 9.185 8.913 8.64 8.37 8.195 8.178 8.19 8.17 8.14 8.085 8.005 7.892 7.778 7.68 7.575 7.483 7.415 7.363 7.315 7.27 7.225 7.18 7.14 7.055 6.92 6.788 6.657 6.505 6.325 6.243 6.38 6.632 6.84 6.83 6.615 6.503 6.55 6.623 6.698 6.773 6.847 6.887 6.255 5.886 6.41 6.817 7.045 7.18 7.27 7.34 7.413 7.523 7.657 7.717 7.728 7.747 7.735 7.645 7.46 7.235 7.03 6.935 6.825 6.67 6.593 6.535 5.99 5.47 5.47 5.818 6.47 6.885 7.135 7.345 7.425 7.445 7.465 7.49 7.528 7.567 7.587 7.568 7.578 7.658 7.758 7.86 7.955 8.035 8.092 8.13 8.135 8.115 8.12 8.255 8.502 8.705 8.735 8.648 8.565 8.498 8.453 8.425 8.405 8.352 8.23 8.225 8.368 5.76 4.385 4.493 1.556 0.347 1.367 1.803 2.141 3.309 5.35 6.99 7.482 7.585 7.61 7.693 7.765 7.817 7.84 7.813 7.778 7.762 7.742 7.72 7.705 7.693 7.68 7.67
12.605 12.51 12.43 12.365 12.308 12.25 12.19 12.15 12.158 12.177 12.172 12.152 12.13 12.11 12.098 12.095 12.097 12.095 12.065 12.015 11.97 11.93 11.897 11.872 11.847 11.82 11.79 11.76 11.727 11.695 11.665 11.635 11.602 11.572 11.532 11.478 11.425 11.373 11.325 11.28 11.235 11.192 11.132 11.045 10.945 10.85 10.783 10.738 10.693 10.643 10.603 10.587 10.585 10.582 10.51 10.34 10.14 9.945 9.8 9.712 9.632 9.55 9.482 9.435 9.39 9.322 9.145 8.875 8.605 8.335 8.14 8.08 8.07 8.05 8.027 7.985 7.897 7.768 7.65 7.557 7.455 7.365 7.305 7.257 7.212 7.167 7.122 7.08 7.047 6.965 6.815 6.663 6.52 6.378 6.218 6.215 6.405 6.617 6.765 6.725 6.563 6.505 6.565 6.638 6.713 6.787 6.855 6.527 6.085 6.21 6.55 6.85 7.13 7.292 7.38 7.45 7.52 7.595 7.675 7.722 7.742 7.762 7.695 7.503 7.27 7.043 6.818 6.705 6.685 6.63 6.57 6.52 5.983 5.47 5.47 5.928 6.52 6.73 6.955 7.242 7.45 7.53 7.557 7.597 7.645 7.685 7.65 7.58 7.585 7.64 7.713 7.805 7.905 8 8.027 7.99 7.948 7.91 7.93 8.083 8.32 8.512 8.545 8.483 8.438 8.405 8.39 8.375 8.355 8.32 8.303 8.375 8.5 8.022 8.004 8.332 5.516 1.917 1.321 1.643 2.549 4.706 6.894 7.932 7.872 7.69 7.655 7.748 7.84 7.915 7.925 7.9 7.885 7.868 7.85 7.838 7.83 7.82 7.813 7.81
12.615 12.518 12.43 12.36 12.303 12.245 12.185 12.133 12.12 12.145 12.162 12.152 12.13 12.11 12.1 12.1 12.102 12.095 12.06 12.01 11.962 11.92 11.885 11.857 11.83 11.802 11.775 11.742 11.71 11.675 11.64 11.61 11.58 11.55 11.51 11.46 11.408 11.353 11.303 11.258 11.212 11.162 11.102 11.022 10.925 10.83 10.76 10.715 10.67 10.61 10.583 10.592 10.597 10.6 10.517 10.325 10.1 9.883 9.72 9.613 9.525 9.447 9.387 9.345 9.3 9.232 9.075 8.832 8.57 8.3 8.075 7.968 7.943 7.927 7.91 7.88 7.79 7.645 7.523 7.43 7.332 7.25 7.195 7.14 7.085 7.033 7.005 6.987 6.957 6.887 6.75 6.59 6.43 6.275 6.143 6.17 6.337 6.505 6.592 6.52 6.483 6.565 6.635 6.688 6.745 6.807 6.54 5.983 6.155 6.572 6.685 6.938 7.195 7.372 7.452 7.517 7.582 7.647 7.702 7.735 7.755 7.76 7.665 7.553 7.472 7.298 7.03 6.693 6.505 6.535 6.547 6.505 5.975 5.47 5.47 6.025 6.625 6.715 6.833 7.053 7.35 7.545 7.622 7.687 7.752 7.752 7.633 7.563 7.605 7.65 7.7 7.77 7.86 7.95 7.965 7.91 7.845 7.785 7.803 7.958 8.188 8.392 8.46 8.435 8.423 8.408 8.393 8.378 8.363 8.335 8.343 8.422 8.522 8.62 8.632 8.52 7.793 4.81 2.285 2.932 5.142 7.296 8.142 8.22 8.18 7.99 7.89 7.975 8.073 8.1 8.053 8.018 8 7.975 7.96 7.97 7.975 7.97 7.97 7.97
12.628 12.535 12.45 12.378 12.315 12.255 12.198 12.145 12.108 12.11 12.132 12.137 12.127 12.108 12.098 12.097 12.087 12.065 12.025 11.978 11.935 11.9 11.868 11.835 11.805 11.777 11.75 11.717 11.682 11.645 11.61 11.58 11.55 11.52 11.485 11.442 11.392 11.34 11.29 11.242 11.192 11.13 11.065 10.997 10.915 10.823 10.75 10.702 10.647 10.573 10.538 10.55 10.56 10.535 10.397 10.172 9.953 9.775 9.635 9.508 9.39 9.3 9.248 9.212 9.162 9.085 8.947 8.747 8.52 8.245 7.993 7.865 7.818 7.785 7.763 7.745 7.662 7.517 7.39 7.287 7.19 7.107 7.045 6.982 6.925 6.898 6.908 6.905 6.872 6.81 6.685 6.525 6.378 6.258 6.168 6.135 6.213 6.37 6.417 6.388 6.51 6.685 6.762 6.8 6.84 6.51 5.893 6.008 6.535 6.667 6.783 7.03 7.255 7.4 7.472 7.535 7.595 7.657 7.712 7.745 7.765 7.745 7.655 7.605 7.692 7.707 7.427 6.945 6.493 6.375 6.477 6.485 5.965 5.47 5.47 6.125 6.775 6.832 6.87 6.993 7.245 7.412 7.515 7.595 7.675 7.657 7.575 7.575 7.625 7.672 7.718 7.768 7.833 7.902 7.915 7.87 7.815 7.758 7.773 7.92 8.138 8.357 8.492 8.515 8.505 8.495 8.483 8.468 8.447 8.402 8.348 8.373 8.467 8.562 8.585 8.52 8.422 7.252 5.493 6.005 7.719 8.364 8.485 8.507 8.492 8.397 8.3 8.34 8.38 8.295 8.18 8.138 8.122 8.08 8.058 8.082 8.107 8.122 8.13 8.13
12.645 12.555 12.47 12.395 12.328 12.268 12.213 12.16 12.11 12.088 12.098 12.11 12.115 12.102 12.092 12.085 12.06 12.03 11.99 11.948 11.915 11.885 11.85 11.815 11.783 11.75 11.72 11.687 11.652 11.615 11.58 11.55 11.52 11.487 11.452 11.415 11.375 11.327 11.277 11.225 11.16 11.085 11.015 10.955 10.892 10.812 10.74 10.682 10.61 10.528 10.49 10.5 10.495 10.395 10.198 9.99 9.813 9.67 9.542 9.415 9.283 9.163 9.1 9.072 9.01 8.92 8.79 8.607 8.4 8.13 7.898 7.79 7.725 7.665 7.618 7.582 7.497 7.363 7.235 7.125 7.028 6.935 6.86 6.813 6.798 6.823 6.842 6.825 6.79 6.732 6.615 6.48 6.385 6.317 6.25 6.17 6.14 6.225 6.298 6.398 6.617 6.807 6.9 6.914 6.555 6.153 6.115 6.435 6.765 6.77 6.878 7.1 7.287 7.41 7.477 7.54 7.6 7.66 7.715 7.75 7.77 7.73 7.62 7.5 7.488 7.617 7.357 6.842 6.42 6.213 6.345 6.44 5.957 5.47 5.47 6.192 6.91 6.942 6.942 6.978 7.093 7.18 7.265 7.348 7.443 7.508 7.543 7.59 7.637 7.685 7.732 7.78 7.827 7.872 7.875 7.838 7.797 7.75 7.775 7.925 8.13 8.345 8.527 8.615 8.625 8.615 8.605 8.585 8.542 8.475 8.385 8.348 8.41 8.507 8.537 8.48 8.4 8.319 8.052 8.159 8.59 8.74 8.79 8.775 8.76 8.732 8.68 8.652 8.582 8.435 8.3 8.25 8.235 8.17 8.143 8.17 8.205 8.24 8.262 8.277
12.665 12.575 12.49 12.415 12.345 12.283 12.227 12.175 12.125 12.08 12.068 12.08 12.09 12.092 12.082 12.06 12.03 11.997 11.96 11.925 11.895 11.865 11.83 11.795 11.76 11.725 11.692 11.655 11.62 11.585 11.55 11.52 11.487 11.452 11.42 11.385 11.347 11.307 11.255 11.19 11.115 11.035 10.965 10.907 10.852 10.787 10.717 10.645 10.565 10.483 10.443 10.452 10.39 10.22 10.03 9.855 9.7 9.565 9.438 9.312 9.18 9.04 8.935 8.89 8.84 8.755 8.63 8.442 8.22 7.978 7.8 7.715 7.647 7.58 7.513 7.442 7.34 7.208 7.085 6.98 6.885 6.79 6.72 6.705 6.733 6.772 6.775 6.742 6.705 6.657 6.57 6.477 6.412 6.37 6.325 6.25 6.165 6.165 6.293 6.49 6.725 6.932 6.757 6.348 6.133 6.347 6.58 6.59 6.717 6.817 6.95 7.135 7.302 7.417 7.483 7.545 7.605 7.662 7.715 7.752 7.765 7.705 7.585 7.465 7.345 7.34 6.992 6.43 6.21 6.175 6.268 6.377 5.945 5.47 5.47 6.212 6.97 6.982 6.948 6.928 6.978 7.033 7.09 7.185 7.305 7.43 7.525 7.585 7.632 7.68 7.727 7.775 7.822 7.865 7.862 7.823 7.783 7.74 7.778 7.935 8.135 8.34 8.53 8.675 8.737 8.735 8.717 8.68 8.62 8.542 8.45 8.365 8.365 8.45 8.49 8.44 8.36 8.333 8.507 8.79 8.982 9.06 9.055 9.027 8.995 8.962 8.922 8.842 8.707 8.557 8.413 8.345 8.32 8.253 8.23 8.26 8.293 8.327 8.36 8.39
12.65 12.58 12.507 12.435 12.362 12.295 12.237 12.182 12.13 12.075 12.05 12.063 12.075 12.085 12.075 12.045 12.012 11.97 11.93 11.9 11.87 11.845 11.815 11.78 11.745 11.702 11.66 11.62 11.582 11.547 11.515 11.485 11.45 11.415 11.385 11.352 11.315 11.277 11.222 11.148 11.07 10.99 10.918 10.858 10.8 10.742 10.675 10.592 10.513 10.445 10.408 10.375 10.25 10.068 9.903 9.74 9.595 9.465 9.335 9.205 9.065 8.92 8.783 8.685 8.632 8.57 8.467 8.295 8.075 7.86 7.713 7.63 7.555 7.483 7.41 7.33 7.218 7.095 6.995 6.9 6.805 6.718 6.67 6.68 6.712 6.725 6.687 6.635 6.597 6.557 6.497 6.422 6.347 6.327 6.355 6.338 6.303 6.323 6.448 6.65 6.865 6.969 6.35 5.881 6.287 6.48 6.413 6.488 6.645 6.815 6.985 7.152 7.307 7.422 7.495 7.553 7.61 7.667 7.72 7.76 7.752 7.67 7.552 7.425 7.298 7.192 6.705 6.215 6.205 6.285 6.37 6.455 5.983 5.47 5.47 6.18 6.942 7.005 6.998 7.003 7.027 7.013 7.025 7.12 7.25 7.372 7.48 7.562 7.62 7.667 7.713 7.76 7.81 7.86 7.865 7.825 7.78 7.755 7.835 8.023 8.238 8.443 8.603 8.728 8.827 8.852 8.815 8.757 8.692 8.612 8.515 8.415 8.355 8.393 8.44 8.4 8.34 8.45 8.777 9.09 9.227 9.232 9.195 9.15 9.1 9.05 8.997 8.915 8.785 8.637 8.493 8.415 8.392 8.338 8.318 8.35 8.38 8.413 8.447 8.48
12.512 12.462 12.415 12.382 12.337 12.267 12.217 12.172 12.117 12.063 12.038 12.052 12.07 12.08 12.072 12.042 12 11.945 11.9 11.87 11.845 11.827 11.802 11.767 11.727 11.675 11.623 11.58 11.54 11.503 11.472 11.445 11.412 11.378 11.345 11.315 11.282 11.245 11.187 11.11 11.03 10.953 10.878 10.808 10.745 10.687 10.62 10.538 10.47 10.422 10.37 10.27 10.118 9.953 9.788 9.633 9.495 9.365 9.23 9.09 8.945 8.8 8.66 8.525 8.425 8.358 8.285 8.17 7.99 7.783 7.635 7.548 7.465 7.385 7.308 7.223 7.12 7.028 6.95 6.86 6.773 6.705 6.673 6.685 6.7 6.677 6.605 6.523 6.473 6.43 6.37 6.297 6.223 6.218 6.315 6.455 6.557 6.615 6.718 6.885 7.042 6.63 6.121 6.335 6.482 6.303 6.293 6.445 6.63 6.822 7 7.157 7.295 7.42 7.51 7.565 7.62 7.673 7.723 7.767 7.74 7.628 7.52 7.428 7.333 7.197 6.735 6.383 6.455 6.563 6.668 6.72 6.095 5.47 5.47 5.87 6.615 7.005 7.07 7.087 7.057 7.008 6.993 7.065 7.195 7.315 7.425 7.53 7.605 7.653 7.7 7.75 7.8 7.85 7.865 7.833 7.818 7.883 8.04 8.248 8.465 8.655 8.765 8.822 8.887 8.925 8.895 8.83 8.762 8.68 8.582 8.485 8.39 8.365 8.392 8.36 8.408 8.662 8.967 9.185 9.275 9.262 9.215 9.165 9.115 9.062 9.005 8.937 8.832 8.69 8.548 8.47 8.457 8.42 8.405 8.44 8.47 8.5 8.535 8.57
12.305 12.24 12.205 12.22 12.24 12.2 12.16 12.14 12.1 12.048 12.02 12.035 12.06 12.075 12.067 12.03 11.972 11.913 11.87 11.845 11.83 11.815 11.787 11.747 11.7 11.645 11.59 11.545 11.502 11.46 11.427 11.4 11.372 11.34 11.305 11.275 11.245 11.21 11.15 11.07 10.99 10.915 10.84 10.765 10.695 10.632 10.565 10.495 10.435 10.37 10.29 10.165 10.002 9.837 9.673 9.523 9.39 9.257 9.115 8.97 8.825 8.68 8.54 8.4 8.265 8.16 8.085 8.005 7.882 7.705 7.558 7.47 7.388 7.303 7.22 7.138 7.058 6.985 6.91 6.828 6.758 6.705 6.678 6.672 6.655 6.62 6.545 6.44 6.358 6.3 6.24 6.173 6.138 6.22 6.4 6.638 6.842 6.93 7.007 7.137 6.765 6.128 6.303 6.627 6.5 6.313 6.298 6.465 6.65 6.84 7.007 7.15 7.28 7.41 7.517 7.585 7.645 7.71 7.748 7.77 7.75 7.665 7.588 7.535 7.482 7.305 7.02 6.855 6.86 6.947 7.022 7.01 6.223 5.47 5.47 5.533 6.24 6.957 7.055 7.07 7.037 6.995 6.97 7.018 7.135 7.255 7.365 7.48 7.577 7.64 7.69 7.74 7.79 7.84 7.865 7.885 7.975 8.137 8.312 8.48 8.645 8.762 8.817 8.85 8.875 8.912 8.937 8.902 8.832 8.745 8.648 8.55 8.45 8.373 8.35 8.393 8.557 8.795 8.982 9.137 9.255 9.275 9.23 9.18 9.13 9.075 9.012 8.947 8.865 8.74 8.603 8.523 8.512 8.498 8.493 8.527 8.56 8.59 8.622 8.652
12.128 12.035 11.99 12.015 12.075 12.102 12.092 12.08 12.062 12.027 12.005 12.017 12.045 12.062 12.047 12 11.935 11.875 11.84 11.825 11.815 11.802 11.77 11.72 11.667 11.61 11.555 11.505 11.455 11.41 11.375 11.347 11.325 11.297 11.265 11.235 11.205 11.172 11.115 11.035 10.955 10.877 10.8 10.725 10.652 10.582 10.51 10.437 10.36 10.27 10.177 10.05 9.887 9.723 9.56 9.415 9.28 9.14 8.995 8.848 8.703 8.56 8.42 8.28 8.135 8 7.895 7.805 7.713 7.598 7.483 7.395 7.315 7.233 7.15 7.075 7.005 6.935 6.88 6.83 6.773 6.718 6.678 6.64 6.598 6.56 6.485 6.375 6.275 6.2 6.148 6.105 6.178 6.415 6.683 6.94 7.172 6.944 6.478 6.365 6.233 6.308 6.585 6.597 6.53 6.42 6.415 6.55 6.703 6.86 7.002 7.135 7.265 7.395 7.517 7.605 7.68 7.775 7.815 7.79 7.747 7.702 7.665 7.625 7.607 7.525 7.417 7.36 7.312 7.325 7.33 7.27 6.35 5.47 5.47 5.47 5.955 6.695 6.957 6.97 6.97 6.965 6.96 6.985 7.078 7.195 7.305 7.42 7.532 7.617 7.677 7.73 7.77 7.802 7.863 7.972 8.125 8.287 8.43 8.565 8.67 8.715 8.74 8.772 8.803 8.848 8.915 8.947 8.905 8.815 8.715 8.615 8.515 8.415 8.355 8.44 8.615 8.775 8.935 9.09 9.232 9.282 9.24 9.19 9.14 9.082 9.018 8.955 8.887 8.785 8.663 8.58 8.562 8.567 8.577 8.605 8.632 8.66 8.687 8.71
12.023 11.918 11.853 11.863 11.918 11.982 12.007 11.995 11.985 11.972 11.96 11.96 11.972 11.98 11.965 11.922 11.862 11.805 11.775 11.765 11.755 11.742 11.715 11.667 11.612 11.555 11.497 11.442 11.387 11.34 11.307 11.282 11.26 11.237 11.21 11.18 11.15 11.112 11.05 10.967 10.885 10.795 10.705 10.627 10.552 10.477 10.402 10.322 10.237 10.152 10.06 9.93 9.77 9.607 9.45 9.307 9.165 9.02 8.875 8.725 8.58 8.44 8.3 8.155 8.008 7.875 7.77 7.683 7.595 7.51 7.423 7.33 7.245 7.165 7.088 7.015 6.958 6.918 6.9 6.872 6.815 6.76 6.71 6.658 6.605 6.57 6.495 6.37 6.263 6.175 6.125 6.16 6.358 6.67 6.975 7.272 6.947 6.161 5.993 6.126 6.4 6.687 6.657 6.59 6.525 6.48 6.53 6.66 6.78 6.883 6.995 7.123 7.25 7.38 7.51 7.612 7.702 7.81 7.857 7.807 7.725 7.66 7.647 7.69 7.737 7.717 7.68 7.665 7.625 7.617 7.6 7.467 6.42 5.47 5.47 5.47 5.613 6.265 6.797 6.832 6.853 6.882 6.922 6.953 7.025 7.143 7.255 7.37 7.477 7.54 7.575 7.61 7.65 7.72 7.848 8.002 8.145 8.285 8.422 8.55 8.615 8.628 8.65 8.685 8.728 8.785 8.863 8.935 8.94 8.862 8.757 8.652 8.55 8.458 8.408 8.455 8.578 8.725 8.885 9.04 9.195 9.277 9.255 9.205 9.15 9.087 9.025 8.962 8.897 8.817 8.715 8.625 8.593 8.6 8.62 8.65 8.675 8.7 8.725 8.745
11.977 11.87 11.798 11.783 11.81 11.87 11.9 11.89 11.88 11.867 11.85 11.837 11.835 11.832 11.822 11.797 11.755 11.705 11.675 11.662 11.65 11.635 11.615 11.585 11.537 11.48 11.42 11.365 11.31 11.263 11.233 11.208 11.183 11.16 11.135 11.1 11.057 11.005 10.937 10.855 10.762 10.652 10.545 10.462 10.385 10.308 10.237 10.167 10.092 10.015 9.92 9.79 9.637 9.48 9.33 9.19 9.045 8.898 8.752 8.605 8.46 8.32 8.175 8.023 7.885 7.785 7.71 7.637 7.555 7.47 7.38 7.28 7.185 7.098 7.03 6.985 6.96 6.955 6.955 6.925 6.87 6.825 6.782 6.733 6.688 6.682 6.617 6.47 6.338 6.218 6.173 6.313 6.592 6.897 7.202 7.197 6.455 6.008 6.477 6.792 6.747 6.712 6.67 6.608 6.568 6.555 6.62 6.742 6.832 6.898 6.993 7.118 7.245 7.365 7.465 7.547 7.637 7.745 7.777 7.712 7.632 7.565 7.575 7.69 7.805 7.802 7.76 7.752 7.738 7.77 7.815 7.557 6.383 5.47 5.47 5.47 5.49 6.075 6.665 6.705 6.73 6.765 6.842 6.918 6.998 7.115 7.23 7.312 7.355 7.36 7.355 7.405 7.513 7.655 7.82 7.985 8.135 8.275 8.415 8.515 8.54 8.54 8.56 8.595 8.658 8.74 8.817 8.882 8.917 8.87 8.762 8.655 8.56 8.5 8.483 8.51 8.588 8.705 8.843 8.99 9.145 9.26 9.27 9.217 9.157 9.093 9.03 8.968 8.905 8.835 8.74 8.648 8.6 8.59 8.61 8.65 8.685 8.717 8.747 8.77
11.932 11.825 11.758 11.735 11.73 11.763 11.787 11.777 11.762 11.74 11.715 11.7 11.693 11.683 11.67 11.655 11.63 11.595 11.57 11.555 11.54 11.525 11.505 11.485 11.455 11.405 11.345 11.288 11.233 11.188 11.158 11.132 11.107 11.08 11.042 10.992 10.935 10.875 10.812 10.727 10.615 10.49 10.375 10.288 10.212 10.135 10.063 9.997 9.932 9.86 9.757 9.625 9.48 9.327 9.187 9.06 8.922 8.775 8.63 8.485 8.34 8.195 8.043 7.9 7.795 7.725 7.66 7.59 7.512 7.43 7.34 7.24 7.138 7.043 6.998 6.997 7.005 7.01 7.007 6.98 6.935 6.897 6.857 6.808 6.8 6.84 6.782 6.63 6.48 6.315 6.213 6.348 6.702 7.067 7.374 6.758 6.26 6.632 6.777 6.807 6.775 6.735 6.69 6.655 6.645 6.645 6.708 6.805 6.857 6.9 6.988 7.112 7.22 7.3 7.362 7.425 7.505 7.597 7.607 7.538 7.478 7.43 7.455 7.575 7.725 7.82 7.837 7.822 7.818 7.868 7.955 7.499 6.235 5.47 5.47 5.47 5.798 6.395 6.652 6.63 6.62 6.648 6.758 6.89 6.993 7.08 7.14 7.173 7.185 7.195 7.218 7.31 7.465 7.628 7.793 7.96 8.12 8.265 8.392 8.452 8.452 8.45 8.468 8.523 8.61 8.697 8.762 8.812 8.857 8.845 8.758 8.665 8.605 8.58 8.578 8.593 8.645 8.738 8.848 8.968 9.103 9.24 9.28 9.225 9.165 9.1 9.035 8.975 8.915 8.845 8.753 8.665 8.603 8.575 8.595 8.635 8.675 8.715 8.75 8.78
11.887 11.783 11.72 11.7 11.683 11.68 11.677 11.657 11.635 11.61 11.588 11.575 11.565 11.553 11.54 11.525 11.508 11.49 11.47 11.45 11.433 11.418 11.4 11.378 11.355 11.322 11.272 11.215 11.157 11.112 11.082 11.052 11.02 10.98 10.922 10.862 10.805 10.745 10.68 10.582 10.455 10.325 10.205 10.113 10.037 9.96 9.882 9.812 9.747 9.677 9.572 9.437 9.297 9.155 9.028 8.912 8.79 8.652 8.51 8.365 8.215 8.06 7.915 7.808 7.735 7.675 7.61 7.54 7.465 7.385 7.292 7.19 7.085 6.993 6.965 6.985 7.005 7.02 7.022 7.017 7 6.97 6.93 6.905 6.95 7.01 6.95 6.782 6.597 6.392 6.228 6.23 6.46 6.85 7.304 6.508 6.173 6.822 6.798 6.812 6.787 6.755 6.73 6.727 6.732 6.735 6.775 6.835 6.87 6.905 6.972 7.062 7.13 7.183 7.24 7.305 7.38 7.447 7.445 7.393 7.35 7.31 7.338 7.458 7.605 7.742 7.822 7.85 7.892 7.967 8.052 7.117 5.805 5.47 5.47 5.588 6.24 6.777 6.748 6.685 6.635 6.645 6.765 6.923 7.025 7.075 7.098 7.125 7.165 7.208 7.263 7.353 7.475 7.618 7.77 7.93 8.098 8.252 8.352 8.375 8.368 8.363 8.39 8.478 8.572 8.64 8.69 8.735 8.78 8.802 8.765 8.71 8.685 8.667 8.67 8.69 8.72 8.793 8.895 8.995 9.103 9.227 9.28 9.235 9.175 9.113 9.05 8.99 8.93 8.855 8.768 8.688 8.615 8.57 8.58 8.62 8.66 8.7 8.737 8.772
11.837 11.738 11.683 11.665 11.645 11.61 11.567 11.535 11.508 11.49 11.48 11.47 11.463 11.455 11.445 11.433 11.418 11.405 11.382 11.353 11.333 11.318 11.3 11.277 11.25 11.215 11.172 11.122 11.067 11.02 10.982 10.945 10.905 10.857 10.79 10.723 10.665 10.605 10.535 10.43 10.3 10.17 10.04 9.925 9.835 9.755 9.672 9.592 9.52 9.45 9.345 9.21 9.075 8.97 8.88 8.768 8.65 8.525 8.39 8.245 8.088 7.933 7.815 7.74 7.677 7.615 7.55 7.48 7.407 7.33 7.235 7.13 7.025 6.938 6.915 6.935 6.955 6.993 6.997 6.977 6.987 6.997 7.002 7.032 7.097 7.145 7.065 6.865 6.642 6.418 6.263 6.193 6.193 6.43 7.077 6.493 6.258 6.942 6.835 6.812 6.78 6.75 6.735 6.74 6.75 6.757 6.777 6.815 6.85 6.885 6.93 6.978 7.023 7.065 7.112 7.175 7.247 7.302 7.302 7.267 7.227 7.185 7.218 7.34 7.475 7.595 7.69 7.767 7.885 8.032 8.139 6.83 5.476 5.47 5.47 5.91 6.627 6.915 6.895 6.835 6.775 6.793 6.92 7.047 7.115 7.155 7.195 7.235 7.278 7.323 7.375 7.455 7.555 7.675 7.815 7.963 8.118 8.255 8.332 8.353 8.358 8.365 8.408 8.493 8.555 8.595 8.64 8.685 8.733 8.775 8.777 8.752 8.732 8.705 8.717 8.772 8.807 8.855 8.945 9.045 9.142 9.23 9.265 9.235 9.182 9.125 9.065 9.005 8.945 8.867 8.785 8.713 8.648 8.605 8.605 8.635 8.658 8.678 8.707 8.74
11.772 11.698 11.648 11.622 11.577 11.51 11.448 11.413 11.393 11.39 11.392 11.385 11.38 11.377 11.368 11.355 11.34 11.325 11.3 11.265 11.24 11.22 11.2 11.177 11.142 11.095 11.048 11 10.95 10.9 10.855 10.815 10.775 10.73 10.662 10.585 10.518 10.457 10.385 10.277 10.15 10.02 9.882 9.74 9.615 9.52 9.437 9.353 9.273 9.2 9.095 8.963 8.86 8.813 8.752 8.64 8.525 8.41 8.277 8.13 7.973 7.828 7.733 7.67 7.607 7.545 7.48 7.41 7.345 7.27 7.172 7.07 6.965 6.883 6.865 6.885 6.925 6.995 6.967 6.878 6.88 6.925 6.977 7.047 7.115 7.152 7.065 6.872 6.665 6.443 6.298 6.258 6.26 6.373 6.987 6.57 6.428 7.045 6.843 6.79 6.75 6.715 6.698 6.698 6.703 6.71 6.73 6.765 6.8 6.835 6.875 6.915 6.942 6.945 6.965 7.025 7.095 7.152 7.16 7.132 7.1 7.06 7.095 7.21 7.325 7.435 7.53 7.615 7.763 7.992 8.192 6.867 5.471 5.47 5.47 6.14 6.895 7.022 7.04 6.985 6.938 6.99 7.115 7.187 7.225 7.265 7.305 7.348 7.392 7.438 7.488 7.565 7.665 7.785 7.925 8.057 8.172 8.267 8.345 8.407 8.452 8.48 8.52 8.572 8.585 8.595 8.635 8.68 8.73 8.775 8.785 8.762 8.73 8.69 8.713 8.797 8.865 8.92 8.997 9.085 9.16 9.22 9.24 9.212 9.167 9.12 9.07 9.015 8.955 8.883 8.815 8.765 8.723 8.693 8.688 8.705 8.7 8.675 8.67 8.69
11.692 11.652 11.6 11.547 11.475 11.395 11.328 11.298 11.298 11.305 11.31 11.305 11.3 11.3 11.292 11.277 11.26 11.245 11.22 11.185 11.153 11.123 11.1 11.07 11.022 10.972 10.925 10.873 10.82 10.77 10.725 10.685 10.645 10.602 10.54 10.458 10.378 10.312 10.232 10.12 9.997 9.87 9.73 9.578 9.428 9.298 9.2 9.115 9.03 8.952 8.85 8.75 8.705 8.687 8.627 8.52 8.415 8.305 8.17 8.022 7.87 7.735 7.65 7.59 7.53 7.47 7.407 7.342 7.285 7.21 7.11 7.01 6.905 6.828 6.815 6.86 6.947 7 6.91 6.773 6.75 6.793 6.848 6.932 7.017 7.067 6.995 6.825 6.645 6.468 6.405 6.453 6.528 6.623 7.02 6.73 6.665 7.017 6.768 6.737 6.715 6.68 6.665 6.662 6.66 6.663 6.68 6.715 6.75 6.782 6.82 6.84 6.83 6.8 6.805 6.865 6.935 6.997 7.01 6.985 6.96 6.935 6.97 7.065 7.168 7.275 7.373 7.465 7.595 7.84 8.154 6.887 5.471 5.47 5.47 6.175 6.95 7.092 7.165 7.135 7.118 7.182 7.26 7.302 7.34 7.378 7.418 7.463 7.508 7.555 7.605 7.678 7.775 7.895 8.017 8.115 8.195 8.27 8.355 8.445 8.527 8.592 8.645 8.667 8.645 8.625 8.645 8.69 8.737 8.78 8.787 8.755 8.71 8.668 8.695 8.782 8.867 8.952 9.025 9.085 9.14 9.19 9.21 9.18 9.135 9.095 9.052 9.005 8.963 8.923 8.885 8.855 8.825 8.795 8.785 8.787 8.76 8.71 8.673 8.658
11.602 11.582 11.525 11.45 11.373 11.295 11.233 11.213 11.22 11.228 11.23 11.227 11.223 11.22 11.215 11.2 11.18 11.165 11.14 11.105 11.07 11.03 10.992 10.95 10.898 10.848 10.8 10.747 10.693 10.64 10.595 10.558 10.52 10.477 10.415 10.333 10.25 10.175 10.083 9.965 9.845 9.725 9.59 9.438 9.285 9.135 9.01 8.91 8.815 8.725 8.648 8.608 8.593 8.58 8.525 8.423 8.32 8.205 8.065 7.917 7.765 7.643 7.57 7.51 7.447 7.38 7.31 7.257 7.215 7.142 7.045 6.945 6.843 6.778 6.798 6.888 6.995 6.982 6.83 6.67 6.62 6.658 6.715 6.805 6.903 6.975 6.92 6.765 6.613 6.503 6.545 6.687 6.822 6.947 7.097 6.743 6.71 6.887 6.645 6.655 6.667 6.65 6.632 6.627 6.622 6.617 6.627 6.657 6.687 6.715 6.735 6.72 6.683 6.648 6.653 6.708 6.775 6.842 6.862 6.843 6.833 6.833 6.87 6.953 7.045 7.138 7.23 7.325 7.435 7.695 7.962 6.75 5.471 5.47 5.653 6.378 6.992 7.142 7.247 7.265 7.282 7.332 7.375 7.415 7.455 7.492 7.532 7.577 7.625 7.67 7.712 7.78 7.872 7.97 8.055 8.125 8.195 8.27 8.355 8.448 8.542 8.635 8.71 8.732 8.707 8.673 8.665 8.7 8.745 8.78 8.775 8.73 8.68 8.645 8.678 8.765 8.863 8.965 9.027 9.063 9.11 9.16 9.177 9.147 9.105 9.063 9.02 8.995 8.993 8.99 8.972 8.947 8.922 8.895 8.88 8.86 8.815 8.765 8.718 8.673
11.512 11.5 11.445 11.365 11.288 11.22 11.175 11.16 11.165 11.16 11.15 11.15 11.147 11.142 11.135 11.12 11.102 11.082 11.05 11.01 10.97 10.927 10.88 10.83 10.777 10.722 10.67 10.62 10.568 10.523 10.485 10.448 10.41 10.362 10.3 10.228 10.15 10.07 9.97 9.85 9.73 9.613 9.493 9.358 9.21 9.06 8.925 8.813 8.713 8.633 8.578 8.55 8.54 8.53 8.48 8.38 8.262 8.117 7.96 7.81 7.66 7.548 7.475 7.407 7.337 7.26 7.183 7.148 7.127 7.06 6.965 6.875 6.815 6.8 6.845 6.94 7.01 6.932 6.763 6.618 6.573 6.618 6.68 6.768 6.863 6.932 6.89 6.758 6.623 6.553 6.635 6.81 6.99 7.157 7.11 6.623 6.633 6.75 6.51 6.542 6.575 6.595 6.585 6.565 6.55 6.53 6.532 6.562 6.59 6.615 6.622 6.595 6.558 6.533 6.545 6.593 6.65 6.708 6.735 6.738 6.748 6.76 6.803 6.883 6.965 7.065 7.155 7.23 7.353 7.667 7.44 6.223 5.47 5.47 5.995 6.742 7.045 7.18 7.27 7.332 7.387 7.432 7.47 7.51 7.55 7.592 7.627 7.66 7.702 7.742 7.782 7.852 7.932 7.992 8.055 8.125 8.195 8.27 8.358 8.452 8.545 8.63 8.7 8.735 8.735 8.71 8.69 8.71 8.75 8.765 8.74 8.698 8.653 8.625 8.668 8.768 8.885 8.982 9.025 9.048 9.083 9.13 9.145 9.115 9.075 9.04 9.023 9.03 9.05 9.055 9.042 9.025 9.005 8.985 8.955 8.91 8.86 8.81 8.76 8.71
11.427 11.417 11.37 11.293 11.223 11.173 11.14 11.123 11.12 11.097 11.073 11.07 11.07 11.067 11.057 11.042 11.022 10.99 10.947 10.9 10.855 10.815 10.77 10.717 10.657 10.595 10.54 10.493 10.453 10.425 10.395 10.355 10.31 10.255 10.197 10.14 10.07 9.992 9.892 9.77 9.65 9.53 9.42 9.31 9.18 9.035 8.9 8.795 8.72 8.673 8.618 8.56 8.53 8.515 8.465 8.36 8.212 8.028 7.855 7.705 7.548 7.42 7.337 7.267 7.197 7.12 7.053 7.038 7.033 6.993 6.953 6.925 6.925 6.947 6.975 7.02 7.02 6.913 6.773 6.655 6.628 6.678 6.74 6.825 6.897 6.935 6.892 6.777 6.65 6.608 6.715 6.89 7.062 7.227 6.98 6.553 6.642 6.59 6.37 6.415 6.47 6.537 6.54 6.478 6.43 6.395 6.395 6.43 6.465 6.495 6.505 6.485 6.463 6.455 6.475 6.52 6.567 6.608 6.638 6.662 6.68 6.693 6.738 6.818 6.918 7.055 7.15 7.185 7.335 7.709 6.893 5.651 5.47 5.47 6.165 6.942 7.092 7.195 7.27 7.357 7.442 7.5 7.537 7.575 7.62 7.672 7.7 7.71 7.738 7.775 7.825 7.895 7.957 8.003 8.058 8.125 8.195 8.273 8.362 8.452 8.535 8.61 8.667 8.7 8.72 8.72 8.713 8.725 8.738 8.725 8.698 8.673 8.645 8.63 8.685 8.803 8.922 8.995 9.02 9.04 9.065 9.102 9.115 9.088 9.065 9.063 9.075 9.095 9.112 9.117 9.107 9.093 9.08 9.077 9.032 8.948 8.885 8.835 8.785 8.735
11.34 11.327 11.287 11.228 11.178 11.14 11.11 11.087 11.067 11.03 11 10.995 10.992 10.99 10.98 10.96 10.932 10.895 10.847 10.795 10.748 10.702 10.655 10.597 10.533 10.468 10.413 10.378 10.355 10.335 10.305 10.26 10.205 10.145 10.09 10.04 9.982 9.915 9.817 9.693 9.57 9.45 9.34 9.237 9.127 9.002 8.885 8.805 8.76 8.727 8.675 8.605 8.543 8.505 8.445 8.312 8.13 7.93 7.755 7.597 7.42 7.258 7.158 7.093 7.04 7.008 6.995 7.013 7.013 7 7.015 7.035 7.052 7.067 7.082 7.095 7.057 6.957 6.842 6.733 6.7 6.738 6.797 6.867 6.905 6.925 6.887 6.787 6.673 6.66 6.79 6.952 7.11 7.26 6.775 6.523 6.735 6.433 6.258 6.328 6.41 6.505 6.515 6.43 6.35 6.288 6.273 6.305 6.348 6.388 6.4 6.39 6.385 6.385 6.405 6.447 6.487 6.517 6.547 6.58 6.605 6.625 6.675 6.775 6.91 7.065 7.162 7.17 7.328 7.752 6.74 5.471 5.47 5.533 6.257 6.995 7.117 7.205 7.29 7.383 7.475 7.547 7.593 7.635 7.693 7.752 7.775 7.77 7.78 7.81 7.862 7.922 7.972 8.018 8.068 8.128 8.195 8.275 8.36 8.437 8.51 8.58 8.632 8.66 8.688 8.723 8.747 8.758 8.76 8.753 8.735 8.718 8.7 8.698 8.745 8.848 8.95 9 9.02 9.04 9.06 9.085 9.098 9.093 9.1 9.12 9.14 9.16 9.177 9.185 9.175 9.17 9.18 9.195 9.135 9.003 8.908 8.85 8.8 8.747
11.242 11.227 11.202 11.165 11.127 11.092 11.06 11.03 10.995 10.95 10.92 10.915 10.912 10.907 10.892 10.865 10.835 10.8 10.75 10.695 10.642 10.59 10.537 10.475 10.41 10.345 10.298 10.278 10.262 10.245 10.21 10.155 10.095 10.035 9.98 9.93 9.88 9.825 9.735 9.612 9.487 9.368 9.26 9.158 9.055 8.948 8.875 8.842 8.81 8.78 8.732 8.66 8.58 8.51 8.407 8.235 8.035 7.835 7.653 7.478 7.29 7.115 7.025 7.005 7.003 7.025 7.06 7.067 7.045 7.045 7.062 7.077 7.092 7.105 7.118 7.127 7.09 7.002 6.902 6.795 6.758 6.795 6.843 6.88 6.898 6.915 6.872 6.765 6.668 6.695 6.84 6.987 7.135 7.285 6.57 6.43 6.787 6.325 6.203 6.295 6.385 6.477 6.5 6.438 6.36 6.283 6.248 6.27 6.313 6.358 6.373 6.355 6.335 6.32 6.33 6.363 6.395 6.423 6.453 6.487 6.52 6.548 6.62 6.76 6.92 7.077 7.187 7.263 7.45 7.829 6.767 5.471 5.47 5.533 6.287 7.032 7.13 7.222 7.315 7.407 7.5 7.585 7.652 7.71 7.77 7.827 7.85 7.842 7.84 7.853 7.893 7.942 7.988 8.033 8.08 8.135 8.198 8.268 8.34 8.41 8.48 8.548 8.603 8.648 8.695 8.752 8.795 8.805 8.81 8.832 8.84 8.82 8.8 8.8 8.838 8.902 8.957 8.98 8.99 9.002 9.028 9.073 9.115 9.152 9.182 9.198 9.215 9.233 9.248 9.258 9.263 9.277 9.3 9.312 9.235 9.08 8.948 8.865 8.812 8.75
11.123 11.123 11.117 11.077 11.032 10.995 10.96 10.927 10.89 10.847 10.82 10.815 10.812 10.805 10.785 10.755 10.725 10.69 10.642 10.59 10.535 10.477 10.42 10.358 10.295 10.233 10.193 10.175 10.16 10.142 10.102 10.047 9.99 9.93 9.875 9.825 9.775 9.717 9.625 9.505 9.385 9.285 9.195 9.095 8.992 8.88 8.835 8.85 8.842 8.815 8.742 8.645 8.557 8.46 8.317 8.13 7.932 7.733 7.563 7.408 7.235 7.073 7 7.028 7.075 7.125 7.152 7.105 7.063 7.08 7.1 7.115 7.128 7.142 7.155 7.155 7.11 7.03 6.945 6.848 6.808 6.878 6.958 6.99 6.99 6.92 6.775 6.63 6.61 6.72 6.865 7.012 7.16 7.31 6.45 6.283 6.742 6.283 6.178 6.272 6.365 6.462 6.51 6.477 6.415 6.345 6.308 6.318 6.35 6.392 6.402 6.37 6.333 6.305 6.303 6.325 6.355 6.378 6.38 6.393 6.425 6.458 6.55 6.71 6.88 7.032 7.19 7.4 7.637 7.732 6.587 5.465 5.467 5.47 6.223 7.005 7.085 7.187 7.292 7.392 7.487 7.58 7.66 7.725 7.787 7.857 7.89 7.882 7.88 7.893 7.92 7.958 8.003 8.048 8.093 8.143 8.2 8.26 8.325 8.395 8.463 8.525 8.585 8.647 8.71 8.77 8.815 8.84 8.847 8.863 8.905 8.92 8.9 8.903 8.94 8.947 8.915 8.9 8.913 8.95 9.008 9.085 9.137 9.195 9.272 9.305 9.318 9.333 9.345 9.353 9.353 9.362 9.387 9.395 9.312 9.162 9.015 8.898 8.823 8.753
11.008 11.032 11.032 10.98 10.915 10.868 10.833 10.8 10.767 10.73 10.705 10.7 10.695 10.685 10.665 10.635 10.605 10.572 10.53 10.477 10.42 10.36 10.302 10.245 10.185 10.125 10.085 10.065 10.047 10.025 9.987 9.94 9.887 9.83 9.775 9.722 9.662 9.592 9.495 9.378 9.283 9.22 9.145 9.045 8.935 8.81 8.765 8.802 8.827 8.802 8.695 8.57 8.465 8.342 8.192 8.012 7.815 7.608 7.465 7.38 7.257 7.105 7.023 7.05 7.11 7.165 7.177 7.12 7.09 7.115 7.135 7.152 7.165 7.178 7.192 7.187 7.135 7.055 6.972 6.888 6.88 7.01 7.152 7.175 7.07 6.86 6.608 6.463 6.568 6.795 6.928 7.035 7.185 7.335 6.44 6.2 6.692 6.283 6.155 6.248 6.348 6.462 6.527 6.517 6.475 6.41 6.375 6.375 6.393 6.43 6.432 6.395 6.368 6.353 6.35 6.363 6.385 6.405 6.38 6.34 6.338 6.363 6.458 6.615 6.76 6.88 7.075 7.37 7.655 7.102 5.94 5.46 5.463 5.465 6.195 6.925 6.98 7.092 7.207 7.315 7.42 7.525 7.615 7.69 7.768 7.855 7.897 7.89 7.9 7.935 7.96 7.983 8.02 8.063 8.108 8.153 8.203 8.26 8.323 8.39 8.452 8.51 8.57 8.63 8.69 8.75 8.8 8.84 8.87 8.883 8.923 8.985 9 9.007 9.01 8.943 8.858 8.833 8.875 8.955 9.043 9.127 9.143 9.18 9.3 9.39 9.432 9.447 9.462 9.47 9.45 9.428 9.438 9.447 9.37 9.225 9.085 8.955 8.853 8.775
10.922 10.957 10.952 10.892 10.815 10.75 10.708 10.675 10.645 10.61 10.588 10.58 10.57 10.56 10.542 10.515 10.488 10.46 10.417 10.36 10.3 10.24 10.185 10.13 10.072 10.015 9.975 9.955 9.932 9.905 9.87 9.825 9.778 9.728 9.672 9.61 9.535 9.46 9.37 9.275 9.213 9.165 9.092 8.987 8.865 8.738 8.695 8.727 8.74 8.71 8.615 8.49 8.36 8.22 8.072 7.895 7.68 7.465 7.34 7.295 7.227 7.12 7.048 7.063 7.112 7.15 7.157 7.128 7.12 7.145 7.165 7.185 7.202 7.215 7.227 7.217 7.16 7.08 6.997 6.913 6.918 7.08 7.255 7.217 6.987 6.725 6.46 6.388 6.598 6.887 7.03 7.083 7.21 7.357 6.45 6.17 6.677 6.293 6.14 6.233 6.345 6.467 6.53 6.53 6.517 6.475 6.445 6.44 6.443 6.465 6.462 6.435 6.423 6.418 6.42 6.425 6.435 6.455 6.432 6.365 6.313 6.29 6.35 6.475 6.58 6.673 6.873 7.2 7.529 6.585 5.473 5.46 5.46 5.648 6.355 6.845 6.87 6.985 7.103 7.218 7.338 7.457 7.567 7.67 7.765 7.852 7.897 7.908 7.94 7.987 8.015 8.028 8.048 8.08 8.122 8.165 8.21 8.26 8.318 8.38 8.435 8.49 8.55 8.61 8.67 8.73 8.78 8.82 8.86 8.895 8.928 8.992 9.065 9.085 9.04 8.958 8.885 8.863 8.91 8.995 9.085 9.172 9.163 9.163 9.278 9.402 9.502 9.555 9.577 9.587 9.57 9.53 9.505 9.497 9.422 9.283 9.153 9.03 8.92 8.828
10.817 10.867 10.87 10.807 10.733 10.663 10.61 10.573 10.535 10.495 10.47 10.458 10.445 10.433 10.418 10.395 10.37 10.345 10.3 10.24 10.18 10.12 10.065 10.01 9.955 9.905 9.868 9.845 9.82 9.79 9.758 9.718 9.675 9.633 9.575 9.5 9.42 9.343 9.27 9.21 9.16 9.11 9.035 8.918 8.785 8.663 8.608 8.605 8.588 8.56 8.507 8.4 8.255 8.105 7.953 7.765 7.535 7.325 7.213 7.168 7.122 7.067 7.033 7.05 7.087 7.12 7.135 7.137 7.152 7.175 7.195 7.218 7.237 7.252 7.265 7.245 7.18 7.1 7.02 6.935 6.903 7.048 7.212 7.117 6.858 6.595 6.39 6.448 6.693 6.947 7.137 7.175 7.238 7.382 6.463 6.15 6.657 6.3 6.143 6.233 6.355 6.472 6.53 6.53 6.53 6.517 6.505 6.502 6.5 6.505 6.502 6.495 6.49 6.485 6.49 6.495 6.497 6.505 6.482 6.422 6.355 6.293 6.308 6.39 6.473 6.555 6.713 7.003 7.349 6.492 5.46 5.46 5.46 6.045 6.727 6.77 6.773 6.893 7.015 7.138 7.265 7.39 7.51 7.63 7.74 7.84 7.907 7.945 7.987 8.035 8.065 8.077 8.09 8.107 8.137 8.175 8.22 8.265 8.315 8.37 8.418 8.47 8.53 8.59 8.653 8.712 8.76 8.8 8.84 8.88 8.922 8.975 9.067 9.13 9.1 9.04 8.98 8.948 8.968 9.035 9.125 9.215 9.197 9.16 9.25 9.375 9.5 9.61 9.677 9.705 9.69 9.65 9.61 9.567 9.482 9.357 9.233 9.11 9 8.9
10.655 10.737 10.777 10.73 10.66 10.598 10.545 10.498 10.453 10.418 10.395 10.38 10.368 10.35 10.325 10.298 10.275 10.253 10.21 10.148 10.085 10.023 9.97 9.923 9.873 9.828 9.785 9.753 9.728 9.7 9.67 9.635 9.595 9.555 9.495 9.415 9.338 9.263 9.208 9.168 9.12 9.07 8.987 8.86 8.728 8.623 8.56 8.528 8.505 8.485 8.445 8.34 8.19 8.038 7.875 7.668 7.43 7.215 7.095 7.05 7.005 6.985 7.008 7.03 7.05 7.085 7.1 7.13 7.177 7.205 7.227 7.252 7.272 7.288 7.302 7.277 7.205 7.122 7.037 6.95 6.885 7 7.115 6.98 6.732 6.468 6.398 6.618 6.857 7.048 7.262 7.322 7.305 7.315 6.4 6.125 6.585 6.288 6.188 6.29 6.412 6.475 6.505 6.53 6.53 6.53 6.53 6.53 6.53 6.53 6.53 6.53 6.527 6.525 6.527 6.53 6.53 6.53 6.517 6.477 6.415 6.348 6.353 6.425 6.498 6.568 6.65 6.833 7.139 6.387 5.46 5.46 5.46 6.242 6.9 6.72 6.71 6.823 6.95 7.075 7.202 7.327 7.45 7.567 7.682 7.787 7.862 7.91 7.95 8.037 8.095 8.093 8.107 8.12 8.143 8.18 8.222 8.268 8.32 8.373 8.418 8.463 8.515 8.575 8.637 8.695 8.74 8.78 8.82 8.86 8.903 8.96 9.053 9.16 9.19 9.14 9.08 9.04 9.043 9.088 9.165 9.255 9.235 9.163 9.22 9.345 9.47 9.6 9.715 9.797 9.805 9.755 9.705 9.637 9.54 9.427 9.31 9.192 9.082 8.975
10.48 10.595 10.68 10.657 10.588 10.53 10.482 10.435 10.395 10.378 10.367 10.352 10.33 10.3 10.26 10.228 10.21 10.187 10.145 10.082 10.017 9.95 9.9 9.865 9.825 9.78 9.73 9.685 9.655 9.63 9.6 9.567 9.53 9.49 9.43 9.35 9.278 9.21 9.163 9.132 9.092 9.045 8.955 8.828 8.718 8.64 8.585 8.545 8.518 8.495 8.437 8.312 8.16 8.01 7.842 7.617 7.363 7.128 6.99 6.94 6.92 6.953 7.01 7.027 7.02 7.042 7.033 7.053 7.135 7.197 7.25 7.285 7.305 7.322 7.337 7.307 7.227 7.142 7.055 6.965 6.88 6.962 7.015 6.835 6.6 6.368 6.45 6.815 7.062 7.218 7.405 7.487 7.435 7.157 6.335 6.21 6.51 6.298 6.29 6.405 6.465 6.417 6.423 6.502 6.53 6.53 6.53 6.53 6.53 6.53 6.53 6.53 6.53 6.53 6.53 6.53 6.53 6.53 6.53 6.517 6.472 6.405 6.41 6.485 6.552 6.615 6.668 6.748 6.787 6.112 5.455 5.455 5.456 6.215 6.872 6.728 6.685 6.753 6.885 7.015 7.14 7.265 7.39 7.505 7.607 7.69 7.747 7.79 7.885 8.057 8.13 8.095 8.093 8.108 8.135 8.175 8.218 8.265 8.322 8.382 8.432 8.473 8.513 8.563 8.62 8.675 8.72 8.76 8.8 8.84 8.88 8.955 9.068 9.177 9.247 9.235 9.175 9.13 9.13 9.16 9.213 9.295 9.272 9.165 9.19 9.315 9.44 9.57 9.695 9.815 9.87 9.835 9.775 9.695 9.59 9.48 9.367 9.252 9.137 9.02
10.33 10.467 10.58 10.582 10.518 10.465 10.418 10.375 10.353 10.35 10.342 10.317 10.28 10.237 10.193 10.163 10.145 10.122 10.08 10.017 9.95 9.88 9.83 9.8 9.767 9.727 9.68 9.63 9.59 9.56 9.53 9.5 9.465 9.425 9.367 9.293 9.223 9.158 9.115 9.09 9.06 9.017 8.93 8.825 8.745 8.68 8.625 8.58 8.54 8.507 8.43 8.287 8.135 7.982 7.807 7.575 7.31 7.058 6.893 6.853 6.885 6.948 7.01 7.037 7.02 6.997 6.943 6.94 7.03 7.117 7.2 7.27 7.322 7.357 7.37 7.33 7.245 7.158 7.07 6.982 6.895 6.925 6.897 6.685 6.46 6.343 6.58 7.022 7.275 7.41 7.532 7.572 7.542 7 6.343 6.385 6.49 6.383 6.412 6.465 6.41 6.303 6.305 6.417 6.502 6.53 6.53 6.53 6.53 6.53 6.53 6.53 6.53 6.53 6.53 6.53 6.53 6.53 6.53 6.53 6.515 6.465 6.468 6.54 6.605 6.665 6.715 6.755 6.333 5.67 5.45 5.45 5.783 6.52 6.867 6.77 6.693 6.7 6.813 6.947 7.077 7.205 7.327 7.427 7.505 7.575 7.63 7.685 7.9 8.142 8.18 8.13 8.095 8.095 8.128 8.17 8.215 8.263 8.313 8.382 8.445 8.485 8.52 8.558 8.605 8.653 8.697 8.74 8.78 8.82 8.865 8.96 9.1 9.2 9.275 9.31 9.27 9.223 9.22 9.245 9.278 9.34 9.31 9.178 9.17 9.288 9.412 9.537 9.66 9.78 9.88 9.895 9.837 9.75 9.637 9.522 9.405 9.282 9.163 9.058
10.2 10.343 10.477 10.51 10.455 10.405 10.357 10.327 10.32 10.315 10.295 10.257 10.215 10.17 10.125 10.095 10.075 10.055 10.015 9.95 9.88 9.81 9.76 9.73 9.7 9.667 9.627 9.58 9.532 9.493 9.46 9.428 9.392 9.355 9.302 9.237 9.17 9.105 9.065 9.04 9.012 8.98 8.92 8.85 8.785 8.72 8.665 8.615 8.56 8.507 8.41 8.26 8.11 7.957 7.775 7.537 7.275 7.013 6.84 6.83 6.89 6.953 7.015 7.052 7.022 6.943 6.855 6.853 6.938 7.023 7.108 7.195 7.28 7.35 7.387 7.352 7.265 7.175 7.085 6.998 6.913 6.868 6.755 6.548 6.358 6.41 6.778 7.227 7.462 7.509 7.557 7.572 7.539 6.73 6.258 6.56 6.542 6.492 6.465 6.41 6.3 6.19 6.188 6.3 6.417 6.5 6.525 6.527 6.53 6.53 6.53 6.53 6.53 6.527 6.517 6.51 6.51 6.51 6.512 6.52 6.527 6.51 6.523 6.59 6.655 6.712 6.76 6.817 6.15 5.448 5.45 5.45 6.195 6.932 6.89 6.813 6.725 6.675 6.738 6.873 7.013 7.163 7.265 7.323 7.388 7.455 7.51 7.645 7.99 8.237 8.23 8.18 8.13 8.103 8.123 8.167 8.215 8.26 8.305 8.363 8.415 8.465 8.523 8.58 8.62 8.64 8.673 8.717 8.76 8.8 8.86 8.975 9.122 9.232 9.303 9.367 9.37 9.318 9.31 9.335 9.36 9.397 9.35 9.21 9.168 9.258 9.38 9.5 9.62 9.74 9.86 9.93 9.895 9.792 9.672 9.545 9.417 9.297 9.2 9.127
10.083 10.228 10.375 10.425 10.372 10.317 10.265 10.237 10.227 10.207 10.175 10.135 10.097 10.058 10.035 10.023 10.003 9.985 9.945 9.88 9.81 9.74 9.69 9.66 9.63 9.595 9.552 9.505 9.46 9.423 9.39 9.357 9.322 9.275 9.22 9.165 9.102 9.04 8.997 8.97 8.945 8.927 8.892 8.837 8.78 8.717 8.665 8.612 8.547 8.485 8.38 8.23 8.077 7.92 7.735 7.51 7.26 6.998 6.85 6.87 6.935 6.995 7.047 7.067 7.01 6.9 6.805 6.81 6.898 6.985 7.075 7.173 7.288 7.393 7.435 7.387 7.295 7.205 7.115 7.025 6.938 6.875 6.763 6.59 6.488 6.698 7.16 6.955 6.508 6.493 6.5 6.515 6.488 6.088 6.198 6.617 6.527 6.455 6.365 6.26 6.213 6.153 6.108 6.19 6.31 6.422 6.475 6.477 6.482 6.48 6.502 6.53 6.53 6.525 6.485 6.44 6.43 6.43 6.437 6.452 6.468 6.51 6.578 6.643 6.705 6.76 6.822 6.72 6.01 5.443 5.445 5.448 6.265 7.027 6.96 6.903 6.818 6.74 6.783 6.95 7.118 7.23 7.245 7.24 7.278 7.335 7.43 7.695 8.117 8.32 8.28 8.225 8.16 8.113 8.118 8.155 8.2 8.247 8.293 8.363 8.44 8.51 8.588 8.66 8.675 8.643 8.65 8.693 8.735 8.778 8.86 8.995 9.14 9.27 9.35 9.407 9.442 9.413 9.398 9.423 9.45 9.46 9.4 9.275 9.195 9.245 9.365 9.485 9.605 9.722 9.822 9.89 9.842 9.707 9.577 9.44 9.335 9.29 9.24 9.177
9.998 10.138 10.275 10.312 10.252 10.19 10.13 10.09 10.067 10.037 10.002 9.965 9.938 9.933 9.953 9.955 9.933 9.915 9.875 9.807 9.735 9.665 9.615 9.585 9.55 9.507 9.46 9.413 9.378 9.35 9.32 9.287 9.24 9.17 9.11 9.067 9.015 8.955 8.91 8.885 8.873 8.867 8.837 8.782 8.722 8.653 8.602 8.567 8.512 8.45 8.345 8.195 8.035 7.855 7.66 7.46 7.245 7.007 6.89 6.927 6.995 7.055 7.087 7.072 6.995 6.883 6.8 6.82 6.923 7.04 7.163 7.298 7.435 7.515 7.51 7.437 7.34 7.25 7.16 7.07 6.98 6.957 6.93 6.805 6.82 7.162 7.459 6.623 6.014 6.295 6.298 6.278 6.256 6.318 6.555 6.635 6.47 6.313 6.24 6.278 6.295 6.19 6.095 6.123 6.215 6.33 6.385 6.385 6.38 6.365 6.415 6.502 6.53 6.525 6.465 6.373 6.325 6.315 6.323 6.338 6.39 6.518 6.642 6.71 6.763 6.82 6.897 6.392 5.64 5.44 5.44 5.443 6.268 7.077 7.08 7.095 7.055 6.978 7.035 7.217 7.335 7.342 7.285 7.23 7.215 7.24 7.42 7.81 8.222 8.377 8.315 8.242 8.16 8.11 8.12 8.15 8.185 8.225 8.288 8.415 8.552 8.645 8.722 8.76 8.72 8.655 8.64 8.67 8.71 8.763 8.868 9.012 9.158 9.302 9.4 9.445 9.492 9.497 9.485 9.51 9.525 9.505 9.445 9.35 9.245 9.253 9.37 9.49 9.597 9.682 9.745 9.762 9.665 9.5 9.363 9.28 9.27 9.31 9.285 9.195
9.99 10.105 10.192 10.192 10.125 10.055 9.99 9.938 9.898 9.863 9.83 9.815 9.828 9.865 9.9 9.895 9.868 9.845 9.802 9.733 9.66 9.59 9.538 9.502 9.46 9.413 9.368 9.33 9.305 9.28 9.25 9.205 9.135 9.053 8.99 8.955 8.915 8.863 8.825 8.813 8.81 8.81 8.782 8.722 8.65 8.57 8.52 8.5 8.465 8.412 8.31 8.15 7.967 7.767 7.565 7.37 7.182 6.887 6.583 6.468 6.618 6.94 7.1 7.067 6.98 6.873 6.838 6.918 7.053 7.2 7.353 7.497 7.585 7.595 7.57 7.5 7.395 7.3 7.21 7.12 7.035 7.043 7.097 7.035 7.168 7.545 7.14 6.555 6.887 7.247 7.279 7.244 7.177 7.137 7.019 6.84 6.685 6.54 6.485 6.51 6.418 6.215 6.11 6.11 6.15 6.238 6.292 6.285 6.26 6.235 6.29 6.415 6.502 6.525 6.465 6.355 6.263 6.215 6.21 6.263 6.395 6.567 6.712 6.792 6.835 6.88 6.552 5.815 5.433 5.437 5.44 5.88 6.752 7.187 7.215 7.28 7.32 7.292 7.342 7.442 7.45 7.405 7.34 7.273 7.22 7.2 7.433 7.907 8.295 8.402 8.32 8.235 8.15 8.11 8.13 8.16 8.19 8.225 8.32 8.485 8.652 8.772 8.837 8.82 8.743 8.678 8.64 8.65 8.69 8.76 8.885 9.03 9.175 9.322 9.437 9.5 9.545 9.57 9.577 9.587 9.575 9.535 9.472 9.395 9.3 9.28 9.367 9.462 9.532 9.582 9.63 9.612 9.478 9.323 9.245 9.26 9.318 9.37 9.34 9.233
9.995 10.077 10.122 10.095 10.023 9.948 9.878 9.82 9.775 9.735 9.708 9.723 9.77 9.82 9.842 9.827 9.8 9.772 9.73 9.665 9.598 9.53 9.47 9.42 9.37 9.32 9.28 9.255 9.235 9.21 9.17 9.102 9.02 8.938 8.875 8.84 8.808 8.768 8.745 8.745 8.747 8.75 8.72 8.65 8.57 8.49 8.437 8.415 8.39 8.355 8.255 8.08 7.88 7.675 7.475 7.275 7.06 6.565 6.295 6.36 6.365 6.555 6.885 7.05 6.973 6.87 6.925 7.108 7.263 7.415 7.56 7.652 7.665 7.648 7.63 7.565 7.455 7.35 7.255 7.165 7.1 7.135 7.237 7.293 7.475 7.744 6.738 6.411 7.197 6.93 6.67 6.658 6.613 6.595 6.538 6.48 6.515 6.757 7.032 6.95 6.64 6.332 6.173 6.17 6.183 6.203 6.21 6.19 6.163 6.13 6.173 6.298 6.418 6.5 6.47 6.36 6.253 6.163 6.158 6.275 6.448 6.622 6.78 6.875 6.912 6.625 5.875 5.428 5.43 5.433 5.795 6.69 7.25 7.288 7.325 7.387 7.462 7.51 7.542 7.55 7.515 7.462 7.395 7.328 7.263 7.215 7.433 7.915 8.302 8.397 8.31 8.225 8.145 8.115 8.14 8.17 8.2 8.258 8.385 8.56 8.737 8.885 8.922 8.85 8.765 8.703 8.65 8.638 8.673 8.763 8.903 9.048 9.195 9.34 9.475 9.56 9.6 9.637 9.652 9.64 9.615 9.567 9.5 9.425 9.35 9.313 9.34 9.39 9.428 9.468 9.515 9.488 9.373 9.278 9.273 9.328 9.382 9.43 9.395 9.288
9.942 10.01 10.047 10.015 9.94 9.865 9.8 9.753 9.718 9.675 9.645 9.665 9.715 9.757 9.765 9.742 9.717 9.698 9.675 9.625 9.56 9.495 9.433 9.375 9.318 9.255 9.21 9.188 9.165 9.142 9.092 9.013 8.928 8.845 8.783 8.745 8.71 8.67 8.653 8.657 8.662 8.662 8.612 8.52 8.435 8.355 8.297 8.265 8.235 8.212 8.135 7.97 7.772 7.575 7.385 7.19 6.785 6.35 6.525 6.787 6.62 6.453 6.738 7.057 6.988 6.893 7.053 7.322 7.477 7.625 7.72 7.737 7.72 7.702 7.685 7.622 7.515 7.405 7.303 7.21 7.17 7.233 7.345 7.48 7.655 7.832 6.793 6.52 6.927 6.363 6.328 6.43 6.453 6.47 6.478 6.485 6.523 6.735 6.94 6.725 6.38 6.163 6.335 6.582 6.52 6.445 6.36 6.305 6.28 6.225 6.188 6.253 6.37 6.508 6.527 6.418 6.313 6.225 6.245 6.373 6.518 6.678 6.847 6.955 6.672 5.963 5.488 5.42 5.428 5.853 6.662 7.182 7.34 7.39 7.425 7.463 7.522 7.59 7.622 7.61 7.575 7.525 7.47 7.413 7.36 7.313 7.458 7.87 8.26 8.375 8.302 8.218 8.143 8.12 8.145 8.175 8.213 8.308 8.468 8.642 8.81 8.947 8.965 8.875 8.793 8.73 8.673 8.638 8.665 8.775 8.92 9.065 9.213 9.358 9.505 9.61 9.645 9.602 9.53 9.517 9.565 9.585 9.542 9.48 9.413 9.355 9.343 9.37 9.4 9.435 9.475 9.46 9.395 9.343 9.348 9.4 9.45 9.495 9.467 9.365
9.87 9.937 9.967 9.93 9.858 9.788 9.735 9.7 9.67 9.632 9.595 9.605 9.652 9.68 9.672 9.648 9.63 9.625 9.622 9.595 9.54 9.478 9.417 9.36 9.29 9.205 9.15 9.125 9.1 9.08 9.03 8.948 8.863 8.78 8.71 8.66 8.615 8.57 8.55 8.553 8.557 8.545 8.47 8.355 8.253 8.163 8.095 8.05 8.023 8.015 7.962 7.825 7.642 7.458 7.287 7.107 6.433 6.25 6.787 6.892 6.823 6.758 6.94 7.145 7.058 6.993 7.233 7.537 7.687 7.79 7.81 7.793 7.775 7.757 7.74 7.68 7.575 7.465 7.358 7.26 7.243 7.33 7.448 7.583 7.755 7.485 6.813 6.598 6.52 6.495 6.707 6.792 6.827 6.86 6.88 6.88 6.862 6.845 6.795 6.635 6.528 6.375 6.3 6.338 6.4 6.662 6.749 6.642 6.585 6.51 6.335 6.283 6.44 6.62 6.64 6.525 6.42 6.373 6.428 6.535 6.653 6.782 6.927 6.592 5.878 5.478 5.395 5.41 5.833 6.7 7.202 7.337 7.455 7.512 7.527 7.525 7.56 7.622 7.655 7.655 7.65 7.632 7.598 7.553 7.51 7.473 7.515 7.82 8.21 8.342 8.292 8.21 8.14 8.125 8.15 8.18 8.243 8.378 8.552 8.712 8.845 8.945 8.97 8.91 8.833 8.767 8.707 8.65 8.678 8.808 8.953 9.098 9.243 9.388 9.532 9.625 9.572 9.388 9.22 9.23 9.402 9.515 9.512 9.492 9.465 9.425 9.403 9.423 9.458 9.495 9.525 9.512 9.46 9.413 9.42 9.47 9.517 9.557 9.547 9.465
9.772 9.862 9.887 9.845 9.775 9.718 9.68 9.65 9.62 9.587 9.55 9.548 9.585 9.6 9.58 9.56 9.555 9.555 9.552 9.537 9.51 9.462 9.397 9.327 9.24 9.145 9.09 9.067 9.043 9.02 8.97 8.885 8.8 8.717 8.64 8.578 8.52 8.47 8.45 8.45 8.452 8.422 8.33 8.21 8.093 7.985 7.89 7.835 7.825 7.825 7.777 7.657 7.5 7.335 7.182 6.842 6.26 6.37 6.902 7.022 7.06 7.102 7.212 7.282 7.205 7.213 7.478 7.755 7.86 7.882 7.865 7.847 7.83 7.812 7.795 7.737 7.635 7.525 7.415 7.318 7.325 7.435 7.555 7.688 7.855 6.918 6.56 6.582 6.383 6.695 6.5 6.455 6.492 6.532 6.56 6.595 6.647 6.74 6.842 6.912 6.97 6.857 6.558 6.42 6.38 6.308 6.248 6.577 6.917 6.814 6.505 6.36 6.592 6.78 6.762 6.638 6.543 6.54 6.625 6.725 6.837 6.695 6.337 5.765 5.358 5.373 5.388 5.815 6.667 7.152 7.26 7.403 7.55 7.625 7.63 7.61 7.613 7.658 7.69 7.7 7.725 7.745 7.745 7.715 7.67 7.635 7.625 7.823 8.16 8.3 8.27 8.2 8.14 8.135 8.16 8.198 8.298 8.462 8.615 8.732 8.827 8.912 8.972 8.952 8.877 8.792 8.698 8.665 8.75 8.89 9.033 9.178 9.323 9.468 9.595 9.647 9.52 9.253 9 9.028 9.267 9.375 9.385 9.395 9.405 9.425 9.458 9.49 9.525 9.565 9.587 9.567 9.52 9.483 9.493 9.535 9.575 9.612 9.625 9.555
9.635 9.765 9.812 9.765 9.703 9.66 9.63 9.6 9.57 9.54 9.508 9.495 9.512 9.512 9.493 9.485 9.482 9.475 9.462 9.445 9.43 9.407 9.35 9.265 9.172 9.083 9.03 9.01 8.985 8.957 8.905 8.82 8.732 8.648 8.573 8.51 8.448 8.388 8.36 8.358 8.352 8.3 8.19 8.07 7.95 7.835 7.735 7.68 7.66 7.625 7.572 7.48 7.352 7.22 7.082 6.413 6.155 6.685 6.965 7.115 7.22 7.315 7.4 7.437 7.413 7.502 7.755 7.93 7.955 7.935 7.918 7.902 7.885 7.865 7.847 7.795 7.695 7.585 7.475 7.408 7.44 7.545 7.665 7.793 7.954 6.761 6.44 6.68 6.378 6.562 6.203 6.098 6.148 6.203 6.238 6.28 6.33 6.408 6.495 6.552 6.597 6.65 6.765 6.927 6.84 6.508 6.345 6.47 6.4 6.211 6.467 6.685 6.78 6.939 6.889 6.755 6.687 6.727 6.774 6.52 6.205 5.918 5.51 5.338 5.351 5.748 6.178 6.665 7.142 7.215 7.32 7.465 7.635 7.725 7.725 7.71 7.692 7.705 7.73 7.75 7.782 7.815 7.842 7.85 7.827 7.798 7.79 7.88 8.11 8.25 8.235 8.185 8.14 8.145 8.17 8.235 8.365 8.51 8.62 8.71 8.795 8.883 8.977 8.962 8.85 8.735 8.668 8.735 8.872 9.012 9.155 9.297 9.44 9.575 9.655 9.665 9.59 9.355 9.053 9.023 9.18 9.235 9.263 9.313 9.368 9.445 9.537 9.59 9.608 9.633 9.65 9.625 9.583 9.558 9.57 9.608 9.643 9.68 9.692 9.615
9.545 9.68 9.745 9.703 9.653 9.618 9.585 9.555 9.523 9.49 9.46 9.44 9.432 9.42 9.407 9.4 9.39 9.375 9.355 9.335 9.313 9.297 9.252 9.165 9.08 9.005 8.96 8.94 8.915 8.885 8.83 8.745 8.658 8.58 8.515 8.453 8.387 8.32 8.283 8.275 8.262 8.195 8.063 7.93 7.81 7.708 7.64 7.6 7.57 7.365 7.16 7.147 7.13 7.072 6.752 6.106 6.235 6.825 7.01 7.155 7.26 7.362 7.46 7.525 7.592 7.647 7.495 7.675 8.007 7.99 7.972 7.955 7.938 7.92 7.902 7.852 7.755 7.645 7.56 7.55 7.598 7.668 7.77 7.895 7.739 6.843 6.528 6.555 6.445 6.402 5.968 5.805 5.855 5.935 5.985 6.018 6.053 6.09 6.133 6.173 6.205 6.263 6.39 6.563 6.73 6.882 7.007 6.8 6.41 6.283 6.325 6.168 6.035 6.107 6.08 6.015 5.995 6.032 6.04 5.743 5.381 5.301 5.358 5.738 6.128 6.577 7.015 7.132 7.245 7.32 7.405 7.553 7.697 7.747 7.745 7.74 7.73 7.737 7.762 7.79 7.825 7.862 7.895 7.927 7.947 7.95 7.955 7.978 8.1 8.2 8.19 8.16 8.14 8.155 8.19 8.28 8.4 8.502 8.598 8.693 8.785 8.895 8.995 8.925 8.748 8.67 8.74 8.882 8.972 9.065 9.207 9.35 9.495 9.612 9.647 9.635 9.595 9.437 9.205 9.085 9.115 9.185 9.258 9.35 9.45 9.55 9.647 9.717 9.732 9.722 9.72 9.7 9.668 9.65 9.665 9.702 9.725 9.735 9.717 9.64
9.525 9.637 9.697 9.67 9.628 9.59 9.555 9.525 9.493 9.457 9.417 9.375 9.345 9.325 9.31 9.295 9.28 9.265 9.245 9.222 9.198 9.175 9.132 9.06 8.985 8.92 8.88 8.857 8.83 8.8 8.747 8.665 8.585 8.52 8.46 8.397 8.327 8.253 8.208 8.195 8.175 8.11 7.973 7.813 7.688 7.615 7.58 7.555 7.535 7.17 6.668 6.568 6.542 6.293 6.006 6.128 6.58 6.882 7.053 7.192 7.295 7.392 7.48 7.545 7.74 7.925 7.258 6.666 6.838 7.477 8.027 8.01 7.992 7.975 7.957 7.91 7.815 7.72 7.69 7.725 7.775 7.828 7.898 8 7.133 6.643 6.612 6.47 6.665 6.243 5.828 5.708 5.75 5.835 5.89 5.908 5.918 5.908 5.888 5.873 5.855 5.893 6.03 6.21 6.39 6.573 6.75 6.895 7.02 7.084 6.747 5.806 5.198 5.198 5.205 5.213 5.22 5.235 5.251 5.261 5.458 5.878 6.205 6.685 7.154 7.245 7.258 7.305 7.373 7.445 7.535 7.647 7.71 7.703 7.695 7.7 7.715 7.745 7.777 7.807 7.842 7.877 7.912 7.95 7.987 8.02 8.047 8.075 8.125 8.155 8.148 8.138 8.14 8.16 8.21 8.305 8.405 8.5 8.6 8.71 8.835 8.977 9.032 8.9 8.74 8.763 8.925 9.037 9.04 9.063 9.18 9.33 9.485 9.582 9.595 9.56 9.462 9.315 9.178 9.085 9.098 9.2 9.302 9.402 9.507 9.612 9.715 9.802 9.812 9.755 9.73 9.74 9.75 9.752 9.76 9.772 9.765 9.745 9.707 9.635
9.525 9.615 9.667 9.65 9.61 9.573 9.538 9.505 9.472 9.425 9.36 9.295 9.253 9.225 9.203 9.188 9.172 9.155 9.132 9.108 9.085 9.065 9.027 8.97 8.905 8.84 8.8 8.772 8.74 8.71 8.662 8.59 8.52 8.462 8.402 8.337 8.265 8.188 8.135 8.11 8.082 8.032 7.912 7.733 7.61 7.568 7.545 7.525 7.505 7.12 6.415 6.003 5.775 5.676 5.99 6.507 6.832 6.985 7.135 7.243 7.323 7.417 7.503 7.633 7.887 8.134 7.717 6.913 6.626 6.76 6.821 7.385 8.022 8.027 8.012 7.967 7.88 7.83 7.858 7.91 7.96 8.012 8.065 8.129 6.821 6.418 6.69 6.53 6.722 6.11 5.788 5.76 5.78 5.835 5.885 5.89 5.875 5.847 5.8 5.743 5.698 5.708 5.81 5.98 6.17 6.38 6.605 6.775 6.9 7.027 7.097 6.155 5.205 5.203 5.205 5.208 5.21 5.225 5.453 5.833 6.23 6.737 7.11 7.302 7.442 7.497 7.51 7.522 7.535 7.577 7.65 7.69 7.685 7.665 7.663 7.685 7.718 7.755 7.785 7.813 7.845 7.878 7.913 7.95 7.985 8.02 8.06 8.095 8.117 8.122 8.12 8.123 8.133 8.15 8.213 8.318 8.42 8.525 8.645 8.783 8.935 9.092 9.125 9.018 8.935 8.993 9.117 9.145 9.115 9.123 9.188 9.315 9.467 9.54 9.505 9.408 9.288 9.185 9.12 9.088 9.108 9.193 9.297 9.402 9.51 9.62 9.725 9.807 9.785 9.695 9.67 9.705 9.745 9.785 9.805 9.787 9.762 9.74 9.695 9.615
9.532 9.612 9.65 9.63 9.592 9.557 9.52 9.477 9.425 9.355 9.273 9.203 9.16 9.125 9.095 9.08 9.065 9.042 9.018 9 8.993 8.972 8.927 8.872 8.815 8.758 8.718 8.688 8.655 8.623 8.58 8.525 8.465 8.407 8.345 8.275 8.2 8.123 8.058 8.015 7.985 7.947 7.842 7.675 7.575 7.545 7.518 7.495 7.475 7.097 6.313 5.656 5.713 6.295 6.7 6.872 6.998 7.145 7.272 7.338 7.38 7.45 7.553 7.71 7.857 7.92 7.86 7.705 7.517 6.95 6.404 6.698 6.92 7.27 7.914 8.025 7.98 7.99 8.042 8.09 8.127 8.165 8.205 8.042 6.898 6.705 6.787 6.505 6.587 6.03 5.803 5.817 5.828 5.85 5.867 5.85 5.818 5.785 5.753 5.723 5.708 5.713 5.768 5.883 6.058 6.308 6.557 6.725 6.848 6.975 6.567 5.655 5.215 5.21 5.208 5.208 5.38 5.745 6.147 6.547 6.842 7.045 7.222 7.365 7.465 7.52 7.55 7.577 7.605 7.635 7.672 7.697 7.69 7.668 7.665 7.695 7.732 7.765 7.793 7.82 7.85 7.883 7.918 7.952 7.985 8.018 8.05 8.07 8.085 8.098 8.103 8.11 8.12 8.138 8.213 8.333 8.45 8.575 8.717 8.87 9.022 9.175 9.237 9.217 9.2 9.232 9.29 9.307 9.322 9.342 9.33 9.348 9.44 9.46 9.383 9.295 9.225 9.18 9.138 9.108 9.125 9.193 9.29 9.397 9.503 9.61 9.717 9.782 9.717 9.618 9.6 9.62 9.655 9.737 9.797 9.782 9.758 9.735 9.682 9.595
9.537 9.61 9.635 9.61 9.572 9.537 9.492 9.422 9.342 9.262 9.178 9.11 9.068 9.025 8.99 8.972 8.953 8.933 8.92 8.918 8.915 8.88 8.823 8.768 8.72 8.68 8.645 8.615 8.585 8.55 8.513 8.467 8.41 8.35 8.288 8.22 8.148 8.073 7.995 7.925 7.875 7.837 7.747 7.625 7.56 7.53 7.5 7.472 7.45 7.077 6.263 5.853 6.437 7.069 7.145 7.138 7.198 7.322 7.425 7.467 7.492 7.52 7.585 7.67 7.725 7.763 7.71 7.573 7.45 7.35 7.257 6.935 6.466 6.611 6.863 7.293 7.962 8.132 8.17 8.202 8.227 8.255 8.282 7.445 6.74 6.84 6.658 6.647 6.487 6.015 5.84 5.857 5.87 5.875 5.863 5.835 5.803 5.768 5.745 5.74 5.738 5.743 5.79 5.87 6.015 6.273 6.52 6.675 6.798 6.962 6.15 5.231 5.225 5.22 5.213 5.548 6.082 6.48 6.69 6.74 6.895 7.09 7.227 7.33 7.42 7.482 7.515 7.543 7.57 7.6 7.643 7.702 7.725 7.703 7.688 7.705 7.745 7.775 7.8 7.828 7.855 7.888 7.922 7.955 7.988 8.023 8.05 8.068 8.085 8.11 8.13 8.14 8.15 8.158 8.228 8.358 8.488 8.627 8.775 8.925 9.075 9.222 9.302 9.32 9.34 9.37 9.415 9.47 9.515 9.522 9.475 9.423 9.422 9.393 9.33 9.288 9.243 9.2 9.155 9.128 9.15 9.203 9.283 9.39 9.497 9.603 9.71 9.755 9.657 9.528 9.488 9.498 9.56 9.69 9.775 9.775 9.752 9.725 9.665 9.578
9.537 9.595 9.612 9.587 9.547 9.502 9.447 9.345 9.238 9.16 9.083 9.025 8.983 8.933 8.89 8.865 8.85 8.845 8.848 8.85 8.827 8.778 8.725 8.68 8.645 8.615 8.585 8.555 8.525 8.492 8.457 8.412 8.355 8.293 8.235 8.177 8.11 8.04 7.957 7.86 7.78 7.725 7.653 7.582 7.545 7.512 7.477 7.442 7.375 6.845 6.363 6.6 7.032 7.267 7.327 7.355 7.402 7.497 7.565 7.58 7.59 7.592 7.598 7.635 7.695 7.755 7.725 7.608 7.51 7.425 7.335 7.245 7.155 6.917 6.466 6.503 6.811 7.452 8.157 8.25 8.285 8.312 8.337 6.968 6.503 6.75 6.563 6.85 6.438 6.045 5.88 5.895 5.897 5.887 5.872 5.852 5.825 5.79 5.768 5.763 5.765 5.78 5.828 5.913 6.035 6.255 6.482 6.628 6.762 6.802 6.005 5.238 5.233 5.228 5.488 6.177 6.645 6.712 6.772 6.832 6.947 7.09 7.19 7.28 7.37 7.44 7.48 7.51 7.537 7.565 7.613 7.69 7.742 7.74 7.718 7.72 7.755 7.785 7.81 7.835 7.86 7.893 7.925 7.958 7.998 8.042 8.075 8.095 8.125 8.17 8.2 8.21 8.207 8.19 8.248 8.382 8.52 8.665 8.815 8.965 9.115 9.265 9.347 9.368 9.398 9.438 9.49 9.545 9.562 9.54 9.505 9.467 9.43 9.39 9.347 9.303 9.26 9.217 9.173 9.15 9.175 9.223 9.288 9.383 9.49 9.597 9.702 9.727 9.612 9.445 9.355 9.385 9.503 9.657 9.752 9.762 9.745 9.712 9.647 9.562
9.525 9.577 9.592 9.557 9.51 9.455 9.395 9.28 9.138 9.045 8.985 8.95 8.912 8.855 8.808 8.78 8.773 8.778 8.785 8.772 8.73 8.685 8.648 8.613 8.583 8.555 8.525 8.5 8.47 8.435 8.4 8.357 8.302 8.235 8.178 8.13 8.075 8.01 7.922 7.815 7.718 7.64 7.557 7.487 7.447 7.41 7.38 7.247 6.788 6.543 6.827 7.06 7.137 7.215 7.3 7.4 7.512 7.602 7.632 7.635 7.64 7.637 7.635 7.66 7.713 7.767 7.752 7.668 7.588 7.505 7.415 7.325 7.227 7.12 7.005 6.712 6.358 6.508 6.906 7.632 8.267 8.332 8.387 7.058 6.615 6.815 6.628 6.885 6.438 6.083 5.918 5.922 5.912 5.895 5.878 5.862 5.842 5.813 5.793 5.793 5.805 5.825 5.868 5.958 6.075 6.255 6.447 6.59 6.78 6.372 5.545 5.245 5.24 5.288 5.875 6.527 6.687 6.755 6.82 6.865 6.932 7.042 7.137 7.23 7.322 7.402 7.447 7.475 7.503 7.528 7.578 7.66 7.742 7.772 7.753 7.743 7.765 7.795 7.82 7.845 7.87 7.9 7.93 7.968 8.015 8.067 8.105 8.135 8.185 8.24 8.27 8.27 8.245 8.213 8.265 8.403 8.55 8.7 8.852 9.005 9.157 9.307 9.397 9.435 9.477 9.525 9.577 9.605 9.585 9.55 9.52 9.487 9.45 9.41 9.365 9.32 9.277 9.233 9.19 9.173 9.198 9.245 9.3 9.378 9.48 9.59 9.697 9.702 9.565 9.385 9.26 9.31 9.47 9.622 9.725 9.745 9.735 9.702 9.632 9.545
9.505 9.56 9.57 9.52 9.463 9.403 9.34 9.23 9.068 8.943 8.893 8.88 8.855 8.815 8.78 8.75 8.725 8.718 8.715 8.687 8.645 8.61 8.58 8.548 8.518 8.493 8.468 8.45 8.432 8.4 8.353 8.303 8.245 8.175 8.115 8.068 8.022 7.972 7.887 7.775 7.667 7.567 7.45 7.335 7.283 7.272 7.077 6.545 6.331 6.815 7.112 7.043 7.08 7.18 7.293 7.42 7.555 7.63 7.635 7.637 7.645 7.652 7.667 7.692 7.732 7.775 7.787 7.745 7.67 7.585 7.49 7.387 7.272 7.15 7.028 6.945 6.952 6.638 6.371 6.633 7.008 7.749 7.869 6.98 6.93 6.825 6.688 6.857 6.473 6.135 5.973 5.95 5.923 5.903 5.885 5.868 5.852 5.832 5.82 5.83 5.85 5.87 5.915 6.01 6.127 6.265 6.418 6.57 6.857 6.162 5.258 5.255 5.25 5.608 6.252 6.587 6.692 6.78 6.82 6.802 6.843 6.957 7.062 7.162 7.262 7.357 7.412 7.44 7.47 7.498 7.55 7.635 7.727 7.787 7.79 7.77 7.778 7.805 7.83 7.855 7.88 7.91 7.945 7.99 8.043 8.098 8.143 8.19 8.252 8.31 8.33 8.307 8.27 8.235 8.288 8.43 8.58 8.732 8.887 9.035 9.18 9.32 9.417 9.48 9.54 9.6 9.64 9.632 9.598 9.57 9.542 9.505 9.465 9.425 9.382 9.34 9.295 9.25 9.208 9.193 9.223 9.27 9.318 9.38 9.473 9.58 9.69 9.677 9.52 9.345 9.21 9.22 9.37 9.552 9.682 9.707 9.682 9.652 9.59 9.5
9.482 9.537 9.547 9.5 9.438 9.373 9.308 9.217 9.07 8.923 8.865 8.855 8.838 8.82 8.79 8.75 8.71 8.68 8.648 8.61 8.578 8.545 8.515 8.485 8.455 8.433 8.415 8.4 8.395 8.382 8.347 8.29 8.218 8.125 8.053 8.012 7.97 7.93 7.83 7.69 7.575 7.457 7.32 7.21 7.187 6.935 6.463 6.323 6.775 7.095 6.98 6.975 7.078 7.208 7.35 7.492 7.602 7.64 7.635 7.63 7.628 7.63 7.652 7.685 7.72 7.757 7.792 7.8 7.747 7.652 7.54 7.417 7.293 7.17 7.058 6.965 6.925 6.957 7.017 6.66 6.403 6.69 6.418 6.658 6.977 6.758 7 6.955 6.65 6.368 6.215 6.175 6.135 6.048 5.933 5.878 5.863 5.845 5.843 5.86 5.88 5.903 5.95 6.037 6.147 6.262 6.395 6.607 6.635 5.895 5.265 5.262 5.258 5.88 6.535 6.61 6.705 6.777 6.755 6.688 6.73 6.852 6.965 7.07 7.175 7.297 7.39 7.43 7.458 7.485 7.54 7.625 7.715 7.792 7.817 7.798 7.8 7.83 7.86 7.89 7.923 7.955 7.995 8.045 8.1 8.142 8.18 8.235 8.297 8.352 8.357 8.32 8.282 8.248 8.305 8.455 8.602 8.747 8.892 9.032 9.17 9.295 9.39 9.465 9.537 9.612 9.657 9.647 9.62 9.6 9.565 9.52 9.48 9.44 9.4 9.357 9.313 9.27 9.225 9.21 9.245 9.295 9.343 9.395 9.473 9.573 9.677 9.647 9.475 9.318 9.195 9.123 9.193 9.39 9.56 9.597 9.552 9.525 9.497 9.43
9.455 9.51 9.53 9.495 9.433 9.37 9.302 9.225 9.12 8.983 8.905 8.883 8.858 8.835 8.797 8.755 8.715 8.672 8.615 8.555 8.515 8.485 8.455 8.425 8.398 8.38 8.365 8.35 8.345 8.345 8.34 8.312 8.227 8.08 7.97 7.942 7.925 7.89 7.77 7.588 7.44 7.31 7.19 7.14 6.827 6.413 6.468 6.887 7.117 7.04 6.975 7.01 7.14 7.283 7.427 7.562 7.632 7.64 7.635 7.627 7.612 7.59 7.605 7.65 7.69 7.733 7.775 7.812 7.787 7.685 7.56 7.43 7.313 7.208 7.113 7.03 6.955 6.923 6.958 7.022 7.052 6.728 6.456 7.06 6.893 6.773 7.367 7.252 7.023 6.775 6.63 6.59 6.497 6.292 6.075 5.943 5.88 5.858 5.858 5.875 5.9 5.93 5.975 6.045 6.138 6.245 6.395 6.71 6.255 5.425 5.27 5.268 5.438 6.075 6.575 6.65 6.735 6.78 6.683 6.57 6.62 6.745 6.862 6.97 7.08 7.238 7.367 7.425 7.462 7.49 7.545 7.63 7.72 7.8 7.827 7.82 7.843 7.885 7.925 7.963 8 8.038 8.078 8.127 8.172 8.187 8.21 8.263 8.32 8.367 8.365 8.323 8.285 8.253 8.313 8.467 8.62 8.75 8.873 9.01 9.147 9.26 9.345 9.422 9.5 9.58 9.647 9.667 9.652 9.625 9.582 9.54 9.5 9.457 9.415 9.373 9.33 9.287 9.243 9.233 9.27 9.318 9.365 9.415 9.478 9.568 9.657 9.605 9.438 9.305 9.195 9.085 9.045 9.168 9.355 9.42 9.388 9.368 9.362 9.337
9.425 9.482 9.515 9.49 9.43 9.365 9.29 9.213 9.135 9.033 8.953 8.913 8.878 8.845 8.805 8.765 8.725 8.677 8.612 8.538 8.475 8.428 8.393 8.368 8.345 8.33 8.315 8.3 8.295 8.295 8.292 8.272 8.182 8.017 7.86 7.813 7.833 7.832 7.737 7.55 7.343 7.17 7.062 6.783 6.428 6.608 7.07 7.197 7.153 7.128 7.103 7.125 7.228 7.363 7.502 7.61 7.642 7.625 7.592 7.557 7.535 7.54 7.583 7.637 7.68 7.723 7.768 7.81 7.792 7.692 7.57 7.458 7.36 7.273 7.19 7.11 7.03 6.953 6.938 7.01 7.138 7.302 7.455 7.629 6.965 6.853 7.547 7.545 7.415 7.195 7.048 6.962 6.765 6.498 6.278 6.103 5.96 5.885 5.873 5.893 5.925 5.963 6.008 6.07 6.148 6.238 6.448 6.862 6.192 5.273 5.275 5.275 5.805 6.46 6.62 6.693 6.77 6.807 6.633 6.45 6.505 6.632 6.757 6.873 7.023 7.212 7.335 7.4 7.457 7.495 7.55 7.635 7.725 7.807 7.84 7.855 7.903 7.952 7.997 8.04 8.08 8.12 8.16 8.2 8.22 8.218 8.24 8.29 8.345 8.382 8.37 8.327 8.285 8.253 8.318 8.478 8.64 8.765 8.865 8.99 9.12 9.22 9.3 9.38 9.463 9.55 9.637 9.69 9.682 9.64 9.595 9.555 9.515 9.473 9.43 9.39 9.347 9.303 9.26 9.255 9.295 9.342 9.39 9.44 9.49 9.565 9.632 9.565 9.42 9.305 9.195 9.085 8.983 8.99 9.128 9.225 9.225 9.21 9.208 9.202
9.405 9.468 9.507 9.485 9.43 9.37 9.295 9.218 9.14 9.068 9.01 8.958 8.9 8.853 8.815 8.778 8.74 8.687 8.617 8.543 8.468 8.4 8.348 8.315 8.295 8.278 8.262 8.248 8.24 8.24 8.222 8.162 8.06 7.925 7.775 7.72 7.778 7.815 7.715 7.49 7.227 6.947 6.658 6.498 6.755 7.19 7.345 7.325 7.3 7.275 7.25 7.245 7.32 7.452 7.565 7.595 7.565 7.52 7.463 7.433 7.453 7.51 7.575 7.632 7.68 7.72 7.763 7.802 7.787 7.705 7.608 7.518 7.433 7.35 7.27 7.19 7.11 7.045 7.02 7.08 7.23 7.405 7.552 7.42 6.85 7.03 7.62 7.677 7.675 7.57 7.427 7.242 6.977 6.702 6.482 6.307 6.127 5.968 5.9 5.917 5.955 5.995 6.042 6.102 6.173 6.248 6.54 6.59 5.83 5.278 5.28 5.28 6.003 6.677 6.668 6.74 6.812 6.842 6.61 6.355 6.39 6.52 6.648 6.77 6.998 7.225 7.315 7.378 7.44 7.493 7.555 7.64 7.728 7.812 7.87 7.913 7.968 8.017 8.06 8.105 8.15 8.19 8.23 8.252 8.25 8.243 8.268 8.32 8.372 8.397 8.372 8.33 8.285 8.25 8.323 8.492 8.66 8.785 8.875 8.98 9.09 9.182 9.268 9.355 9.445 9.537 9.63 9.702 9.702 9.653 9.61 9.57 9.53 9.49 9.45 9.41 9.365 9.32 9.278 9.275 9.318 9.365 9.415 9.465 9.513 9.57 9.605 9.537 9.415 9.305 9.203 9.108 9.015 8.953 8.96 9.03 9.065 9.053 9.063 9.083
9.413 9.477 9.507 9.477 9.433 9.39 9.325 9.245 9.168 9.125 9.092 9.027 8.938 8.863 8.823 8.79 8.755 8.697 8.625 8.555 8.483 8.413 8.335 8.27 8.243 8.225 8.21 8.195 8.185 8.17 8.12 8.032 7.92 7.805 7.735 7.745 7.762 7.71 7.555 7.307 7.002 6.565 6.458 6.872 7.225 7.4 7.477 7.47 7.447 7.425 7.4 7.378 7.425 7.547 7.602 7.51 7.403 7.353 7.335 7.368 7.43 7.5 7.565 7.625 7.677 7.72 7.76 7.8 7.797 7.743 7.672 7.592 7.51 7.43 7.35 7.27 7.198 7.153 7.145 7.2 7.335 7.505 7.652 7.083 6.751 7.337 7.67 7.75 7.792 7.777 7.647 7.397 7.112 6.842 6.637 6.47 6.272 6.043 5.913 5.92 5.955 5.995 6.05 6.125 6.197 6.265 6.64 6.2 5.351 5.28 5.28 5.635 6.37 6.712 6.713 6.787 6.855 6.875 6.625 6.3 6.278 6.405 6.55 6.715 7.008 7.257 7.333 7.395 7.455 7.515 7.57 7.645 7.735 7.82 7.927 8.017 8.055 8.065 8.085 8.127 8.172 8.215 8.25 8.265 8.26 8.253 8.278 8.33 8.372 8.38 8.345 8.3 8.26 8.245 8.32 8.477 8.642 8.767 8.86 8.955 9.05 9.142 9.235 9.327 9.422 9.515 9.607 9.692 9.71 9.667 9.625 9.585 9.545 9.505 9.465 9.425 9.382 9.34 9.295 9.295 9.342 9.39 9.44 9.488 9.535 9.585 9.6 9.542 9.45 9.357 9.27 9.192 9.117 9.043 8.97 8.95 8.978 9 9.007 9
9.435 9.502 9.517 9.478 9.44 9.405 9.35 9.275 9.218 9.207 9.185 9.102 8.99 8.888 8.825 8.79 8.755 8.705 8.642 8.577 8.51 8.44 8.348 8.248 8.193 8.173 8.157 8.142 8.12 8.07 7.995 7.897 7.785 7.695 7.69 7.707 7.63 7.465 7.262 6.977 6.538 6.463 6.937 7.265 7.368 7.507 7.597 7.607 7.59 7.57 7.547 7.523 7.545 7.645 7.632 7.405 7.245 7.245 7.29 7.355 7.42 7.49 7.555 7.618 7.673 7.718 7.76 7.802 7.827 7.8 7.735 7.665 7.59 7.51 7.43 7.35 7.29 7.255 7.268 7.338 7.45 7.605 7.762 7.048 6.855 7.527 7.66 7.752 7.797 7.795 7.687 7.445 7.155 6.9 6.72 6.57 6.347 6.055 5.903 5.91 5.938 5.97 6.028 6.12 6.208 6.288 6.654 6.132 5.285 5.285 5.285 6.05 6.792 6.748 6.76 6.83 6.887 6.902 6.657 6.315 6.248 6.37 6.555 6.758 7.062 7.305 7.38 7.445 7.505 7.565 7.583 7.63 7.74 7.833 7.982 8.142 8.182 8.143 8.105 8.115 8.158 8.2 8.227 8.242 8.247 8.245 8.27 8.315 8.335 8.322 8.285 8.245 8.23 8.25 8.315 8.438 8.59 8.712 8.807 8.905 9 9.092 9.187 9.28 9.373 9.47 9.57 9.662 9.705 9.682 9.64 9.6 9.56 9.52 9.48 9.44 9.4 9.357 9.315 9.318 9.365 9.415 9.465 9.512 9.555 9.592 9.59 9.535 9.467 9.402 9.335 9.27 9.207 9.142 9.077 9.02 8.995 8.992 8.957 8.897
9.455 9.517 9.525 9.485 9.45 9.415 9.372 9.32 9.293 9.3 9.265 9.167 9.05 8.935 8.838 8.78 8.745 8.702 8.652 8.597 8.537 8.467 8.372 8.258 8.163 8.118 8.1 8.07 8.017 7.947 7.865 7.765 7.665 7.61 7.585 7.515 7.405 7.245 6.93 6.523 6.448 6.892 7.302 7.415 7.493 7.615 7.717 7.742 7.727 7.71 7.692 7.67 7.665 7.74 7.662 7.373 7.235 7.28 7.348 7.413 7.48 7.55 7.618 7.68 7.72 7.745 7.77 7.803 7.845 7.845 7.792 7.727 7.66 7.587 7.51 7.432 7.365 7.348 7.403 7.485 7.575 7.707 7.784 7.03 6.933 7.567 7.605 7.682 7.73 7.745 7.672 7.465 7.173 6.935 6.775 6.647 6.445 6.143 5.985 5.998 6.023 6.03 6.128 6.275 6.358 6.45 6.297 5.69 5.29 5.29 5.291 6.118 6.867 6.78 6.803 6.86 6.907 6.93 6.757 6.493 6.368 6.44 6.645 6.845 7.13 7.355 7.427 7.492 7.555 7.615 7.595 7.603 7.72 7.833 8.005 8.222 8.315 8.272 8.198 8.153 8.155 8.18 8.202 8.217 8.23 8.235 8.257 8.282 8.277 8.26 8.23 8.213 8.233 8.27 8.325 8.413 8.538 8.657 8.753 8.85 8.947 9.04 9.135 9.23 9.323 9.423 9.527 9.625 9.685 9.687 9.655 9.615 9.575 9.535 9.495 9.455 9.415 9.373 9.335 9.343 9.39 9.44 9.485 9.522 9.552 9.575 9.562 9.493 9.415 9.357 9.3 9.245 9.195 9.14 9.085 9.035 8.967 8.895 8.833 8.775
9.475 9.53 9.535 9.503 9.468 9.433 9.403 9.383 9.38 9.39 9.327 9.207 9.1 8.99 8.877 8.788 8.735 8.69 8.645 8.6 8.55 8.487 8.395 8.282 8.167 8.078 8.022 7.965 7.895 7.825 7.742 7.647 7.555 7.49 7.413 7.3 7.193 7.037 6.59 6.41 6.88 7.155 7.283 7.52 7.632 7.73 7.842 7.88 7.863 7.847 7.832 7.815 7.795 7.83 7.715 7.48 7.405 7.438 7.503 7.57 7.64 7.71 7.78 7.832 7.85 7.853 7.858 7.873 7.895 7.9 7.848 7.768 7.702 7.637 7.575 7.502 7.443 7.465 7.547 7.632 7.715 7.822 7.437 6.773 7.088 7.555 7.55 7.607 7.632 7.67 7.657 7.485 7.193 6.973 6.813 6.697 6.575 6.318 6.158 6.175 6.192 6.163 6.29 6.557 6.705 6.822 6.095 5.291 5.29 5.29 5.75 6.59 6.905 6.84 6.835 6.842 6.885 6.94 6.917 6.777 6.598 6.57 6.733 6.933 7.197 7.405 7.475 7.54 7.605 7.662 7.625 7.593 7.685 7.82 8.018 8.237 8.365 8.362 8.295 8.227 8.178 8.165 8.18 8.195 8.21 8.223 8.233 8.233 8.22 8.208 8.2 8.215 8.25 8.29 8.345 8.415 8.503 8.603 8.698 8.795 8.893 8.988 9.083 9.178 9.278 9.38 9.485 9.58 9.645 9.675 9.662 9.625 9.585 9.545 9.507 9.47 9.43 9.39 9.355 9.365 9.41 9.447 9.48 9.505 9.525 9.545 9.55 9.467 9.355 9.288 9.225 9.168 9.115 9.06 9.005 8.955 8.88 8.783 8.708 8.655
9.495 9.56 9.57 9.54 9.505 9.473 9.455 9.455 9.465 9.475 9.387 9.213 9.08 8.977 8.87 8.778 8.723 8.682 8.637 8.592 8.547 8.465 8.35 8.237 8.122 8.015 7.93 7.86 7.79 7.707 7.612 7.517 7.425 7.353 7.278 7.18 7.082 6.84 6.473 6.698 7.09 7.06 7.2 7.517 7.74 7.857 7.965 8.017 8 7.985 7.97 7.952 7.935 7.92 7.825 7.695 7.633 7.633 7.69 7.757 7.825 7.895 7.962 8.002 8.01 8.01 8.015 8.02 8.05 8.088 7.998 7.82 7.678 7.588 7.537 7.49 7.495 7.572 7.667 7.762 7.857 7.952 7.158 6.713 7.347 7.517 7.495 7.525 7.508 7.562 7.62 7.487 7.223 7.018 6.838 6.728 6.69 6.493 6.335 6.355 6.345 6.278 6.395 6.73 7.015 7.169 6.252 5.29 5.29 5.29 6.217 7.082 6.952 6.865 6.802 6.78 6.84 6.927 7.002 7 6.875 6.748 6.818 7.018 7.265 7.455 7.525 7.588 7.652 7.707 7.665 7.595 7.653 7.813 8.012 8.18 8.302 8.367 8.342 8.28 8.213 8.168 8.168 8.183 8.2 8.223 8.23 8.218 8.205 8.198 8.213 8.245 8.28 8.325 8.385 8.455 8.525 8.598 8.678 8.76 8.843 8.935 9.033 9.133 9.243 9.35 9.442 9.52 9.585 9.637 9.657 9.635 9.595 9.555 9.517 9.482 9.445 9.405 9.37 9.373 9.402 9.427 9.452 9.475 9.495 9.515 9.535 9.457 9.313 9.223 9.16 9.1 9.04 8.98 8.925 8.875 8.812 8.698 8.595 8.548
9.525 9.6 9.615 9.587 9.555 9.533 9.533 9.538 9.545 9.555 9.47 9.263 9.058 8.91 8.805 8.74 8.707 8.675 8.63 8.585 8.532 8.397 8.238 8.125 8.02 7.925 7.845 7.772 7.687 7.58 7.465 7.363 7.28 7.23 7.18 7.102 7.022 6.643 6.578 6.987 7.05 6.96 7.108 7.445 7.757 7.962 8.087 8.147 8.137 8.123 8.107 8.09 8.072 8.05 8.01 7.945 7.873 7.85 7.885 7.943 8.01 8.08 8.137 8.162 8.167 8.17 8.188 8.238 8.33 8.4 8.28 8.02 7.78 7.593 7.45 7.4 7.467 7.572 7.68 7.787 7.885 7.977 7.178 6.918 7.52 7.47 7.428 7.432 7.398 7.445 7.542 7.472 7.26 7.052 6.863 6.775 6.78 6.642 6.515 6.517 6.467 6.383 6.503 6.838 7.182 6.999 5.968 5.29 5.29 5.29 6.222 7.092 6.937 6.8 6.73 6.74 6.82 6.912 7 7.075 7.082 6.973 6.948 7.105 7.337 7.507 7.575 7.635 7.7 7.752 7.705 7.598 7.625 7.792 7.96 8.085 8.2 8.307 8.352 8.317 8.245 8.183 8.165 8.18 8.205 8.24 8.255 8.243 8.233 8.23 8.248 8.283 8.328 8.388 8.453 8.518 8.585 8.65 8.715 8.778 8.838 8.908 9 9.11 9.22 9.315 9.385 9.45 9.515 9.575 9.625 9.635 9.605 9.565 9.525 9.488 9.453 9.418 9.383 9.365 9.378 9.402 9.425 9.445 9.465 9.488 9.512 9.447 9.288 9.168 9.1 9.037 8.973 8.91 8.85 8.795 8.742 8.64 8.535 8.485
9.565 9.64 9.657 9.633 9.6 9.592 9.612 9.622 9.63 9.637 9.57 9.38 9.135 8.9 8.76 8.715 8.69 8.662 8.622 8.577 8.492 8.307 8.13 8.025 7.93 7.84 7.757 7.67 7.56 7.443 7.325 7.215 7.137 7.095 7.06 7.01 6.867 6.455 6.618 7.032 6.93 6.86 7.015 7.355 7.695 7.995 8.195 8.272 8.275 8.26 8.24 8.22 8.208 8.21 8.21 8.182 8.122 8.083 8.095 8.138 8.198 8.262 8.305 8.317 8.323 8.355 8.433 8.545 8.67 8.73 8.6 8.34 8.047 7.717 7.415 7.315 7.403 7.507 7.602 7.672 7.732 7.667 6.958 6.978 7.55 7.423 7.355 7.337 7.303 7.325 7.43 7.442 7.287 7.065 6.885 6.83 6.84 6.762 6.683 6.65 6.572 6.488 6.61 6.945 7.255 6.543 5.491 5.29 5.29 5.29 6.207 7.037 6.853 6.71 6.68 6.73 6.808 6.895 6.98 7.06 7.14 7.157 7.115 7.195 7.41 7.56 7.625 7.685 7.75 7.797 7.745 7.618 7.61 7.738 7.868 7.983 8.098 8.213 8.31 8.335 8.275 8.193 8.163 8.185 8.22 8.262 8.28 8.273 8.268 8.268 8.285 8.328 8.39 8.46 8.525 8.588 8.643 8.69 8.745 8.8 8.85 8.9 8.983 9.092 9.185 9.255 9.315 9.38 9.445 9.505 9.565 9.61 9.61 9.575 9.538 9.503 9.47 9.438 9.4 9.365 9.358 9.375 9.395 9.415 9.435 9.46 9.485 9.432 9.283 9.13 9.035 8.973 8.91 8.847 8.783 8.723 8.667 8.595 8.513 8.465
9.605 9.682 9.702 9.685 9.655 9.625 9.635 9.665 9.692 9.715 9.672 9.482 9.202 8.905 8.715 8.672 8.66 8.642 8.612 8.567 8.432 8.193 8.01 7.915 7.83 7.745 7.65 7.54 7.423 7.308 7.19 7.055 6.817 6.565 6.425 6.39 6.353 6.44 6.785 6.947 6.863 6.843 7.018 7.315 7.618 7.945 8.24 8.392 8.41 8.385 8.36 8.348 8.35 8.36 8.37 8.375 8.355 8.315 8.313 8.347 8.39 8.437 8.462 8.457 8.477 8.575 8.717 8.862 9.002 9.05 8.862 8.527 8.16 7.755 7.375 7.243 7.325 7.392 7.435 7.453 7.55 7.193 6.663 7.08 7.51 7.34 7.24 7.232 7.205 7.203 7.29 7.387 7.297 7.06 6.908 6.885 6.895 6.872 6.825 6.762 6.677 6.595 6.718 7.027 7.252 6.568 5.548 5.29 5.29 5.29 6.18 6.96 6.758 6.643 6.655 6.723 6.793 6.878 6.962 7.04 7.12 7.2 7.232 7.303 7.475 7.602 7.67 7.735 7.8 7.842 7.777 7.638 7.628 7.74 7.848 7.953 8.058 8.165 8.273 8.345 8.315 8.218 8.183 8.215 8.255 8.295 8.313 8.308 8.303 8.303 8.33 8.39 8.46 8.53 8.598 8.67 8.725 8.753 8.783 8.815 8.848 8.89 8.965 9.055 9.125 9.185 9.245 9.308 9.373 9.435 9.495 9.558 9.597 9.587 9.555 9.525 9.497 9.462 9.42 9.378 9.345 9.345 9.365 9.385 9.408 9.432 9.455 9.42 9.287 9.113 8.983 8.91 8.847 8.783 8.72 8.658 8.595 8.535 8.48 8.455
9.63 9.722 9.755 9.755 9.727 9.655 9.618 9.645 9.69 9.73 9.697 9.495 9.185 8.865 8.653 8.6 8.6 8.595 8.58 8.52 8.335 8.058 7.863 7.77 7.695 7.625 7.53 7.41 7.295 7.18 7.022 6.68 6.463 6.398 6.235 6.253 6.405 6.758 7.075 7.063 6.995 7.038 7.278 7.575 7.833 8.113 8.372 8.51 8.515 8.48 8.465 8.472 8.492 8.51 8.52 8.53 8.535 8.522 8.52 8.54 8.555 8.555 8.54 8.51 8.532 8.655 8.815 8.975 9.13 9.187 8.962 8.55 8.138 7.723 7.323 7.135 7.155 7.17 7.17 7.24 7.472 6.985 6.73 7.292 7.355 7.115 7.008 7.058 7.075 7.075 7.16 7.28 7.227 7.038 6.93 6.915 6.905 6.887 6.862 6.83 6.775 6.7 6.808 7.045 7.19 6.965 5.988 5.29 5.29 5.29 6.037 6.777 6.675 6.598 6.65 6.718 6.785 6.865 6.947 7.025 7.105 7.185 7.265 7.365 7.49 7.582 7.642 7.71 7.78 7.83 7.765 7.653 7.705 7.85 7.96 8.055 8.15 8.25 8.325 8.382 8.377 8.298 8.273 8.31 8.345 8.368 8.38 8.38 8.373 8.37 8.405 8.475 8.543 8.61 8.685 8.767 8.835 8.865 8.88 8.895 8.91 8.935 8.98 9.043 9.105 9.168 9.233 9.298 9.363 9.428 9.493 9.56 9.61 9.61 9.58 9.55 9.522 9.485 9.44 9.395 9.35 9.328 9.335 9.358 9.382 9.405 9.425 9.407 9.29 9.11 8.95 8.848 8.783 8.72 8.657 8.593 8.53 8.47 8.435 8.43
9.592 9.725 9.802 9.827 9.8 9.715 9.63 9.613 9.65 9.672 9.602 9.415 9.137 8.815 8.588 8.52 8.52 8.518 8.525 8.435 8.195 7.91 7.708 7.61 7.543 7.492 7.41 7.29 7.172 7 6.718 6.525 6.7 6.89 6.86 6.9 6.982 7.107 7.265 7.28 7.278 7.398 7.668 8.027 8.272 8.422 8.54 8.587 8.58 8.552 8.545 8.568 8.617 8.66 8.675 8.685 8.685 8.662 8.642 8.642 8.625 8.577 8.528 8.49 8.5 8.593 8.74 8.9 9.045 9.14 8.965 8.553 8.135 7.73 7.34 7.015 6.885 6.888 6.943 7.145 7.46 6.988 6.91 7.347 7.078 6.868 6.85 6.925 6.96 6.973 7.062 7.125 7.05 6.95 6.897 6.875 6.842 6.808 6.795 6.805 6.797 6.765 6.82 6.937 7.025 7.094 6.205 5.29 5.29 5.29 5.81 6.517 6.635 6.598 6.663 6.728 6.793 6.86 6.935 7.015 7.095 7.178 7.26 7.365 7.46 7.515 7.565 7.623 7.688 7.75 7.708 7.68 7.813 7.98 8.115 8.215 8.31 8.375 8.382 8.422 8.455 8.415 8.41 8.442 8.455 8.46 8.475 8.482 8.477 8.473 8.505 8.575 8.643 8.71 8.788 8.872 8.945 8.982 8.998 9.012 9.025 9.035 9.055 9.1 9.158 9.22 9.29 9.36 9.425 9.49 9.56 9.625 9.652 9.635 9.607 9.58 9.545 9.503 9.46 9.415 9.37 9.33 9.313 9.33 9.355 9.375 9.395 9.392 9.29 9.11 8.935 8.8 8.72 8.657 8.593 8.53 8.47 8.425 8.408 8.398
