ncols         200
nrows         72
xllcorner     544000
yllcorner     259240
cellsize      5
NODATA_value  -9999.0
17.818 17.83 17.87 17.928 18 18.093 18.225 18.403 18.615 18.842 19.027 19.16 19.252 19.28 19.295 19.34 19.38 19.4 19.41 19.417 19.42 19.417 19.412 19.407 19.4 19.38 19.355 19.348 19.345 19.32 19.275 19.228 19.218 19.27 19.32 19.335 19.34 19.33 19.313 19.297 19.28 19.265 19.252 19.235 19.218 19.207 19.187 19.15 19.102 19.055 19.02 18.998 18.993 19.013 19.027 18.975 18.913 18.95 18.98 18.933 18.893 18.867 18.813 18.743 18.693 18.647 18.6 18.562 18.502 18.392 18.275 18.185 18.125 18.09 18.065 18.04 18.025 18.013 18 17.967 17.92 17.88 17.843 17.807 17.752 17.672 17.593 17.52 17.453 17.405 17.367 17.317 17.26 17.2 17.132 17.025 16.905 16.813 16.735 16.668 16.62 16.61 16.615 16.615 16.623 16.627 16.59 16.52 16.442 16.357 16.283 16.23 16.195 16.142 16.062 15.977 15.893 15.845 15.848 15.862 15.875 15.87 15.817 15.732 15.645 15.557 15.477 15.407 15.34 15.285 15.245 15.205 15.17 15.142 15.107 15.057 15.002 14.932 14.842 14.727 14.595 14.503 14.47 14.465 14.465 14.447 14.41 14.375 14.345 14.32 14.303 14.293 14.29 14.293 14.295 14.295 14.292 14.3 14.322 14.345 14.365 14.385 14.4 14.4 14.37 14.315 14.255 14.195 14.138 14.095 14.057 14.005 13.945 13.882 13.815 13.738 13.668 13.628 13.658 13.763 13.895 14.03 14.162 14.295 14.42 14.5 14.505 14.475 14.448 14.43 14.435 14.37 14.235 14.1 13.91 13.68 13.455 13.24 13.04 12.855
17.793 17.788 17.79 17.825 17.878 17.95 18.093 18.3 18.53 18.757 18.945 19.08 19.2 19.307 19.38 19.43 19.462 19.475 19.485 19.493 19.5 19.505 19.505 19.508 19.513 19.508 19.505 19.51 19.495 19.457 19.412 19.365 19.323 19.318 19.34 19.355 19.368 19.37 19.357 19.34 19.322 19.305 19.285 19.27 19.26 19.255 19.24 19.197 19.138 19.078 19.033 19 18.975 18.968 18.975 18.948 18.945 19.022 19.052 19.01 18.955 18.905 18.86 18.81 18.762 18.717 18.67 18.612 18.52 18.395 18.273 18.19 18.153 18.13 18.108 18.085 18.07 18.06 18.05 18.022 17.98 17.94 17.905 17.87 17.827 17.772 17.702 17.63 17.565 17.512 17.462 17.405 17.345 17.285 17.225 17.142 17.045 16.957 16.88 16.812 16.745 16.69 16.665 16.668 16.687 16.702 16.665 16.587 16.512 16.437 16.372 16.315 16.247 16.162 16.072 15.985 15.903 15.87 15.882 15.895 15.892 15.865 15.795 15.702 15.622 15.547 15.477 15.412 15.347 15.287 15.242 15.207 15.172 15.132 15.085 15.035 14.985 14.925 14.83 14.702 14.565 14.448 14.4 14.4 14.403 14.397 14.378 14.355 14.335 14.315 14.295 14.288 14.29 14.29 14.29 14.277 14.25 14.25 14.28 14.307 14.335 14.362 14.385 14.375 14.325 14.265 14.205 14.145 14.09 14.042 13.987 13.923 13.86 13.798 13.733 13.668 13.618 13.59 13.62 13.728 13.862 13.997 14.13 14.265 14.397 14.482 14.49 14.457 14.425 14.395 14.377 14.312 14.19 14.07 13.91 13.708 13.505 13.315 13.13 12.943
17.793 17.783 17.785 17.835 17.885 17.915 18.033 18.228 18.443 18.67 18.86 19.003 19.153 19.332 19.46 19.515 19.55 19.565 19.573 19.578 19.585 19.595 19.608 19.628 19.648 19.66 19.667 19.665 19.64 19.595 19.55 19.502 19.45 19.41 19.403 19.415 19.428 19.428 19.395 19.36 19.342 19.32 19.295 19.288 19.292 19.3 19.29 19.245 19.183 19.12 19.065 19.02 18.99 18.97 18.955 18.95 18.993 19.077 19.105 19.067 19.015 18.96 18.912 18.867 18.82 18.775 18.735 18.667 18.555 18.425 18.295 18.218 18.193 18.17 18.153 18.135 18.118 18.105 18.095 18.077 18.047 18.01 17.975 17.94 17.89 17.827 17.76 17.692 17.635 17.582 17.527 17.47 17.41 17.347 17.285 17.217 17.142 17.077 17.012 16.937 16.865 16.795 16.743 16.723 16.733 16.75 16.71 16.625 16.545 16.465 16.398 16.337 16.257 16.16 16.068 15.98 15.915 15.903 15.91 15.9 15.867 15.822 15.75 15.645 15.55 15.473 15.403 15.338 15.278 15.235 15.205 15.175 15.14 15.087 15.025 14.972 14.925 14.875 14.79 14.665 14.53 14.405 14.35 14.35 14.35 14.352 14.355 14.345 14.325 14.305 14.288 14.283 14.285 14.28 14.262 14.227 14.185 14.178 14.205 14.235 14.27 14.302 14.315 14.29 14.235 14.175 14.117 14.062 14.017 13.977 13.922 13.86 13.8 13.738 13.673 13.615 13.575 13.55 13.583 13.69 13.822 13.957 14.092 14.23 14.365 14.457 14.47 14.437 14.403 14.373 14.353 14.302 14.198 14.073 13.938 13.785 13.608 13.418 13.228 13.035
17.8 17.785 17.808 17.9 17.99 18.015 18.088 18.243 18.423 18.62 18.805 18.978 19.17 19.38 19.53 19.597 19.637 19.66 19.667 19.675 19.685 19.7 19.725 19.76 19.792 19.817 19.83 19.815 19.777 19.727 19.675 19.62 19.568 19.53 19.52 19.53 19.537 19.527 19.47 19.398 19.348 19.31 19.293 19.298 19.31 19.32 19.32 19.29 19.235 19.177 19.12 19.07 19.038 19.01 18.985 18.99 19.045 19.12 19.14 19.105 19.06 19.01 18.96 18.913 18.868 18.828 18.797 18.74 18.627 18.485 18.34 18.26 18.237 18.215 18.198 18.182 18.165 18.148 18.135 18.127 18.115 18.087 18.052 18.005 17.932 17.85 17.773 17.703 17.647 17.6 17.55 17.5 17.445 17.382 17.318 17.263 17.223 17.19 17.13 17.043 16.965 16.893 16.83 16.79 16.773 16.777 16.74 16.655 16.575 16.495 16.425 16.352 16.26 16.16 16.063 15.973 15.93 15.925 15.905 15.867 15.823 15.777 15.71 15.602 15.488 15.398 15.328 15.265 15.218 15.188 15.162 15.135 15.09 15.022 14.95 14.885 14.83 14.782 14.712 14.605 14.48 14.363 14.308 14.305 14.3 14.3 14.315 14.322 14.312 14.295 14.283 14.28 14.267 14.237 14.195 14.153 14.115 14.103 14.125 14.155 14.182 14.195 14.18 14.147 14.1 14.042 13.988 13.945 13.92 13.895 13.855 13.807 13.76 13.702 13.638 13.58 13.538 13.51 13.548 13.653 13.778 13.913 14.048 14.185 14.32 14.42 14.44 14.408 14.378 14.363 14.357 14.33 14.247 14.125 14 13.875 13.73 13.552 13.358 13.163
17.8 17.798 17.848 17.953 18.077 18.14 18.205 18.343 18.495 18.658 18.835 19.03 19.233 19.437 19.6 19.68 19.72 19.75 19.763 19.775 19.793 19.815 19.845 19.88 19.92 19.957 19.972 19.945 19.892 19.835 19.775 19.723 19.685 19.658 19.648 19.655 19.657 19.647 19.592 19.498 19.41 19.333 19.295 19.3 19.307 19.312 19.317 19.31 19.277 19.227 19.172 19.127 19.092 19.058 19.038 19.048 19.098 19.16 19.167 19.132 19.095 19.055 19.01 18.96 18.92 18.893 18.867 18.81 18.692 18.537 18.385 18.303 18.283 18.265 18.245 18.228 18.213 18.198 18.18 18.168 18.162 18.15 18.11 18.04 17.958 17.873 17.79 17.713 17.645 17.593 17.548 17.505 17.46 17.415 17.375 17.348 17.335 17.315 17.252 17.158 17.07 16.99 16.925 16.883 16.848 16.822 16.77 16.685 16.605 16.525 16.447 16.36 16.26 16.16 16.06 15.978 15.937 15.91 15.867 15.823 15.778 15.732 15.67 15.565 15.44 15.333 15.253 15.198 15.165 15.142 15.117 15.085 15.03 14.958 14.885 14.815 14.75 14.693 14.627 14.53 14.413 14.313 14.263 14.255 14.25 14.248 14.26 14.277 14.287 14.282 14.272 14.255 14.215 14.162 14.115 14.078 14.043 14.028 14.045 14.065 14.067 14.057 14.032 14 13.96 13.908 13.86 13.833 13.815 13.79 13.757 13.725 13.692 13.65 13.6 13.55 13.505 13.473 13.51 13.618 13.738 13.868 14.002 14.135 14.265 14.377 14.407 14.38 14.37 14.375 14.372 14.345 14.287 14.185 14.062 13.945 13.825 13.685 13.51 13.328
17.798 17.823 17.9 18.005 18.145 18.245 18.325 18.458 18.605 18.76 18.93 19.118 19.315 19.515 19.682 19.767 19.805 19.84 19.863 19.883 19.908 19.935 19.965 20 20.037 20.07 20.08 20.045 19.985 19.925 19.873 19.838 19.81 19.783 19.773 19.775 19.77 19.762 19.717 19.625 19.527 19.415 19.328 19.305 19.303 19.3 19.3 19.3 19.292 19.262 19.212 19.165 19.128 19.103 19.1 19.115 19.155 19.2 19.195 19.16 19.125 19.09 19.052 19.013 18.985 18.965 18.942 18.88 18.747 18.583 18.43 18.348 18.33 18.32 18.31 18.3 18.293 18.277 18.243 18.208 18.195 18.19 18.15 18.073 17.99 17.905 17.82 17.738 17.658 17.6 17.563 17.53 17.5 17.475 17.465 17.465 17.46 17.44 17.377 17.282 17.19 17.1 17.025 16.972 16.932 16.887 16.815 16.728 16.643 16.555 16.46 16.36 16.26 16.16 16.06 15.978 15.918 15.868 15.823 15.778 15.733 15.687 15.63 15.53 15.403 15.28 15.188 15.143 15.12 15.097 15.072 15.03 14.965 14.893 14.82 14.75 14.68 14.613 14.545 14.455 14.353 14.27 14.223 14.205 14.198 14.195 14.205 14.225 14.245 14.247 14.227 14.187 14.132 14.078 14.035 14.002 13.968 13.948 13.948 13.945 13.93 13.913 13.885 13.848 13.815 13.778 13.745 13.725 13.708 13.685 13.655 13.625 13.595 13.565 13.535 13.502 13.467 13.435 13.47 13.58 13.7 13.822 13.952 14.08 14.202 14.325 14.38 14.378 14.385 14.397 14.39 14.355 14.307 14.222 14.107 13.99 13.87 13.752 13.627 13.5
17.808 17.863 17.955 18.058 18.195 18.335 18.445 18.57 18.723 18.883 19.05 19.223 19.408 19.605 19.777 19.867 19.903 19.94 19.975 20.003 20.027 20.052 20.08 20.112 20.142 20.167 20.172 20.135 20.075 20.018 19.98 19.96 19.937 19.91 19.898 19.895 19.885 19.877 19.84 19.755 19.65 19.525 19.4 19.335 19.32 19.31 19.3 19.293 19.285 19.27 19.24 19.2 19.168 19.157 19.167 19.185 19.215 19.237 19.222 19.187 19.15 19.11 19.075 19.062 19.057 19.037 19.015 18.95 18.81 18.64 18.495 18.428 18.418 18.413 18.41 18.41 18.402 18.37 18.315 18.258 18.225 18.217 18.185 18.115 18.035 17.95 17.865 17.78 17.703 17.653 17.625 17.605 17.585 17.565 17.56 17.57 17.575 17.562 17.497 17.395 17.297 17.197 17.11 17.05 17.002 16.947 16.87 16.78 16.685 16.582 16.473 16.365 16.265 16.165 16.068 15.98 15.905 15.835 15.778 15.733 15.687 15.64 15.587 15.495 15.365 15.243 15.153 15.103 15.075 15.05 15.02 14.972 14.905 14.833 14.76 14.69 14.62 14.548 14.475 14.398 14.313 14.238 14.19 14.16 14.145 14.145 14.155 14.175 14.185 14.17 14.132 14.087 14.037 13.99 13.955 13.922 13.888 13.87 13.863 13.848 13.83 13.81 13.788 13.76 13.738 13.715 13.68 13.64 13.608 13.583 13.555 13.528 13.503 13.478 13.455 13.435 13.41 13.38 13.393 13.48 13.6 13.72 13.852 13.985 14.107 14.23 14.322 14.377 14.407 14.42 14.405 14.357 14.292 14.205 14.097 13.98 13.86 13.755 13.687 13.617
17.838 17.918 18.01 18.11 18.245 18.407 18.547 18.685 18.845 19.01 19.18 19.345 19.515 19.7 19.872 19.97 20.01 20.055 20.097 20.122 20.135 20.145 20.17 20.207 20.235 20.26 20.262 20.22 20.163 20.11 20.08 20.065 20.047 20.03 20.018 20.01 20 19.99 19.957 19.88 19.765 19.63 19.49 19.388 19.35 19.34 19.325 19.308 19.293 19.278 19.26 19.227 19.195 19.195 19.217 19.242 19.27 19.272 19.24 19.2 19.157 19.113 19.083 19.092 19.115 19.11 19.09 19.022 18.88 18.728 18.615 18.56 18.545 18.538 18.535 18.527 18.497 18.442 18.38 18.318 18.265 18.245 18.215 18.155 18.082 17.997 17.913 17.838 17.78 17.74 17.715 17.695 17.675 17.655 17.65 17.66 17.662 17.64 17.575 17.475 17.367 17.265 17.183 17.12 17.067 17.007 16.922 16.822 16.715 16.605 16.49 16.378 16.275 16.175 16.083 16 15.92 15.838 15.76 15.695 15.643 15.595 15.545 15.455 15.33 15.228 15.148 15.078 15.03 15 14.962 14.907 14.842 14.777 14.71 14.64 14.567 14.493 14.42 14.35 14.273 14.203 14.16 14.125 14.1 14.095 14.102 14.115 14.102 14.065 14.02 13.973 13.933 13.903 13.872 13.838 13.813 13.808 13.807 13.8 13.788 13.773 13.76 13.748 13.737 13.717 13.67 13.61 13.555 13.508 13.468 13.44 13.42 13.4 13.38 13.36 13.337 13.31 13.298 13.34 13.44 13.56 13.707 13.857 13.982 14.097 14.205 14.307 14.39 14.43 14.402 14.33 14.245 14.152 14.05 13.935 13.828 13.763 13.74 13.687
17.88 17.972 18.065 18.165 18.3 18.45 18.575 18.72 18.9 19.08 19.26 19.437 19.615 19.797 19.972 20.075 20.12 20.17 20.205 20.21 20.205 20.208 20.235 20.282 20.322 20.352 20.35 20.305 20.25 20.2 20.17 20.155 20.145 20.148 20.145 20.133 20.118 20.102 20.075 19.997 19.87 19.73 19.59 19.46 19.388 19.368 19.352 19.335 19.318 19.302 19.28 19.24 19.208 19.215 19.248 19.282 19.307 19.297 19.253 19.203 19.155 19.11 19.09 19.108 19.142 19.165 19.162 19.095 18.968 18.855 18.773 18.715 18.685 18.667 18.655 18.627 18.572 18.507 18.445 18.385 18.323 18.28 18.242 18.19 18.125 18.045 17.97 17.915 17.87 17.83 17.805 17.785 17.765 17.748 17.745 17.745 17.72 17.67 17.605 17.522 17.423 17.33 17.258 17.193 17.135 17.062 16.962 16.852 16.738 16.625 16.51 16.393 16.285 16.188 16.1 16.02 15.942 15.862 15.775 15.69 15.618 15.555 15.502 15.417 15.31 15.23 15.155 15.075 15.005 14.953 14.903 14.843 14.78 14.717 14.652 14.585 14.512 14.44 14.37 14.3 14.228 14.168 14.13 14.095 14.063 14.045 14.042 14.032 13.997 13.955 13.91 13.865 13.835 13.815 13.787 13.755 13.748 13.755 13.755 13.752 13.747 13.742 13.74 13.742 13.742 13.722 13.672 13.607 13.542 13.475 13.418 13.375 13.345 13.325 13.305 13.285 13.265 13.243 13.228 13.233 13.29 13.4 13.558 13.725 13.855 13.962 14.063 14.172 14.287 14.355 14.33 14.26 14.185 14.1 14.002 13.903 13.835 13.815 13.81 13.76
17.935 18.028 18.12 18.218 18.33 18.437 18.525 18.645 18.825 19.02 19.21 19.4 19.59 19.782 19.94 20.102 20.23 20.28 20.3 20.285 20.27 20.268 20.295 20.345 20.395 20.437 20.44 20.395 20.34 20.29 20.26 20.258 20.268 20.285 20.287 20.27 20.247 20.222 20.192 20.11 19.973 19.83 19.69 19.55 19.44 19.393 19.378 19.362 19.345 19.327 19.298 19.253 19.228 19.243 19.28 19.32 19.335 19.315 19.275 19.223 19.168 19.115 19.098 19.12 19.155 19.19 19.212 19.18 19.095 19.012 18.937 18.875 18.83 18.785 18.74 18.69 18.627 18.567 18.512 18.452 18.388 18.33 18.278 18.225 18.168 18.105 18.05 18.005 17.963 17.923 17.895 17.875 17.855 17.84 17.827 17.797 17.747 17.69 17.627 17.552 17.47 17.398 17.333 17.27 17.207 17.115 16.995 16.878 16.76 16.645 16.53 16.41 16.295 16.2 16.12 16.04 15.965 15.885 15.798 15.713 15.628 15.545 15.475 15.395 15.31 15.24 15.165 15.088 15.01 14.93 14.855 14.788 14.723 14.655 14.59 14.525 14.458 14.39 14.32 14.253 14.188 14.133 14.093 14.058 14.025 13.998 13.972 13.935 13.888 13.845 13.805 13.773 13.75 13.727 13.7 13.68 13.69 13.705 13.702 13.698 13.692 13.688 13.692 13.707 13.717 13.712 13.67 13.6 13.53 13.46 13.398 13.343 13.295 13.26 13.235 13.215 13.195 13.175 13.162 13.155 13.168 13.243 13.403 13.585 13.722 13.825 13.92 14.03 14.13 14.182 14.167 14.115 14.06 13.995 13.93 13.885 13.87 13.872 13.875 13.825
18.058 18.163 18.268 18.333 18.34 18.375 18.458 18.553 18.7 18.89 19.08 19.27 19.463 19.657 19.758 20.038 20.34 20.385 20.395 20.375 20.358 20.355 20.373 20.41 20.463 20.515 20.522 20.477 20.425 20.38 20.363 20.377 20.4 20.415 20.407 20.38 20.35 20.32 20.287 20.22 20.095 19.948 19.803 19.658 19.518 19.433 19.405 19.39 19.375 19.358 19.335 19.3 19.273 19.285 19.325 19.357 19.357 19.33 19.297 19.252 19.195 19.135 19.108 19.12 19.147 19.182 19.217 19.215 19.16 19.09 19.02 18.962 18.91 18.845 18.78 18.72 18.663 18.612 18.57 18.52 18.458 18.395 18.338 18.285 18.235 18.188 18.143 18.098 18.055 18.015 17.985 17.965 17.945 17.92 17.877 17.82 17.763 17.708 17.65 17.58 17.518 17.467 17.407 17.345 17.28 17.182 17.055 16.928 16.803 16.68 16.558 16.435 16.323 16.23 16.145 16.06 15.985 15.907 15.822 15.737 15.652 15.565 15.478 15.398 15.325 15.255 15.18 15.102 15.025 14.938 14.84 14.755 14.685 14.615 14.548 14.48 14.413 14.343 14.273 14.213 14.158 14.105 14.058 14.018 13.985 13.955 13.913 13.86 13.808 13.758 13.72 13.69 13.665 13.643 13.618 13.615 13.64 13.655 13.65 13.642 13.635 13.625 13.628 13.643 13.66 13.67 13.642 13.585 13.52 13.45 13.385 13.327 13.27 13.218 13.183 13.16 13.143 13.115 13.093 13.085 13.078 13.113 13.253 13.448 13.59 13.685 13.78 13.877 13.95 13.987 13.972 13.92 13.868 13.83 13.82 13.825 13.832 13.84 13.84 13.79
18.29 18.41 18.522 18.527 18.42 18.353 18.39 18.475 18.59 18.76 18.95 19.14 19.335 19.52 19.563 19.972 20.45 20.485 20.485 20.47 20.465 20.475 20.485 20.498 20.538 20.59 20.597 20.552 20.503 20.468 20.465 20.485 20.502 20.515 20.502 20.463 20.425 20.395 20.365 20.317 20.222 20.085 19.935 19.785 19.635 19.513 19.448 19.423 19.408 19.395 19.387 19.372 19.34 19.335 19.37 19.387 19.37 19.34 19.31 19.275 19.225 19.168 19.135 19.128 19.13 19.155 19.19 19.185 19.135 19.075 19.02 18.972 18.925 18.867 18.805 18.748 18.698 18.653 18.618 18.585 18.532 18.47 18.418 18.37 18.325 18.282 18.237 18.193 18.148 18.105 18.075 18.052 18.022 17.977 17.918 17.855 17.795 17.738 17.68 17.623 17.578 17.537 17.48 17.418 17.355 17.26 17.135 17.005 16.875 16.737 16.593 16.463 16.37 16.29 16.195 16.1 16.013 15.93 15.845 15.757 15.67 15.58 15.49 15.41 15.34 15.27 15.195 15.118 15.04 14.952 14.845 14.745 14.668 14.595 14.525 14.455 14.382 14.305 14.235 14.18 14.13 14.08 14.03 13.983 13.943 13.91 13.867 13.813 13.755 13.703 13.663 13.628 13.595 13.565 13.548 13.56 13.59 13.602 13.595 13.585 13.575 13.563 13.563 13.578 13.602 13.617 13.595 13.552 13.5 13.435 13.37 13.31 13.253 13.2 13.158 13.13 13.112 13.07 13.023 13.005 13 13.038 13.19 13.36 13.455 13.54 13.628 13.7 13.755 13.792 13.78 13.73 13.695 13.693 13.708 13.72 13.727 13.722 13.7 13.66
18.585 18.69 18.767 18.712 18.57 18.438 18.37 18.405 18.495 18.635 18.82 19.013 19.207 19.355 19.35 19.76 20.405 20.585 20.58 20.58 20.59 20.602 20.61 20.61 20.625 20.665 20.672 20.63 20.588 20.558 20.555 20.572 20.587 20.602 20.592 20.553 20.513 20.475 20.44 20.397 20.332 20.225 20.08 19.927 19.773 19.628 19.525 19.47 19.445 19.435 19.43 19.425 19.405 19.39 19.405 19.407 19.38 19.35 19.32 19.29 19.252 19.205 19.175 19.16 19.143 19.143 19.163 19.157 19.113 19.063 19.02 18.977 18.932 18.885 18.835 18.788 18.743 18.698 18.663 18.635 18.602 18.558 18.508 18.463 18.418 18.375 18.333 18.288 18.242 18.197 18.16 18.125 18.08 18.025 17.965 17.905 17.845 17.783 17.725 17.683 17.645 17.605 17.552 17.495 17.435 17.337 17.212 17.077 16.932 16.78 16.623 16.5 16.428 16.355 16.26 16.16 16.06 15.968 15.875 15.775 15.68 15.59 15.503 15.425 15.355 15.283 15.208 15.133 15.057 14.97 14.858 14.743 14.653 14.578 14.505 14.435 14.357 14.273 14.203 14.15 14.1 14.05 14 13.95 13.903 13.865 13.825 13.767 13.705 13.655 13.615 13.575 13.532 13.485 13.473 13.505 13.537 13.547 13.537 13.525 13.515 13.5 13.498 13.515 13.552 13.57 13.54 13.5 13.457 13.407 13.35 13.292 13.24 13.187 13.138 13.105 13.082 13.027 12.958 12.925 12.918 12.985 13.162 13.272 13.298 13.388 13.492 13.54 13.565 13.595 13.592 13.565 13.565 13.585 13.602 13.612 13.61 13.587 13.555 13.522
18.86 18.972 18.99 18.877 18.733 18.59 18.458 18.385 18.418 18.528 18.69 18.885 19.08 19.177 19.123 19.318 20.13 20.687 20.69 20.705 20.72 20.73 20.735 20.735 20.737 20.755 20.752 20.715 20.68 20.65 20.643 20.658 20.673 20.687 20.682 20.647 20.605 20.563 20.52 20.475 20.425 20.35 20.225 20.073 19.918 19.765 19.64 19.55 19.503 19.488 19.478 19.47 19.458 19.445 19.437 19.42 19.39 19.36 19.33 19.3 19.27 19.235 19.21 19.195 19.177 19.163 19.158 19.143 19.103 19.06 19.02 18.98 18.94 18.908 18.877 18.838 18.79 18.743 18.71 18.69 18.675 18.652 18.612 18.568 18.523 18.478 18.432 18.382 18.335 18.277 18.22 18.177 18.127 18.07 18.01 17.95 17.89 17.833 17.785 17.748 17.712 17.675 17.627 17.575 17.515 17.41 17.27 17.12 16.96 16.8 16.653 16.553 16.49 16.417 16.325 16.225 16.125 16.03 15.935 15.828 15.718 15.615 15.523 15.443 15.37 15.298 15.225 15.15 15.075 14.99 14.875 14.748 14.643 14.563 14.49 14.415 14.335 14.253 14.173 14.11 14.062 14.015 13.967 13.92 13.872 13.83 13.782 13.722 13.657 13.603 13.555 13.505 13.455 13.4 13.393 13.443 13.48 13.49 13.48 13.465 13.455 13.44 13.435 13.46 13.51 13.522 13.485 13.443 13.4 13.352 13.3 13.262 13.225 13.172 13.12 13.083 13.05 12.985 12.9 12.85 12.833 12.915 13.045 13.095 13.122 13.242 13.397 13.442 13.422 13.395 13.415 13.455 13.468 13.485 13.5 13.495 13.47 13.44 13.41 13.377
19.03 19.157 19.142 19.025 18.897 18.752 18.61 18.475 18.403 18.44 18.573 18.758 18.945 18.995 18.898 18.928 19.905 20.8 20.812 20.827 20.832 20.83 20.83 20.83 20.832 20.837 20.83 20.807 20.78 20.748 20.735 20.745 20.758 20.772 20.772 20.742 20.698 20.652 20.605 20.555 20.503 20.455 20.372 20.235 20.083 19.925 19.778 19.66 19.595 19.57 19.555 19.545 19.53 19.505 19.47 19.435 19.405 19.375 19.345 19.315 19.283 19.25 19.23 19.215 19.2 19.185 19.183 19.172 19.123 19.068 19.025 18.988 18.958 18.938 18.927 18.9 18.85 18.803 18.775 18.765 18.758 18.747 18.722 18.682 18.637 18.59 18.535 18.478 18.425 18.342 18.263 18.217 18.167 18.11 18.05 17.99 17.935 17.893 17.855 17.815 17.778 17.74 17.695 17.645 17.585 17.47 17.31 17.15 16.99 16.83 16.698 16.613 16.552 16.485 16.395 16.295 16.198 16.105 16.012 15.91 15.795 15.68 15.583 15.498 15.418 15.34 15.258 15.173 15.095 15.007 14.892 14.765 14.643 14.548 14.473 14.398 14.328 14.252 14.153 14.063 14.008 13.962 13.917 13.872 13.83 13.782 13.722 13.657 13.598 13.553 13.5 13.44 13.388 13.343 13.353 13.39 13.4 13.4 13.392 13.382 13.377 13.367 13.373 13.41 13.462 13.47 13.43 13.385 13.325 13.247 13.19 13.18 13.17 13.142 13.105 13.062 13.015 12.94 12.85 12.782 12.747 12.79 12.822 12.782 12.805 12.96 13.172 13.265 13.232 13.14 13.237 13.405 13.418 13.433 13.443 13.42 13.373 13.328 13.283 13.238
19.12 19.23 19.187 19.077 18.987 18.877 18.76 18.63 18.495 18.418 18.47 18.63 18.785 18.787 18.673 18.721 19.695 20.745 20.922 20.917 20.905 20.89 20.887 20.89 20.895 20.902 20.9 20.89 20.872 20.847 20.837 20.84 20.847 20.86 20.86 20.835 20.787 20.735 20.682 20.63 20.585 20.56 20.52 20.41 20.257 20.1 19.938 19.793 19.705 19.67 19.655 19.64 19.61 19.562 19.508 19.463 19.43 19.397 19.362 19.33 19.297 19.263 19.24 19.225 19.213 19.213 19.233 19.235 19.185 19.115 19.053 19.01 18.985 18.965 18.965 18.96 18.92 18.88 18.86 18.85 18.842 18.835 18.82 18.792 18.75 18.695 18.632 18.572 18.505 18.397 18.305 18.255 18.205 18.15 18.09 18.035 17.993 17.96 17.925 17.885 17.845 17.805 17.76 17.702 17.635 17.522 17.363 17.198 17.035 16.883 16.768 16.688 16.62 16.552 16.465 16.365 16.27 16.18 16.087 15.99 15.88 15.77 15.678 15.592 15.505 15.412 15.315 15.218 15.128 15.03 14.912 14.785 14.655 14.543 14.46 14.395 14.335 14.26 14.148 14.025 13.945 13.9 13.855 13.81 13.765 13.707 13.64 13.575 13.533 13.512 13.465 13.395 13.335 13.308 13.317 13.315 13.292 13.278 13.272 13.27 13.27 13.268 13.288 13.337 13.392 13.405 13.36 13.292 13.205 13.105 13.05 13.055 13.065 13.065 13.052 13.03 12.977 12.888 12.792 12.505 12.085 11.96 12.205 12.335 12.348 12.54 12.787 12.947 12.95 12.825 12.865 13.195 13.4 13.417 13.43 13.405 13.345 13.285 13.225 13.165
19.202 19.292 19.21 19.065 18.98 18.907 18.825 18.727 18.622 18.508 18.438 18.513 18.605 18.588 18.573 18.76 19.535 20.557 20.98 20.97 20.95 20.925 20.922 20.945 20.957 20.965 20.965 20.955 20.942 20.93 20.922 20.922 20.93 20.942 20.947 20.922 20.87 20.813 20.758 20.713 20.685 20.67 20.65 20.572 20.435 20.277 20.11 19.945 19.823 19.77 19.747 19.712 19.662 19.608 19.55 19.498 19.453 19.413 19.375 19.34 19.31 19.278 19.253 19.243 19.248 19.27 19.297 19.295 19.257 19.195 19.12 19.063 19.023 18.995 18.995 19.007 18.987 18.958 18.945 18.935 18.928 18.92 18.91 18.898 18.857 18.792 18.727 18.662 18.57 18.44 18.345 18.295 18.245 18.19 18.135 18.093 18.06 18.028 17.992 17.955 17.915 17.875 17.822 17.75 17.677 17.577 17.425 17.255 17.088 16.948 16.85 16.77 16.692 16.617 16.532 16.437 16.345 16.252 16.16 16.067 15.963 15.86 15.77 15.68 15.585 15.485 15.385 15.285 15.182 15.067 14.938 14.803 14.668 14.543 14.458 14.403 14.345 14.267 14.152 14.015 13.903 13.838 13.792 13.742 13.685 13.62 13.55 13.503 13.485 13.475 13.432 13.36 13.29 13.25 13.228 13.2 13.175 13.155 13.148 13.148 13.153 13.155 13.183 13.24 13.302 13.32 13.257 13.158 13.055 12.958 12.915 12.93 12.945 12.953 12.96 12.98 12.952 12.852 12.687 12.015 11.348 11.288 11.538 11.768 11.898 12.13 12.382 12.605 12.65 12.495 12.35 12.84 13.38 13.405 13.422 13.395 13.335 13.275 13.215 13.155
19.287 19.36 19.255 19.073 18.953 18.88 18.807 18.732 18.66 18.577 18.48 18.45 18.508 18.59 18.72 19.035 19.608 20.437 20.97 21.005 20.98 20.94 20.93 20.967 21 21.02 21.027 21.02 21.01 21 20.99 20.985 20.99 20.997 21 20.987 20.947 20.89 20.84 20.813 20.795 20.78 20.765 20.722 20.612 20.452 20.285 20.115 19.958 19.863 19.817 19.765 19.708 19.653 19.595 19.538 19.48 19.433 19.395 19.358 19.325 19.293 19.273 19.28 19.308 19.34 19.362 19.352 19.317 19.272 19.21 19.145 19.088 19.038 19.028 19.05 19.055 19.048 19.043 19.038 19.035 19.033 19.028 19.027 18.947 18.82 18.747 18.69 18.602 18.48 18.388 18.335 18.285 18.235 18.193 18.16 18.13 18.095 18.057 18.022 17.985 17.937 17.87 17.79 17.72 17.63 17.485 17.315 17.145 17.005 16.912 16.835 16.755 16.675 16.592 16.505 16.415 16.322 16.23 16.14 16.045 15.947 15.852 15.755 15.655 15.555 15.455 15.355 15.245 15.115 14.975 14.835 14.698 14.573 14.485 14.428 14.367 14.28 14.157 14.02 13.888 13.788 13.723 13.663 13.598 13.53 13.473 13.448 13.442 13.435 13.397 13.33 13.255 13.193 13.15 13.113 13.075 13.043 13.03 13.035 13.043 13.048 13.08 13.142 13.197 13.205 13.14 13.035 12.925 12.83 12.8 12.818 12.833 12.84 12.853 12.892 12.892 12.795 12.102 11.268 11.213 11.36 11.34 11.383 11.51 11.708 11.96 12.217 12.312 12.165 11.945 12.283 13.05 13.397 13.417 13.385 13.325 13.265 13.205 13.14
19.37 19.425 19.3 19.103 18.945 18.85 18.78 18.707 18.633 18.56 18.508 18.505 18.608 18.795 18.985 19.318 19.785 20.413 20.932 21.037 21 20.95 20.93 20.958 21.002 21.04 21.062 21.065 21.055 21.045 21.037 21.03 21.027 21.025 21.018 21.025 21.015 20.973 20.938 20.92 20.905 20.888 20.873 20.852 20.772 20.622 20.452 20.277 20.095 19.948 19.868 19.812 19.755 19.698 19.642 19.583 19.53 19.493 19.45 19.405 19.37 19.335 19.32 19.34 19.375 19.41 19.427 19.41 19.375 19.342 19.297 19.24 19.18 19.118 19.095 19.118 19.145 19.165 19.172 19.175 19.175 19.175 19.175 19.18 19.062 18.845 18.703 18.628 18.558 18.53 18.483 18.395 18.348 18.305 18.268 18.235 18.197 18.155 18.115 18.077 18.04 17.982 17.905 17.825 17.757 17.68 17.545 17.375 17.205 17.055 16.953 16.875 16.795 16.715 16.637 16.555 16.465 16.375 16.287 16.2 16.117 16.027 15.925 15.823 15.72 15.62 15.52 15.417 15.297 15.162 15.025 14.885 14.755 14.643 14.555 14.487 14.407 14.3 14.17 14.033 13.898 13.778 13.688 13.615 13.543 13.468 13.42 13.405 13.398 13.392 13.365 13.302 13.225 13.16 13.113 13.065 13.01 12.955 12.933 12.94 12.945 12.95 12.985 13.042 13.072 13.067 13.025 12.932 12.818 12.735 12.718 12.733 12.748 12.753 12.748 12.748 12.745 12.677 11.55 10.691 11.1 11.295 11.27 11.263 11.295 11.393 11.553 11.768 11.96 11.907 11.675 11.756 12.66 13.395 13.412 13.375 13.315 13.255 13.192 13.118
19.452 19.487 19.345 19.148 18.96 18.828 18.75 18.68 18.608 18.565 18.59 18.68 18.813 18.993 19.22 19.56 19.995 20.483 20.922 21.067 21.015 20.96 20.928 20.943 20.987 21.022 21.057 21.077 21.07 21.06 21.053 21.053 21.055 21.047 21.035 21.045 21.065 21.062 21.047 21.035 21.023 21.008 20.995 20.972 20.905 20.772 20.6 20.415 20.22 20.033 19.915 19.858 19.802 19.745 19.688 19.638 19.605 19.58 19.535 19.483 19.443 19.405 19.39 19.413 19.447 19.48 19.492 19.47 19.438 19.415 19.385 19.337 19.282 19.225 19.195 19.215 19.255 19.285 19.302 19.317 19.325 19.325 19.325 19.33 19.22 18.975 18.743 18.6 18.608 18.725 18.685 18.518 18.438 18.395 18.357 18.315 18.258 18.203 18.16 18.12 18.075 18.015 17.94 17.863 17.798 17.73 17.605 17.435 17.265 17.103 16.985 16.905 16.825 16.745 16.67 16.592 16.507 16.42 16.333 16.25 16.182 16.105 16 15.89 15.785 15.685 15.585 15.475 15.345 15.208 15.073 14.94 14.82 14.715 14.627 14.542 14.435 14.315 14.19 14.057 13.923 13.805 13.715 13.633 13.55 13.468 13.41 13.385 13.365 13.353 13.332 13.275 13.195 13.13 13.077 13.017 12.947 12.88 12.85 12.853 12.855 12.86 12.892 12.927 12.93 12.92 12.895 12.822 12.715 12.655 12.655 12.667 12.68 12.687 12.67 12.63 12.605 12.047 10.985 10.563 10.892 11.145 11.143 11.148 11.19 11.24 11.3 11.41 11.587 11.652 11.493 11.928 12.922 13.387 13.405 13.365 13.305 13.245 13.18 13.105
19.537 19.552 19.392 19.195 18.995 18.825 18.72 18.65 18.625 18.678 18.78 18.9 19.02 19.173 19.43 19.805 20.222 20.637 20.98 21.085 21.028 20.973 20.925 20.928 20.97 20.998 21.04 21.077 21.075 21.068 21.065 21.075 21.082 21.073 21.06 21.032 21.017 21.045 21.1 21.147 21.155 21.145 21.13 21.085 21.005 20.895 20.735 20.54 20.337 20.133 19.983 19.905 19.848 19.793 19.745 19.715 19.695 19.67 19.625 19.57 19.522 19.478 19.463 19.487 19.52 19.55 19.56 19.54 19.515 19.5 19.475 19.43 19.382 19.33 19.295 19.315 19.362 19.395 19.415 19.44 19.46 19.47 19.475 19.48 19.377 19.14 18.94 18.85 18.94 19.065 18.957 18.73 18.568 18.49 18.447 18.39 18.32 18.253 18.2 18.157 18.105 18.042 17.972 17.902 17.84 17.777 17.662 17.495 17.325 17.155 17.023 16.935 16.855 16.778 16.702 16.625 16.547 16.465 16.378 16.305 16.25 16.185 16.082 15.963 15.855 15.755 15.65 15.53 15.395 15.255 15.125 15.005 14.89 14.78 14.675 14.565 14.448 14.33 14.21 14.08 13.948 13.843 13.757 13.67 13.585 13.5 13.433 13.395 13.365 13.34 13.305 13.24 13.162 13.092 13.025 12.952 12.875 12.803 12.77 12.77 12.77 12.773 12.787 12.792 12.78 12.77 12.752 12.702 12.62 12.58 12.59 12.6 12.61 12.62 12.607 12.57 12.544 11.495 10.476 10.523 10.728 10.967 11.02 11.038 11.085 11.135 11.183 11.23 11.305 11.385 11.338 12.24 13.279 13.365 13.387 13.355 13.295 13.235 13.175 13.112
19.62 19.617 19.437 19.24 19.04 18.848 18.718 18.693 18.763 18.883 19.008 19.133 19.258 19.385 19.625 20 20.4 20.785 21.032 21.087 21.047 20.985 20.928 20.918 20.948 20.968 21.015 21.07 21.08 21.075 21.083 21.1 21.107 21.1 21.072 20.995 20.908 20.898 20.985 21.102 21.187 21.247 21.242 21.162 21.067 20.97 20.827 20.642 20.45 20.247 20.065 19.955 19.905 19.868 19.838 19.813 19.788 19.76 19.717 19.66 19.6 19.537 19.513 19.535 19.565 19.6 19.617 19.607 19.592 19.582 19.56 19.515 19.47 19.423 19.395 19.42 19.47 19.505 19.528 19.552 19.575 19.595 19.61 19.627 19.557 19.415 19.355 19.367 19.432 19.422 19.24 19 18.773 18.61 18.523 18.455 18.385 18.312 18.247 18.192 18.132 18.065 17.995 17.927 17.865 17.807 17.707 17.552 17.385 17.215 17.068 16.965 16.885 16.81 16.735 16.655 16.58 16.502 16.428 16.37 16.32 16.262 16.167 16.045 15.93 15.822 15.707 15.58 15.445 15.315 15.2 15.088 14.975 14.86 14.738 14.61 14.483 14.358 14.23 14.1 13.978 13.878 13.79 13.703 13.617 13.53 13.455 13.41 13.382 13.347 13.287 13.198 13.11 13.037 12.96 12.883 12.805 12.73 12.693 12.69 12.69 12.687 12.683 12.665 12.64 12.623 12.608 12.572 12.518 12.502 12.52 12.53 12.54 12.55 12.542 12.515 11.98 10.97 10.503 10.548 10.64 10.803 10.902 10.935 10.983 11.03 11.083 11.138 11.2 11.253 11.233 11.71 12.35 12.91 13.357 13.345 13.292 13.23 13.167 13.112
19.7 19.68 19.485 19.285 19.085 18.94 18.883 18.928 19.048 19.175 19.305 19.435 19.563 19.66 19.81 20.115 20.497 20.825 20.995 21.055 21.065 21.015 20.945 20.915 20.933 20.96 21.003 21.062 21.09 21.09 21.105 21.125 21.135 21.12 21.057 20.955 20.843 20.775 20.805 20.92 21.09 21.267 21.29 21.182 21.085 20.985 20.85 20.677 20.497 20.307 20.135 20.035 20 19.983 19.957 19.925 19.892 19.842 19.777 19.71 19.637 19.563 19.53 19.55 19.583 19.63 19.657 19.65 19.642 19.637 19.622 19.587 19.542 19.498 19.488 19.528 19.58 19.617 19.643 19.668 19.692 19.71 19.725 19.757 19.762 19.757 19.78 19.787 19.772 19.657 19.435 19.195 18.952 18.74 18.593 18.495 18.42 18.352 18.285 18.217 18.15 18.08 18.01 17.937 17.865 17.805 17.722 17.587 17.427 17.262 17.108 16.993 16.91 16.832 16.755 16.675 16.597 16.528 16.475 16.43 16.38 16.325 16.237 16.12 16.002 15.887 15.765 15.635 15.508 15.395 15.292 15.185 15.075 14.96 14.837 14.705 14.568 14.433 14.293 14.155 14.028 13.913 13.818 13.735 13.65 13.56 13.478 13.425 13.39 13.34 13.27 13.165 13.053 12.97 12.895 12.818 12.745 12.678 12.633 12.613 12.605 12.602 12.592 12.568 12.533 12.503 12.48 12.44 12.385 12.375 12.402 12.435 12.465 12.48 12.475 12.487 11.468 10.466 10.527 10.573 10.618 10.705 10.793 10.845 10.9 10.955 11.025 11.103 11.187 11.217 11.16 11.125 11.251 11.798 12.225 12.735 13.257 13.227 13.155 13.1
19.77 19.73 19.53 19.365 19.26 19.233 19.26 19.31 19.405 19.53 19.66 19.79 19.897 19.96 20.023 20.228 20.57 20.815 20.915 20.985 21.045 21.047 20.988 20.943 20.95 20.985 21.023 21.068 21.1 21.115 21.135 21.155 21.162 21.12 21.03 20.945 20.873 20.815 20.8 20.863 21.038 21.262 21.302 21.178 21.07 20.97 20.835 20.66 20.485 20.338 20.233 20.165 20.128 20.108 20.082 20.045 19.995 19.912 19.81 19.723 19.645 19.57 19.54 19.56 19.603 19.662 19.695 19.685 19.675 19.67 19.662 19.645 19.607 19.565 19.57 19.627 19.687 19.732 19.763 19.79 19.812 19.817 19.828 19.873 19.935 19.977 19.987 19.96 19.895 19.76 19.545 19.305 19.073 18.875 18.708 18.563 18.448 18.363 18.295 18.225 18.155 18.085 18.015 17.942 17.865 17.793 17.72 17.602 17.445 17.29 17.145 17.023 16.925 16.84 16.76 16.68 16.608 16.555 16.517 16.48 16.435 16.377 16.29 16.177 16.065 15.95 15.825 15.7 15.588 15.485 15.385 15.282 15.175 15.062 14.942 14.812 14.68 14.545 14.395 14.243 14.098 13.955 13.84 13.755 13.672 13.587 13.502 13.437 13.385 13.322 13.25 13.145 13.018 12.91 12.828 12.76 12.703 12.645 12.595 12.555 12.525 12.515 12.505 12.48 12.447 12.405 12.355 12.297 12.235 12.213 12.235 12.27 12.315 12.36 12.417 11.942 10.958 10.508 10.552 10.597 10.625 10.66 10.723 10.788 10.858 10.938 11.028 11.12 11.19 11.167 11.08 11.05 11.073 11.095 11.091 11.553 12.644 13.217 13.14 13.072
19.832 19.79 19.665 19.62 19.635 19.675 19.71 19.74 19.788 19.885 20.015 20.127 20.197 20.242 20.285 20.39 20.602 20.765 20.835 20.908 20.982 21.035 21.027 21 21.003 21.025 21.06 21.093 21.12 21.145 21.165 21.185 21.185 21.137 21.07 21.022 20.987 20.952 20.92 20.92 21.048 21.27 21.32 21.193 21.065 20.955 20.818 20.663 20.538 20.448 20.382 20.32 20.27 20.237 20.2 20.145 20.072 19.972 19.858 19.753 19.66 19.58 19.55 19.578 19.635 19.7 19.735 19.725 19.708 19.702 19.697 19.69 19.667 19.64 19.66 19.723 19.785 19.842 19.887 19.912 19.917 19.913 19.933 19.998 20.077 20.11 20.085 20.037 19.977 19.86 19.655 19.42 19.205 19.025 18.862 18.698 18.54 18.408 18.305 18.228 18.16 18.09 18.02 17.947 17.87 17.793 17.72 17.612 17.465 17.32 17.188 17.065 16.948 16.845 16.76 16.685 16.63 16.595 16.56 16.525 16.487 16.43 16.34 16.23 16.12 16.007 15.89 15.777 15.675 15.572 15.47 15.37 15.265 15.152 15.035 14.912 14.787 14.65 14.49 14.325 14.17 14.017 13.875 13.768 13.685 13.6 13.507 13.43 13.37 13.307 13.235 13.127 12.995 12.868 12.775 12.72 12.67 12.617 12.567 12.52 12.475 12.443 12.42 12.387 12.337 12.275 12.205 12.138 12.083 12.058 12.058 12.068 12.098 12.21 12.397 11.442 10.451 10.53 10.557 10.57 10.58 10.618 10.69 10.77 10.858 10.955 11.055 11.145 11.16 11.087 11 10.978 11.007 11.035 11.047 10.956 11.411 12.557 13.117 13.023
19.882 19.94 19.985 20.045 20.085 20.122 20.157 20.19 20.215 20.267 20.36 20.437 20.475 20.495 20.515 20.54 20.605 20.69 20.76 20.833 20.905 20.975 21.017 21.032 21.05 21.07 21.097 21.125 21.148 21.17 21.19 21.21 21.182 21.125 21.087 21.052 21.015 20.975 20.94 20.928 21.015 21.225 21.312 21.207 21.072 20.953 20.838 20.735 20.66 20.592 20.525 20.46 20.405 20.355 20.292 20.217 20.135 20.03 19.915 19.805 19.698 19.6 19.565 19.608 19.673 19.738 19.777 19.768 19.743 19.735 19.73 19.725 19.718 19.718 19.758 19.82 19.88 19.945 19.997 20.012 20.007 20.008 20.045 20.122 20.197 20.207 20.16 20.11 20.057 19.957 19.765 19.545 19.35 19.175 19.015 18.853 18.688 18.525 18.383 18.268 18.175 18.1 18.027 17.95 17.87 17.792 17.715 17.615 17.492 17.363 17.235 17.113 16.988 16.87 16.773 16.705 16.665 16.635 16.603 16.568 16.533 16.48 16.39 16.283 16.175 16.06 15.945 15.84 15.74 15.637 15.532 15.43 15.327 15.2 15.062 14.94 14.825 14.695 14.535 14.367 14.212 14.07 13.925 13.793 13.688 13.59 13.49 13.41 13.35 13.29 13.22 13.11 12.972 12.835 12.738 12.685 12.635 12.58 12.525 12.472 12.422 12.372 12.327 12.272 12.195 12.118 12.045 11.975 11.935 11.933 11.923 11.903 11.895 12.125 11.872 10.935 10.49 10.502 10.495 10.485 10.515 10.583 10.665 10.772 10.885 10.985 11.082 11.14 11.095 10.96 10.87 10.88 10.917 10.952 10.98 10.905 10.721 11.206 12.42 12.987
19.867 19.975 20.102 20.22 20.32 20.415 20.51 20.585 20.6 20.585 20.58 20.592 20.602 20.597 20.592 20.587 20.593 20.628 20.69 20.76 20.83 20.897 20.945 20.975 21.002 21.027 21.075 21.14 21.182 21.203 21.215 21.227 21.172 21.073 21.015 20.98 20.945 20.905 20.878 20.893 20.96 21.125 21.25 21.187 21.053 20.955 20.895 20.832 20.765 20.695 20.625 20.562 20.505 20.44 20.365 20.285 20.197 20.09 19.978 19.873 19.768 19.663 19.628 19.678 19.74 19.803 19.85 19.853 19.83 19.82 19.818 19.815 19.818 19.825 19.863 19.928 19.99 20.052 20.087 20.085 20.078 20.088 20.143 20.225 20.285 20.28 20.23 20.18 20.13 20.05 19.885 19.683 19.498 19.325 19.165 19.01 18.863 18.718 18.575 18.428 18.288 18.155 18.035 17.945 17.868 17.79 17.705 17.605 17.498 17.408 17.308 17.183 17.06 16.938 16.83 16.763 16.723 16.69 16.66 16.628 16.592 16.54 16.45 16.345 16.24 16.11 15.98 15.88 15.782 15.68 15.577 15.475 15.362 15.21 15.04 14.903 14.797 14.685 14.537 14.375 14.228 14.092 13.955 13.818 13.695 13.588 13.483 13.388 13.315 13.252 13.182 13.08 12.945 12.805 12.703 12.642 12.582 12.51 12.44 12.38 12.325 12.27 12.212 12.145 12.065 11.983 11.903 11.833 11.808 11.827 11.832 11.803 11.803 12.132 11.382 10.401 10.47 10.453 10.43 10.433 10.485 10.562 10.635 10.748 10.89 11.01 11.1 11.082 10.942 10.78 10.725 10.765 10.8 10.827 10.842 10.775 10.617 10.453 11.618 12.887
19.797 19.838 19.928 20.075 20.242 20.422 20.612 20.75 20.775 20.732 20.667 20.61 20.585 20.58 20.575 20.57 20.57 20.585 20.628 20.69 20.76 20.812 20.835 20.853 20.878 20.913 20.995 21.115 21.207 21.245 21.245 21.242 21.175 21.043 20.953 20.91 20.875 20.835 20.828 20.87 20.933 21.033 21.152 21.14 21.025 20.975 20.955 20.902 20.837 20.773 20.705 20.645 20.582 20.507 20.433 20.358 20.273 20.17 20.065 19.965 19.865 19.765 19.733 19.785 19.85 19.91 19.957 19.977 19.977 19.975 19.977 19.98 19.985 19.98 19.99 20.043 20.107 20.16 20.167 20.145 20.133 20.158 20.228 20.31 20.36 20.347 20.3 20.25 20.2 20.135 20.002 19.82 19.65 19.497 19.355 19.218 19.088 18.96 18.822 18.665 18.492 18.303 18.108 17.958 17.863 17.785 17.692 17.593 17.515 17.475 17.412 17.29 17.16 17.038 16.933 16.858 16.803 16.765 16.735 16.702 16.662 16.607 16.52 16.415 16.297 16.147 16.01 15.913 15.822 15.725 15.622 15.515 15.377 15.205 15.025 14.873 14.768 14.675 14.542 14.385 14.243 14.105 13.965 13.833 13.718 13.607 13.493 13.378 13.273 13.188 13.117 13.03 12.907 12.773 12.663 12.585 12.507 12.42 12.332 12.26 12.202 12.147 12.09 12.025 11.95 11.868 11.788 11.72 11.698 11.715 11.732 11.728 11.83 11.64 10.84 10.38 10.43 10.435 10.418 10.423 10.473 10.542 10.6 10.698 10.85 11 11.045 10.917 10.71 10.598 10.607 10.635 10.652 10.665 10.652 10.57 10.44 10.303 11.171 12.5
19.712 19.725 19.785 19.935 20.135 20.353 20.567 20.715 20.782 20.787 20.73 20.65 20.588 20.56 20.55 20.545 20.548 20.56 20.583 20.625 20.677 20.705 20.715 20.73 20.755 20.813 20.92 21.052 21.18 21.255 21.27 21.26 21.175 21.03 20.908 20.84 20.805 20.778 20.798 20.855 20.918 20.983 21.085 21.095 21.025 21.02 21.012 20.967 20.908 20.85 20.787 20.722 20.653 20.578 20.505 20.438 20.362 20.272 20.175 20.075 19.975 19.875 19.838 19.89 19.965 20.03 20.072 20.095 20.115 20.127 20.135 20.142 20.147 20.145 20.138 20.163 20.222 20.255 20.237 20.205 20.193 20.235 20.315 20.395 20.435 20.412 20.365 20.312 20.255 20.187 20.077 19.92 19.755 19.635 19.565 19.47 19.342 19.212 19.06 18.88 18.687 18.49 18.27 18.048 17.88 17.773 17.688 17.62 17.585 17.565 17.53 17.42 17.268 17.145 17.05 16.97 16.898 16.848 16.812 16.772 16.725 16.67 16.59 16.48 16.337 16.175 16.038 15.938 15.855 15.767 15.667 15.54 15.375 15.2 15.03 14.875 14.753 14.66 14.542 14.395 14.255 14.115 13.975 13.848 13.74 13.63 13.51 13.39 13.265 13.15 13.055 12.97 12.865 12.74 12.61 12.455 12.325 12.24 12.16 12.11 12.072 12.02 11.965 11.902 11.832 11.758 11.688 11.623 11.593 11.605 11.625 11.635 11.704 10.988 10.238 10.31 10.377 10.412 10.413 10.415 10.455 10.517 10.57 10.65 10.775 10.887 10.845 10.653 10.485 10.438 10.457 10.467 10.475 10.482 10.455 10.36 10.23 10.448 11.42 12.457
19.615 19.635 19.708 19.878 20.108 20.337 20.527 20.652 20.745 20.802 20.785 20.715 20.635 20.57 20.533 20.52 20.525 20.543 20.563 20.58 20.585 20.585 20.595 20.61 20.64 20.72 20.847 20.965 21.062 21.13 21.16 21.165 21.125 21.022 20.885 20.785 20.735 20.733 20.78 20.842 20.905 20.965 21.042 21.065 21.047 21.057 21.055 21.025 20.977 20.927 20.867 20.797 20.725 20.658 20.59 20.528 20.462 20.377 20.28 20.18 20.08 19.983 19.943 19.99 20.07 20.142 20.185 20.208 20.235 20.255 20.265 20.275 20.275 20.277 20.282 20.293 20.325 20.332 20.302 20.268 20.26 20.315 20.402 20.485 20.515 20.48 20.425 20.357 20.28 20.197 20.105 19.97 19.798 19.685 19.657 19.62 19.547 19.432 19.255 19.055 18.852 18.65 18.45 18.22 17.983 17.808 17.72 17.69 17.67 17.65 17.632 17.55 17.382 17.245 17.16 17.08 17.002 16.935 16.882 16.835 16.782 16.727 16.652 16.53 16.37 16.203 16.063 15.965 15.882 15.797 15.702 15.565 15.395 15.23 15.07 14.923 14.788 14.668 14.545 14.405 14.265 14.125 13.985 13.863 13.76 13.65 13.53 13.407 13.283 13.158 13.035 12.93 12.817 12.655 12.45 12.21 12.023 11.932 11.868 11.882 11.912 11.87 11.815 11.755 11.7 11.645 11.587 11.528 11.493 11.5 11.51 11.522 11.177 10.5 10.208 10.268 10.333 10.385 10.405 10.408 10.435 10.485 10.535 10.598 10.682 10.71 10.603 10.43 10.308 10.275 10.28 10.285 10.292 10.297 10.255 10.145 10.328 11.233 12.229 12.602
19.53 19.57 19.663 19.848 20.085 20.31 20.46 20.545 20.622 20.695 20.74 20.72 20.655 20.582 20.52 20.508 20.53 20.555 20.583 20.583 20.545 20.505 20.485 20.49 20.538 20.627 20.727 20.802 20.855 20.895 20.92 20.94 20.955 20.932 20.852 20.745 20.683 20.703 20.757 20.815 20.872 20.927 20.98 21.007 21.012 21.015 21.017 21.007 20.975 20.935 20.905 20.87 20.81 20.743 20.678 20.62 20.565 20.485 20.385 20.285 20.185 20.08 20.035 20.085 20.165 20.242 20.29 20.32 20.357 20.38 20.39 20.392 20.38 20.378 20.397 20.412 20.412 20.392 20.36 20.33 20.32 20.375 20.475 20.567 20.587 20.53 20.455 20.37 20.28 20.19 20.105 19.99 19.83 19.715 19.68 19.662 19.61 19.512 19.35 19.145 18.942 18.737 18.565 18.39 18.16 17.925 17.788 17.75 17.73 17.712 17.695 17.622 17.45 17.3 17.222 17.145 17.07 16.997 16.932 16.88 16.827 16.775 16.702 16.57 16.4 16.23 16.088 15.987 15.895 15.802 15.715 15.6 15.45 15.293 15.135 14.99 14.855 14.72 14.58 14.43 14.285 14.145 14.005 13.878 13.773 13.667 13.547 13.423 13.3 13.175 13.05 12.897 12.695 12.442 12.17 11.91 11.698 11.585 11.545 11.623 11.717 11.7 11.645 11.59 11.553 11.517 11.47 11.42 11.385 11.377 11.37 11.232 10.61 10.143 10.203 10.27 10.338 10.382 10.397 10.403 10.415 10.445 10.49 10.545 10.605 10.595 10.475 10.33 10.215 10.14 10.108 10.103 10.108 10.112 10.055 10.208 11.04 11.999 12.347 12.39
19.47 19.518 19.618 19.815 20.045 20.222 20.315 20.37 20.43 20.495 20.57 20.62 20.607 20.55 20.498 20.508 20.555 20.595 20.627 20.615 20.557 20.493 20.435 20.4 20.423 20.48 20.528 20.573 20.62 20.658 20.68 20.698 20.713 20.73 20.727 20.678 20.64 20.66 20.705 20.755 20.805 20.852 20.895 20.912 20.908 20.908 20.913 20.917 20.9 20.873 20.88 20.895 20.88 20.83 20.763 20.708 20.662 20.59 20.49 20.39 20.282 20.158 20.115 20.18 20.258 20.335 20.392 20.435 20.48 20.505 20.51 20.5 20.478 20.47 20.485 20.492 20.477 20.445 20.413 20.393 20.38 20.423 20.525 20.605 20.602 20.535 20.45 20.36 20.27 20.18 20.092 19.997 19.86 19.755 19.72 19.632 19.525 19.48 19.375 19.177 18.975 18.78 18.633 18.517 18.34 18.095 17.883 17.79 17.773 17.757 17.722 17.632 17.468 17.325 17.248 17.175 17.105 17.035 16.97 16.913 16.86 16.807 16.73 16.605 16.445 16.273 16.11 15.983 15.88 15.785 15.707 15.627 15.507 15.357 15.203 15.06 14.928 14.795 14.65 14.483 14.32 14.175 14.038 13.905 13.785 13.677 13.562 13.44 13.317 13.187 13.012 12.765 12.475 12.173 11.88 11.608 11.373 11.238 11.245 11.375 11.512 11.532 11.478 11.438 11.415 11.382 11.337 11.292 11.253 11.228 11.212 10.808 10.268 10.158 10.228 10.302 10.365 10.39 10.395 10.4 10.403 10.413 10.443 10.495 10.542 10.532 10.427 10.295 10.188 10.08 9.99 9.938 9.923 9.92 10.103 10.86 11.769 12.105 12.123 12.183
19.418 19.463 19.575 19.775 19.955 20.06 20.12 20.17 20.225 20.293 20.37 20.45 20.502 20.49 20.473 20.51 20.565 20.615 20.645 20.625 20.565 20.497 20.43 20.368 20.348 20.368 20.398 20.433 20.47 20.5 20.52 20.538 20.555 20.578 20.615 20.625 20.608 20.61 20.633 20.675 20.722 20.765 20.802 20.817 20.808 20.803 20.808 20.817 20.815 20.808 20.825 20.855 20.882 20.885 20.847 20.8 20.757 20.69 20.595 20.485 20.357 20.23 20.205 20.28 20.355 20.43 20.497 20.552 20.6 20.622 20.615 20.595 20.573 20.56 20.557 20.545 20.523 20.495 20.473 20.46 20.45 20.475 20.537 20.562 20.53 20.475 20.41 20.337 20.255 20.165 20.078 19.995 19.88 19.78 19.68 19.493 19.398 19.43 19.38 19.212 19.008 18.833 18.713 18.617 18.492 18.285 18.03 17.865 17.818 17.797 17.735 17.625 17.48 17.355 17.278 17.21 17.145 17.077 17.013 16.948 16.89 16.827 16.735 16.625 16.492 16.327 16.15 15.985 15.858 15.763 15.69 15.627 15.545 15.42 15.273 15.135 15.005 14.875 14.727 14.552 14.373 14.21 14.07 13.94 13.813 13.693 13.578 13.457 13.307 13.107 12.84 12.53 12.225 11.92 11.613 11.315 11.05 10.905 10.958 11.125 11.295 11.357 11.323 11.298 11.28 11.245 11.2 11.155 11.108 11.075 11.045 10.588 10.158 10.2 10.275 10.342 10.377 10.387 10.392 10.397 10.4 10.4 10.41 10.447 10.475 10.46 10.382 10.267 10.16 10.05 9.94 9.843 9.773 9.95 10.518 11.38 11.877 11.873 11.905 11.978
19.373 19.41 19.525 19.685 19.795 19.88 19.943 19.978 20.023 20.09 20.173 20.258 20.345 20.405 20.45 20.51 20.565 20.6 20.607 20.592 20.552 20.49 20.423 20.365 20.34 20.348 20.367 20.393 20.418 20.44 20.46 20.49 20.533 20.583 20.62 20.607 20.585 20.583 20.585 20.605 20.638 20.675 20.71 20.727 20.717 20.7 20.7 20.713 20.722 20.73 20.75 20.78 20.81 20.84 20.857 20.857 20.842 20.79 20.69 20.562 20.425 20.313 20.305 20.38 20.457 20.53 20.595 20.657 20.71 20.727 20.71 20.685 20.662 20.64 20.62 20.598 20.573 20.553 20.54 20.53 20.52 20.513 20.5 20.47 20.425 20.372 20.32 20.268 20.213 20.19 20.145 20.043 19.9 19.73 19.525 19.333 19.303 19.367 19.362 19.237 19.048 18.895 18.795 18.7 18.6 18.447 18.215 17.983 17.865 17.822 17.735 17.613 17.488 17.388 17.315 17.25 17.185 17.12 17.055 16.988 16.925 16.845 16.74 16.633 16.517 16.377 16.21 16.03 15.868 15.753 15.678 15.615 15.55 15.462 15.342 15.212 15.085 14.955 14.802 14.625 14.443 14.263 14.108 13.975 13.848 13.723 13.6 13.43 13.187 12.9 12.59 12.28 11.975 11.67 11.36 11.05 10.753 10.608 10.695 10.878 11.062 11.17 11.177 11.16 11.14 11.107 11.062 11.015 10.965 10.927 10.782 10.463 10.26 10.265 10.32 10.365 10.377 10.382 10.387 10.392 10.395 10.397 10.4 10.402 10.387 10.355 10.302 10.21 10.102 9.995 9.885 9.777 9.683 9.895 10.777 11.562 11.7 11.675 11.71 11.785
19.343 19.37 19.468 19.598 19.703 19.81 19.875 19.898 19.918 19.96 20.038 20.125 20.218 20.31 20.397 20.482 20.547 20.558 20.54 20.53 20.512 20.475 20.417 20.363 20.337 20.322 20.325 20.355 20.383 20.42 20.468 20.523 20.593 20.655 20.632 20.573 20.56 20.56 20.56 20.563 20.57 20.588 20.618 20.64 20.63 20.605 20.603 20.618 20.627 20.632 20.645 20.67 20.695 20.73 20.78 20.82 20.842 20.83 20.74 20.602 20.468 20.385 20.408 20.483 20.557 20.625 20.685 20.742 20.787 20.807 20.797 20.772 20.74 20.705 20.68 20.658 20.638 20.625 20.615 20.605 20.595 20.562 20.48 20.385 20.32 20.268 20.228 20.22 20.253 20.338 20.397 20.343 20.197 19.785 19.33 19.195 19.225 19.297 19.32 19.24 19.098 18.97 18.875 18.78 18.68 18.567 18.39 18.142 17.948 17.835 17.728 17.61 17.503 17.423 17.355 17.288 17.222 17.157 17.093 17.03 16.962 16.872 16.763 16.65 16.54 16.425 16.282 16.113 15.94 15.805 15.72 15.655 15.59 15.497 15.382 15.27 15.155 15.032 14.877 14.695 14.512 14.325 14.155 14.015 13.888 13.762 13.587 13.305 12.98 12.67 12.358 12.045 11.737 11.422 11.11 10.805 10.52 10.415 10.535 10.725 10.89 10.97 10.982 10.982 10.97 10.947 10.917 10.875 10.825 10.782 10.603 10.42 10.38 10.345 10.34 10.35 10.35 10.35 10.352 10.352 10.362 10.372 10.367 10.335 10.272 10.215 10.165 10.1 10.007 9.902 9.795 9.685 9.66 9.768 10.34 11.274 11.68 11.623 11.62 11.678
19.313 19.355 19.45 19.59 19.725 19.842 19.905 19.915 19.905 19.92 19.98 20.053 20.135 20.225 20.323 20.435 20.527 20.55 20.525 20.493 20.46 20.435 20.4 20.355 20.32 20.28 20.275 20.33 20.398 20.468 20.54 20.613 20.687 20.695 20.6 20.535 20.535 20.535 20.53 20.53 20.538 20.538 20.543 20.553 20.543 20.523 20.52 20.528 20.53 20.53 20.53 20.54 20.57 20.625 20.687 20.73 20.77 20.807 20.75 20.61 20.505 20.47 20.51 20.585 20.652 20.71 20.76 20.805 20.842 20.875 20.88 20.85 20.805 20.765 20.74 20.723 20.712 20.705 20.695 20.685 20.665 20.622 20.522 20.378 20.263 20.223 20.248 20.318 20.43 20.557 20.682 20.752 20.717 20.252 19.455 19.098 19.153 19.227 19.265 19.237 19.152 19.045 18.947 18.85 18.747 18.635 18.472 18.242 18.013 17.853 17.74 17.628 17.528 17.455 17.392 17.325 17.258 17.193 17.13 17.072 17.002 16.91 16.8 16.688 16.585 16.485 16.365 16.217 16.055 15.908 15.81 15.745 15.657 15.522 15.388 15.282 15.185 15.082 14.942 14.762 14.577 14.39 14.213 14.063 13.932 13.782 13.505 13.123 12.773 12.46 12.147 11.825 11.487 11.165 10.87 10.58 10.37 10.34 10.473 10.655 10.747 10.737 10.728 10.737 10.715 10.675 10.652 10.63 10.602 10.577 10.5 10.397 10.325 10.245 10.192 10.185 10.182 10.177 10.175 10.21 10.285 10.315 10.287 10.23 10.15 10.075 10.01 9.955 9.89 9.8 9.695 9.645 9.715 9.835 9.903 10.36 11.265 11.695 11.64 11.648
19.295 19.363 19.465 19.607 19.757 19.877 19.925 19.912 19.89 19.9 19.948 20.005 20.073 20.163 20.278 20.402 20.507 20.57 20.57 20.523 20.47 20.43 20.393 20.34 20.283 20.23 20.233 20.335 20.467 20.56 20.633 20.707 20.742 20.67 20.555 20.51 20.51 20.5 20.488 20.498 20.52 20.522 20.51 20.503 20.49 20.47 20.453 20.445 20.443 20.44 20.438 20.438 20.468 20.53 20.592 20.643 20.71 20.787 20.747 20.635 20.59 20.58 20.613 20.677 20.73 20.775 20.815 20.855 20.892 20.93 20.947 20.917 20.865 20.828 20.805 20.793 20.788 20.782 20.772 20.757 20.722 20.67 20.585 20.44 20.313 20.308 20.4 20.517 20.642 20.77 20.897 21.025 21.107 20.937 20.153 19.288 19.068 19.16 19.23 19.25 19.202 19.11 19.01 18.902 18.782 18.65 18.475 18.243 18.02 17.873 17.765 17.653 17.558 17.49 17.427 17.362 17.295 17.233 17.175 17.115 17.04 16.945 16.84 16.738 16.645 16.552 16.44 16.305 16.16 16.01 15.9 15.812 15.682 15.533 15.395 15.283 15.193 15.102 14.977 14.817 14.642 14.457 14.278 14.118 13.977 13.747 13.365 12.938 12.57 12.245 11.907 11.552 11.195 10.903 10.64 10.41 10.303 10.3 10.417 10.537 10.532 10.483 10.465 10.45 10.39 10.325 10.29 10.28 10.28 10.27 10.23 10.157 10.062 9.958 9.903 9.9 9.897 9.893 9.915 10.03 10.187 10.24 10.19 10.115 10.035 9.958 9.885 9.823 9.763 9.69 9.63 9.665 9.76 9.842 9.885 9.86 10.3 11.244 11.697 11.655
19.305 19.38 19.475 19.605 19.752 19.875 19.917 19.897 19.875 19.88 19.92 19.975 20.048 20.138 20.253 20.375 20.47 20.552 20.605 20.59 20.538 20.485 20.433 20.373 20.298 20.205 20.218 20.375 20.542 20.652 20.727 20.777 20.735 20.608 20.51 20.485 20.482 20.46 20.45 20.472 20.495 20.505 20.5 20.49 20.475 20.445 20.403 20.378 20.373 20.368 20.36 20.363 20.393 20.445 20.5 20.567 20.665 20.767 20.77 20.718 20.705 20.695 20.703 20.735 20.772 20.81 20.85 20.887 20.922 20.962 20.995 20.977 20.925 20.893 20.878 20.868 20.863 20.858 20.847 20.822 20.775 20.72 20.647 20.523 20.423 20.395 20.457 20.592 20.725 20.857 20.992 21.13 21.265 21.337 20.947 20.005 19.213 19.023 19.145 19.24 19.245 19.165 19.052 18.927 18.79 18.65 18.49 18.255 18.025 17.89 17.785 17.675 17.588 17.525 17.462 17.398 17.335 17.28 17.227 17.16 17.072 16.98 16.89 16.8 16.71 16.62 16.51 16.375 16.24 16.102 15.977 15.855 15.713 15.57 15.438 15.325 15.228 15.122 14.99 14.845 14.69 14.517 14.34 14.175 14.005 13.695 13.26 12.823 12.41 12.01 11.61 11.225 10.9 10.66 10.458 10.33 10.28 10.263 10.315 10.335 10.28 10.228 10.193 10.16 10.11 10.068 10.033 10.01 9.99 9.938 9.875 9.822 9.755 9.665 9.62 9.62 9.613 9.625 9.715 9.892 10.077 10.142 10.087 10.01 9.933 9.858 9.79 9.738 9.675 9.603 9.6 9.673 9.757 9.84 9.87 9.835 9.785 10.24 11.224 11.699
19.32 19.395 19.47 19.555 19.672 19.797 19.867 19.875 19.86 19.858 19.893 19.96 20.055 20.135 20.228 20.345 20.435 20.517 20.6 20.635 20.602 20.55 20.5 20.447 20.38 20.27 20.273 20.438 20.615 20.742 20.812 20.8 20.687 20.545 20.468 20.46 20.44 20.415 20.423 20.445 20.467 20.487 20.49 20.48 20.462 20.422 20.365 20.323 20.308 20.297 20.28 20.29 20.33 20.385 20.387 20.452 20.615 20.75 20.832 20.84 20.83 20.82 20.79 20.77 20.793 20.83 20.867 20.903 20.943 20.99 21.032 21.027 20.985 20.96 20.952 20.945 20.94 20.935 20.917 20.88 20.825 20.767 20.707 20.62 20.542 20.465 20.418 20.485 20.617 20.76 20.9 21.042 21.185 21.33 21.312 20.857 19.928 19.118 18.95 19.102 19.207 19.185 19.067 18.93 18.79 18.653 18.512 18.272 18.03 17.908 17.807 17.703 17.618 17.555 17.495 17.432 17.375 17.325 17.272 17.197 17.1 17.01 16.937 16.865 16.78 16.69 16.58 16.445 16.31 16.185 16.053 15.91 15.773 15.635 15.505 15.395 15.287 15.16 15.015 14.865 14.715 14.56 14.395 14.225 14.032 13.72 13.298 12.86 12.413 11.95 11.495 11.075 10.755 10.533 10.385 10.315 10.27 10.23 10.193 10.15 10.1 10.05 9.988 9.94 9.92 9.897 9.868 9.835 9.772 9.658 9.54 9.465 9.415 9.357 9.335 9.337 9.335 9.405 9.502 9.565 9.7 9.882 9.955 9.91 9.835 9.763 9.703 9.67 9.62 9.56 9.583 9.667 9.752 9.835 9.855 9.81 9.76 9.71 10.18 11.192
19.33 19.405 19.462 19.495 19.565 19.682 19.775 19.82 19.835 19.835 19.87 19.97 20.082 20.135 20.205 20.315 20.4 20.482 20.567 20.637 20.655 20.617 20.565 20.512 20.46 20.387 20.393 20.525 20.687 20.822 20.857 20.767 20.62 20.493 20.44 20.427 20.39 20.375 20.397 20.42 20.443 20.467 20.477 20.47 20.445 20.395 20.335 20.28 20.243 20.215 20.2 20.238 20.312 20.19 19.753 19.998 20.595 20.763 20.907 20.962 20.96 20.95 20.902 20.833 20.818 20.848 20.883 20.92 20.968 21.022 21.07 21.072 21.04 21.01 20.985 20.97 20.965 20.967 20.957 20.922 20.87 20.812 20.757 20.71 20.662 20.58 20.47 20.413 20.468 20.595 20.735 20.875 21.015 21.172 21.295 21.24 20.81 19.868 19.023 18.863 19.025 19.077 19.002 18.905 18.787 18.655 18.52 18.275 18.033 17.92 17.827 17.732 17.653 17.593 17.533 17.465 17.403 17.35 17.295 17.217 17.123 17.035 16.97 16.915 16.842 16.755 16.645 16.513 16.385 16.272 16.145 15.99 15.843 15.705 15.575 15.462 15.342 15.202 15.052 14.898 14.745 14.592 14.43 14.252 14.065 13.8 13.412 12.975 12.532 12.075 11.603 11.163 10.813 10.553 10.39 10.318 10.27 10.21 10.133 10.063 10.01 9.965 9.888 9.8 9.758 9.733 9.705 9.657 9.56 9.42 9.268 9.14 9.058 9.015 9.018 9.035 9.025 8.997 8.935 8.908 9.075 9.387 9.652 9.762 9.737 9.665 9.613 9.595 9.558 9.528 9.578 9.663 9.747 9.825 9.835 9.785 9.735 9.682 9.623 10.093
19.32 19.412 19.467 19.48 19.498 19.575 19.665 19.725 19.775 19.802 19.868 20.005 20.115 20.143 20.19 20.282 20.365 20.442 20.517 20.59 20.632 20.612 20.56 20.51 20.462 20.42 20.46 20.595 20.747 20.865 20.84 20.7 20.55 20.445 20.407 20.37 20.338 20.348 20.372 20.395 20.418 20.442 20.46 20.455 20.42 20.365 20.308 20.25 20.193 20.153 20.173 20.258 20.367 19.772 18.896 19.373 20.382 20.795 20.982 21.072 21.08 21.075 21.027 20.938 20.87 20.865 20.9 20.945 21 21.057 21.107 21.115 21.087 21.055 21.013 20.973 20.943 20.943 20.96 20.945 20.897 20.847 20.798 20.782 20.77 20.69 20.58 20.47 20.408 20.45 20.57 20.71 20.85 21.017 21.162 21.21 21.162 20.779 19.818 18.941 18.773 18.857 18.835 18.78 18.702 18.61 18.507 18.29 18.121 17.968 17.778 17.725 17.692 17.64 17.577 17.5 17.425 17.363 17.305 17.235 17.147 17.063 17 16.95 16.892 16.817 16.71 16.588 16.475 16.37 16.245 16.085 15.923 15.775 15.645 15.522 15.385 15.238 15.087 14.935 14.78 14.617 14.445 14.262 14.077 13.855 13.515 13.085 12.645 12.192 11.725 11.308 10.958 10.645 10.423 10.32 10.262 10.197 10.115 10.023 9.95 9.895 9.812 9.7 9.613 9.57 9.537 9.455 9.327 9.185 9.033 8.88 8.748 8.683 8.7 8.748 8.755 8.613 8.39 8.355 8.555 8.835 9.14 9.422 9.572 9.567 9.52 9.515 9.493 9.495 9.57 9.657 9.742 9.81 9.81 9.75 9.682 9.612 9.535 9.465
19.277 19.392 19.46 19.477 19.477 19.5 19.555 19.615 19.672 19.735 19.847 20.002 20.11 20.142 20.168 20.227 20.3 20.367 20.432 20.497 20.542 20.53 20.48 20.43 20.388 20.373 20.445 20.595 20.755 20.822 20.757 20.63 20.483 20.395 20.357 20.31 20.298 20.322 20.345 20.368 20.393 20.415 20.437 20.435 20.392 20.338 20.282 20.225 20.175 20.165 20.23 20.34 20.177 19.25 18.553 18.82 19.892 20.824 21.055 21.177 21.19 21.195 21.152 21.062 20.97 20.913 20.925 20.978 21.035 21.092 21.145 21.157 21.132 21.105 21.065 21.01 20.953 20.928 20.945 20.945 20.907 20.865 20.823 20.815 20.832 20.79 20.69 20.58 20.47 20.403 20.433 20.545 20.688 20.862 21.027 21.09 21.09 21.082 20.719 19.765 18.883 18.63 18.635 18.58 18.52 18.478 18.45 18.835 19.315 18.95 17.996 17.595 17.71 17.687 17.62 17.54 17.46 17.385 17.317 17.25 17.167 17.088 17.028 16.975 16.925 16.867 16.78 16.672 16.567 16.465 16.345 16.187 16.015 15.853 15.708 15.57 15.425 15.275 15.123 14.968 14.805 14.632 14.455 14.27 14.072 13.847 13.545 13.17 12.755 12.307 11.853 11.458 11.122 10.782 10.478 10.315 10.25 10.182 10.097 9.997 9.91 9.83 9.735 9.62 9.508 9.428 9.35 9.233 9.1 8.958 8.805 8.658 8.51 8.418 8.435 8.503 8.562 8.465 8.218 8.108 8.238 8.47 8.723 9.005 9.26 9.402 9.432 9.435 9.435 9.47 9.552 9.637 9.72 9.765 9.737 9.66 9.575 9.49 9.405 9.345
19.185 19.305 19.382 19.405 19.41 19.41 19.44 19.497 19.553 19.64 19.777 19.927 20.052 20.11 20.125 20.16 20.213 20.268 20.328 20.392 20.445 20.44 20.39 20.34 20.315 20.33 20.415 20.565 20.695 20.7 20.62 20.535 20.425 20.345 20.293 20.26 20.273 20.295 20.318 20.345 20.373 20.4 20.42 20.407 20.365 20.315 20.26 20.215 20.203 20.233 20.318 20.429 19.695 18.673 18.45 18.47 19.175 20.424 21.124 21.262 21.245 21.225 21.16 21.05 20.98 20.96 20.968 21.008 21.065 21.122 21.172 21.182 21.157 21.132 21.102 21.055 20.993 20.943 20.93 20.935 20.915 20.872 20.827 20.8 20.817 20.805 20.727 20.642 20.557 20.465 20.395 20.413 20.528 20.71 20.892 20.97 20.97 20.965 20.96 20.644 19.737 18.805 18.46 18.448 18.435 18.438 18.753 19.705 20.422 20.194 18.838 17.658 17.65 17.732 17.657 17.575 17.495 17.407 17.325 17.257 17.182 17.11 17.052 17 16.948 16.895 16.822 16.722 16.622 16.53 16.422 16.277 16.11 15.94 15.78 15.635 15.49 15.34 15.183 15.013 14.835 14.65 14.462 14.265 14.042 13.792 13.5 13.172 12.815 12.412 11.992 11.61 11.245 10.87 10.518 10.313 10.24 10.155 10.045 9.94 9.847 9.747 9.64 9.527 9.415 9.308 9.19 9.063 8.938 8.783 8.605 8.448 8.303 8.195 8.195 8.268 8.35 8.295 8.088 7.958 8.04 8.26 8.49 8.722 8.93 9.12 9.29 9.362 9.373 9.42 9.5 9.582 9.645 9.655 9.61 9.53 9.445 9.36 9.275 9.228
19.055 19.17 19.247 19.267 19.273 19.278 19.313 19.373 19.435 19.543 19.687 19.827 19.96 20.045 20.075 20.105 20.148 20.19 20.235 20.29 20.347 20.35 20.3 20.265 20.27 20.3 20.385 20.535 20.605 20.547 20.458 20.39 20.335 20.28 20.233 20.223 20.248 20.275 20.308 20.34 20.373 20.402 20.402 20.37 20.33 20.288 20.258 20.255 20.27 20.313 20.402 20.157 19.085 18.333 18.365 18.395 18.575 19.245 20.395 21.119 21.16 21.087 21.01 20.95 20.96 21.015 21.04 21.048 21.09 21.147 21.187 21.187 21.165 21.145 21.125 21.092 21.037 20.978 20.938 20.93 20.917 20.877 20.812 20.755 20.757 20.742 20.678 20.615 20.555 20.487 20.408 20.358 20.403 20.563 20.76 20.85 20.85 20.847 20.842 20.84 20.564 19.415 18.466 18.438 18.505 18.708 19.43 20.17 20.415 20.514 19.814 18.156 17.448 17.687 17.687 17.602 17.515 17.417 17.325 17.255 17.19 17.125 17.07 17.02 16.967 16.912 16.84 16.75 16.663 16.577 16.475 16.345 16.195 16.03 15.87 15.723 15.577 15.43 15.267 15.085 14.882 14.665 14.45 14.227 13.992 13.737 13.44 13.115 12.79 12.45 12.075 11.682 11.28 10.893 10.54 10.32 10.222 10.11 9.983 9.873 9.77 9.655 9.538 9.425 9.313 9.198 9.08 8.96 8.83 8.657 8.45 8.255 8.095 7.973 7.955 8.033 8.12 8.107 7.963 7.84 7.868 8.048 8.28 8.46 8.542 8.71 9.03 9.247 9.3 9.345 9.425 9.49 9.512 9.502 9.47 9.4 9.315 9.23 9.145 9.11
18.938 19.04 19.115 19.135 19.138 19.14 19.178 19.248 19.328 19.448 19.587 19.72 19.852 19.967 20.022 20.053 20.095 20.132 20.163 20.195 20.247 20.255 20.215 20.213 20.24 20.27 20.355 20.477 20.485 20.393 20.3 20.233 20.208 20.198 20.19 20.208 20.242 20.277 20.315 20.352 20.387 20.397 20.37 20.333 20.298 20.27 20.288 20.325 20.345 20.395 20.489 19.637 18.506 18.295 18.33 18.373 18.438 18.508 19.105 19.88 20.52 20.922 20.893 20.95 21.04 21.105 21.13 21.118 21.125 21.17 21.202 21.195 21.175 21.155 21.135 21.112 21.075 21.02 20.97 20.938 20.915 20.88 20.782 20.7 20.708 20.7 20.65 20.6 20.553 20.505 20.455 20.408 20.395 20.465 20.625 20.727 20.73 20.73 20.72 20.702 20.682 20.147 19.12 18.798 18.87 19.25 19.995 20.31 20.43 20.55 20.454 19.092 17.618 17.553 17.712 17.622 17.525 17.423 17.323 17.245 17.185 17.125 17.07 17.02 16.97 16.925 16.87 16.797 16.72 16.632 16.525 16.4 16.267 16.117 15.96 15.81 15.665 15.52 15.352 15.155 14.938 14.715 14.465 14.19 13.938 13.68 13.377 13.055 12.74 12.417 12.06 11.668 11.275 10.902 10.55 10.318 10.192 10.065 9.943 9.832 9.717 9.588 9.46 9.338 9.213 9.093 8.978 8.857 8.72 8.542 8.328 8.105 7.905 7.75 7.72 7.8 7.887 7.917 7.835 7.733 7.708 7.835 7.992 8.02 8.04 8.275 8.68 9.027 9.205 9.272 9.335 9.36 9.357 9.347 9.32 9.262 9.185 9.1 9.015 8.99
18.837 18.922 18.987 19.012 19.015 19.018 19.055 19.125 19.22 19.348 19.48 19.613 19.747 19.877 19.957 19.997 20.037 20.07 20.095 20.115 20.152 20.162 20.15 20.175 20.21 20.243 20.327 20.387 20.333 20.248 20.183 20.15 20.148 20.155 20.168 20.188 20.218 20.26 20.312 20.362 20.39 20.377 20.343 20.313 20.285 20.275 20.332 20.395 20.415 20.472 20.13 19.02 18.308 18.32 18.34 18.378 18.46 18.56 18.61 18.738 19.335 20.32 20.842 20.932 21.062 21.172 21.22 21.207 21.195 21.205 21.217 21.205 21.185 21.165 21.145 21.125 21.1 21.057 21.01 20.965 20.925 20.853 20.72 20.683 20.748 20.758 20.723 20.688 20.653 20.612 20.565 20.52 20.495 20.493 20.545 20.6 20.598 20.585 20.568 20.54 20.51 20.482 20.015 19.698 19.722 19.917 20.232 20.308 20.452 20.59 20.705 19.997 18.291 17.546 17.705 17.622 17.53 17.427 17.325 17.24 17.175 17.115 17.06 17.015 16.978 16.95 16.907 16.842 16.772 16.685 16.572 16.447 16.322 16.19 16.047 15.9 15.755 15.61 15.435 15.23 15.025 14.825 14.56 14.238 13.938 13.64 13.325 13.013 12.7 12.363 12.018 11.668 11.288 10.885 10.525 10.3 10.163 10.03 9.91 9.795 9.67 9.54 9.413 9.28 9.143 9.01 8.883 8.75 8.607 8.43 8.212 7.988 7.763 7.56 7.498 7.57 7.655 7.723 7.705 7.635 7.588 7.608 7.62 7.563 7.64 7.94 8.328 8.713 9.032 9.182 9.207 9.208 9.202 9.19 9.162 9.12 9.055 8.97 8.89 8.878
18.71 18.777 18.842 18.892 18.91 18.915 18.948 19.013 19.115 19.245 19.375 19.508 19.64 19.772 19.882 19.942 19.975 19.995 20.01 20.032 20.06 20.082 20.107 20.145 20.18 20.215 20.272 20.272 20.208 20.16 20.135 20.14 20.152 20.158 20.165 20.173 20.183 20.21 20.258 20.315 20.36 20.36 20.333 20.307 20.28 20.285 20.37 20.455 20.488 20.552 19.625 18.496 18.353 18.362 18.37 18.398 18.49 18.612 18.675 18.69 18.711 19.28 20.115 20.65 20.997 21.167 21.24 21.232 21.225 21.225 21.225 21.21 21.19 21.17 21.152 21.135 21.115 21.087 21.05 21.005 20.955 20.88 20.755 20.753 20.867 20.892 20.857 20.822 20.777 20.722 20.668 20.63 20.615 20.605 20.595 20.545 20.488 20.463 20.44 20.418 20.395 20.38 20.347 20.31 20.305 20.292 20.26 20.278 20.41 20.59 20.735 20.579 19.205 17.743 17.4 17.33 17.278 17.258 17.26 17.235 17.173 17.108 17.06 17.035 17.015 16.99 16.942 16.877 16.807 16.722 16.612 16.49 16.365 16.237 16.107 15.967 15.825 15.685 15.525 15.34 15.15 14.957 14.695 14.363 14.02 13.65 13.298 12.985 12.66 12.335 12.04 11.722 11.345 10.935 10.555 10.3 10.143 10.005 9.88 9.758 9.633 9.507 9.377 9.24 9.1 8.965 8.835 8.685 8.518 8.325 8.103 7.883 7.663 7.468 7.405 7.465 7.548 7.635 7.66 7.618 7.563 7.485 7.413 7.365 7.443 7.725 8.095 8.465 8.817 9.04 9.083 9.06 9.048 9.035 9.008 8.972 8.92 8.84 8.77 8.77
18.54 18.6 18.67 18.745 18.795 18.815 18.84 18.908 19.02 19.15 19.28 19.41 19.54 19.672 19.797 19.865 19.88 19.88 19.885 19.91 19.937 19.972 20.02 20.07 20.117 20.165 20.2 20.185 20.15 20.13 20.125 20.14 20.155 20.162 20.168 20.175 20.18 20.185 20.203 20.233 20.285 20.33 20.327 20.3 20.273 20.298 20.4 20.507 20.565 20.117 19.028 18.395 18.395 18.405 18.413 18.438 18.533 18.655 18.707 18.705 18.7 18.775 19.173 20.178 20.955 21.122 21.192 21.19 21.198 21.215 21.22 21.207 21.19 21.17 21.152 21.135 21.12 21.115 21.092 21.045 20.993 20.95 20.887 20.875 20.977 21.027 20.987 20.94 20.882 20.82 20.77 20.745 20.735 20.733 20.707 20.583 20.443 20.388 20.365 20.345 20.323 20.333 20.385 20.402 20.377 20.347 20.315 20.29 20.35 20.52 20.707 20.869 19.982 17.995 16.963 16.968 17.018 17.108 17.223 17.252 17.185 17.115 17.075 17.067 17.057 17.03 16.975 16.902 16.825 16.74 16.645 16.532 16.407 16.277 16.145 16.012 15.875 15.74 15.61 15.46 15.28 15.09 14.83 14.495 14.122 13.7 13.298 12.968 12.67 12.39 12.122 11.8 11.425 11.042 10.653 10.35 10.155 10 9.865 9.73 9.605 9.477 9.343 9.21 9.078 8.95 8.83 8.677 8.475 8.243 8.013 7.798 7.585 7.463 7.465 7.513 7.578 7.66 7.7 7.667 7.597 7.5 7.395 7.318 7.345 7.585 7.955 8.297 8.585 8.875 9.012 8.97 8.94 8.908 8.86 8.818 8.777 8.71 8.653 8.652
18.33 18.415 18.49 18.57 18.645 18.7 18.733 18.803 18.925 19.055 19.182 19.307 19.432 19.555 19.675 19.742 19.742 19.73 19.735 19.76 19.79 19.825 19.875 19.935 19.995 20.055 20.105 20.132 20.13 20.115 20.12 20.14 20.155 20.165 20.17 20.175 20.183 20.19 20.2 20.205 20.223 20.263 20.295 20.292 20.268 20.31 20.428 20.55 20.569 19.573 18.518 18.425 18.438 18.45 18.463 18.485 18.558 18.652 18.685 18.675 18.675 18.758 19.38 20.412 20.967 21.09 21.15 21.16 21.178 21.202 21.21 21.2 21.187 21.17 21.15 21.135 21.135 21.15 21.135 21.082 21.025 20.978 20.955 20.948 21.06 21.152 21.1 21.038 20.978 20.923 20.883 20.865 20.865 20.882 20.82 20.64 20.458 20.343 20.293 20.27 20.253 20.303 20.42 20.467 20.438 20.405 20.372 20.34 20.335 20.433 20.62 20.825 20.114 18.038 16.818 16.92 17.043 17.165 17.28 17.29 17.208 17.133 17.093 17.09 17.085 17.057 16.995 16.915 16.835 16.752 16.67 16.57 16.447 16.317 16.185 16.055 15.922 15.79 15.67 15.55 15.4 15.22 14.962 14.612 14.205 13.76 13.345 13.02 12.755 12.495 12.21 11.87 11.495 11.105 10.71 10.41 10.195 10.013 9.865 9.715 9.578 9.45 9.323 9.2 9.078 8.953 8.83 8.682 8.452 8.173 7.93 7.723 7.553 7.508 7.552 7.595 7.64 7.7 7.74 7.707 7.625 7.525 7.408 7.298 7.255 7.445 7.787 8.07 8.32 8.687 8.942 8.935 8.893 8.84 8.77 8.69 8.63 8.573 8.533 8.52
18.06 18.185 18.285 18.37 18.452 18.535 18.607 18.698 18.818 18.94 19.06 19.18 19.298 19.413 19.527 19.602 19.607 19.585 19.588 19.615 19.645 19.678 19.725 19.785 19.848 19.91 19.97 20.03 20.07 20.095 20.12 20.142 20.157 20.165 20.173 20.183 20.195 20.205 20.212 20.212 20.21 20.218 20.245 20.27 20.27 20.33 20.455 20.577 20.137 19.098 18.515 18.48 18.498 18.513 18.53 18.545 18.575 18.625 18.65 18.65 18.655 18.806 19.905 20.909 21.002 21.08 21.125 21.145 21.165 21.187 21.197 21.19 21.18 21.165 21.155 21.16 21.173 21.19 21.172 21.115 21.055 21.003 20.99 21 21.087 21.195 21.19 21.132 21.075 21.028 20.998 20.995 21.015 21.03 20.92 20.695 20.503 20.355 20.245 20.195 20.205 20.293 20.43 20.512 20.505 20.468 20.43 20.395 20.363 20.383 20.52 20.727 19.582 17.558 16.853 16.982 17.107 17.232 17.327 17.317 17.233 17.15 17.105 17.095 17.085 17.055 16.992 16.915 16.837 16.76 16.682 16.587 16.467 16.337 16.202 16.067 15.932 15.822 15.722 15.61 15.487 15.335 15.082 14.697 14.252 13.805 13.43 13.137 12.867 12.602 12.282 11.887 11.472 11.067 10.703 10.435 10.227 10.033 9.873 9.725 9.583 9.453 9.328 9.203 9.08 8.958 8.832 8.675 8.415 8.1 7.86 7.703 7.6 7.585 7.63 7.675 7.717 7.762 7.785 7.74 7.647 7.547 7.435 7.313 7.208 7.298 7.555 7.802 8.048 8.412 8.787 8.9 8.855 8.805 8.732 8.63 8.535 8.453 8.405 8.39
17.765 17.875 17.997 18.092 18.18 18.293 18.455 18.602 18.713 18.828 18.943 19.06 19.175 19.29 19.4 19.465 19.465 19.438 19.445 19.483 19.515 19.545 19.59 19.653 19.718 19.783 19.848 19.91 19.97 20.027 20.075 20.117 20.155 20.175 20.185 20.2 20.215 20.225 20.227 20.22 20.213 20.215 20.228 20.248 20.273 20.348 20.47 20.434 19.565 18.693 18.56 18.543 18.57 18.59 18.607 18.618 18.628 18.635 18.635 18.633 18.635 19.298 20.427 20.937 21.007 21.065 21.107 21.135 21.155 21.175 21.185 21.18 21.17 21.163 21.175 21.2 21.215 21.23 21.215 21.157 21.095 21.038 21.02 21.042 21.08 21.162 21.23 21.22 21.175 21.138 21.13 21.15 21.18 21.155 20.992 20.748 20.55 20.398 20.25 20.15 20.168 20.275 20.42 20.562 20.597 20.553 20.51 20.473 20.433 20.4 20.433 20.549 19.09 17.184 16.883 17.025 17.16 17.292 17.372 17.347 17.27 17.193 17.123 17.08 17.065 17.037 16.977 16.902 16.827 16.752 16.617 16.457 16.362 16.26 16.12 15.977 15.87 15.817 15.76 15.665 15.552 15.427 15.165 14.737 14.27 13.852 13.535 13.222 12.87 12.552 12.212 11.787 11.363 10.995 10.685 10.445 10.242 10.048 9.893 9.76 9.62 9.485 9.355 9.225 9.098 8.973 8.845 8.662 8.378 8.078 7.875 7.765 7.69 7.665 7.7 7.747 7.792 7.802 7.78 7.747 7.675 7.575 7.465 7.343 7.26 7.28 7.368 7.535 7.775 8.093 8.587 8.862 8.807 8.737 8.652 8.562 8.47 8.365 8.295 8.28
17.53 17.563 17.655 17.76 17.883 18.088 18.34 18.515 18.62 18.733 18.847 18.962 19.075 19.182 19.275 19.315 19.305 19.283 19.3 19.355 19.397 19.43 19.475 19.538 19.603 19.67 19.74 19.805 19.865 19.923 19.98 20.042 20.107 20.16 20.195 20.22 20.235 20.24 20.235 20.223 20.218 20.225 20.238 20.253 20.275 20.35 20.47 20.022 19.155 18.74 18.635 18.6 18.632 18.665 18.682 18.69 18.695 18.665 18.63 18.623 18.623 19.73 20.862 20.915 20.97 21.025 21.075 21.115 21.142 21.165 21.175 21.17 21.163 21.175 21.21 21.24 21.255 21.267 21.255 21.205 21.145 21.088 21.053 21.053 21.078 21.138 21.217 21.267 21.27 21.265 21.285 21.315 21.345 21.27 21.055 20.808 20.605 20.445 20.29 20.18 20.185 20.265 20.41 20.617 20.7 20.657 20.613 20.57 20.52 20.455 20.388 20.385 19.6 17.796 16.903 17.072 17.218 17.36 17.437 17.412 17.348 17.27 17.17 17.083 17.045 17.02 16.962 16.888 16.813 16.74 16.535 16.245 16.14 16.092 15.958 15.84 15.8 15.79 15.755 15.697 15.612 15.505 15.235 14.782 14.267 13.807 13.445 13.057 12.662 12.332 12.015 11.653 11.295 10.973 10.685 10.453 10.245 10.048 9.905 9.792 9.66 9.525 9.395 9.265 9.135 9.003 8.867 8.688 8.453 8.215 8.008 7.865 7.78 7.748 7.773 7.82 7.835 7.77 7.71 7.705 7.677 7.602 7.5 7.425 7.423 7.45 7.435 7.453 7.54 7.756 8.378 8.797 8.72 8.625 8.525 8.44 8.367 8.28 8.205 8.18
17.357 17.343 17.365 17.478 17.698 18.003 18.275 18.43 18.533 18.64 18.752 18.862 18.965 19.057 19.13 19.155 19.145 19.128 19.15 19.215 19.27 19.312 19.36 19.423 19.49 19.56 19.63 19.695 19.755 19.818 19.883 19.95 20.02 20.09 20.155 20.207 20.24 20.242 20.23 20.223 20.23 20.245 20.255 20.268 20.285 20.352 20.24 19.545 18.953 18.83 18.72 18.665 18.685 18.725 18.75 18.757 18.737 18.672 18.625 18.628 19.178 20.32 20.907 20.898 20.93 20.985 21.035 21.08 21.12 21.152 21.165 21.163 21.17 21.202 21.242 21.272 21.292 21.305 21.29 21.247 21.195 21.143 21.108 21.088 21.085 21.128 21.193 21.268 21.35 21.41 21.45 21.48 21.487 21.36 21.117 20.873 20.66 20.493 20.345 20.275 20.29 20.3 20.41 20.652 20.78 20.76 20.715 20.655 20.577 20.485 20.388 20.333 20.247 19.125 17.538 17.115 17.307 17.452 17.53 17.507 17.445 17.352 17.24 17.13 17.048 17.003 16.947 16.873 16.8 16.73 16.51 16.088 15.885 15.892 15.813 15.758 15.765 15.76 15.725 15.685 15.637 15.562 15.315 14.815 14.185 13.59 13.113 12.72 12.393 12.098 11.81 11.54 11.262 10.958 10.68 10.455 10.243 10.043 9.905 9.807 9.692 9.562 9.43 9.3 9.168 9.038 8.92 8.797 8.652 8.457 8.22 8.01 7.878 7.83 7.845 7.862 7.8 7.688 7.635 7.635 7.63 7.613 7.585 7.59 7.625 7.66 7.665 7.62 7.695 8.045 8.487 8.655 8.585 8.495 8.395 8.31 8.242 8.172 8.097 7.925
17.192 17.178 17.19 17.335 17.625 17.96 18.215 18.35 18.45 18.545 18.642 18.742 18.835 18.922 18.982 18.992 18.98 18.97 19 19.065 19.128 19.185 19.243 19.31 19.38 19.447 19.515 19.582 19.647 19.715 19.785 19.857 19.927 19.995 20.065 20.132 20.192 20.222 20.223 20.23 20.252 20.267 20.275 20.285 20.298 20.357 19.917 19.255 19.03 18.92 18.81 18.735 18.735 18.775 18.81 18.808 18.748 18.665 18.643 18.693 19.845 20.999 21.005 20.955 20.933 20.95 20.995 21.04 21.085 21.13 21.153 21.165 21.192 21.225 21.255 21.285 21.312 21.335 21.325 21.285 21.24 21.198 21.17 21.145 21.12 21.13 21.19 21.29 21.412 21.52 21.592 21.64 21.605 21.425 21.18 20.938 20.715 20.543 20.423 20.377 20.367 20.32 20.41 20.665 20.837 20.852 20.787 20.7 20.6 20.5 20.403 20.315 20.315 20.107 18.85 17.518 17.325 17.542 17.627 17.587 17.502 17.4 17.292 17.187 17.085 17.005 16.935 16.86 16.79 16.72 16.488 16.18 15.833 15.625 15.677 15.715 15.737 15.727 15.692 15.645 15.585 15.515 15.285 14.742 14.038 13.353 12.813 12.455 12.16 11.868 11.603 11.385 11.17 10.92 10.672 10.452 10.235 10.038 9.905 9.81 9.71 9.595 9.465 9.347 9.237 9.132 9.042 8.917 8.755 8.582 8.397 8.205 8.02 7.915 7.892 7.835 7.698 7.593 7.568 7.57 7.61 7.693 7.687 7.672 7.745 7.82 7.875 7.915 8.09 8.432 8.55 8.455 8.41 8.347 8.262 8.18 8.095 7.892 7.532 7.057
17.03 17.035 17.118 17.318 17.6 17.92 18.155 18.265 18.332 18.377 18.45 18.55 18.647 18.745 18.815 18.827 18.815 18.818 18.858 18.923 18.988 19.052 19.12 19.187 19.255 19.322 19.39 19.46 19.527 19.597 19.67 19.745 19.822 19.895 19.962 20.028 20.1 20.165 20.21 20.247 20.277 20.292 20.297 20.305 20.315 20.122 19.605 19.233 19.133 19.035 18.935 18.85 18.883 18.975 18.995 18.958 18.91 18.93 18.878 19.325 20.487 21.08 21.03 20.995 20.955 20.958 21.003 21.048 21.093 21.138 21.16 21.175 21.205 21.232 21.26 21.29 21.32 21.342 21.342 21.317 21.28 21.245 21.217 21.19 21.163 21.158 21.225 21.345 21.455 21.547 21.63 21.695 21.662 21.51 21.292 21.04 20.785 20.593 20.49 20.432 20.377 20.315 20.415 20.672 20.872 20.902 20.81 20.71 20.61 20.51 20.415 20.328 20.29 20.33 19.897 18.515 17.481 17.503 17.642 17.58 17.465 17.36 17.26 17.16 17.067 17 16.94 16.868 16.793 16.717 16.578 16.532 16.28 15.698 15.423 15.462 15.545 15.56 15.507 15.437 15.35 15.262 15.022 14.527 13.902 13.223 12.623 12.225 11.93 11.645 11.403 11.2 11.002 10.802 10.607 10.42 10.222 10.035 9.902 9.802 9.692 9.572 9.452 9.35 9.257 9.165 9.085 8.937 8.733 8.572 8.437 8.297 8.13 7.988 7.88 7.738 7.583 7.51 7.545 7.623 7.74 7.885 7.752 7.608 7.72 7.85 8 8.117 8.217 8.338 8.385 8.34 8.278 8.212 8.11 7.87 7.527 7.042 6.367 5.727
16.885 16.95 17.103 17.335 17.605 17.885 18.055 18.097 18.107 18.123 18.195 18.303 18.413 18.522 18.622 18.66 18.653 18.673 18.725 18.788 18.853 18.918 18.985 19.053 19.12 19.19 19.26 19.33 19.398 19.468 19.54 19.618 19.707 19.79 19.858 19.925 20.003 20.098 20.19 20.257 20.292 20.302 20.307 20.312 20.312 20.073 19.635 19.385 19.293 19.205 19.118 19.035 19.095 19.287 19.317 19.203 19.165 19.397 19.6 20.222 20.977 21.055 21 20.985 20.998 21.04 21.093 21.138 21.175 21.185 21.18 21.188 21.208 21.235 21.265 21.295 21.322 21.335 21.34 21.34 21.315 21.28 21.25 21.223 21.2 21.203 21.275 21.39 21.475 21.533 21.597 21.64 21.62 21.535 21.372 21.137 20.835 20.6 20.487 20.407 20.345 20.308 20.42 20.662 20.872 20.91 20.81 20.71 20.613 20.523 20.443 20.37 20.31 20.312 20.289 19.519 18.078 17.393 17.462 17.46 17.365 17.255 17.155 17.07 17.013 16.985 16.957 16.895 16.815 16.725 16.665 16.677 16.64 16.192 15.555 15.17 15.105 15.192 15.162 15.07 14.983 14.897 14.637 14.177 13.665 13.102 12.498 12.015 11.7 11.433 11.213 11.015 10.818 10.628 10.457 10.3 10.135 9.97 9.83 9.707 9.575 9.442 9.332 9.237 9.14 9.037 8.965 8.88 8.71 8.538 8.403 8.268 8.148 8.037 7.873 7.665 7.54 7.553 7.665 7.815 7.965 8.095 7.813 7.525 7.663 7.873 8.097 8.202 8.235 8.32 8.375 8.332 8.247 7.972 7.477 6.902 6.24 5.39 4.696 4.358
16.79 16.922 17.11 17.337 17.567 17.775 17.86 17.843 17.833 17.87 17.96 18.068 18.18 18.295 18.41 18.477 18.498 18.533 18.592 18.655 18.717 18.782 18.85 18.92 18.99 19.057 19.128 19.2 19.27 19.34 19.41 19.493 19.59 19.68 19.755 19.833 19.933 20.058 20.167 20.235 20.267 20.277 20.285 20.28 20.255 20.215 19.99 19.715 19.548 19.41 19.325 19.248 19.255 19.422 19.49 19.39 19.423 19.782 20.24 20.59 20.905 21.027 21.015 21.045 21.1 21.157 21.212 21.247 21.247 21.215 21.195 21.205 21.218 21.24 21.268 21.295 21.317 21.322 21.325 21.335 21.332 21.31 21.283 21.26 21.243 21.25 21.325 21.42 21.477 21.517 21.545 21.54 21.512 21.46 21.327 21.122 20.842 20.593 20.455 20.353 20.28 20.293 20.43 20.643 20.857 20.91 20.81 20.718 20.635 20.56 20.487 20.415 20.348 20.315 20.335 20.119 19.027 17.663 17.195 17.252 17.232 17.145 17.065 17.023 17.003 16.99 16.975 16.925 16.835 16.73 16.655 16.63 16.627 16.487 16.05 15.463 14.913 14.72 14.772 14.71 14.618 14.53 14.252 13.775 13.303 12.85 12.352 11.848 11.475 11.23 11.028 10.833 10.64 10.453 10.283 10.125 9.968 9.815 9.667 9.525 9.385 9.26 9.16 9.07 8.975 8.873 8.81 8.78 8.667 8.505 8.368 8.253 8.185 8.1 7.953 7.793 7.7 7.755 7.898 8.043 8.19 8.297 7.988 7.613 7.718 8.012 8.242 8.317 8.325 8.35 8.375 8.182 7.772 7.155 6.223 5.313 4.693 4.103 3.731 3.718
16.685 16.842 17.025 17.225 17.407 17.56 17.613 17.613 17.645 17.708 17.798 17.898 18 18.103 18.208 18.295 18.352 18.395 18.445 18.507 18.572 18.642 18.717 18.788 18.855 18.923 18.993 19.065 19.138 19.213 19.28 19.365 19.47 19.57 19.667 19.772 19.9 20.035 20.14 20.19 20.197 20.19 20.2 20.197 20.16 20.12 20.065 19.95 19.775 19.627 19.535 19.46 19.41 19.415 19.397 19.367 19.595 20.082 20.51 20.737 20.895 21.01 21.062 21.12 21.18 21.237 21.287 21.3 21.262 21.223 21.215 21.225 21.235 21.253 21.275 21.297 21.31 21.308 21.31 21.32 21.33 21.33 21.317 21.302 21.29 21.3 21.362 21.425 21.45 21.452 21.422 21.395 21.38 21.34 21.21 21.012 20.797 20.585 20.433 20.32 20.235 20.285 20.457 20.65 20.852 20.912 20.827 20.75 20.677 20.605 20.532 20.457 20.385 20.345 20.347 20.33 19.919 18.593 17.361 17.113 17.135 17.085 17.045 17.03 17.02 17.01 16.995 16.937 16.83 16.728 16.665 16.625 16.602 16.52 16.277 15.905 15.32 14.723 14.435 14.34 14.257 14.152 13.86 13.39 12.943 12.51 12.09 11.648 11.273 11.038 10.845 10.655 10.465 10.278 10.108 9.953 9.8 9.65 9.495 9.34 9.195 9.078 8.985 8.895 8.803 8.713 8.663 8.645 8.592 8.475 8.355 8.293 8.27 8.237 8.178 8.105 8.025 8.03 8.145 8.285 8.427 8.522 8.29 7.885 7.885 8.19 8.385 8.425 8.425 8.357 8.145 7.665 6.945 5.938 4.966 4.343 4.018 3.91 3.843 3.84
16.48 16.637 16.807 16.992 17.175 17.34 17.427 17.475 17.543 17.613 17.698 17.793 17.885 17.978 18.068 18.145 18.215 18.267 18.298 18.333 18.39 18.463 18.575 18.69 18.763 18.83 18.903 18.978 19.05 19.112 19.143 19.205 19.317 19.435 19.525 19.612 19.747 19.887 19.982 20.002 19.98 19.96 20.01 20.067 20.052 20.015 19.977 19.917 19.827 19.717 19.59 19.48 19.387 19.265 19.123 19.078 19.345 19.98 20.55 20.73 20.825 20.975 21.067 21.132 21.19 21.25 21.285 21.275 21.243 21.225 21.233 21.245 21.255 21.27 21.287 21.297 21.297 21.295 21.297 21.305 21.315 21.315 21.302 21.297 21.305 21.322 21.352 21.372 21.365 21.317 21.253 21.233 21.232 21.187 21.057 20.87 20.703 20.573 20.46 20.348 20.233 20.26 20.44 20.632 20.8 20.852 20.797 20.725 20.652 20.577 20.505 20.432 20.362 20.327 20.332 20.347 20.292 19.584 18.125 17.201 17.12 17.132 17.108 17.095 17.082 17.045 16.982 16.902 16.802 16.715 16.667 16.64 16.595 16.517 16.342 16.05 15.715 15.205 14.613 14.155 13.903 13.785 13.49 13.053 12.628 12.208 11.8 11.408 11.088 10.863 10.67 10.48 10.29 10.11 9.953 9.808 9.668 9.525 9.365 9.198 9.05 8.938 8.845 8.753 8.66 8.583 8.54 8.518 8.495 8.443 8.38 8.348 8.348 8.39 8.42 8.407 8.365 8.33 8.395 8.527 8.615 8.647 8.54 8.205 8.113 8.367 8.505 8.51 8.35 7.987 7.492 6.9 6.015 4.978 4.453 4.3 4.158 4.053 3.978 3.957
16.228 16.38 16.553 16.737 16.92 17.092 17.242 17.367 17.457 17.525 17.605 17.695 17.785 17.875 17.945 18.005 18.085 18.152 18.175 18.183 18.208 18.255 18.39 18.58 18.712 18.795 18.867 18.932 18.982 19.005 18.983 19.018 19.135 19.275 19.345 19.36 19.443 19.57 19.655 19.66 19.633 19.63 19.73 19.87 19.922 19.9 19.865 19.825 19.75 19.63 19.467 19.3 19.16 19.015 18.82 18.72 18.923 19.55 20.25 20.522 20.698 20.92 21.032 21.115 21.175 21.227 21.24 21.225 21.223 21.23 21.245 21.26 21.27 21.275 21.27 21.262 21.262 21.267 21.275 21.282 21.285 21.27 21.245 21.233 21.242 21.267 21.277 21.27 21.232 21.15 21.078 21.065 21.077 21.037 20.918 20.778 20.675 20.61 20.53 20.402 20.253 20.228 20.375 20.55 20.667 20.71 20.69 20.627 20.555 20.482 20.408 20.335 20.275 20.248 20.265 20.307 20.31 20.099 19.102 17.613 17.023 17.152 17.192 17.167 17.107 17.02 16.917 16.833 16.755 16.68 16.63 16.597 16.547 16.467 16.327 16.11 15.817 15.482 15.057 14.507 13.853 13.435 13.182 12.78 12.375 11.975 11.575 11.213 10.935 10.713 10.51 10.318 10.133 9.97 9.833 9.702 9.567 9.425 9.265 9.108 8.978 8.868 8.768 8.673 8.585 8.513 8.468 8.443 8.42 8.423 8.415 8.398 8.43 8.495 8.557 8.597 8.607 8.597 8.62 8.667 8.665 8.635 8.635 8.482 8.388 8.525 8.532 8.287 7.807 7.225 6.617 5.913 5.12 4.653 4.538 4.42 4.29 4.183 4.11 4.068
15.983 16.12 16.295 16.48 16.645 16.793 16.965 17.157 17.32 17.432 17.512 17.595 17.682 17.752 17.795 17.855 17.95 18.03 18.062 18.067 18.072 18.08 18.038 18.2 18.492 18.639 18.77 18.847 18.875 18.85 18.793 18.833 18.965 19.125 19.2 19.18 19.183 19.238 19.288 19.295 19.28 19.3 19.423 19.597 19.735 19.775 19.765 19.727 19.632 19.497 19.325 19.135 18.955 18.797 18.593 18.495 18.678 19.145 19.842 20.34 20.63 20.86 20.98 21.087 21.165 21.2 21.203 21.208 21.225 21.24 21.255 21.265 21.26 21.242 21.215 21.203 21.213 21.228 21.245 21.252 21.24 21.218 21.193 21.168 21.153 21.163 21.172 21.145 21.07 20.97 20.903 20.895 20.915 20.91 20.845 20.763 20.697 20.637 20.552 20.425 20.278 20.21 20.302 20.43 20.505 20.547 20.552 20.52 20.457 20.385 20.313 20.245 20.195 20.165 20.178 20.228 20.275 20.255 19.889 18.585 17.263 17.018 17.15 17.14 17.042 16.935 16.838 16.76 16.687 16.607 16.54 16.487 16.435 16.375 16.272 16.135 15.9 15.57 15.237 14.9 14.08 13.203 12.845 12.535 12.157 11.763 11.378 11.06 10.815 10.585 10.365 10.17 10.005 9.858 9.723 9.597 9.47 9.33 9.183 9.05 8.933 8.82 8.718 8.63 8.555 8.485 8.428 8.395 8.388 8.425 8.455 8.475 8.533 8.6 8.667 8.717 8.753 8.802 8.797 8.708 8.635 8.605 8.625 8.632 8.622 8.502 8.132 7.572 6.97 6.203 5.53 5.1 4.818 4.732 4.63 4.522 4.405 4.305 4.235 4.54
15.74 15.865 16.037 16.21 16.352 16.483 16.653 16.86 17.067 17.247 17.39 17.495 17.562 17.602 17.635 17.708 17.81 17.9 17.945 17.947 17.922 17.865 17.698 17.54 17.393 17.505 18.114 18.542 18.657 18.652 18.585 18.658 18.815 18.982 19.055 19.035 19.013 19.01 19.008 18.978 18.94 18.973 19.115 19.292 19.467 19.6 19.65 19.61 19.505 19.362 19.185 18.995 18.8 18.61 18.45 18.458 18.638 18.9 19.573 20.227 20.552 20.795 20.915 21.035 21.132 21.175 21.19 21.21 21.23 21.247 21.252 21.24 21.212 21.18 21.153 21.15 21.173 21.2 21.228 21.233 21.21 21.183 21.155 21.125 21.095 21.078 21.055 20.987 20.89 20.79 20.728 20.728 20.77 20.822 20.815 20.75 20.682 20.617 20.527 20.41 20.28 20.18 20.2 20.28 20.34 20.385 20.395 20.382 20.35 20.287 20.22 20.168 20.125 20.09 20.1 20.155 20.21 20.237 20.19 19.612 18.148 17.061 16.988 17.022 16.932 16.845 16.763 16.685 16.61 16.513 16.43 16.377 16.323 16.265 16.19 16.095 15.935 15.66 15.333 15.007 13.905 12.7 12.345 12.137 11.88 11.545 11.2 10.933 10.697 10.462 10.225 10.035 9.895 9.753 9.613 9.485 9.375 9.263 9.14 9.02 8.903 8.79 8.693 8.608 8.53 8.46 8.393 8.348 8.365 8.442 8.515 8.573 8.637 8.705 8.772 8.822 8.887 8.992 8.975 8.815 8.68 8.595 8.608 8.657 8.475 7.96 7.317 6.725 6.033 5.27 4.91 4.885 4.84 4.772 4.69 4.6 4.505 4.732 4.975 5.214
15.505 15.618 15.772 15.922 16.05 16.173 16.34 16.547 16.75 16.952 17.152 17.302 17.382 17.427 17.477 17.565 17.667 17.76 17.797 17.765 17.692 17.595 17.455 17.01 16.301 16.063 16.515 16.908 17.215 17.912 18.387 18.5 18.672 18.837 18.905 18.885 18.875 18.883 18.86 18.795 18.733 18.75 18.858 18.983 19.133 19.31 19.407 19.405 19.352 19.225 19.042 18.847 18.65 18.473 18.388 18.478 18.67 19.058 19.735 20.18 20.425 20.69 20.83 20.95 21.045 21.092 21.112 21.13 21.152 21.172 21.167 21.14 21.11 21.09 21.093 21.123 21.163 21.198 21.232 21.245 21.225 21.195 21.165 21.133 21.1 21.047 20.955 20.843 20.728 20.615 20.56 20.593 20.673 20.747 20.765 20.722 20.657 20.587 20.49 20.37 20.25 20.15 20.14 20.2 20.258 20.29 20.285 20.263 20.235 20.19 20.143 20.113 20.085 20.058 20.068 20.118 20.173 20.22 20.202 20.054 19.162 17.598 16.858 16.87 16.798 16.753 16.695 16.605 16.53 16.42 16.323 16.27 16.212 16.142 16.065 15.977 15.89 15.727 15.445 14.707 13.175 12.116 11.905 11.71 11.535 11.307 11.045 10.807 10.567 10.322 10.085 9.913 9.787 9.65 9.518 9.413 9.33 9.243 9.138 9.02 8.908 8.808 8.725 8.645 8.558 8.473 8.388 8.325 8.353 8.452 8.567 8.667 8.737 8.805 8.872 8.885 8.94 9.03 8.962 8.795 8.678 8.647 8.585 8.33 7.767 7.08 6.358 5.74 5.245 4.95 4.927 4.902 4.86 4.792 4.717 4.645 4.777 5.117 5.142 4.93
15.275 15.375 15.51 15.653 15.788 15.918 16.053 16.218 16.41 16.61 16.81 16.977 17.092 17.172 17.245 17.335 17.445 17.567 17.607 17.535 17.44 17.35 17.17 16.675 15.973 15.543 15.471 15.503 15.751 17.03 18.18 18.36 18.528 18.692 18.76 18.748 18.763 18.785 18.76 18.7 18.645 18.65 18.718 18.793 18.893 19.018 19.098 19.138 19.15 19.062 18.885 18.693 18.52 18.38 18.35 18.475 18.593 19.293 20.072 20.185 20.31 20.547 20.73 20.842 20.917 20.95 20.965 20.98 21 21.015 21.018 21.01 21 21 21.033 21.102 21.172 21.215 21.25 21.272 21.262 21.235 21.205 21.175 21.122 21.02 20.885 20.75 20.62 20.493 20.44 20.5 20.595 20.665 20.702 20.69 20.63 20.552 20.45 20.33 20.223 20.148 20.145 20.2 20.242 20.247 20.227 20.2 20.163 20.123 20.1 20.095 20.085 20.068 20.075 20.115 20.178 20.242 20.222 20.137 19.844 18.6 17.153 16.7 16.685 16.69 16.645 16.533 16.45 16.328 16.215 16.16 16.095 16.015 15.935 15.86 15.79 15.705 15.455 14.313 12.681 11.871 11.655 11.463 11.278 11.1 10.9 10.667 10.417 10.165 9.943 9.79 9.675 9.548 9.435 9.365 9.307 9.237 9.147 9.04 8.943 8.863 8.795 8.73 8.647 8.55 8.45 8.375 8.373 8.445 8.567 8.715 8.83 8.902 8.96 8.907 8.875 8.862 8.765 8.695 8.697 8.59 8.177 7.545 6.86 6.125 5.44 5.085 4.993 4.967 4.943 4.92 4.88 4.815 4.74 4.668 4.82 4.868 4.896 5.038
15.042 15.135 15.275 15.44 15.59 15.722 15.82 15.923 16.068 16.25 16.45 16.61 16.727 16.833 16.935 17.053 17.193 17.35 17.405 17.322 17.213 17.115 16.89 16.367 15.743 15.445 15.445 15.475 15.728 16.943 18.037 18.232 18.39 18.547 18.62 18.633 18.675 18.695 18.662 18.61 18.563 18.568 18.642 18.727 18.8 18.878 18.915 18.92 18.922 18.865 18.73 18.573 18.438 18.315 18.318 18.413 18.683 19.558 20.212 20.24 20.283 20.443 20.63 20.725 20.777 20.807 20.825 20.84 20.855 20.868 20.89 20.915 20.925 20.93 20.97 21.057 21.152 21.222 21.27 21.295 21.295 21.277 21.25 21.195 21.09 20.955 20.815 20.68 20.548 20.425 20.378 20.43 20.515 20.58 20.627 20.642 20.6 20.52 20.415 20.305 20.223 20.163 20.153 20.19 20.205 20.19 20.173 20.155 20.125 20.09 20.078 20.082 20.08 20.073 20.08 20.123 20.2 20.275 20.257 20.163 20.072 19.597 18.135 16.838 16.608 16.662 16.605 16.47 16.367 16.23 16.108 16.045 15.973 15.91 15.855 15.782 15.688 15.605 15.437 14.67 13.315 12.091 11.448 11.22 11.052 10.885 10.702 10.492 10.255 10.003 9.795 9.66 9.555 9.455 9.375 9.32 9.27 9.215 9.147 9.07 8.997 8.927 8.86 8.8 8.732 8.65 8.56 8.49 8.453 8.463 8.54 8.698 8.877 8.992 9.012 8.89 8.793 8.758 8.735 8.71 8.517 8.022 7.322 6.56 5.875 5.325 5.048 5.033 5.01 4.985 4.96 4.937 4.897 4.835 4.763 4.705 4.676 4.985 5.562 5.747
14.803 14.89 15.038 15.232 15.407 15.535 15.62 15.702 15.798 15.92 16.085 16.238 16.365 16.503 16.648 16.81 16.98 17.145 17.205 17.125 17.005 16.89 16.627 16.115 15.608 15.408 15.423 15.453 16.045 17.24 17.94 18.1 18.257 18.407 18.495 18.537 18.59 18.605 18.572 18.525 18.478 18.48 18.56 18.655 18.737 18.825 18.79 18.63 18.53 18.487 18.455 18.44 18.372 18.255 18.237 18.225 18.983 20.027 20.277 20.297 20.315 20.385 20.51 20.595 20.632 20.662 20.682 20.698 20.712 20.73 20.765 20.81 20.84 20.858 20.91 21.005 21.105 21.2 21.277 21.315 21.32 21.315 21.27 21.162 21.025 20.885 20.745 20.607 20.47 20.368 20.343 20.375 20.435 20.495 20.542 20.58 20.565 20.487 20.388 20.3 20.235 20.177 20.155 20.16 20.15 20.133 20.118 20.1 20.08 20.058 20.05 20.058 20.065 20.073 20.09 20.145 20.23 20.307 20.292 20.197 20.103 20.005 19.184 17.463 16.58 16.645 16.565 16.42 16.29 16.13 16.008 15.955 15.905 15.873 15.82 15.72 15.603 15.495 15.4 15.142 14.447 13.12 11.721 11 10.753 10.59 10.422 10.235 10.027 9.825 9.678 9.58 9.493 9.415 9.358 9.308 9.255 9.203 9.148 9.092 9.035 8.967 8.907 8.855 8.797 8.735 8.672 8.622 8.577 8.543 8.553 8.66 8.852 9.037 9.027 8.868 8.795 8.815 8.717 8.367 7.79 7.095 6.273 5.563 5.188 5.05 5.05 5.042 5.025 5.002 4.977 4.952 4.915 4.855 4.798 4.928 5.245 5.78 6.055 5.88
14.56 14.645 14.788 14.99 15.18 15.305 15.385 15.47 15.557 15.643 15.763 15.908 16.055 16.218 16.383 16.555 16.735 16.915 17.025 16.997 16.888 16.762 16.45 15.913 15.508 15.39 15.4 15.428 16.275 17.415 17.805 17.965 18.11 18.23 18.33 18.405 18.462 18.49 18.477 18.44 18.393 18.402 18.465 18.497 18.587 18.717 18.6 18.265 18 17.893 17.922 18.02 18.067 18.082 18.063 18.141 19.25 20.287 20.337 20.353 20.37 20.383 20.415 20.46 20.493 20.52 20.54 20.555 20.568 20.588 20.625 20.672 20.717 20.763 20.835 20.935 21.037 21.14 21.235 21.282 21.277 21.257 21.192 21.075 20.94 20.8 20.66 20.52 20.38 20.283 20.272 20.305 20.35 20.407 20.457 20.505 20.517 20.457 20.372 20.305 20.232 20.152 20.12 20.117 20.1 20.083 20.068 20.05 20.035 20.025 20.035 20.058 20.073 20.085 20.11 20.173 20.26 20.322 20.295 20.215 20.142 20.065 19.671 18.035 16.636 16.518 16.45 16.32 16.207 16.063 15.95 15.925 15.902 15.855 15.76 15.64 15.522 15.397 15.252 15.11 14.89 14.244 12.85 11.348 10.553 10.275 10.107 9.922 9.73 9.66 9.645 9.568 9.49 9.415 9.36 9.312 9.26 9.207 9.153 9.097 9.037 8.965 8.915 8.885 8.837 8.782 8.732 8.695 8.665 8.637 8.62 8.655 8.815 9.022 9.01 8.888 8.847 8.677 8.215 7.555 6.832 6.063 5.37 5.063 5.05 5.05 5.05 5.047 5.035 5.015 4.992 4.97 4.935 5.015 5.233 5.537 5.935 6.21 6.177 5.985
14.32 14.405 14.543 14.732 14.91 15.032 15.115 15.195 15.28 15.375 15.495 15.64 15.793 15.953 16.115 16.285 16.468 16.677 16.84 16.885 16.842 16.737 16.355 15.74 15.408 15.373 15.383 15.55 16.51 17.45 17.67 17.81 17.907 17.988 18.09 18.197 18.282 18.33 18.337 18.322 18.29 18.267 18.242 18.175 18.215 18.345 18.222 17.885 17.563 17.32 17.275 17.45 17.713 17.86 17.808 18.443 19.73 20.35 20.392 20.405 20.402 20.382 20.358 20.345 20.36 20.385 20.402 20.415 20.425 20.445 20.483 20.53 20.585 20.648 20.733 20.837 20.942 21.045 21.117 21.142 21.135 21.1 21.037 20.947 20.83 20.697 20.56 20.42 20.288 20.188 20.163 20.195 20.23 20.277 20.337 20.395 20.432 20.402 20.325 20.245 20.15 20.063 20.045 20.065 20.06 20.043 20.028 20.01 19.995 19.99 20.02 20.07 20.095 20.105 20.133 20.2 20.27 20.295 20.25 20.182 20.135 20.002 19.227 17.648 16.56 16.363 16.28 16.18 16.125 16.022 15.928 15.917 15.882 15.792 15.675 15.555 15.42 15.255 15.067 14.888 14.75 14.597 13.977 12.555 10.991 10.103 9.793 9.61 9.508 9.605 9.667 9.58 9.493 9.415 9.36 9.315 9.265 9.212 9.157 9.097 9.025 8.94 8.89 8.882 8.857 8.807 8.753 8.708 8.68 8.665 8.655 8.683 8.845 9.002 8.987 8.845 8.555 8.015 7.297 6.513 5.795 5.273 5.05 5.05 5.05 5.05 5.05 5.05 5.042 5.025 5.005 5.065 5.21 5.455 5.787 6.027 6.14 6.212 6.177 6.005
14.125 14.175 14.295 14.462 14.625 14.755 14.845 14.92 15 15.108 15.243 15.39 15.538 15.688 15.845 16.015 16.218 16.46 16.622 16.69 16.732 16.677 16.27 15.688 15.4 15.355 15.363 15.76 16.725 17.37 17.5 17.59 17.653 17.728 17.835 17.955 18.067 18.122 18.117 18.102 18.087 18.015 17.885 17.773 17.723 17.76 17.655 17.368 17.113 16.93 16.933 17.215 17.615 17.695 17.593 18.833 20.224 20.407 20.425 20.407 20.372 20.33 20.295 20.265 20.247 20.253 20.265 20.275 20.285 20.305 20.345 20.403 20.468 20.533 20.62 20.73 20.835 20.912 20.942 20.945 20.94 20.92 20.867 20.79 20.697 20.585 20.455 20.318 20.203 20.115 20.06 20.063 20.085 20.115 20.16 20.192 20.21 20.202 20.172 20.102 20 19.95 19.965 19.995 20.01 20.005 19.99 19.973 19.958 19.95 19.985 20.05 20.1 20.125 20.158 20.212 20.245 20.25 20.192 20.112 19.787 18.872 17.73 16.878 16.505 16.403 16.283 16.15 16.063 15.975 15.905 15.88 15.81 15.7 15.58 15.442 15.267 15.065 14.865 14.675 14.518 14.41 14.22 13.599 12.302 10.693 9.651 9.373 9.44 9.63 9.692 9.605 9.505 9.418 9.36 9.315 9.265 9.215 9.157 9.085 9 8.91 8.86 8.86 8.857 8.827 8.778 8.725 8.68 8.655 8.678 8.765 8.935 9.032 8.845 8.397 7.76 7.007 6.183 5.5 5.153 5.05 5.05 5.05 5.05 5.05 5.05 5.05 5.048 5.1 5.208 5.363 5.625 5.87 6.002 6.092 6.137 6.142 6.11 5.975
14.01 14.008 14.07 14.193 14.34 14.48 14.578 14.66 14.753 14.868 15.008 15.153 15.295 15.437 15.585 15.765 16.002 16.25 16.395 16.46 16.532 16.56 16.412 16.217 16.082 16.007 15.895 16.118 16.797 17.19 17.267 17.325 17.385 17.468 17.58 17.7 17.805 17.84 17.815 17.788 17.792 17.737 17.583 17.435 17.303 17.22 17.128 16.993 16.905 16.895 16.978 17.24 17.535 17.465 17.781 19.31 20.362 20.37 20.375 20.352 20.31 20.267 20.227 20.165 20.115 20.12 20.135 20.145 20.155 20.173 20.218 20.285 20.352 20.418 20.505 20.615 20.695 20.717 20.715 20.707 20.695 20.665 20.632 20.605 20.54 20.447 20.34 20.22 20.12 20.04 19.962 19.933 19.945 19.96 19.96 19.928 19.888 19.868 19.883 19.88 19.848 19.85 19.882 19.915 19.942 19.957 19.953 19.94 19.93 19.923 19.953 20.015 20.078 20.128 20.165 20.193 20.203 20.205 20.1 19.425 18.408 17.416 16.826 16.735 16.645 16.552 16.432 16.25 16.068 15.943 15.87 15.802 15.705 15.6 15.462 15.28 15.075 14.865 14.663 14.463 14.278 14.13 13.95 13.747 13.292 12.104 10.368 9.403 9.455 9.655 9.72 9.635 9.53 9.43 9.358 9.305 9.255 9.207 9.145 9.06 8.97 8.88 8.83 8.828 8.843 8.847 8.81 8.755 8.705 8.705 8.79 8.91 8.955 8.762 8.22 7.47 6.663 5.903 5.32 5.068 5.055 5.05 5.05 5.05 5.05 5.05 5.05 5.08 5.195 5.347 5.48 5.627 5.825 5.98 6.022 6.027 6.035 6.04 6.032 5.947
13.93 13.91 13.93 14.013 14.128 14.24 14.33 14.425 14.53 14.645 14.782 14.917 15.042 15.165 15.287 15.463 15.745 16.025 16.167 16.237 16.313 16.39 16.49 16.61 16.65 16.617 16.49 16.487 16.732 16.895 16.978 17.057 17.115 17.203 17.323 17.445 17.512 17.505 17.475 17.458 17.485 17.477 17.355 17.183 17.015 16.913 16.903 16.955 17.035 17.1 17.15 17.315 17.4 17.181 18.3 19.932 20.24 20.195 20.197 20.205 20.205 20.18 20.09 19.988 19.96 19.985 20.01 20.025 20.035 20.048 20.088 20.157 20.23 20.292 20.37 20.447 20.47 20.457 20.442 20.428 20.417 20.38 20.328 20.327 20.325 20.257 20.157 20.057 19.962 19.87 19.805 19.793 19.807 19.82 19.798 19.735 19.67 19.648 19.68 19.715 19.72 19.73 19.762 19.797 19.83 19.86 19.945 20.01 20.005 20 20.025 20.083 20.14 20.213 20.255 20.238 20.2 20.175 19.767 18.398 17.251 17.028 16.94 16.85 16.76 16.665 16.507 16.287 16.07 15.892 15.777 15.68 15.572 15.467 15.312 15.103 14.89 14.683 14.503 14.32 14.113 13.918 13.728 13.54 13.355 12.959 11.127 9.483 9.475 9.68 9.747 9.665 9.562 9.458 9.355 9.28 9.23 9.182 9.115 9.025 8.937 8.848 8.795 8.81 8.86 8.885 8.85 8.795 8.778 8.843 8.957 8.902 8.537 7.917 7.147 6.305 5.608 5.22 5.085 5.073 5.06 5.055 5.053 5.05 5.05 5.05 5.145 5.295 5.445 5.555 5.585 5.73 5.887 5.915 5.918 5.923 5.93 5.932 5.922 5.875
13.85 13.83 13.85 13.925 14.013 14.085 14.145 14.228 14.327 14.408 14.5 14.615 14.722 14.825 14.94 15.11 15.385 15.675 15.87 16.002 16.097 16.172 16.27 16.385 16.465 16.465 16.452 16.5 16.57 16.635 16.723 16.81 16.868 16.95 17.067 17.172 17.2 17.168 17.135 17.133 17.175 17.21 17.13 16.958 16.833 16.823 16.882 16.957 17.05 17.145 17.232 17.34 17.237 17.083 18.632 20.097 20.003 19.973 19.96 19.965 19.995 19.985 19.875 19.803 19.823 19.847 19.875 19.9 19.915 19.925 19.958 20.023 20.092 20.142 20.182 20.2 20.187 20.173 20.158 20.148 20.145 20.127 20.025 19.963 19.985 19.94 19.86 19.79 19.7 19.62 19.608 19.638 19.67 19.69 19.672 19.615 19.575 19.598 19.652 19.665 19.618 19.59 19.61 19.645 19.68 19.715 19.885 20.107 20.177 20.17 20.195 20.25 20.318 20.427 20.482 20.423 20.338 20.265 19.54 18.046 17.195 17.107 17.017 16.917 16.815 16.71 16.505 16.198 15.94 15.752 15.618 15.515 15.405 15.297 15.145 14.94 14.728 14.54 14.41 14.275 14.083 13.868 13.65 13.435 13.235 12.982 11.188 9.436 9.448 9.687 9.772 9.695 9.595 9.49 9.37 9.263 9.195 9.145 9.075 8.985 8.9 8.83 8.8 8.84 8.915 8.935 8.893 8.863 8.91 8.965 8.822 8.34 7.635 6.903 6.085 5.401 5.14 5.103 5.09 5.08 5.07 5.063 5.058 5.055 5.118 5.235 5.392 5.527 5.577 5.61 5.655 5.785 5.855 5.818 5.813 5.817 5.817 5.805 5.777 5.735
