ncols         200
nrows         71
xllcorner     544000
yllcorner     261065
cellsize      5
NODATA_value  -9999.0
12.087 12.043 12.02 12.03 12.035 12.043 12.08 12.135 12.193 12.255 12.295 12.305 12.297 12.285 12.275 12.267 12.26 12.25 12.255 12.27 12.285 12.305 12.323 12.365 12.45 12.547 12.637 12.715 12.78 12.827 12.77 12.625 12.5 12.39 12.365 12.438 12.528 12.637 12.705 12.707 12.705 12.708 12.798 12.945 13.03 13.07 13.08 13.01 12.933 12.945 12.992 13.035 13.075 13.115 13.155 13.187 13.22 13.227 13.195 13.155 13.14 13.175 13.165 13.11 13.102 13.037 12.882 12.718 12.565 12.475 12.435 12.4 12.383 12.403 12.41 12.388 12.383 12.385 12.4 12.443 12.505 12.562 12.573 12.565 12.58 12.605 12.665 12.745 12.777 12.765 12.727 12.668 12.608 12.56 12.55 12.565 12.57 12.573 12.577 12.58 12.585 12.59 12.59 12.59 12.585 12.583 12.583 12.585 12.598 12.613 12.628 12.65 12.66 12.635 12.585 12.53 12.485 12.445 12.43 12.458 12.492 12.517 12.535 12.545 12.55 12.55 12.553 12.558 12.565 12.57 12.57 12.565 12.57 12.602 12.61 12.575 12.54 12.518 12.483 12.438 12.4 12.363 12.328 12.295 12.262 12.222 12.19 12.183 12.19 12.203 12.223 12.247 12.257 12.24 12.21 12.18 12.165 12.18 12.215 12.265 12.312 12.34 12.35 12.347 12.342 12.337 12.33 12.322 12.315 12.305 12.32 12.327 12.27 12.19 12.148 12.15 12.175 12.21 12.258 12.32 12.372 12.392 12.445 12.545 12.64 12.72 12.737 12.68 12.602 12.54 12.48 12.408 12.345 12.29 12.263 12.267 12.263 12.285 12.348 12.412
12.095 12.075 12.065 12.075 12.082 12.098 12.14 12.195 12.25 12.307 12.335 12.327 12.315 12.302 12.29 12.28 12.27 12.26 12.268 12.288 12.305 12.325 12.368 12.45 12.548 12.643 12.735 12.815 12.88 12.93 12.91 12.842 12.802 12.775 12.76 12.752 12.745 12.76 12.787 12.805 12.815 12.827 12.882 12.948 12.983 13.015 13.038 13.02 13.02 13.065 13.102 13.14 13.18 13.22 13.255 13.275 13.287 13.275 13.235 13.195 13.158 13.145 13.138 13.135 13.132 13.037 12.87 12.703 12.573 12.505 12.465 12.43 12.395 12.375 12.365 12.358 12.36 12.36 12.375 12.423 12.49 12.547 12.575 12.592 12.617 12.645 12.687 12.717 12.71 12.69 12.662 12.62 12.57 12.533 12.523 12.528 12.53 12.53 12.535 12.54 12.545 12.548 12.55 12.558 12.56 12.57 12.588 12.603 12.615 12.615 12.608 12.613 12.623 12.615 12.58 12.535 12.495 12.458 12.433 12.44 12.468 12.495 12.515 12.525 12.533 12.54 12.547 12.553 12.56 12.565 12.565 12.562 12.558 12.565 12.557 12.517 12.48 12.465 12.437 12.385 12.34 12.305 12.272 12.24 12.21 12.185 12.18 12.2 12.228 12.255 12.285 12.297 12.28 12.25 12.22 12.187 12.155 12.138 12.153 12.198 12.253 12.305 12.342 12.345 12.33 12.323 12.315 12.305 12.295 12.287 12.275 12.228 12.153 12.08 12.055 12.088 12.13 12.17 12.215 12.28 12.355 12.407 12.465 12.55 12.637 12.722 12.737 12.677 12.61 12.547 12.493 12.438 12.382 12.328 12.285 12.26 12.24 12.258 12.318 12.385
12.1 12.09 12.09 12.1 12.113 12.138 12.185 12.24 12.295 12.342 12.352 12.34 12.327 12.313 12.3 12.29 12.28 12.27 12.298 12.352 12.385 12.405 12.465 12.563 12.655 12.75 12.825 12.875 12.92 12.955 12.965 12.957 12.955 12.955 12.945 12.912 12.87 12.827 12.82 12.847 12.87 12.89 12.93 12.978 13.008 13.035 13.06 13.075 13.097 13.135 13.172 13.207 13.245 13.282 13.295 13.29 13.29 13.272 13.235 13.195 13.157 13.113 13.115 13.167 13.147 13.022 12.857 12.693 12.583 12.535 12.495 12.46 12.425 12.398 12.378 12.363 12.363 12.365 12.378 12.42 12.485 12.545 12.582 12.607 12.635 12.665 12.68 12.662 12.635 12.615 12.595 12.58 12.55 12.518 12.528 12.545 12.545 12.545 12.548 12.55 12.545 12.533 12.54 12.562 12.578 12.593 12.61 12.628 12.645 12.652 12.645 12.635 12.625 12.625 12.61 12.57 12.533 12.49 12.45 12.458 12.48 12.485 12.495 12.508 12.52 12.53 12.54 12.547 12.552 12.55 12.545 12.542 12.537 12.522 12.487 12.445 12.42 12.425 12.407 12.35 12.295 12.25 12.215 12.193 12.175 12.16 12.175 12.222 12.27 12.312 12.335 12.32 12.287 12.255 12.225 12.192 12.158 12.128 12.118 12.143 12.195 12.253 12.332 12.37 12.343 12.318 12.3 12.29 12.28 12.273 12.268 12.233 12.173 12.103 12.05 12.055 12.09 12.13 12.175 12.24 12.315 12.37 12.412 12.47 12.545 12.625 12.64 12.59 12.54 12.518 12.507 12.47 12.415 12.358 12.308 12.27 12.243 12.25 12.308 12.38
12.11 12.1 12.1 12.11 12.13 12.165 12.215 12.27 12.315 12.345 12.352 12.347 12.335 12.32 12.31 12.297 12.285 12.278 12.325 12.417 12.49 12.532 12.593 12.693 12.798 12.905 12.942 12.908 12.905 12.935 12.945 12.933 12.925 12.925 12.922 12.905 12.87 12.83 12.828 12.86 12.885 12.908 12.968 13.052 13.107 13.137 13.15 13.143 13.14 13.165 13.205 13.24 13.275 13.287 13.265 13.25 13.25 13.237 13.205 13.162 13.112 13.05 13.068 13.147 13.115 12.99 12.842 12.693 12.605 12.565 12.525 12.49 12.465 12.455 12.435 12.4 12.388 12.39 12.403 12.435 12.488 12.545 12.58 12.603 12.63 12.66 12.657 12.613 12.568 12.54 12.52 12.527 12.53 12.513 12.548 12.602 12.62 12.62 12.62 12.61 12.575 12.535 12.54 12.572 12.597 12.617 12.635 12.655 12.672 12.685 12.685 12.675 12.67 12.68 12.67 12.632 12.59 12.515 12.463 12.495 12.542 12.548 12.52 12.503 12.51 12.52 12.53 12.537 12.535 12.522 12.512 12.505 12.487 12.45 12.403 12.378 12.383 12.4 12.382 12.325 12.265 12.215 12.183 12.168 12.16 12.15 12.165 12.215 12.26 12.292 12.32 12.317 12.287 12.255 12.225 12.192 12.158 12.13 12.11 12.108 12.145 12.2 12.307 12.402 12.392 12.35 12.325 12.298 12.268 12.255 12.287 12.335 12.315 12.235 12.138 12.07 12.06 12.09 12.135 12.197 12.262 12.302 12.33 12.368 12.423 12.495 12.51 12.468 12.455 12.488 12.51 12.487 12.442 12.385 12.335 12.3 12.27 12.265 12.313 12.382
12.125 12.11 12.11 12.125 12.155 12.195 12.242 12.287 12.315 12.335 12.347 12.35 12.342 12.33 12.317 12.303 12.29 12.285 12.335 12.435 12.54 12.627 12.725 12.855 12.98 13.102 13.11 12.978 12.9 12.915 12.922 12.908 12.898 12.895 12.895 12.89 12.867 12.833 12.833 12.865 12.892 12.925 12.995 13.095 13.185 13.237 13.242 13.225 13.208 13.208 13.235 13.27 13.282 13.25 13.213 13.205 13.205 13.197 13.17 13.117 13.05 12.98 13.005 13.085 13.042 12.928 12.81 12.7 12.635 12.595 12.555 12.53 12.525 12.525 12.502 12.458 12.425 12.415 12.43 12.46 12.498 12.545 12.58 12.6 12.623 12.647 12.64 12.587 12.525 12.475 12.445 12.46 12.492 12.505 12.55 12.627 12.68 12.695 12.687 12.65 12.582 12.525 12.525 12.565 12.602 12.635 12.66 12.68 12.697 12.715 12.722 12.715 12.72 12.74 12.732 12.69 12.615 12.503 12.46 12.515 12.59 12.642 12.617 12.553 12.518 12.515 12.52 12.517 12.505 12.488 12.475 12.455 12.415 12.365 12.333 12.335 12.355 12.375 12.357 12.303 12.253 12.215 12.19 12.173 12.16 12.15 12.163 12.203 12.233 12.25 12.26 12.273 12.277 12.255 12.222 12.188 12.158 12.135 12.115 12.098 12.108 12.15 12.26 12.41 12.455 12.445 12.432 12.373 12.31 12.263 12.27 12.342 12.375 12.327 12.252 12.165 12.09 12.068 12.095 12.15 12.197 12.23 12.26 12.288 12.32 12.373 12.393 12.39 12.428 12.48 12.5 12.487 12.462 12.415 12.365 12.33 12.303 12.285 12.313 12.375
12.153 12.125 12.125 12.15 12.185 12.225 12.262 12.29 12.31 12.33 12.343 12.345 12.342 12.337 12.325 12.307 12.293 12.298 12.365 12.478 12.595 12.707 12.788 12.905 13.082 13.26 13.277 13.1 12.938 12.895 12.9 12.885 12.875 12.867 12.865 12.865 12.857 12.837 12.84 12.865 12.872 12.882 12.95 13.062 13.18 13.27 13.295 13.287 13.28 13.272 13.277 13.277 13.245 13.193 13.163 13.163 13.165 13.16 13.125 13.055 12.98 12.91 12.925 13.01 12.99 12.878 12.773 12.7 12.657 12.622 12.595 12.59 12.595 12.592 12.567 12.525 12.482 12.453 12.46 12.49 12.52 12.552 12.58 12.6 12.62 12.64 12.627 12.572 12.505 12.44 12.39 12.395 12.445 12.493 12.555 12.635 12.71 12.747 12.722 12.657 12.58 12.515 12.51 12.55 12.59 12.63 12.667 12.695 12.717 12.74 12.752 12.757 12.775 12.8 12.787 12.715 12.602 12.488 12.468 12.538 12.613 12.687 12.697 12.627 12.56 12.528 12.515 12.505 12.493 12.475 12.455 12.423 12.378 12.335 12.318 12.325 12.335 12.348 12.338 12.3 12.265 12.235 12.21 12.19 12.193 12.22 12.25 12.28 12.31 12.338 12.318 12.278 12.26 12.243 12.218 12.188 12.165 12.145 12.125 12.105 12.093 12.108 12.213 12.387 12.507 12.575 12.572 12.482 12.37 12.278 12.238 12.265 12.322 12.322 12.275 12.212 12.14 12.085 12.07 12.095 12.133 12.165 12.193 12.218 12.248 12.285 12.313 12.35 12.41 12.465 12.487 12.48 12.467 12.437 12.395 12.363 12.34 12.318 12.335 12.395
12.233 12.198 12.173 12.18 12.213 12.25 12.29 12.318 12.335 12.355 12.345 12.323 12.32 12.32 12.31 12.29 12.288 12.335 12.438 12.563 12.687 12.805 12.83 12.85 13.015 13.245 13.3 13.165 13.015 12.915 12.88 12.862 12.847 12.825 12.812 12.817 12.822 12.817 12.81 12.802 12.777 12.758 12.815 12.937 13.065 13.175 13.22 13.225 13.232 13.25 13.275 13.272 13.233 13.18 13.15 13.148 13.15 13.145 13.1 13.02 12.943 12.865 12.838 12.902 12.922 12.835 12.733 12.673 12.645 12.612 12.592 12.592 12.595 12.592 12.587 12.565 12.522 12.483 12.48 12.51 12.535 12.552 12.575 12.6 12.62 12.64 12.622 12.56 12.493 12.428 12.378 12.395 12.458 12.52 12.595 12.678 12.747 12.772 12.73 12.653 12.578 12.508 12.495 12.535 12.578 12.62 12.662 12.695 12.72 12.747 12.762 12.772 12.792 12.817 12.795 12.7 12.578 12.483 12.485 12.56 12.638 12.715 12.727 12.665 12.605 12.565 12.545 12.535 12.525 12.505 12.475 12.44 12.4 12.365 12.348 12.35 12.355 12.363 12.373 12.355 12.303 12.255 12.245 12.263 12.308 12.37 12.417 12.45 12.48 12.505 12.485 12.408 12.325 12.268 12.225 12.198 12.18 12.16 12.143 12.125 12.108 12.108 12.215 12.41 12.557 12.64 12.612 12.48 12.353 12.28 12.225 12.198 12.237 12.252 12.21 12.162 12.117 12.08 12.065 12.08 12.115 12.138 12.148 12.17 12.203 12.235 12.26 12.295 12.352 12.412 12.44 12.44 12.437 12.43 12.42 12.405 12.388 12.37 12.39 12.45
12.363 12.322 12.27 12.235 12.243 12.273 12.32 12.365 12.39 12.405 12.37 12.31 12.285 12.278 12.268 12.27 12.318 12.41 12.53 12.657 12.782 12.905 12.932 12.88 12.925 13.102 13.17 13.077 12.985 12.895 12.84 12.812 12.772 12.722 12.7 12.712 12.725 12.725 12.705 12.67 12.635 12.615 12.67 12.79 12.913 13.018 13.07 13.095 13.128 13.173 13.225 13.265 13.26 13.215 13.175 13.155 13.15 13.142 13.095 13.015 12.932 12.843 12.773 12.785 12.825 12.775 12.68 12.628 12.6 12.565 12.535 12.525 12.525 12.528 12.545 12.557 12.535 12.495 12.49 12.515 12.527 12.533 12.555 12.592 12.62 12.64 12.62 12.555 12.488 12.42 12.393 12.453 12.532 12.595 12.67 12.737 12.775 12.775 12.727 12.65 12.573 12.5 12.485 12.528 12.573 12.617 12.657 12.685 12.708 12.735 12.747 12.742 12.745 12.765 12.742 12.65 12.538 12.483 12.515 12.585 12.665 12.742 12.75 12.693 12.65 12.625 12.61 12.6 12.582 12.55 12.515 12.48 12.44 12.405 12.378 12.383 12.405 12.423 12.452 12.465 12.43 12.37 12.365 12.42 12.485 12.542 12.582 12.615 12.647 12.675 12.657 12.582 12.488 12.4 12.32 12.26 12.23 12.213 12.198 12.18 12.175 12.195 12.318 12.487 12.555 12.59 12.54 12.403 12.328 12.297 12.25 12.18 12.163 12.172 12.142 12.098 12.065 12.06 12.08 12.11 12.132 12.13 12.123 12.138 12.165 12.197 12.22 12.235 12.27 12.325 12.357 12.362 12.37 12.388 12.417 12.442 12.442 12.428 12.45 12.495
12.495 12.445 12.39 12.335 12.3 12.303 12.343 12.397 12.442 12.455 12.412 12.338 12.275 12.24 12.248 12.305 12.395 12.5 12.62 12.75 12.877 13.005 13.037 12.973 12.933 12.995 13.02 12.938 12.868 12.81 12.763 12.71 12.645 12.58 12.555 12.568 12.582 12.587 12.567 12.53 12.493 12.47 12.525 12.65 12.795 12.923 12.99 13.035 13.085 13.135 13.185 13.235 13.265 13.25 13.21 13.175 13.158 13.142 13.09 13.005 12.912 12.815 12.735 12.703 12.727 12.707 12.63 12.585 12.552 12.515 12.478 12.458 12.455 12.46 12.48 12.51 12.522 12.503 12.498 12.51 12.51 12.508 12.528 12.572 12.61 12.635 12.615 12.55 12.483 12.415 12.413 12.502 12.597 12.672 12.732 12.76 12.77 12.767 12.725 12.65 12.57 12.495 12.475 12.517 12.567 12.612 12.65 12.675 12.695 12.717 12.722 12.703 12.685 12.69 12.67 12.585 12.52 12.535 12.585 12.64 12.7 12.767 12.78 12.74 12.713 12.69 12.675 12.66 12.63 12.59 12.555 12.52 12.48 12.445 12.408 12.41 12.452 12.487 12.525 12.56 12.58 12.565 12.565 12.592 12.615 12.657 12.715 12.77 12.812 12.842 12.83 12.76 12.675 12.595 12.5 12.4 12.328 12.295 12.28 12.273 12.295 12.34 12.445 12.527 12.515 12.507 12.458 12.378 12.343 12.32 12.277 12.195 12.123 12.1 12.078 12.05 12.055 12.08 12.11 12.13 12.127 12.113 12.105 12.11 12.13 12.162 12.187 12.195 12.205 12.243 12.272 12.283 12.305 12.34 12.385 12.435 12.47 12.48 12.492 12.492
12.622 12.567 12.512 12.457 12.403 12.365 12.378 12.428 12.482 12.502 12.46 12.388 12.31 12.253 12.285 12.385 12.485 12.59 12.71 12.84 12.97 13.1 13.137 13.075 13 12.942 12.89 12.83 12.78 12.75 12.725 12.645 12.528 12.438 12.413 12.425 12.44 12.45 12.43 12.39 12.355 12.343 12.423 12.585 12.763 12.907 12.982 13.028 13.07 13.113 13.15 13.19 13.237 13.265 13.25 13.21 13.177 13.145 13.08 12.985 12.887 12.79 12.705 12.653 12.643 12.627 12.58 12.538 12.503 12.465 12.425 12.395 12.383 12.388 12.41 12.443 12.478 12.498 12.503 12.503 12.498 12.488 12.505 12.55 12.593 12.63 12.612 12.545 12.48 12.418 12.438 12.547 12.655 12.725 12.75 12.755 12.76 12.762 12.725 12.65 12.57 12.495 12.463 12.495 12.555 12.607 12.642 12.665 12.685 12.702 12.697 12.67 12.643 12.628 12.6 12.563 12.578 12.625 12.665 12.702 12.74 12.787 12.805 12.787 12.772 12.755 12.735 12.707 12.67 12.63 12.595 12.56 12.517 12.472 12.425 12.433 12.495 12.545 12.585 12.62 12.655 12.67 12.662 12.652 12.637 12.668 12.75 12.835 12.907 12.97 12.987 12.937 12.867 12.79 12.69 12.583 12.48 12.4 12.375 12.397 12.437 12.48 12.52 12.522 12.49 12.46 12.423 12.39 12.367 12.345 12.305 12.225 12.13 12.063 12.038 12.05 12.08 12.11 12.127 12.125 12.11 12.095 12.09 12.09 12.1 12.128 12.152 12.16 12.163 12.178 12.2 12.228 12.263 12.3 12.348 12.403 12.46 12.502 12.497 12.455
12.705 12.655 12.615 12.572 12.517 12.46 12.45 12.498 12.545 12.555 12.517 12.455 12.383 12.32 12.355 12.467 12.572 12.68 12.8 12.93 13.06 13.177 13.192 13.105 12.997 12.877 12.788 12.735 12.703 12.718 12.737 12.685 12.555 12.423 12.373 12.375 12.378 12.378 12.368 12.353 12.343 12.34 12.425 12.608 12.78 12.905 12.985 13.035 13.075 13.115 13.13 13.143 13.185 13.237 13.247 13.21 13.175 13.145 13.068 12.955 12.86 12.765 12.678 12.623 12.588 12.56 12.53 12.495 12.468 12.44 12.41 12.39 12.378 12.38 12.408 12.445 12.485 12.52 12.533 12.53 12.525 12.503 12.503 12.54 12.585 12.632 12.622 12.555 12.49 12.43 12.458 12.575 12.682 12.737 12.748 12.753 12.758 12.765 12.727 12.645 12.567 12.493 12.455 12.485 12.548 12.602 12.637 12.66 12.68 12.695 12.685 12.655 12.625 12.598 12.565 12.568 12.61 12.645 12.675 12.707 12.742 12.777 12.795 12.79 12.785 12.775 12.757 12.74 12.71 12.67 12.63 12.585 12.535 12.482 12.433 12.45 12.53 12.592 12.635 12.67 12.695 12.682 12.643 12.618 12.603 12.638 12.723 12.81 12.905 13.02 13.09 13.065 13.02 12.967 12.875 12.767 12.65 12.508 12.445 12.48 12.52 12.557 12.55 12.508 12.478 12.453 12.433 12.412 12.39 12.37 12.332 12.255 12.16 12.073 12.04 12.065 12.097 12.13 12.13 12.108 12.093 12.08 12.075 12.075 12.078 12.095 12.117 12.125 12.128 12.145 12.178 12.213 12.248 12.285 12.335 12.393 12.445 12.487 12.477 12.425
12.735 12.698 12.677 12.662 12.62 12.56 12.55 12.592 12.615 12.6 12.567 12.525 12.465 12.398 12.425 12.54 12.652 12.755 12.85 12.952 13.057 13.15 13.147 13.037 12.907 12.783 12.693 12.653 12.66 12.707 12.735 12.727 12.672 12.555 12.48 12.468 12.453 12.44 12.44 12.45 12.452 12.44 12.488 12.64 12.79 12.892 12.98 13.042 13.092 13.132 13.13 13.113 13.13 13.177 13.19 13.158 13.155 13.177 13.097 12.943 12.828 12.73 12.653 12.605 12.565 12.53 12.51 12.5 12.488 12.47 12.453 12.448 12.445 12.45 12.48 12.517 12.55 12.575 12.587 12.59 12.572 12.533 12.52 12.548 12.588 12.635 12.635 12.575 12.513 12.458 12.48 12.582 12.67 12.727 12.752 12.758 12.768 12.782 12.74 12.645 12.563 12.488 12.46 12.498 12.55 12.595 12.627 12.652 12.675 12.692 12.685 12.655 12.625 12.598 12.57 12.558 12.575 12.605 12.638 12.673 12.708 12.742 12.762 12.76 12.752 12.74 12.73 12.73 12.717 12.687 12.645 12.592 12.54 12.488 12.445 12.473 12.56 12.635 12.685 12.72 12.717 12.67 12.618 12.583 12.568 12.61 12.695 12.78 12.893 13.055 13.165 13.167 13.155 13.132 13.055 12.922 12.757 12.568 12.478 12.508 12.545 12.585 12.567 12.51 12.483 12.465 12.45 12.432 12.412 12.392 12.355 12.282 12.19 12.108 12.07 12.078 12.103 12.135 12.132 12.098 12.075 12.065 12.06 12.06 12.06 12.065 12.083 12.095 12.108 12.15 12.195 12.223 12.253 12.29 12.34 12.392 12.432 12.462 12.452 12.408
12.75 12.73 12.715 12.715 12.7 12.658 12.648 12.665 12.655 12.63 12.6 12.572 12.535 12.478 12.498 12.605 12.715 12.807 12.863 12.9 12.958 13.035 13.045 12.945 12.813 12.685 12.605 12.605 12.65 12.705 12.73 12.73 12.722 12.675 12.627 12.61 12.587 12.57 12.57 12.572 12.56 12.54 12.553 12.66 12.79 12.88 12.972 13.045 13.115 13.155 13.135 13.105 13.09 13.115 13.125 13.12 13.17 13.237 13.17 12.983 12.815 12.698 12.635 12.595 12.555 12.52 12.51 12.515 12.515 12.512 12.512 12.515 12.517 12.528 12.552 12.585 12.61 12.63 12.645 12.64 12.6 12.55 12.543 12.568 12.595 12.635 12.645 12.597 12.54 12.49 12.505 12.582 12.647 12.705 12.747 12.767 12.79 12.807 12.76 12.66 12.565 12.483 12.465 12.505 12.545 12.582 12.612 12.64 12.665 12.687 12.687 12.66 12.63 12.602 12.577 12.553 12.545 12.565 12.6 12.638 12.675 12.71 12.73 12.727 12.712 12.698 12.688 12.685 12.682 12.675 12.647 12.597 12.545 12.493 12.46 12.5 12.587 12.67 12.732 12.752 12.712 12.647 12.595 12.553 12.538 12.583 12.668 12.758 12.893 13.082 13.212 13.247 13.265 13.267 13.185 13.01 12.807 12.603 12.513 12.54 12.573 12.61 12.592 12.525 12.48 12.458 12.447 12.44 12.43 12.415 12.38 12.312 12.225 12.145 12.11 12.11 12.118 12.14 12.137 12.098 12.063 12.045 12.04 12.04 12.04 12.04 12.053 12.073 12.108 12.167 12.212 12.238 12.263 12.295 12.34 12.382 12.412 12.437 12.433 12.413
12.75 12.753 12.745 12.748 12.75 12.737 12.722 12.705 12.68 12.655 12.625 12.597 12.572 12.538 12.56 12.657 12.76 12.85 12.89 12.89 12.908 12.945 12.945 12.858 12.728 12.603 12.55 12.59 12.65 12.705 12.73 12.727 12.725 12.72 12.712 12.707 12.702 12.695 12.69 12.68 12.66 12.64 12.628 12.68 12.78 12.87 12.965 13.053 13.137 13.17 13.14 13.11 13.08 13.073 13.09 13.135 13.21 13.285 13.24 13.055 12.845 12.69 12.62 12.58 12.542 12.51 12.503 12.513 12.523 12.535 12.55 12.565 12.577 12.592 12.612 12.635 12.655 12.675 12.69 12.672 12.617 12.57 12.568 12.59 12.613 12.642 12.655 12.622 12.57 12.52 12.512 12.557 12.61 12.665 12.72 12.775 12.822 12.835 12.78 12.68 12.58 12.485 12.46 12.497 12.533 12.567 12.597 12.625 12.652 12.677 12.682 12.662 12.635 12.605 12.577 12.552 12.53 12.538 12.573 12.61 12.648 12.68 12.698 12.69 12.673 12.655 12.643 12.64 12.64 12.645 12.64 12.602 12.55 12.498 12.478 12.528 12.613 12.697 12.76 12.747 12.672 12.612 12.572 12.528 12.51 12.558 12.65 12.75 12.883 13.062 13.192 13.242 13.272 13.262 13.165 13.007 12.832 12.638 12.548 12.575 12.605 12.637 12.62 12.55 12.49 12.448 12.418 12.403 12.397 12.392 12.375 12.325 12.252 12.183 12.15 12.15 12.15 12.158 12.145 12.105 12.065 12.035 12.025 12.025 12.025 12.025 12.03 12.06 12.117 12.185 12.23 12.252 12.277 12.305 12.338 12.37 12.395 12.418 12.435 12.455
12.765 12.785 12.793 12.798 12.8 12.802 12.765 12.705 12.672 12.647 12.62 12.59 12.563 12.558 12.61 12.703 12.8 12.89 12.917 12.905 12.902 12.9 12.885 12.815 12.7 12.58 12.543 12.595 12.655 12.705 12.722 12.717 12.712 12.71 12.715 12.727 12.742 12.75 12.755 12.747 12.725 12.705 12.688 12.705 12.775 12.865 12.958 13.062 13.15 13.162 13.127 13.092 13.057 13.043 13.08 13.15 13.225 13.3 13.265 13.082 12.863 12.69 12.598 12.553 12.517 12.49 12.5 12.525 12.538 12.553 12.57 12.59 12.607 12.62 12.637 12.657 12.675 12.692 12.7 12.677 12.625 12.588 12.59 12.61 12.63 12.65 12.655 12.622 12.567 12.51 12.473 12.488 12.537 12.592 12.652 12.735 12.82 12.852 12.797 12.692 12.587 12.483 12.448 12.485 12.52 12.552 12.58 12.603 12.63 12.657 12.665 12.65 12.625 12.595 12.567 12.543 12.53 12.553 12.593 12.628 12.66 12.688 12.695 12.683 12.662 12.62 12.595 12.6 12.6 12.605 12.612 12.597 12.555 12.503 12.493 12.553 12.637 12.705 12.73 12.692 12.61 12.55 12.52 12.487 12.48 12.54 12.645 12.75 12.865 13.027 13.15 13.195 13.195 13.13 13.03 12.912 12.777 12.628 12.565 12.592 12.617 12.642 12.635 12.58 12.52 12.465 12.41 12.368 12.338 12.325 12.322 12.29 12.238 12.208 12.203 12.205 12.205 12.203 12.18 12.14 12.093 12.048 12.03 12.03 12.03 12.03 12.03 12.05 12.107 12.18 12.23 12.255 12.277 12.303 12.338 12.375 12.403 12.425 12.46 12.505
12.808 12.83 12.847 12.86 12.865 12.865 12.805 12.705 12.645 12.615 12.59 12.56 12.55 12.588 12.663 12.75 12.845 12.935 12.945 12.898 12.878 12.872 12.855 12.805 12.715 12.6 12.555 12.6 12.657 12.7 12.71 12.703 12.695 12.69 12.695 12.71 12.725 12.735 12.755 12.77 12.757 12.735 12.723 12.733 12.78 12.863 12.957 13.055 13.112 13.102 13.065 13.025 13.005 13.023 13.073 13.14 13.215 13.292 13.255 13.07 12.853 12.68 12.578 12.52 12.48 12.46 12.493 12.537 12.555 12.57 12.59 12.607 12.617 12.62 12.633 12.657 12.68 12.697 12.692 12.66 12.618 12.585 12.58 12.592 12.607 12.622 12.615 12.572 12.517 12.455 12.403 12.403 12.445 12.495 12.56 12.652 12.75 12.807 12.78 12.687 12.58 12.473 12.438 12.472 12.505 12.535 12.56 12.58 12.605 12.632 12.64 12.627 12.605 12.575 12.55 12.533 12.548 12.597 12.645 12.68 12.707 12.725 12.722 12.7 12.652 12.578 12.545 12.557 12.56 12.565 12.575 12.577 12.555 12.508 12.508 12.577 12.64 12.66 12.645 12.602 12.535 12.47 12.435 12.418 12.43 12.513 12.637 12.75 12.855 13 13.11 13.12 13.065 12.975 12.88 12.767 12.643 12.545 12.533 12.57 12.595 12.617 12.637 12.61 12.55 12.495 12.44 12.385 12.33 12.29 12.265 12.238 12.22 12.235 12.26 12.275 12.28 12.272 12.242 12.19 12.125 12.068 12.045 12.047 12.05 12.05 12.048 12.048 12.08 12.145 12.205 12.242 12.265 12.293 12.338 12.387 12.425 12.453 12.488 12.53
12.858 12.875 12.895 12.915 12.93 12.925 12.857 12.743 12.643 12.585 12.558 12.55 12.58 12.64 12.718 12.803 12.893 12.985 12.992 12.918 12.86 12.835 12.812 12.77 12.707 12.615 12.568 12.603 12.655 12.695 12.702 12.69 12.68 12.672 12.675 12.687 12.7 12.71 12.73 12.76 12.775 12.767 12.762 12.773 12.798 12.86 12.952 13.015 13.025 13.01 12.98 12.958 12.978 13.02 13.068 13.13 13.205 13.287 13.247 13.06 12.848 12.673 12.568 12.498 12.445 12.433 12.475 12.537 12.572 12.59 12.61 12.62 12.62 12.618 12.628 12.655 12.68 12.695 12.68 12.643 12.608 12.575 12.555 12.548 12.553 12.565 12.545 12.495 12.445 12.39 12.34 12.333 12.363 12.403 12.47 12.557 12.64 12.702 12.7 12.64 12.56 12.465 12.428 12.458 12.49 12.52 12.542 12.56 12.583 12.607 12.612 12.6 12.582 12.555 12.533 12.54 12.583 12.64 12.692 12.727 12.745 12.75 12.735 12.687 12.61 12.525 12.49 12.505 12.515 12.52 12.53 12.54 12.54 12.51 12.523 12.575 12.585 12.57 12.542 12.5 12.447 12.388 12.345 12.338 12.36 12.45 12.592 12.725 12.847 12.977 13.04 12.992 12.905 12.815 12.725 12.62 12.515 12.453 12.465 12.52 12.562 12.592 12.635 12.635 12.58 12.525 12.47 12.415 12.36 12.305 12.25 12.23 12.25 12.28 12.31 12.335 12.35 12.337 12.29 12.22 12.145 12.083 12.058 12.062 12.065 12.065 12.062 12.058 12.065 12.108 12.17 12.22 12.252 12.288 12.335 12.39 12.44 12.475 12.51 12.54
12.915 12.925 12.945 12.962 12.98 12.972 12.9 12.787 12.673 12.578 12.545 12.578 12.63 12.693 12.773 12.858 12.943 13.032 13.045 12.97 12.887 12.82 12.773 12.725 12.673 12.608 12.575 12.605 12.653 12.69 12.695 12.675 12.655 12.63 12.622 12.64 12.66 12.68 12.7 12.72 12.742 12.757 12.772 12.8 12.827 12.867 12.915 12.932 12.922 12.91 12.91 12.933 12.975 13.02 13.063 13.123 13.2 13.285 13.242 13.05 12.84 12.668 12.563 12.485 12.418 12.405 12.455 12.525 12.58 12.61 12.622 12.622 12.62 12.615 12.623 12.65 12.677 12.687 12.667 12.635 12.602 12.57 12.545 12.525 12.513 12.505 12.475 12.43 12.388 12.345 12.315 12.315 12.335 12.355 12.388 12.445 12.52 12.587 12.592 12.547 12.495 12.433 12.413 12.443 12.475 12.505 12.527 12.545 12.563 12.582 12.587 12.573 12.555 12.535 12.533 12.57 12.627 12.682 12.735 12.762 12.765 12.762 12.73 12.658 12.57 12.483 12.435 12.445 12.468 12.478 12.485 12.495 12.505 12.503 12.507 12.51 12.49 12.47 12.44 12.395 12.348 12.295 12.263 12.273 12.3 12.38 12.518 12.66 12.8 12.912 12.915 12.832 12.745 12.655 12.565 12.48 12.418 12.378 12.39 12.45 12.508 12.558 12.617 12.645 12.61 12.555 12.5 12.445 12.387 12.33 12.27 12.255 12.29 12.327 12.355 12.372 12.387 12.37 12.312 12.24 12.165 12.098 12.07 12.075 12.075 12.077 12.077 12.073 12.068 12.083 12.13 12.185 12.233 12.28 12.33 12.385 12.44 12.487 12.525 12.545
12.967 12.97 12.985 13.002 13.007 12.982 12.905 12.795 12.685 12.595 12.583 12.63 12.68 12.745 12.828 12.915 13.002 13.067 13.055 12.977 12.89 12.805 12.75 12.713 12.66 12.603 12.633 12.72 12.77 12.765 12.683 12.6 12.56 12.515 12.485 12.5 12.532 12.565 12.587 12.6 12.612 12.645 12.68 12.715 12.757 12.785 12.79 12.782 12.773 12.795 12.858 12.917 12.967 13.012 13.055 13.115 13.197 13.282 13.242 13.05 12.833 12.66 12.555 12.465 12.393 12.393 12.448 12.515 12.58 12.62 12.627 12.623 12.62 12.623 12.638 12.665 12.685 12.68 12.655 12.625 12.593 12.568 12.55 12.528 12.505 12.48 12.453 12.423 12.388 12.355 12.348 12.37 12.39 12.393 12.38 12.375 12.415 12.482 12.495 12.455 12.418 12.39 12.395 12.427 12.46 12.487 12.512 12.535 12.552 12.567 12.57 12.555 12.535 12.528 12.555 12.61 12.667 12.722 12.765 12.765 12.75 12.747 12.722 12.655 12.565 12.475 12.425 12.435 12.468 12.488 12.495 12.505 12.515 12.51 12.495 12.495 12.483 12.445 12.408 12.373 12.33 12.273 12.225 12.223 12.248 12.315 12.44 12.58 12.702 12.782 12.757 12.66 12.57 12.485 12.408 12.353 12.323 12.32 12.348 12.4 12.468 12.538 12.605 12.65 12.64 12.585 12.527 12.47 12.41 12.35 12.29 12.275 12.315 12.357 12.37 12.37 12.38 12.36 12.305 12.242 12.177 12.113 12.083 12.085 12.085 12.09 12.095 12.095 12.09 12.088 12.12 12.178 12.225 12.262 12.305 12.36 12.42 12.49 12.535 12.545
13.005 13.008 13.017 13.022 13.002 12.96 12.882 12.775 12.683 12.635 12.65 12.698 12.748 12.813 12.895 12.985 13.057 13.07 13.012 12.927 12.843 12.765 12.728 12.715 12.677 12.62 12.71 12.917 13.032 13 12.788 12.573 12.461 12.385 12.323 12.303 12.34 12.373 12.393 12.408 12.42 12.488 12.53 12.533 12.57 12.592 12.595 12.595 12.628 12.718 12.815 12.885 12.947 12.997 13.043 13.105 13.19 13.277 13.257 13.08 12.837 12.623 12.488 12.41 12.383 12.41 12.465 12.528 12.585 12.622 12.635 12.633 12.635 12.65 12.675 12.695 12.69 12.665 12.635 12.605 12.583 12.575 12.565 12.54 12.512 12.485 12.465 12.447 12.422 12.395 12.405 12.455 12.485 12.48 12.45 12.405 12.385 12.413 12.418 12.393 12.378 12.368 12.38 12.412 12.442 12.465 12.49 12.52 12.545 12.562 12.562 12.548 12.538 12.545 12.585 12.647 12.705 12.76 12.787 12.753 12.718 12.712 12.7 12.662 12.59 12.5 12.455 12.473 12.512 12.545 12.557 12.565 12.575 12.545 12.498 12.507 12.53 12.525 12.505 12.462 12.402 12.33 12.255 12.208 12.2 12.25 12.365 12.485 12.565 12.62 12.59 12.485 12.398 12.328 12.27 12.263 12.3 12.363 12.403 12.415 12.468 12.542 12.605 12.652 12.655 12.607 12.55 12.49 12.43 12.37 12.31 12.295 12.335 12.377 12.375 12.35 12.35 12.33 12.278 12.223 12.173 12.133 12.105 12.095 12.095 12.1 12.11 12.117 12.12 12.118 12.143 12.195 12.225 12.235 12.265 12.325 12.403 12.495 12.545 12.548
13.03 13.04 13.04 13.015 12.972 12.927 12.857 12.773 12.72 12.703 12.723 12.775 12.835 12.898 12.972 13.047 13.07 13.03 12.957 12.875 12.8 12.73 12.695 12.695 12.682 12.645 12.755 13.032 13.262 13.307 13.208 13.278 13.38 13.13 12.765 12.528 12.408 12.395 12.38 12.33 12.283 12.358 12.393 12.346 12.37 12.39 12.413 12.465 12.565 12.68 12.77 12.84 12.91 12.975 13.03 13.093 13.178 13.272 13.28 13.107 12.805 12.525 12.393 12.38 12.405 12.44 12.493 12.55 12.592 12.625 12.642 12.65 12.665 12.687 12.707 12.705 12.677 12.645 12.615 12.59 12.583 12.587 12.577 12.55 12.517 12.483 12.463 12.455 12.442 12.438 12.475 12.54 12.577 12.567 12.53 12.485 12.435 12.403 12.383 12.365 12.358 12.355 12.37 12.395 12.415 12.435 12.46 12.495 12.527 12.552 12.56 12.555 12.563 12.58 12.62 12.682 12.742 12.8 12.81 12.75 12.695 12.675 12.662 12.645 12.605 12.53 12.485 12.508 12.555 12.6 12.622 12.627 12.622 12.572 12.493 12.473 12.512 12.557 12.565 12.52 12.46 12.387 12.312 12.245 12.193 12.198 12.27 12.347 12.4 12.447 12.42 12.328 12.258 12.218 12.23 12.303 12.398 12.492 12.53 12.508 12.508 12.553 12.605 12.632 12.632 12.6 12.55 12.497 12.442 12.387 12.33 12.315 12.353 12.397 12.395 12.35 12.328 12.3 12.255 12.218 12.193 12.18 12.15 12.115 12.105 12.11 12.12 12.13 12.142 12.148 12.165 12.195 12.208 12.21 12.24 12.315 12.41 12.51 12.557 12.555
13.027 13.035 13.022 12.987 12.94 12.892 12.843 12.802 12.782 12.775 12.802 12.862 12.925 12.985 13.042 13.067 13.035 12.975 12.905 12.83 12.763 12.698 12.665 12.665 12.665 12.673 12.82 13.103 13.387 13.575 13.697 13.99 14.262 13.944 13.355 12.943 12.878 13.15 13.25 13.178 13.193 13.33 13.315 13.108 12.903 12.811 12.63 12.488 12.58 12.66 12.73 12.8 12.87 12.943 13.01 13.078 13.165 13.265 13.315 13.227 12.97 12.58 12.375 12.408 12.44 12.473 12.515 12.557 12.592 12.625 12.65 12.67 12.692 12.715 12.717 12.695 12.663 12.63 12.603 12.59 12.595 12.602 12.587 12.555 12.52 12.48 12.458 12.453 12.45 12.468 12.525 12.602 12.65 12.632 12.58 12.525 12.462 12.423 12.405 12.383 12.363 12.35 12.358 12.378 12.395 12.415 12.438 12.468 12.503 12.535 12.557 12.572 12.59 12.613 12.655 12.715 12.775 12.832 12.825 12.75 12.678 12.638 12.625 12.612 12.592 12.545 12.515 12.545 12.595 12.645 12.68 12.687 12.657 12.587 12.5 12.45 12.468 12.502 12.5 12.472 12.445 12.402 12.355 12.3 12.23 12.185 12.19 12.218 12.243 12.275 12.265 12.223 12.2 12.198 12.275 12.402 12.517 12.627 12.67 12.642 12.607 12.593 12.595 12.59 12.583 12.565 12.528 12.483 12.438 12.395 12.353 12.34 12.37 12.415 12.415 12.365 12.323 12.288 12.263 12.25 12.245 12.237 12.205 12.157 12.125 12.12 12.13 12.14 12.155 12.167 12.185 12.203 12.213 12.223 12.248 12.32 12.422 12.525 12.572 12.568
12.975 12.967 12.957 12.942 12.905 12.855 12.823 12.81 12.802 12.807 12.845 12.905 12.965 13.025 13.057 13.03 12.972 12.915 12.855 12.792 12.727 12.663 12.63 12.63 12.625 12.635 12.843 13.212 13.532 13.782 13.912 13.983 14.112 13.962 13.515 13.335 13.615 14.117 14.522 14.602 14.667 14.844 14.839 14.687 14.48 14.287 13.735 12.943 12.633 12.68 12.743 12.808 12.875 12.945 13.015 13.093 13.185 13.285 13.357 13.365 13.252 12.947 12.583 12.44 12.47 12.505 12.532 12.553 12.585 12.62 12.65 12.677 12.705 12.73 12.722 12.69 12.66 12.63 12.608 12.605 12.612 12.617 12.597 12.558 12.52 12.48 12.455 12.453 12.465 12.488 12.545 12.635 12.68 12.645 12.577 12.513 12.463 12.455 12.455 12.43 12.4 12.38 12.383 12.4 12.42 12.433 12.438 12.453 12.483 12.517 12.547 12.57 12.593 12.628 12.675 12.73 12.792 12.84 12.815 12.735 12.67 12.625 12.595 12.578 12.562 12.538 12.535 12.572 12.617 12.66 12.68 12.67 12.625 12.56 12.5 12.438 12.423 12.432 12.415 12.395 12.375 12.36 12.357 12.34 12.285 12.223 12.195 12.195 12.195 12.195 12.2 12.213 12.228 12.245 12.325 12.46 12.595 12.712 12.755 12.727 12.682 12.637 12.593 12.563 12.548 12.538 12.525 12.498 12.463 12.43 12.4 12.383 12.395 12.435 12.435 12.385 12.343 12.308 12.285 12.275 12.27 12.26 12.23 12.185 12.145 12.13 12.138 12.15 12.162 12.175 12.195 12.222 12.25 12.27 12.285 12.33 12.42 12.522 12.575 12.577
12.892 12.873 12.863 12.867 12.857 12.82 12.79 12.785 12.793 12.813 12.848 12.898 12.955 13.015 13.022 12.962 12.898 12.843 12.795 12.745 12.687 12.628 12.595 12.587 12.567 12.545 12.765 13.225 13.648 13.945 14.028 13.998 14.023 13.973 13.818 13.95 14.315 14.697 15.06 15.152 15.19 15.295 15.345 15.382 15.382 15.187 14.509 13.322 12.655 12.73 12.802 12.858 12.92 12.99 13.06 13.14 13.233 13.33 13.387 13.365 13.282 13.167 12.917 12.608 12.503 12.537 12.555 12.558 12.578 12.61 12.64 12.67 12.705 12.74 12.737 12.705 12.675 12.645 12.628 12.628 12.63 12.635 12.615 12.568 12.523 12.48 12.458 12.465 12.49 12.515 12.568 12.64 12.662 12.622 12.555 12.503 12.49 12.505 12.505 12.48 12.455 12.443 12.448 12.462 12.472 12.47 12.46 12.458 12.473 12.503 12.532 12.555 12.588 12.638 12.688 12.738 12.797 12.827 12.785 12.72 12.685 12.647 12.593 12.55 12.528 12.513 12.525 12.565 12.605 12.642 12.632 12.58 12.52 12.465 12.435 12.4 12.375 12.363 12.343 12.328 12.31 12.3 12.315 12.335 12.322 12.275 12.245 12.24 12.222 12.19 12.2 12.247 12.272 12.293 12.375 12.51 12.635 12.725 12.757 12.747 12.71 12.663 12.613 12.565 12.535 12.525 12.535 12.542 12.525 12.495 12.467 12.445 12.435 12.457 12.455 12.41 12.38 12.345 12.305 12.283 12.273 12.26 12.227 12.188 12.16 12.143 12.143 12.155 12.165 12.175 12.198 12.235 12.275 12.307 12.332 12.358 12.418 12.507 12.56 12.575
12.8 12.777 12.76 12.765 12.78 12.775 12.768 12.778 12.8 12.828 12.858 12.898 12.95 13 12.98 12.9 12.825 12.765 12.72 12.677 12.632 12.593 12.558 12.525 12.495 12.465 12.673 13.243 13.87 14.24 14.285 14.215 14.165 14.133 14.235 14.505 14.822 15.015 15.012 14.935 14.95 15.125 15.282 15.252 15.065 14.807 14.087 13.068 12.685 12.792 12.87 12.918 12.973 13.038 13.108 13.19 13.28 13.367 13.382 13.297 13.185 13.09 13.01 12.82 12.613 12.57 12.582 12.578 12.583 12.603 12.63 12.665 12.71 12.75 12.75 12.722 12.695 12.665 12.65 12.65 12.65 12.655 12.635 12.585 12.535 12.488 12.47 12.49 12.517 12.543 12.59 12.63 12.63 12.597 12.545 12.523 12.535 12.552 12.55 12.53 12.515 12.507 12.51 12.515 12.51 12.5 12.49 12.48 12.478 12.493 12.518 12.55 12.6 12.655 12.705 12.753 12.805 12.815 12.77 12.735 12.715 12.682 12.62 12.55 12.503 12.48 12.495 12.535 12.575 12.615 12.585 12.49 12.415 12.373 12.355 12.348 12.353 12.34 12.3 12.27 12.25 12.24 12.255 12.285 12.31 12.307 12.285 12.257 12.217 12.173 12.185 12.255 12.307 12.343 12.428 12.552 12.657 12.717 12.732 12.737 12.727 12.69 12.637 12.583 12.535 12.515 12.53 12.56 12.572 12.555 12.53 12.51 12.49 12.49 12.48 12.448 12.422 12.387 12.343 12.305 12.28 12.26 12.23 12.2 12.18 12.163 12.153 12.155 12.165 12.178 12.203 12.24 12.28 12.32 12.357 12.387 12.428 12.49 12.535 12.555
12.685 12.665 12.648 12.663 12.703 12.735 12.765 12.793 12.818 12.843 12.868 12.902 12.95 12.972 12.927 12.845 12.763 12.693 12.645 12.605 12.565 12.565 12.55 12.488 12.435 12.393 12.81 13.662 14.385 14.745 14.687 14.54 14.48 14.48 14.655 14.96 15.079 14.87 14.742 14.672 14.507 14.532 14.602 14.432 14.17 14.04 13.443 12.78 12.738 12.852 12.935 12.982 13.032 13.087 13.155 13.237 13.32 13.37 13.32 13.2 13.085 12.99 12.91 12.83 12.705 12.615 12.608 12.605 12.605 12.608 12.628 12.67 12.72 12.762 12.765 12.738 12.712 12.685 12.67 12.67 12.673 12.68 12.66 12.61 12.56 12.51 12.498 12.523 12.548 12.573 12.6 12.61 12.598 12.575 12.558 12.565 12.585 12.6 12.597 12.585 12.572 12.56 12.557 12.555 12.545 12.535 12.523 12.51 12.5 12.498 12.515 12.56 12.622 12.677 12.725 12.77 12.815 12.82 12.79 12.77 12.75 12.72 12.66 12.583 12.513 12.463 12.465 12.502 12.54 12.572 12.525 12.405 12.333 12.32 12.315 12.32 12.36 12.365 12.31 12.255 12.21 12.185 12.198 12.235 12.278 12.312 12.297 12.248 12.202 12.158 12.17 12.245 12.32 12.385 12.47 12.572 12.66 12.702 12.708 12.715 12.72 12.707 12.662 12.6 12.535 12.505 12.525 12.558 12.59 12.602 12.587 12.565 12.542 12.525 12.51 12.49 12.467 12.432 12.387 12.342 12.3 12.268 12.243 12.223 12.205 12.187 12.17 12.163 12.17 12.183 12.205 12.24 12.283 12.325 12.365 12.405 12.44 12.472 12.5 12.52
12.49 12.49 12.55 12.628 12.678 12.725 12.777 12.82 12.845 12.862 12.873 12.89 12.927 12.94 12.89 12.807 12.715 12.633 12.58 12.538 12.52 12.572 12.582 12.508 12.433 12.383 12.918 13.964 14.712 14.972 14.96 14.885 14.867 14.924 14.849 14.712 14.487 14.107 13.875 13.725 13.528 13.41 13.38 13.333 13.348 13.455 13.1 12.713 12.782 12.87 12.925 12.975 13.027 13.085 13.15 13.222 13.295 13.312 13.232 13.108 13.005 12.928 12.858 12.79 12.723 12.663 12.633 12.63 12.63 12.628 12.638 12.673 12.72 12.765 12.777 12.755 12.728 12.703 12.69 12.693 12.7 12.712 12.695 12.643 12.59 12.543 12.533 12.557 12.582 12.602 12.607 12.6 12.585 12.57 12.575 12.595 12.615 12.63 12.625 12.607 12.59 12.57 12.57 12.582 12.58 12.57 12.557 12.543 12.53 12.523 12.54 12.588 12.647 12.7 12.732 12.755 12.78 12.797 12.8 12.797 12.785 12.757 12.702 12.628 12.553 12.483 12.435 12.438 12.475 12.502 12.447 12.335 12.283 12.28 12.275 12.298 12.36 12.39 12.352 12.288 12.223 12.183 12.185 12.22 12.268 12.312 12.297 12.235 12.188 12.143 12.158 12.235 12.315 12.395 12.485 12.585 12.677 12.712 12.71 12.705 12.68 12.65 12.6 12.527 12.478 12.49 12.533 12.568 12.602 12.612 12.605 12.595 12.572 12.547 12.53 12.517 12.497 12.46 12.412 12.365 12.315 12.278 12.257 12.245 12.23 12.21 12.19 12.175 12.175 12.185 12.208 12.245 12.287 12.33 12.37 12.405 12.427 12.437 12.45 12.47
12.313 12.375 12.54 12.645 12.685 12.728 12.785 12.842 12.875 12.885 12.878 12.87 12.888 12.907 12.867 12.777 12.673 12.575 12.515 12.485 12.515 12.605 12.617 12.545 12.48 12.453 12.69 13.487 14.217 14.345 14.407 14.35 14.225 14.15 13.803 13.458 13.283 13.13 12.928 12.783 12.755 12.77 12.798 12.845 12.978 13.162 12.95 12.708 12.792 12.82 12.843 12.893 12.95 13.015 13.082 13.15 13.217 13.23 13.148 13.043 12.988 12.94 12.878 12.818 12.755 12.695 12.66 12.653 12.653 12.655 12.658 12.673 12.71 12.755 12.775 12.767 12.745 12.72 12.713 12.72 12.733 12.75 12.737 12.68 12.62 12.575 12.568 12.592 12.61 12.617 12.615 12.605 12.593 12.58 12.585 12.602 12.62 12.637 12.63 12.6 12.573 12.553 12.56 12.587 12.602 12.6 12.59 12.578 12.568 12.565 12.583 12.625 12.65 12.66 12.667 12.67 12.69 12.72 12.745 12.762 12.77 12.767 12.74 12.68 12.61 12.537 12.448 12.378 12.38 12.412 12.36 12.275 12.248 12.24 12.24 12.278 12.352 12.41 12.395 12.33 12.278 12.248 12.235 12.24 12.273 12.317 12.305 12.235 12.175 12.128 12.145 12.225 12.3 12.375 12.47 12.58 12.687 12.732 12.69 12.627 12.572 12.515 12.448 12.395 12.41 12.483 12.55 12.592 12.622 12.595 12.57 12.59 12.585 12.562 12.543 12.527 12.502 12.462 12.412 12.363 12.315 12.28 12.265 12.255 12.242 12.227 12.212 12.195 12.183 12.185 12.21 12.25 12.29 12.327 12.357 12.38 12.385 12.383 12.395 12.423
12.333 12.433 12.587 12.655 12.695 12.735 12.785 12.855 12.9 12.897 12.883 12.868 12.863 12.875 12.842 12.745 12.63 12.518 12.448 12.458 12.535 12.635 12.652 12.588 12.55 12.558 12.58 12.838 13.143 13.163 13.193 13.148 13.045 12.956 12.798 12.748 12.76 12.76 12.735 12.74 12.785 12.82 12.812 12.76 12.768 12.875 12.812 12.71 12.74 12.74 12.758 12.808 12.87 12.935 13.005 13.075 13.142 13.15 13.085 13.035 13.022 12.987 12.922 12.857 12.792 12.73 12.69 12.678 12.678 12.68 12.683 12.69 12.71 12.747 12.767 12.765 12.755 12.74 12.743 12.757 12.775 12.795 12.785 12.727 12.658 12.608 12.603 12.62 12.625 12.625 12.62 12.61 12.6 12.59 12.593 12.608 12.623 12.64 12.637 12.602 12.563 12.538 12.548 12.58 12.607 12.622 12.622 12.617 12.615 12.617 12.632 12.64 12.602 12.558 12.545 12.558 12.59 12.627 12.655 12.675 12.7 12.727 12.737 12.722 12.675 12.602 12.51 12.4 12.325 12.32 12.285 12.23 12.215 12.203 12.215 12.268 12.345 12.417 12.427 12.38 12.348 12.33 12.31 12.295 12.298 12.325 12.317 12.247 12.17 12.115 12.135 12.21 12.278 12.35 12.445 12.553 12.66 12.74 12.675 12.518 12.423 12.363 12.315 12.328 12.4 12.487 12.565 12.615 12.622 12.56 12.52 12.555 12.577 12.572 12.555 12.53 12.495 12.455 12.408 12.358 12.313 12.28 12.265 12.255 12.245 12.235 12.227 12.217 12.2 12.193 12.213 12.247 12.28 12.307 12.325 12.335 12.33 12.328 12.353 12.395
12.52 12.568 12.625 12.668 12.705 12.745 12.788 12.857 12.917 12.92 12.903 12.883 12.863 12.855 12.81 12.705 12.585 12.465 12.41 12.465 12.565 12.665 12.685 12.645 12.643 12.66 12.672 12.658 12.618 12.57 12.555 12.628 12.748 12.843 12.882 12.885 12.88 12.87 12.855 12.85 12.865 12.872 12.845 12.787 12.728 12.705 12.68 12.655 12.66 12.66 12.675 12.725 12.792 12.86 12.93 12.998 13.065 13.092 13.078 13.07 13.067 13.032 12.962 12.892 12.822 12.752 12.705 12.695 12.702 12.705 12.71 12.72 12.73 12.75 12.762 12.758 12.753 12.753 12.765 12.787 12.81 12.832 12.827 12.775 12.702 12.643 12.625 12.63 12.63 12.63 12.625 12.615 12.605 12.595 12.598 12.612 12.627 12.642 12.64 12.608 12.565 12.53 12.533 12.565 12.595 12.625 12.64 12.642 12.645 12.65 12.655 12.615 12.535 12.46 12.433 12.458 12.495 12.533 12.565 12.595 12.63 12.665 12.69 12.705 12.695 12.655 12.575 12.465 12.353 12.275 12.233 12.205 12.193 12.178 12.198 12.26 12.335 12.412 12.452 12.442 12.422 12.407 12.39 12.375 12.36 12.357 12.337 12.265 12.18 12.113 12.12 12.187 12.253 12.325 12.42 12.528 12.635 12.737 12.69 12.495 12.333 12.245 12.248 12.318 12.405 12.492 12.575 12.635 12.612 12.513 12.473 12.508 12.54 12.562 12.56 12.53 12.493 12.455 12.408 12.355 12.31 12.28 12.265 12.255 12.247 12.24 12.232 12.225 12.212 12.203 12.21 12.233 12.253 12.27 12.285 12.29 12.29 12.303 12.34 12.388
12.752 12.695 12.665 12.693 12.73 12.768 12.805 12.858 12.925 12.96 12.95 12.928 12.903 12.867 12.79 12.675 12.555 12.463 12.458 12.528 12.61 12.697 12.732 12.725 12.735 12.742 12.742 12.717 12.665 12.6 12.54 12.558 12.68 12.825 12.892 12.897 12.902 12.905 12.91 12.907 12.887 12.855 12.817 12.767 12.705 12.645 12.595 12.578 12.58 12.58 12.6 12.65 12.715 12.785 12.855 12.923 12.998 13.065 13.09 13.092 13.095 13.052 12.967 12.89 12.815 12.74 12.693 12.69 12.705 12.712 12.732 12.755 12.765 12.775 12.77 12.755 12.75 12.755 12.773 12.797 12.82 12.84 12.837 12.79 12.72 12.658 12.63 12.63 12.63 12.63 12.625 12.615 12.605 12.595 12.598 12.612 12.627 12.64 12.642 12.62 12.58 12.543 12.53 12.55 12.58 12.612 12.632 12.637 12.642 12.645 12.637 12.595 12.515 12.428 12.39 12.413 12.45 12.485 12.51 12.535 12.57 12.607 12.632 12.645 12.658 12.675 12.637 12.535 12.425 12.315 12.248 12.23 12.218 12.193 12.195 12.253 12.327 12.395 12.44 12.462 12.46 12.445 12.43 12.415 12.4 12.387 12.362 12.295 12.208 12.13 12.113 12.163 12.228 12.3 12.395 12.502 12.607 12.7 12.655 12.475 12.305 12.223 12.238 12.305 12.397 12.49 12.58 12.637 12.59 12.47 12.43 12.465 12.498 12.535 12.56 12.55 12.518 12.48 12.433 12.38 12.328 12.28 12.253 12.24 12.232 12.225 12.215 12.205 12.195 12.208 12.23 12.243 12.255 12.27 12.285 12.293 12.305 12.33 12.368 12.41
12.907 12.79 12.72 12.73 12.767 12.803 12.84 12.88 12.935 12.992 13.007 12.99 12.96 12.892 12.785 12.665 12.578 12.553 12.585 12.65 12.715 12.76 12.772 12.787 12.81 12.815 12.805 12.765 12.7 12.63 12.56 12.508 12.538 12.66 12.745 12.765 12.787 12.812 12.84 12.845 12.81 12.765 12.735 12.702 12.652 12.595 12.54 12.51 12.505 12.51 12.538 12.583 12.638 12.705 12.775 12.848 12.947 13.05 13.095 13.105 13.107 13.055 12.955 12.865 12.785 12.71 12.668 12.668 12.68 12.693 12.727 12.772 12.802 12.82 12.802 12.765 12.75 12.755 12.775 12.8 12.817 12.83 12.82 12.775 12.713 12.655 12.63 12.63 12.63 12.63 12.625 12.615 12.605 12.595 12.595 12.607 12.62 12.63 12.637 12.63 12.6 12.565 12.545 12.548 12.568 12.595 12.615 12.622 12.625 12.62 12.61 12.592 12.537 12.455 12.415 12.423 12.45 12.482 12.495 12.5 12.52 12.552 12.578 12.595 12.633 12.692 12.685 12.6 12.505 12.4 12.325 12.297 12.272 12.228 12.203 12.245 12.315 12.35 12.375 12.422 12.452 12.447 12.43 12.415 12.405 12.403 12.392 12.335 12.248 12.17 12.133 12.148 12.2 12.275 12.37 12.472 12.565 12.647 12.6 12.428 12.323 12.303 12.293 12.3 12.363 12.457 12.555 12.607 12.555 12.443 12.4 12.43 12.465 12.503 12.542 12.57 12.557 12.522 12.477 12.422 12.362 12.298 12.243 12.213 12.2 12.19 12.18 12.17 12.18 12.235 12.28 12.29 12.305 12.333 12.35 12.345 12.35 12.375 12.41 12.45
12.985 12.872 12.778 12.763 12.803 12.84 12.88 12.923 12.968 13.018 13.055 13.052 12.997 12.897 12.78 12.693 12.675 12.698 12.738 12.795 12.825 12.805 12.768 12.775 12.82 12.855 12.852 12.8 12.73 12.658 12.587 12.52 12.475 12.515 12.575 12.603 12.638 12.675 12.707 12.722 12.71 12.675 12.645 12.62 12.587 12.542 12.49 12.45 12.433 12.445 12.48 12.52 12.568 12.63 12.698 12.785 12.895 13.02 13.105 13.125 13.12 13.06 12.958 12.855 12.76 12.68 12.64 12.64 12.653 12.668 12.698 12.752 12.81 12.852 12.85 12.802 12.763 12.755 12.772 12.792 12.805 12.815 12.8 12.755 12.702 12.65 12.625 12.628 12.63 12.63 12.625 12.615 12.605 12.595 12.593 12.6 12.61 12.617 12.62 12.62 12.61 12.585 12.568 12.563 12.565 12.583 12.597 12.602 12.6 12.59 12.58 12.575 12.547 12.485 12.448 12.443 12.455 12.48 12.487 12.485 12.49 12.505 12.533 12.58 12.655 12.727 12.717 12.642 12.565 12.477 12.402 12.355 12.31 12.255 12.21 12.235 12.28 12.275 12.293 12.355 12.417 12.442 12.433 12.423 12.423 12.427 12.425 12.375 12.293 12.22 12.173 12.16 12.183 12.248 12.34 12.432 12.512 12.59 12.545 12.425 12.41 12.427 12.407 12.37 12.363 12.413 12.5 12.545 12.507 12.423 12.38 12.403 12.433 12.468 12.508 12.552 12.577 12.565 12.52 12.46 12.397 12.33 12.26 12.205 12.173 12.155 12.145 12.158 12.21 12.282 12.325 12.345 12.38 12.422 12.437 12.415 12.403 12.418 12.45 12.487
13.015 12.935 12.843 12.803 12.84 12.885 12.925 12.97 13.015 13.055 13.097 13.095 13.01 12.893 12.813 12.798 12.82 12.85 12.875 12.885 12.857 12.805 12.755 12.728 12.758 12.822 12.842 12.81 12.755 12.682 12.613 12.547 12.48 12.44 12.445 12.473 12.505 12.543 12.573 12.585 12.592 12.58 12.555 12.53 12.505 12.475 12.435 12.395 12.37 12.385 12.425 12.465 12.508 12.56 12.63 12.712 12.818 12.977 13.097 13.135 13.132 13.065 12.963 12.858 12.755 12.663 12.615 12.615 12.628 12.64 12.665 12.712 12.765 12.817 12.832 12.797 12.755 12.745 12.762 12.777 12.79 12.8 12.782 12.735 12.685 12.643 12.628 12.635 12.64 12.635 12.625 12.615 12.605 12.593 12.585 12.59 12.597 12.6 12.6 12.603 12.605 12.597 12.59 12.585 12.58 12.583 12.583 12.578 12.57 12.56 12.55 12.545 12.535 12.505 12.483 12.475 12.473 12.48 12.482 12.478 12.475 12.475 12.51 12.592 12.687 12.76 12.75 12.675 12.6 12.525 12.45 12.387 12.332 12.277 12.225 12.213 12.213 12.19 12.213 12.28 12.355 12.415 12.437 12.44 12.445 12.452 12.457 12.417 12.342 12.272 12.22 12.198 12.193 12.228 12.3 12.38 12.455 12.53 12.525 12.498 12.535 12.552 12.53 12.492 12.455 12.438 12.46 12.462 12.43 12.383 12.36 12.383 12.408 12.438 12.475 12.518 12.562 12.587 12.56 12.5 12.435 12.365 12.295 12.228 12.168 12.125 12.128 12.185 12.263 12.335 12.385 12.423 12.47 12.517 12.525 12.495 12.468 12.463 12.49 12.522
12.99 12.94 12.875 12.848 12.903 12.965 13.005 13.048 13.09 13.133 13.177 13.14 13.02 12.913 12.878 12.902 12.93 12.952 12.94 12.897 12.852 12.805 12.755 12.705 12.698 12.747 12.777 12.77 12.747 12.702 12.64 12.57 12.497 12.428 12.405 12.425 12.445 12.465 12.47 12.47 12.483 12.485 12.47 12.448 12.423 12.4 12.375 12.338 12.318 12.338 12.375 12.415 12.455 12.487 12.527 12.57 12.725 12.955 13.07 13.12 13.142 13.09 12.988 12.885 12.788 12.678 12.605 12.598 12.605 12.615 12.625 12.645 12.682 12.727 12.74 12.715 12.7 12.715 12.735 12.75 12.767 12.78 12.78 12.755 12.715 12.683 12.675 12.685 12.68 12.653 12.635 12.63 12.618 12.603 12.588 12.583 12.588 12.59 12.59 12.595 12.6 12.6 12.602 12.602 12.597 12.593 12.585 12.575 12.565 12.555 12.545 12.538 12.53 12.518 12.51 12.505 12.492 12.483 12.477 12.472 12.467 12.458 12.495 12.59 12.685 12.75 12.757 12.705 12.63 12.555 12.473 12.398 12.338 12.285 12.235 12.203 12.185 12.163 12.18 12.243 12.315 12.39 12.432 12.442 12.45 12.457 12.46 12.42 12.347 12.285 12.253 12.252 12.25 12.255 12.3 12.373 12.445 12.505 12.535 12.56 12.6 12.62 12.6 12.562 12.525 12.482 12.443 12.408 12.375 12.345 12.34 12.362 12.387 12.413 12.445 12.485 12.53 12.58 12.595 12.555 12.493 12.425 12.355 12.285 12.215 12.158 12.178 12.263 12.345 12.42 12.48 12.525 12.568 12.61 12.612 12.578 12.543 12.518 12.528 12.555
12.935 12.905 12.86 12.883 12.982 13.065 13.112 13.155 13.2 13.252 13.272 13.182 13.05 12.97 12.945 12.965 12.995 12.985 12.927 12.875 12.835 12.792 12.747 12.698 12.66 12.678 12.702 12.695 12.69 12.677 12.642 12.58 12.5 12.435 12.42 12.437 12.45 12.447 12.423 12.398 12.395 12.402 12.395 12.373 12.35 12.332 12.31 12.275 12.268 12.298 12.333 12.37 12.392 12.382 12.368 12.418 12.673 12.945 13.04 13.082 13.115 13.11 13.04 12.94 12.832 12.7 12.61 12.588 12.585 12.595 12.588 12.573 12.59 12.63 12.64 12.625 12.638 12.672 12.697 12.712 12.725 12.73 12.75 12.775 12.782 12.77 12.757 12.75 12.715 12.668 12.648 12.65 12.642 12.627 12.608 12.588 12.585 12.59 12.59 12.595 12.597 12.595 12.602 12.612 12.612 12.61 12.605 12.592 12.58 12.57 12.563 12.555 12.545 12.535 12.53 12.522 12.502 12.483 12.473 12.467 12.457 12.443 12.478 12.567 12.642 12.687 12.717 12.712 12.66 12.585 12.5 12.413 12.34 12.285 12.24 12.218 12.207 12.188 12.198 12.248 12.31 12.38 12.42 12.427 12.432 12.435 12.425 12.375 12.308 12.268 12.268 12.297 12.322 12.328 12.358 12.425 12.48 12.505 12.525 12.557 12.592 12.62 12.61 12.57 12.527 12.475 12.423 12.385 12.355 12.325 12.32 12.34 12.362 12.385 12.415 12.455 12.505 12.565 12.605 12.605 12.567 12.505 12.435 12.365 12.295 12.243 12.27 12.36 12.45 12.532 12.592 12.635 12.672 12.707 12.71 12.675 12.64 12.595 12.573 12.59
12.855 12.858 12.858 12.933 13.055 13.155 13.218 13.268 13.328 13.39 13.345 13.2 13.098 13.04 13.013 13.025 13.032 12.975 12.895 12.845 12.805 12.765 12.725 12.682 12.638 12.623 12.625 12.618 12.613 12.605 12.592 12.562 12.502 12.448 12.438 12.445 12.442 12.43 12.4 12.36 12.33 12.325 12.32 12.3 12.283 12.267 12.245 12.22 12.225 12.26 12.3 12.347 12.345 12.283 12.223 12.325 12.67 12.932 13 13.03 13.055 13.082 13.072 12.992 12.86 12.713 12.625 12.595 12.575 12.575 12.565 12.535 12.52 12.535 12.548 12.558 12.59 12.63 12.66 12.672 12.672 12.665 12.683 12.73 12.775 12.802 12.807 12.777 12.72 12.673 12.655 12.66 12.662 12.652 12.635 12.608 12.59 12.59 12.59 12.592 12.593 12.59 12.6 12.617 12.627 12.627 12.62 12.608 12.595 12.585 12.58 12.575 12.565 12.555 12.545 12.53 12.505 12.48 12.468 12.457 12.443 12.428 12.46 12.53 12.577 12.615 12.647 12.67 12.667 12.615 12.53 12.438 12.35 12.285 12.248 12.23 12.222 12.21 12.22 12.265 12.318 12.372 12.402 12.405 12.405 12.405 12.385 12.335 12.293 12.275 12.285 12.323 12.365 12.392 12.425 12.47 12.49 12.49 12.505 12.54 12.577 12.612 12.61 12.565 12.512 12.45 12.398 12.365 12.335 12.303 12.298 12.317 12.335 12.353 12.383 12.43 12.49 12.555 12.595 12.615 12.617 12.58 12.515 12.448 12.38 12.33 12.36 12.45 12.542 12.63 12.69 12.735 12.775 12.81 12.82 12.79 12.737 12.665 12.628 12.638
12.773 12.818 12.895 13.013 13.135 13.25 13.335 13.402 13.472 13.477 13.285 13.152 13.16 13.112 13.08 13.075 13.037 12.943 12.863 12.815 12.775 12.735 12.698 12.668 12.643 12.618 12.588 12.563 12.548 12.53 12.515 12.505 12.48 12.45 12.44 12.435 12.427 12.415 12.382 12.34 12.295 12.263 12.245 12.23 12.218 12.205 12.185 12.17 12.188 12.23 12.288 12.355 12.347 12.265 12.223 12.388 12.722 12.917 12.96 12.988 13.015 13.045 13.06 12.997 12.865 12.725 12.64 12.612 12.585 12.565 12.545 12.515 12.485 12.47 12.483 12.513 12.55 12.59 12.615 12.618 12.613 12.605 12.623 12.67 12.72 12.775 12.8 12.767 12.713 12.675 12.665 12.67 12.675 12.672 12.66 12.632 12.605 12.593 12.59 12.59 12.59 12.588 12.598 12.62 12.637 12.642 12.635 12.625 12.615 12.605 12.597 12.585 12.567 12.557 12.545 12.525 12.502 12.48 12.463 12.445 12.428 12.41 12.425 12.468 12.505 12.542 12.572 12.6 12.627 12.625 12.562 12.465 12.37 12.293 12.253 12.24 12.235 12.228 12.24 12.285 12.332 12.372 12.387 12.383 12.375 12.37 12.353 12.323 12.305 12.295 12.308 12.347 12.39 12.432 12.467 12.482 12.48 12.473 12.488 12.523 12.56 12.6 12.6 12.547 12.485 12.423 12.375 12.345 12.312 12.278 12.273 12.29 12.305 12.323 12.358 12.415 12.477 12.542 12.585 12.605 12.627 12.63 12.59 12.53 12.467 12.418 12.445 12.53 12.61 12.685 12.73 12.77 12.825 12.88 12.912 12.882 12.802 12.718 12.685 12.695
12.728 12.803 12.958 13.127 13.25 13.355 13.437 13.515 13.595 13.15 12.428 12.33 12.627 12.92 13.092 13.1 13.015 12.905 12.83 12.8 12.778 12.753 12.733 12.718 12.703 12.677 12.62 12.56 12.53 12.503 12.468 12.445 12.433 12.425 12.422 12.417 12.412 12.4 12.365 12.32 12.275 12.24 12.218 12.19 12.16 12.14 12.123 12.125 12.168 12.228 12.3 12.375 12.372 12.293 12.35 12.59 12.807 12.91 12.95 12.98 13.01 13.035 13.02 12.935 12.818 12.713 12.65 12.622 12.595 12.565 12.535 12.505 12.475 12.448 12.455 12.49 12.525 12.565 12.588 12.588 12.583 12.578 12.595 12.638 12.69 12.75 12.77 12.738 12.7 12.683 12.68 12.683 12.685 12.685 12.675 12.65 12.62 12.595 12.585 12.585 12.585 12.583 12.593 12.615 12.637 12.647 12.635 12.617 12.6 12.582 12.565 12.542 12.522 12.525 12.527 12.507 12.488 12.477 12.462 12.44 12.42 12.4 12.398 12.42 12.448 12.473 12.498 12.525 12.552 12.577 12.542 12.45 12.36 12.28 12.242 12.237 12.232 12.238 12.26 12.3 12.345 12.377 12.385 12.375 12.363 12.355 12.348 12.335 12.325 12.315 12.33 12.37 12.41 12.45 12.475 12.48 12.472 12.458 12.47 12.507 12.542 12.565 12.545 12.487 12.427 12.385 12.355 12.325 12.29 12.268 12.273 12.285 12.3 12.32 12.348 12.395 12.457 12.522 12.577 12.61 12.635 12.66 12.645 12.59 12.532 12.488 12.508 12.58 12.647 12.712 12.743 12.755 12.805 12.88 12.93 12.912 12.84 12.755 12.715 12.72
12.723 12.81 13.008 13.24 13.385 13.465 13.52 13.595 13.67 13.117 11.981 11.499 11.736 12.05 12.32 12.537 12.77 12.92 12.895 12.855 12.847 12.84 12.83 12.815 12.792 12.762 12.695 12.605 12.55 12.517 12.468 12.415 12.388 12.385 12.395 12.4 12.395 12.38 12.345 12.3 12.273 12.275 12.27 12.228 12.173 12.128 12.095 12.11 12.175 12.248 12.322 12.395 12.397 12.375 12.52 12.73 12.84 12.907 12.957 12.99 13.012 13.015 12.957 12.853 12.76 12.695 12.655 12.625 12.595 12.565 12.535 12.505 12.472 12.44 12.443 12.478 12.515 12.557 12.585 12.592 12.59 12.585 12.6 12.633 12.673 12.725 12.74 12.715 12.703 12.7 12.7 12.698 12.698 12.7 12.687 12.657 12.622 12.59 12.575 12.575 12.58 12.593 12.605 12.62 12.642 12.647 12.615 12.568 12.533 12.51 12.485 12.46 12.458 12.487 12.502 12.485 12.475 12.477 12.465 12.438 12.415 12.395 12.393 12.41 12.425 12.435 12.438 12.443 12.463 12.487 12.46 12.377 12.295 12.228 12.2 12.2 12.213 12.263 12.303 12.318 12.353 12.385 12.39 12.38 12.375 12.378 12.372 12.358 12.345 12.335 12.35 12.39 12.427 12.457 12.475 12.477 12.465 12.445 12.453 12.49 12.512 12.497 12.45 12.39 12.353 12.348 12.335 12.303 12.28 12.283 12.297 12.31 12.323 12.34 12.355 12.38 12.433 12.495 12.56 12.62 12.66 12.687 12.677 12.628 12.578 12.543 12.555 12.61 12.673 12.74 12.77 12.763 12.78 12.837 12.882 12.887 12.855 12.78 12.728 12.718
12.738 12.833 13.03 13.312 13.512 13.575 13.608 13.665 13.697 13.567 12.96 12.263 11.821 11.511 11.491 11.691 11.978 12.183 12.365 12.687 12.907 12.942 12.925 12.902 12.875 12.845 12.78 12.678 12.59 12.538 12.485 12.415 12.36 12.343 12.355 12.37 12.375 12.362 12.333 12.313 12.323 12.352 12.355 12.31 12.25 12.188 12.13 12.138 12.203 12.273 12.345 12.415 12.43 12.493 12.65 12.76 12.83 12.9 12.96 12.992 12.995 12.962 12.888 12.805 12.745 12.695 12.655 12.625 12.593 12.562 12.532 12.5 12.467 12.433 12.43 12.468 12.51 12.555 12.582 12.59 12.595 12.595 12.61 12.64 12.67 12.707 12.722 12.717 12.72 12.72 12.72 12.717 12.715 12.715 12.697 12.657 12.615 12.58 12.565 12.575 12.598 12.627 12.642 12.645 12.66 12.652 12.6 12.53 12.473 12.433 12.403 12.393 12.415 12.46 12.477 12.47 12.478 12.485 12.47 12.44 12.413 12.39 12.39 12.405 12.415 12.42 12.405 12.38 12.378 12.395 12.37 12.295 12.225 12.17 12.143 12.16 12.225 12.325 12.375 12.365 12.37 12.39 12.397 12.395 12.4 12.41 12.405 12.385 12.368 12.355 12.37 12.405 12.435 12.46 12.472 12.467 12.45 12.43 12.435 12.457 12.445 12.4 12.348 12.308 12.305 12.322 12.313 12.29 12.293 12.308 12.323 12.335 12.348 12.363 12.377 12.393 12.42 12.468 12.53 12.605 12.67 12.71 12.707 12.668 12.625 12.595 12.605 12.65 12.705 12.767 12.795 12.785 12.78 12.8 12.825 12.835 12.835 12.795 12.75 12.733
12.76 12.855 13.043 13.342 13.61 13.687 13.678 13.702 13.71 13.72 13.67 13.374 12.905 12.522 12.18 11.88 11.651 11.488 11.601 11.938 12.163 12.2 12.365 12.755 12.957 12.925 12.862 12.762 12.66 12.575 12.508 12.44 12.373 12.333 12.333 12.348 12.358 12.36 12.363 12.38 12.41 12.44 12.435 12.385 12.322 12.257 12.195 12.19 12.245 12.308 12.372 12.44 12.487 12.57 12.677 12.75 12.817 12.885 12.947 12.972 12.957 12.913 12.85 12.795 12.745 12.695 12.655 12.625 12.59 12.558 12.527 12.493 12.46 12.428 12.425 12.465 12.513 12.555 12.58 12.59 12.6 12.603 12.613 12.64 12.667 12.692 12.705 12.712 12.722 12.73 12.737 12.737 12.732 12.725 12.697 12.653 12.608 12.573 12.57 12.6 12.637 12.672 12.687 12.682 12.682 12.655 12.59 12.52 12.453 12.39 12.35 12.36 12.403 12.45 12.473 12.475 12.488 12.492 12.475 12.445 12.415 12.39 12.385 12.393 12.398 12.4 12.385 12.35 12.323 12.315 12.285 12.223 12.165 12.115 12.11 12.18 12.287 12.4 12.447 12.427 12.405 12.395 12.402 12.417 12.432 12.442 12.435 12.412 12.39 12.375 12.383 12.407 12.432 12.457 12.465 12.452 12.435 12.415 12.405 12.39 12.348 12.295 12.263 12.26 12.275 12.295 12.3 12.303 12.317 12.335 12.35 12.36 12.372 12.385 12.4 12.415 12.43 12.46 12.505 12.567 12.642 12.71 12.735 12.712 12.678 12.648 12.653 12.695 12.745 12.797 12.817 12.805 12.793 12.785 12.788 12.793 12.798 12.788 12.765 12.75
12.807 12.89 13.038 13.252 13.082 13.263 13.72 13.72 13.702 13.677 13.625 13.537 13.462 13.374 13.117 12.835 12.657 12.405 12.153 11.958 11.746 11.523 11.586 11.988 12.282 12.67 12.945 12.815 12.7 12.655 12.58 12.488 12.423 12.375 12.365 12.375 12.38 12.393 12.42 12.45 12.483 12.522 12.5 12.432 12.38 12.317 12.255 12.24 12.285 12.345 12.395 12.437 12.502 12.582 12.655 12.725 12.792 12.857 12.91 12.922 12.92 12.9 12.85 12.8 12.75 12.695 12.65 12.62 12.587 12.552 12.52 12.487 12.453 12.425 12.435 12.48 12.525 12.552 12.587 12.62 12.63 12.628 12.615 12.625 12.65 12.67 12.677 12.683 12.695 12.71 12.732 12.745 12.742 12.732 12.7 12.653 12.61 12.583 12.585 12.612 12.65 12.687 12.705 12.7 12.687 12.65 12.585 12.515 12.448 12.38 12.348 12.383 12.44 12.488 12.51 12.515 12.515 12.5 12.475 12.445 12.415 12.393 12.385 12.388 12.39 12.398 12.39 12.355 12.318 12.288 12.253 12.203 12.15 12.103 12.113 12.202 12.312 12.42 12.465 12.44 12.402 12.365 12.362 12.385 12.41 12.44 12.445 12.422 12.4 12.393 12.393 12.4 12.42 12.445 12.45 12.433 12.417 12.402 12.38 12.34 12.293 12.248 12.235 12.253 12.27 12.285 12.297 12.312 12.33 12.347 12.36 12.37 12.382 12.397 12.412 12.427 12.445 12.483 12.498 12.515 12.582 12.66 12.74 12.767 12.738 12.705 12.695 12.72 12.765 12.815 12.832 12.817 12.802 12.79 12.785 12.785 12.788 12.815 12.823 12.778
12.86 12.925 13.05 12.835 12.204 12.781 13.682 13.652 13.6 13.54 13.455 13.34 13.24 13.17 13.125 13.155 13.255 13.229 13.11 12.982 12.727 12.338 11.96 11.621 11.501 11.893 12.567 12.865 12.8 12.8 12.725 12.578 12.488 12.438 12.425 12.432 12.438 12.448 12.473 12.505 12.558 12.602 12.53 12.435 12.4 12.355 12.302 12.278 12.297 12.325 12.337 12.373 12.46 12.55 12.62 12.69 12.757 12.82 12.857 12.865 12.892 12.902 12.86 12.81 12.755 12.69 12.64 12.61 12.58 12.545 12.51 12.48 12.453 12.44 12.463 12.507 12.532 12.53 12.58 12.655 12.68 12.675 12.643 12.618 12.628 12.647 12.652 12.653 12.658 12.67 12.7 12.732 12.745 12.737 12.707 12.663 12.628 12.61 12.603 12.608 12.635 12.675 12.692 12.685 12.667 12.63 12.575 12.512 12.445 12.375 12.365 12.432 12.502 12.547 12.567 12.562 12.537 12.502 12.47 12.443 12.418 12.4 12.393 12.393 12.4 12.42 12.42 12.385 12.35 12.323 12.288 12.243 12.195 12.148 12.145 12.2 12.288 12.392 12.432 12.4 12.345 12.288 12.275 12.298 12.343 12.412 12.437 12.418 12.408 12.412 12.41 12.4 12.405 12.425 12.43 12.413 12.4 12.393 12.377 12.343 12.3 12.26 12.25 12.267 12.28 12.285 12.29 12.305 12.325 12.342 12.355 12.365 12.38 12.4 12.415 12.43 12.465 12.527 12.527 12.483 12.51 12.583 12.7 12.8 12.802 12.77 12.748 12.743 12.768 12.815 12.835 12.822 12.808 12.795 12.79 12.798 12.833 12.912 12.942 12.87
12.865 12.942 12.765 12.278 12.398 13.135 13.51 13.487 13.44 13.38 13.292 13.175 13.053 12.938 12.853 12.868 12.99 13.15 13.292 13.38 13.367 13.232 13 12.547 12.015 11.603 11.781 12.43 12.85 12.99 12.9 12.723 12.578 12.5 12.485 12.49 12.493 12.503 12.528 12.575 12.675 12.697 12.54 12.415 12.385 12.355 12.317 12.285 12.257 12.22 12.22 12.298 12.413 12.51 12.585 12.652 12.715 12.775 12.805 12.825 12.875 12.9 12.87 12.815 12.747 12.675 12.625 12.597 12.57 12.537 12.503 12.475 12.465 12.47 12.495 12.52 12.515 12.495 12.543 12.652 12.72 12.722 12.685 12.64 12.618 12.62 12.625 12.625 12.625 12.633 12.66 12.7 12.732 12.74 12.717 12.685 12.66 12.643 12.63 12.625 12.633 12.66 12.675 12.662 12.64 12.602 12.552 12.497 12.437 12.375 12.385 12.472 12.557 12.602 12.602 12.577 12.54 12.5 12.465 12.443 12.425 12.408 12.398 12.403 12.423 12.447 12.45 12.425 12.403 12.382 12.345 12.298 12.252 12.205 12.198 12.233 12.285 12.367 12.395 12.342 12.273 12.205 12.185 12.225 12.303 12.395 12.43 12.42 12.425 12.435 12.432 12.418 12.405 12.41 12.413 12.403 12.398 12.395 12.382 12.352 12.317 12.28 12.268 12.277 12.28 12.28 12.285 12.298 12.315 12.335 12.35 12.363 12.38 12.4 12.418 12.448 12.51 12.582 12.58 12.508 12.47 12.51 12.635 12.785 12.85 12.835 12.81 12.793 12.79 12.82 12.837 12.825 12.813 12.8 12.805 12.848 12.933 13.037 13.072 13.005
12.86 12.67 12.213 12.43 13.177 13.355 13.255 13.267 13.26 13.22 13.128 13.008 12.925 12.875 12.873 12.978 13.09 13.15 13.2 13.253 13.317 13.385 13.447 13.357 13.042 12.487 11.821 11.733 12.258 12.867 13.089 12.915 12.738 12.603 12.55 12.548 12.55 12.558 12.59 12.68 12.79 12.762 12.553 12.398 12.365 12.333 12.315 12.29 12.225 12.165 12.188 12.283 12.385 12.475 12.545 12.605 12.665 12.723 12.763 12.805 12.865 12.9 12.875 12.807 12.727 12.653 12.605 12.58 12.555 12.527 12.502 12.49 12.492 12.5 12.51 12.505 12.485 12.465 12.498 12.61 12.727 12.76 12.717 12.667 12.622 12.603 12.603 12.6 12.6 12.605 12.63 12.67 12.71 12.737 12.732 12.712 12.695 12.675 12.662 12.657 12.653 12.658 12.657 12.637 12.61 12.575 12.527 12.472 12.418 12.375 12.4 12.487 12.577 12.625 12.61 12.572 12.535 12.497 12.468 12.45 12.435 12.418 12.41 12.42 12.445 12.47 12.48 12.472 12.462 12.442 12.402 12.355 12.307 12.26 12.25 12.285 12.32 12.362 12.357 12.285 12.205 12.128 12.113 12.183 12.28 12.375 12.427 12.44 12.45 12.46 12.46 12.445 12.425 12.413 12.405 12.4 12.4 12.4 12.385 12.355 12.325 12.293 12.278 12.28 12.278 12.275 12.28 12.293 12.31 12.33 12.348 12.365 12.383 12.403 12.435 12.493 12.57 12.64 12.632 12.56 12.49 12.473 12.575 12.74 12.865 12.895 12.872 12.857 12.84 12.84 12.842 12.83 12.82 12.815 12.848 12.93 13.032 13.13 13.165 13.1
12.62 12.136 12.266 13.057 13.31 13.088 12.99 13.01 13.04 13.063 13.038 12.993 12.99 13.02 13.125 13.277 13.305 13.232 13.175 13.175 13.23 13.3 13.36 13.405 13.437 13.287 12.832 12.255 11.843 12.028 12.487 12.832 13.017 12.942 12.832 12.738 12.648 12.618 12.688 12.83 12.895 12.805 12.585 12.398 12.343 12.32 12.33 12.307 12.245 12.213 12.243 12.328 12.42 12.482 12.525 12.578 12.633 12.688 12.743 12.8 12.86 12.9 12.867 12.785 12.7 12.623 12.578 12.552 12.527 12.502 12.487 12.487 12.492 12.502 12.5 12.48 12.458 12.438 12.45 12.535 12.667 12.727 12.692 12.64 12.6 12.59 12.59 12.585 12.575 12.563 12.605 12.67 12.708 12.735 12.737 12.722 12.707 12.692 12.682 12.675 12.67 12.662 12.64 12.61 12.58 12.547 12.502 12.448 12.405 12.39 12.41 12.47 12.55 12.607 12.605 12.565 12.525 12.488 12.468 12.46 12.448 12.433 12.428 12.438 12.46 12.487 12.502 12.5 12.497 12.487 12.455 12.41 12.36 12.288 12.27 12.32 12.355 12.38 12.35 12.27 12.185 12.108 12.093 12.16 12.257 12.352 12.437 12.492 12.515 12.525 12.508 12.475 12.457 12.438 12.415 12.403 12.4 12.4 12.385 12.355 12.328 12.305 12.29 12.285 12.28 12.275 12.283 12.3 12.32 12.343 12.375 12.405 12.42 12.438 12.473 12.533 12.612 12.685 12.675 12.6 12.54 12.513 12.558 12.685 12.842 12.927 12.925 12.902 12.877 12.855 12.85 12.85 12.84 12.838 12.888 12.985 13.08 13.157 13.195 13.15
12.068 12.116 12.855 13.232 13.085 12.91 12.85 12.893 12.95 13.018 13.063 13.09 13.12 13.155 13.222 13.31 13.327 13.267 13.193 13.14 13.153 13.215 13.275 13.312 13.325 13.322 13.352 13.167 12.687 12.163 11.843 12.028 12.378 12.635 12.904 13.074 13.037 12.915 12.897 13 13.017 12.865 12.63 12.41 12.33 12.345 12.36 12.325 12.293 12.28 12.31 12.395 12.472 12.5 12.525 12.575 12.623 12.673 12.735 12.802 12.865 12.907 12.865 12.763 12.673 12.593 12.543 12.517 12.49 12.46 12.445 12.448 12.46 12.477 12.475 12.455 12.438 12.428 12.43 12.468 12.56 12.632 12.62 12.578 12.563 12.575 12.58 12.567 12.535 12.493 12.56 12.675 12.722 12.74 12.732 12.718 12.705 12.695 12.685 12.675 12.667 12.657 12.627 12.588 12.555 12.522 12.478 12.433 12.418 12.428 12.44 12.463 12.518 12.585 12.595 12.555 12.515 12.475 12.46 12.467 12.465 12.45 12.445 12.455 12.473 12.5 12.515 12.513 12.518 12.525 12.505 12.46 12.387 12.27 12.248 12.327 12.375 12.402 12.372 12.29 12.215 12.155 12.128 12.155 12.233 12.328 12.432 12.535 12.597 12.62 12.585 12.52 12.49 12.47 12.44 12.415 12.403 12.4 12.385 12.358 12.338 12.328 12.315 12.3 12.29 12.285 12.298 12.322 12.343 12.365 12.412 12.465 12.49 12.505 12.533 12.575 12.64 12.712 12.705 12.643 12.613 12.61 12.623 12.675 12.8 12.92 12.942 12.91 12.88 12.853 12.853 12.87 12.87 12.865 12.915 13.01 13.087 13.142 13.18 13.175
11.983 12.705 13.215 13.18 13.018 12.893 12.878 12.945 13.015 13.082 13.13 13.157 13.183 13.215 13.238 13.273 13.317 13.3 13.23 13.153 13.108 13.135 13.19 13.207 13.2 13.2 13.238 13.312 13.395 13.174 12.665 12.283 11.993 11.873 12.071 12.33 12.428 12.485 12.658 12.965 13.092 12.922 12.67 12.423 12.348 12.397 12.402 12.373 12.36 12.353 12.383 12.457 12.5 12.5 12.525 12.572 12.612 12.655 12.72 12.8 12.872 12.92 12.877 12.763 12.658 12.565 12.505 12.478 12.445 12.41 12.4 12.413 12.433 12.453 12.453 12.44 12.435 12.435 12.438 12.445 12.48 12.542 12.555 12.535 12.545 12.565 12.565 12.532 12.48 12.425 12.495 12.652 12.732 12.742 12.728 12.715 12.705 12.695 12.685 12.675 12.665 12.652 12.622 12.578 12.538 12.5 12.46 12.443 12.455 12.472 12.485 12.493 12.515 12.565 12.58 12.545 12.505 12.465 12.453 12.467 12.477 12.47 12.468 12.48 12.493 12.512 12.525 12.53 12.548 12.567 12.555 12.49 12.37 12.23 12.213 12.307 12.385 12.427 12.397 12.323 12.265 12.215 12.183 12.18 12.22 12.303 12.41 12.53 12.635 12.7 12.682 12.593 12.528 12.5 12.47 12.44 12.415 12.403 12.388 12.368 12.358 12.355 12.345 12.325 12.308 12.298 12.31 12.34 12.365 12.39 12.438 12.5 12.547 12.575 12.605 12.64 12.683 12.74 12.745 12.718 12.717 12.725 12.735 12.748 12.798 12.897 12.937 12.905 12.875 12.848 12.845 12.87 12.887 12.893 12.94 13.017 13.072 13.117 13.155 13.175
12.555 13.075 13.182 13.135 13.04 12.953 12.953 13.012 13.065 13.117 13.17 13.217 13.265 13.307 13.322 13.318 13.33 13.325 13.267 13.19 13.113 13.08 13.1 13.118 13.128 13.153 13.208 13.293 13.387 13.44 13.435 13.287 12.912 12.533 12.37 12.226 12.043 12.098 12.35 12.795 13.045 12.93 12.762 12.57 12.468 12.457 12.457 12.445 12.435 12.428 12.455 12.502 12.51 12.5 12.523 12.562 12.595 12.635 12.703 12.787 12.867 12.925 12.89 12.778 12.665 12.558 12.488 12.455 12.423 12.395 12.395 12.413 12.43 12.448 12.453 12.448 12.445 12.445 12.445 12.45 12.46 12.488 12.508 12.515 12.535 12.555 12.547 12.5 12.443 12.388 12.443 12.61 12.72 12.737 12.725 12.715 12.705 12.695 12.682 12.67 12.66 12.647 12.62 12.575 12.53 12.488 12.465 12.478 12.5 12.515 12.525 12.535 12.545 12.562 12.565 12.535 12.495 12.455 12.445 12.46 12.475 12.483 12.49 12.505 12.515 12.527 12.542 12.56 12.582 12.605 12.585 12.482 12.33 12.19 12.175 12.27 12.365 12.435 12.427 12.372 12.325 12.275 12.24 12.23 12.238 12.288 12.39 12.51 12.63 12.735 12.757 12.667 12.572 12.53 12.5 12.47 12.44 12.415 12.4 12.39 12.385 12.382 12.37 12.35 12.327 12.313 12.323 12.35 12.38 12.415 12.465 12.525 12.585 12.632 12.667 12.7 12.73 12.765 12.782 12.787 12.802 12.817 12.832 12.847 12.862 12.907 12.93 12.9 12.87 12.84 12.838 12.863 12.888 12.908 12.947 13.002 13.048 13.095 13.132 13.157
12.985 13.075 13.06 13.04 13.008 12.978 12.992 13.035 13.072 13.11 13.165 13.232 13.3 13.355 13.37 13.355 13.34 13.327 13.29 13.22 13.143 13.075 13.06 13.09 13.123 13.158 13.213 13.295 13.39 13.447 13.447 13.43 13.405 13.375 13.337 13.19 12.962 12.857 12.828 12.928 12.987 12.908 12.83 12.705 12.575 12.503 12.502 12.502 12.5 12.497 12.51 12.522 12.513 12.503 12.515 12.545 12.575 12.618 12.688 12.77 12.855 12.93 12.905 12.795 12.688 12.585 12.513 12.475 12.448 12.428 12.43 12.448 12.465 12.48 12.483 12.475 12.47 12.465 12.455 12.455 12.465 12.475 12.485 12.5 12.52 12.54 12.55 12.522 12.468 12.413 12.463 12.617 12.705 12.71 12.7 12.69 12.68 12.672 12.665 12.655 12.642 12.63 12.617 12.585 12.54 12.498 12.488 12.512 12.52 12.52 12.527 12.535 12.545 12.56 12.56 12.527 12.485 12.448 12.44 12.46 12.483 12.498 12.505 12.515 12.525 12.535 12.552 12.575 12.595 12.615 12.58 12.455 12.295 12.165 12.15 12.235 12.332 12.422 12.45 12.415 12.37 12.322 12.29 12.28 12.275 12.29 12.363 12.475 12.592 12.707 12.727 12.635 12.568 12.547 12.527 12.5 12.47 12.44 12.425 12.42 12.412 12.397 12.372 12.35 12.328 12.325 12.34 12.358 12.385 12.425 12.48 12.54 12.6 12.655 12.695 12.725 12.752 12.777 12.795 12.805 12.82 12.84 12.86 12.88 12.9 12.92 12.925 12.905 12.873 12.843 12.845 12.87 12.895 12.915 12.938 12.975 13.02 13.07 13.107 13.132
13.035 13.047 13.025 12.995 12.978 12.985 13.005 13.028 13.058 13.095 13.148 13.215 13.28 13.332 13.34 13.318 13.313 13.315 13.29 13.232 13.165 13.095 13.075 13.103 13.13 13.165 13.218 13.298 13.395 13.457 13.462 13.442 13.405 13.358 13.332 13.327 13.317 13.29 13.207 13.1 12.988 12.905 12.825 12.698 12.573 12.508 12.51 12.517 12.52 12.52 12.53 12.537 12.53 12.52 12.518 12.53 12.555 12.6 12.67 12.755 12.853 12.942 12.925 12.818 12.718 12.628 12.558 12.515 12.49 12.473 12.475 12.495 12.512 12.525 12.525 12.515 12.5 12.475 12.455 12.458 12.47 12.477 12.48 12.485 12.5 12.523 12.555 12.567 12.53 12.478 12.54 12.662 12.685 12.66 12.645 12.638 12.633 12.63 12.63 12.627 12.617 12.605 12.602 12.595 12.562 12.52 12.513 12.525 12.505 12.488 12.493 12.5 12.518 12.55 12.56 12.525 12.48 12.443 12.445 12.48 12.51 12.525 12.523 12.523 12.53 12.54 12.55 12.565 12.585 12.605 12.562 12.43 12.285 12.185 12.155 12.208 12.305 12.4 12.442 12.43 12.397 12.353 12.323 12.315 12.315 12.318 12.343 12.423 12.537 12.627 12.607 12.54 12.535 12.55 12.547 12.525 12.498 12.473 12.457 12.447 12.427 12.395 12.36 12.333 12.323 12.343 12.362 12.373 12.39 12.423 12.475 12.538 12.602 12.66 12.697 12.725 12.755 12.777 12.79 12.798 12.808 12.825 12.845 12.865 12.885 12.902 12.915 12.912 12.887 12.86 12.865 12.89 12.91 12.92 12.93 12.955 12.993 13.04 13.08 13.105
12.957 13.007 13.005 12.988 12.995 13.015 13.03 13.038 13.053 13.083 13.13 13.19 13.242 13.28 13.288 13.283 13.293 13.302 13.28 13.23 13.177 13.118 13.098 13.12 13.143 13.173 13.223 13.303 13.4 13.467 13.475 13.442 13.39 13.335 13.308 13.297 13.28 13.252 13.177 13.083 12.99 12.91 12.82 12.69 12.56 12.495 12.495 12.497 12.495 12.493 12.52 12.55 12.555 12.55 12.54 12.533 12.54 12.58 12.658 12.755 12.86 12.957 12.947 12.85 12.76 12.673 12.598 12.553 12.533 12.52 12.523 12.54 12.557 12.567 12.557 12.532 12.5 12.46 12.443 12.455 12.472 12.482 12.483 12.48 12.485 12.505 12.54 12.575 12.577 12.55 12.6 12.66 12.64 12.613 12.595 12.59 12.59 12.59 12.59 12.59 12.587 12.58 12.578 12.585 12.575 12.543 12.53 12.517 12.48 12.458 12.46 12.478 12.51 12.55 12.557 12.522 12.48 12.44 12.448 12.5 12.54 12.552 12.545 12.537 12.537 12.545 12.55 12.558 12.575 12.595 12.547 12.42 12.308 12.235 12.185 12.195 12.275 12.37 12.417 12.42 12.41 12.377 12.35 12.348 12.355 12.362 12.365 12.395 12.482 12.532 12.51 12.505 12.522 12.54 12.552 12.545 12.523 12.502 12.482 12.455 12.42 12.38 12.345 12.325 12.338 12.37 12.39 12.4 12.408 12.425 12.473 12.54 12.61 12.67 12.705 12.728 12.755 12.775 12.785 12.795 12.805 12.818 12.833 12.85 12.87 12.885 12.895 12.902 12.897 12.88 12.885 12.905 12.915 12.92 12.93 12.95 12.975 13.013 13.05 13.08
12.865 12.94 12.977 12.992 13.015 13.035 13.055 13.065 13.07 13.085 13.12 13.17 13.215 13.243 13.258 13.27 13.28 13.29 13.27 13.22 13.175 13.133 13.12 13.14 13.16 13.183 13.228 13.307 13.405 13.477 13.48 13.43 13.373 13.32 13.283 13.26 13.24 13.215 13.152 13.07 12.997 12.92 12.815 12.69 12.568 12.488 12.465 12.46 12.458 12.463 12.498 12.542 12.565 12.57 12.565 12.55 12.54 12.573 12.66 12.765 12.87 12.97 12.97 12.882 12.797 12.712 12.638 12.595 12.58 12.568 12.567 12.58 12.592 12.595 12.567 12.525 12.485 12.445 12.43 12.448 12.47 12.485 12.488 12.483 12.483 12.498 12.528 12.565 12.597 12.612 12.627 12.63 12.613 12.598 12.585 12.575 12.568 12.56 12.555 12.555 12.555 12.553 12.555 12.562 12.565 12.555 12.532 12.5 12.46 12.433 12.44 12.475 12.518 12.555 12.555 12.52 12.48 12.44 12.443 12.5 12.555 12.567 12.552 12.535 12.527 12.537 12.55 12.557 12.567 12.585 12.537 12.433 12.35 12.285 12.228 12.2 12.248 12.34 12.39 12.395 12.397 12.39 12.38 12.385 12.395 12.405 12.41 12.413 12.443 12.465 12.47 12.49 12.505 12.52 12.54 12.555 12.545 12.52 12.49 12.448 12.405 12.365 12.335 12.335 12.365 12.4 12.42 12.43 12.437 12.443 12.48 12.55 12.62 12.677 12.71 12.73 12.752 12.77 12.78 12.79 12.8 12.81 12.82 12.835 12.853 12.865 12.875 12.885 12.895 12.895 12.9 12.91 12.913 12.918 12.93 12.95 12.97 12.995 13.028 13.065
12.78 12.855 12.917 12.955 12.98 13.02 13.07 13.092 13.1 13.11 13.135 13.18 13.22 13.24 13.248 13.258 13.27 13.28 13.26 13.21 13.168 13.145 13.15 13.17 13.19 13.202 13.225 13.295 13.397 13.48 13.48 13.423 13.37 13.318 13.273 13.243 13.215 13.188 13.14 13.073 13.01 12.932 12.825 12.71 12.598 12.495 12.438 12.423 12.42 12.435 12.475 12.527 12.562 12.575 12.575 12.56 12.56 12.603 12.68 12.775 12.88 12.98 12.985 12.9 12.815 12.74 12.683 12.65 12.635 12.61 12.595 12.602 12.61 12.602 12.567 12.523 12.48 12.448 12.443 12.463 12.485 12.503 12.513 12.515 12.523 12.543 12.57 12.6 12.633 12.66 12.653 12.63 12.623 12.615 12.605 12.59 12.575 12.563 12.555 12.555 12.553 12.543 12.535 12.538 12.542 12.542 12.53 12.507 12.475 12.44 12.45 12.497 12.535 12.555 12.547 12.515 12.475 12.438 12.44 12.497 12.54 12.532 12.51 12.487 12.485 12.505 12.525 12.54 12.552 12.57 12.542 12.47 12.4 12.335 12.273 12.225 12.238 12.31 12.36 12.368 12.373 12.38 12.392 12.405 12.415 12.432 12.442 12.437 12.433 12.433 12.445 12.465 12.482 12.497 12.515 12.542 12.552 12.53 12.495 12.45 12.405 12.37 12.355 12.368 12.398 12.432 12.455 12.465 12.467 12.46 12.488 12.555 12.625 12.677 12.705 12.725 12.742 12.755 12.765 12.772 12.78 12.793 12.81 12.833 12.853 12.865 12.875 12.885 12.897 12.902 12.905 12.91 12.91 12.915 12.93 12.95 12.97 12.995 13.03 13.07
12.75 12.783 12.833 12.878 12.928 13.01 13.082 13.112 13.127 13.138 13.163 13.205 13.232 13.245 13.248 13.25 13.26 13.27 13.25 13.205 13.178 13.175 13.19 13.21 13.22 13.202 13.2 13.265 13.375 13.48 13.492 13.433 13.38 13.325 13.28 13.25 13.22 13.2 13.17 13.115 13.05 12.96 12.85 12.74 12.63 12.52 12.428 12.385 12.38 12.403 12.453 12.51 12.557 12.577 12.575 12.575 12.605 12.66 12.72 12.793 12.888 12.987 12.995 12.91 12.833 12.775 12.735 12.712 12.69 12.637 12.6 12.608 12.62 12.607 12.57 12.53 12.498 12.48 12.485 12.505 12.528 12.555 12.575 12.585 12.603 12.63 12.657 12.683 12.71 12.735 12.718 12.67 12.645 12.635 12.625 12.613 12.6 12.59 12.585 12.582 12.57 12.542 12.518 12.515 12.52 12.52 12.52 12.517 12.505 12.48 12.483 12.515 12.535 12.542 12.535 12.505 12.468 12.435 12.443 12.487 12.492 12.458 12.43 12.42 12.433 12.455 12.478 12.5 12.517 12.532 12.532 12.505 12.45 12.385 12.32 12.27 12.253 12.29 12.335 12.343 12.353 12.37 12.388 12.403 12.423 12.457 12.47 12.455 12.442 12.425 12.42 12.435 12.455 12.47 12.488 12.52 12.547 12.54 12.505 12.46 12.423 12.405 12.405 12.42 12.44 12.468 12.49 12.495 12.485 12.47 12.495 12.558 12.622 12.67 12.695 12.712 12.722 12.73 12.74 12.748 12.758 12.78 12.81 12.84 12.867 12.885 12.895 12.905 12.905 12.898 12.9 12.907 12.91 12.915 12.93 12.95 12.973 13.008 13.05 13.082
12.79 12.783 12.823 12.87 12.928 13.028 13.097 13.125 13.147 13.163 13.188 13.22 13.237 13.25 13.255 13.253 13.253 13.26 13.243 13.215 13.21 13.215 13.23 13.235 13.212 13.168 13.163 13.24 13.363 13.492 13.52 13.453 13.39 13.333 13.29 13.265 13.25 13.245 13.23 13.182 13.102 12.997 12.883 12.77 12.66 12.55 12.44 12.365 12.348 12.375 12.43 12.49 12.545 12.577 12.59 12.618 12.665 12.72 12.775 12.833 12.905 12.995 13.002 12.928 12.873 12.833 12.8 12.772 12.722 12.64 12.6 12.612 12.625 12.612 12.583 12.56 12.543 12.53 12.535 12.558 12.588 12.622 12.647 12.665 12.69 12.717 12.742 12.77 12.8 12.83 12.812 12.745 12.69 12.663 12.65 12.64 12.63 12.62 12.612 12.6 12.572 12.535 12.503 12.493 12.495 12.495 12.495 12.498 12.505 12.51 12.515 12.518 12.52 12.53 12.525 12.497 12.465 12.435 12.44 12.452 12.422 12.383 12.358 12.363 12.388 12.413 12.443 12.462 12.468 12.475 12.485 12.487 12.47 12.43 12.37 12.318 12.285 12.288 12.31 12.323 12.343 12.367 12.385 12.408 12.448 12.492 12.5 12.475 12.455 12.43 12.408 12.408 12.425 12.443 12.468 12.503 12.537 12.545 12.515 12.478 12.46 12.46 12.465 12.48 12.495 12.51 12.52 12.512 12.497 12.483 12.503 12.56 12.617 12.66 12.68 12.69 12.698 12.703 12.713 12.73 12.753 12.783 12.817 12.85 12.88 12.902 12.915 12.915 12.897 12.885 12.89 12.9 12.907 12.915 12.93 12.953 12.983 13.025 13.062 13.08
12.97 13.025 13.093 13.12 13.108 13.11 13.123 13.14 13.165 13.188 13.21 13.23 13.243 13.258 13.268 13.265 13.258 13.258 13.25 13.243 13.247 13.255 13.252 13.22 13.17 13.12 13.128 13.225 13.36 13.5 13.542 13.48 13.41 13.348 13.31 13.298 13.295 13.292 13.285 13.24 13.142 13.03 12.917 12.803 12.69 12.58 12.47 12.373 12.328 12.353 12.41 12.47 12.53 12.575 12.612 12.662 12.717 12.775 12.832 12.89 12.947 13.015 13.022 12.97 12.932 12.897 12.86 12.807 12.727 12.635 12.6 12.615 12.627 12.627 12.617 12.61 12.595 12.583 12.59 12.617 12.652 12.685 12.71 12.732 12.76 12.787 12.812 12.84 12.87 12.897 12.885 12.822 12.747 12.693 12.675 12.67 12.663 12.655 12.637 12.608 12.57 12.53 12.493 12.475 12.48 12.488 12.493 12.503 12.518 12.543 12.56 12.55 12.54 12.538 12.523 12.495 12.465 12.435 12.418 12.395 12.353 12.313 12.3 12.323 12.358 12.39 12.425 12.435 12.423 12.425 12.43 12.43 12.435 12.43 12.402 12.362 12.325 12.298 12.293 12.315 12.34 12.365 12.395 12.435 12.485 12.525 12.525 12.495 12.467 12.44 12.41 12.39 12.395 12.418 12.45 12.487 12.525 12.545 12.53 12.513 12.513 12.518 12.525 12.54 12.547 12.542 12.535 12.522 12.51 12.495 12.508 12.56 12.615 12.65 12.663 12.67 12.68 12.688 12.7 12.725 12.755 12.787 12.822 12.855 12.887 12.917 12.927 12.91 12.883 12.873 12.88 12.89 12.9 12.913 12.933 12.963 13.002 13.037 13.055 13.065
13.207 13.332 13.412 13.397 13.317 13.228 13.18 13.18 13.2 13.225 13.243 13.258 13.27 13.285 13.3 13.3 13.29 13.29 13.29 13.283 13.283 13.29 13.267 13.21 13.155 13.108 13.128 13.24 13.383 13.512 13.552 13.5 13.43 13.373 13.348 13.343 13.34 13.337 13.33 13.27 13.162 13.057 12.95 12.837 12.722 12.61 12.508 12.41 12.343 12.358 12.42 12.48 12.53 12.56 12.592 12.642 12.7 12.76 12.82 12.88 12.937 13.012 13.042 13.007 12.972 12.937 12.885 12.807 12.72 12.633 12.6 12.615 12.63 12.642 12.645 12.642 12.635 12.63 12.64 12.665 12.692 12.715 12.732 12.75 12.772 12.8 12.827 12.852 12.88 12.9 12.892 12.842 12.765 12.698 12.685 12.7 12.697 12.692 12.67 12.63 12.59 12.55 12.513 12.493 12.498 12.51 12.523 12.538 12.558 12.592 12.617 12.61 12.595 12.575 12.54 12.503 12.47 12.44 12.405 12.365 12.325 12.283 12.273 12.305 12.345 12.38 12.41 12.41 12.388 12.385 12.382 12.37 12.37 12.375 12.377 12.37 12.34 12.295 12.285 12.317 12.345 12.37 12.41 12.462 12.517 12.55 12.537 12.502 12.472 12.445 12.417 12.39 12.375 12.393 12.43 12.47 12.51 12.542 12.552 12.557 12.567 12.575 12.577 12.575 12.565 12.545 12.533 12.525 12.515 12.505 12.523 12.573 12.622 12.652 12.665 12.673 12.683 12.695 12.705 12.723 12.75 12.785 12.82 12.85 12.885 12.915 12.915 12.892 12.865 12.858 12.87 12.883 12.895 12.915 12.95 12.99 13.02 13.03 13.035 13.045
13.335 13.462 13.522 13.485 13.4 13.313 13.265 13.248 13.253 13.275 13.29 13.305 13.32 13.333 13.345 13.347 13.343 13.353 13.357 13.343 13.33 13.325 13.297 13.245 13.198 13.158 13.178 13.285 13.42 13.527 13.557 13.51 13.448 13.408 13.393 13.388 13.385 13.382 13.36 13.267 13.153 13.062 12.965 12.862 12.752 12.64 12.55 12.475 12.4 12.398 12.46 12.505 12.52 12.525 12.545 12.58 12.628 12.685 12.745 12.805 12.88 12.995 13.052 13.022 12.987 12.945 12.875 12.79 12.705 12.625 12.6 12.615 12.63 12.645 12.65 12.65 12.647 12.64 12.65 12.675 12.695 12.712 12.723 12.73 12.745 12.77 12.8 12.825 12.845 12.852 12.845 12.82 12.76 12.685 12.675 12.715 12.73 12.727 12.707 12.67 12.633 12.595 12.563 12.543 12.535 12.543 12.557 12.575 12.605 12.647 12.675 12.672 12.652 12.615 12.565 12.518 12.48 12.45 12.415 12.375 12.332 12.285 12.27 12.298 12.333 12.367 12.392 12.385 12.358 12.348 12.34 12.318 12.305 12.305 12.31 12.322 12.315 12.278 12.278 12.32 12.352 12.38 12.42 12.475 12.525 12.545 12.525 12.488 12.462 12.44 12.412 12.387 12.365 12.373 12.408 12.445 12.488 12.535 12.565 12.577 12.592 12.612 12.61 12.58 12.555 12.538 12.528 12.522 12.515 12.515 12.543 12.587 12.63 12.662 12.68 12.688 12.7 12.717 12.725 12.728 12.745 12.778 12.81 12.84 12.867 12.885 12.885 12.87 12.85 12.85 12.868 12.885 12.908 12.94 12.982 13.015 13.02 13.015 13.018 13.025
13.445 13.54 13.577 13.535 13.47 13.398 13.355 13.33 13.315 13.325 13.34 13.353 13.367 13.38 13.39 13.395 13.4 13.42 13.43 13.415 13.392 13.365 13.332 13.302 13.27 13.233 13.24 13.327 13.437 13.525 13.56 13.525 13.48 13.453 13.438 13.435 13.432 13.427 13.382 13.26 13.133 13.04 12.952 12.862 12.765 12.67 12.595 12.535 12.468 12.448 12.48 12.492 12.485 12.488 12.51 12.54 12.575 12.62 12.675 12.743 12.853 12.997 13.06 13.032 12.995 12.935 12.853 12.768 12.683 12.618 12.603 12.618 12.632 12.645 12.652 12.65 12.632 12.61 12.62 12.655 12.685 12.707 12.717 12.72 12.725 12.743 12.77 12.79 12.797 12.795 12.785 12.775 12.742 12.675 12.658 12.705 12.742 12.757 12.745 12.713 12.678 12.643 12.615 12.597 12.583 12.58 12.59 12.615 12.658 12.702 12.732 12.73 12.695 12.642 12.59 12.54 12.495 12.458 12.422 12.382 12.335 12.285 12.27 12.295 12.323 12.355 12.377 12.365 12.333 12.31 12.295 12.273 12.25 12.238 12.243 12.26 12.275 12.263 12.27 12.315 12.352 12.387 12.427 12.472 12.502 12.512 12.495 12.465 12.447 12.427 12.4 12.378 12.363 12.363 12.385 12.423 12.473 12.527 12.562 12.578 12.6 12.635 12.645 12.61 12.563 12.533 12.523 12.52 12.52 12.528 12.555 12.595 12.635 12.67 12.692 12.705 12.72 12.74 12.752 12.75 12.75 12.77 12.8 12.825 12.84 12.847 12.852 12.845 12.838 12.85 12.875 12.905 12.94 12.98 13.007 13.012 13.007 13.003 13.003 13.008
13.565 13.61 13.625 13.575 13.522 13.473 13.44 13.417 13.392 13.38 13.387 13.4 13.412 13.425 13.437 13.448 13.462 13.49 13.492 13.462 13.425 13.38 13.345 13.33 13.312 13.287 13.288 13.347 13.435 13.515 13.565 13.555 13.522 13.497 13.485 13.482 13.477 13.472 13.405 13.26 13.118 13.01 12.925 12.84 12.755 12.682 12.622 12.567 12.512 12.48 12.47 12.458 12.443 12.448 12.475 12.505 12.535 12.568 12.61 12.7 12.85 13 13.057 13.037 12.995 12.92 12.835 12.75 12.665 12.613 12.608 12.622 12.635 12.647 12.652 12.635 12.595 12.568 12.585 12.625 12.665 12.697 12.712 12.715 12.715 12.72 12.735 12.748 12.748 12.74 12.73 12.72 12.705 12.66 12.643 12.685 12.73 12.767 12.78 12.76 12.725 12.69 12.665 12.65 12.637 12.625 12.63 12.663 12.71 12.757 12.787 12.775 12.725 12.668 12.615 12.565 12.518 12.473 12.43 12.385 12.335 12.285 12.27 12.295 12.32 12.348 12.36 12.345 12.328 12.298 12.265 12.243 12.215 12.195 12.198 12.213 12.23 12.238 12.26 12.305 12.348 12.39 12.428 12.453 12.465 12.478 12.47 12.448 12.43 12.41 12.39 12.378 12.37 12.365 12.378 12.415 12.468 12.523 12.562 12.585 12.61 12.642 12.657 12.627 12.57 12.538 12.538 12.543 12.545 12.548 12.565 12.6 12.64 12.677 12.705 12.722 12.74 12.76 12.777 12.78 12.77 12.77 12.783 12.795 12.805 12.813 12.82 12.823 12.835 12.868 12.905 12.945 12.982 13.012 13.017 13.003 12.993 12.988 12.988 12.99
13.54 13.61 13.655 13.605 13.568 13.543 13.51 13.477 13.452 13.43 13.428 13.442 13.455 13.465 13.485 13.5 13.513 13.537 13.525 13.47 13.415 13.368 13.333 13.315 13.305 13.297 13.298 13.335 13.41 13.49 13.55 13.557 13.532 13.512 13.51 13.512 13.507 13.502 13.422 13.265 13.11 12.988 12.9 12.818 12.74 12.673 12.622 12.58 12.53 12.49 12.465 12.445 12.43 12.438 12.465 12.495 12.525 12.555 12.593 12.693 12.855 12.995 13.042 13.035 13.007 12.938 12.853 12.768 12.68 12.618 12.608 12.622 12.63 12.617 12.582 12.535 12.49 12.518 12.585 12.625 12.663 12.687 12.692 12.69 12.69 12.693 12.7 12.723 12.745 12.738 12.71 12.683 12.66 12.633 12.628 12.66 12.695 12.727 12.752 12.757 12.752 12.737 12.715 12.692 12.667 12.642 12.653 12.7 12.747 12.795 12.825 12.81 12.76 12.7 12.645 12.595 12.548 12.503 12.47 12.445 12.403 12.348 12.328 12.348 12.37 12.39 12.398 12.398 12.382 12.323 12.268 12.243 12.215 12.2 12.205 12.218 12.23 12.24 12.27 12.315 12.36 12.4 12.44 12.475 12.488 12.498 12.488 12.458 12.435 12.415 12.403 12.4 12.398 12.395 12.405 12.44 12.493 12.537 12.56 12.575 12.597 12.622 12.63 12.6 12.56 12.563 12.585 12.592 12.587 12.58 12.588 12.61 12.645 12.682 12.71 12.727 12.745 12.765 12.787 12.802 12.8 12.79 12.773 12.765 12.775 12.783 12.79 12.815 12.86 12.907 12.95 12.987 13.015 13.032 13.027 13.005 12.988 12.978 12.975 12.975
13.428 13.585 13.675 13.63 13.623 13.625 13.583 13.525 13.488 13.465 13.463 13.478 13.493 13.518 13.56 13.57 13.555 13.565 13.547 13.478 13.405 13.353 13.318 13.3 13.29 13.288 13.29 13.308 13.365 13.447 13.502 13.512 13.5 13.485 13.492 13.515 13.52 13.515 13.437 13.277 13.105 12.963 12.877 12.805 12.728 12.658 12.613 12.58 12.535 12.498 12.475 12.46 12.455 12.463 12.485 12.515 12.545 12.57 12.61 12.708 12.855 12.982 13.025 13.03 13.032 12.982 12.897 12.81 12.715 12.63 12.597 12.585 12.55 12.492 12.42 12.355 12.37 12.505 12.615 12.652 12.672 12.667 12.655 12.65 12.653 12.665 12.693 12.738 12.78 12.795 12.773 12.73 12.69 12.658 12.638 12.625 12.628 12.645 12.665 12.685 12.71 12.725 12.722 12.7 12.66 12.628 12.648 12.712 12.77 12.817 12.84 12.83 12.795 12.74 12.683 12.63 12.58 12.538 12.528 12.537 12.525 12.483 12.458 12.47 12.488 12.503 12.515 12.507 12.445 12.345 12.283 12.258 12.24 12.24 12.25 12.263 12.275 12.28 12.303 12.345 12.382 12.41 12.46 12.532 12.572 12.58 12.555 12.51 12.48 12.46 12.448 12.445 12.445 12.445 12.458 12.495 12.537 12.557 12.558 12.558 12.573 12.597 12.602 12.573 12.565 12.607 12.64 12.642 12.63 12.618 12.62 12.633 12.655 12.687 12.712 12.725 12.74 12.76 12.783 12.81 12.825 12.82 12.79 12.755 12.75 12.758 12.768 12.815 12.892 12.952 12.99 13.015 13.032 13.047 13.04 13.015 12.992 12.97 12.968 12.975
13.37 13.59 13.69 13.673 13.7 13.715 13.67 13.6 13.54 13.503 13.498 13.52 13.555 13.605 13.657 13.657 13.618 13.6 13.577 13.507 13.418 13.345 13.303 13.288 13.283 13.285 13.29 13.295 13.33 13.4 13.445 13.455 13.455 13.445 13.458 13.492 13.517 13.525 13.45 13.267 13.053 12.893 12.818 12.775 12.715 12.643 12.598 12.57 12.535 12.505 12.49 12.485 12.485 12.488 12.505 12.535 12.56 12.578 12.625 12.73 12.865 12.975 13.02 13.035 13.052 13.022 12.94 12.845 12.74 12.64 12.57 12.5 12.41 12.32 12.238 12.218 12.338 12.535 12.642 12.657 12.65 12.633 12.62 12.615 12.63 12.668 12.72 12.772 12.81 12.845 12.865 12.847 12.807 12.763 12.715 12.665 12.628 12.608 12.593 12.595 12.618 12.643 12.662 12.665 12.64 12.615 12.645 12.715 12.785 12.837 12.85 12.837 12.817 12.777 12.72 12.663 12.61 12.575 12.573 12.59 12.605 12.602 12.595 12.605 12.622 12.64 12.635 12.572 12.465 12.358 12.298 12.28 12.28 12.29 12.3 12.31 12.317 12.32 12.338 12.37 12.392 12.413 12.473 12.565 12.64 12.665 12.635 12.585 12.543 12.518 12.505 12.5 12.498 12.495 12.513 12.545 12.562 12.565 12.565 12.56 12.558 12.573 12.575 12.565 12.6 12.66 12.687 12.682 12.668 12.655 12.655 12.665 12.677 12.697 12.715 12.725 12.738 12.755 12.778 12.807 12.835 12.842 12.815 12.765 12.735 12.733 12.755 12.82 12.907 12.977 13.015 13.032 13.047 13.06 13.05 13.02 12.985 12.953 12.955 12.977
13.35 13.59 13.717 13.745 13.79 13.805 13.76 13.69 13.62 13.558 13.55 13.598 13.655 13.715 13.755 13.742 13.697 13.657 13.615 13.542 13.448 13.358 13.295 13.278 13.28 13.285 13.29 13.295 13.31 13.35 13.385 13.395 13.402 13.405 13.423 13.455 13.487 13.515 13.437 13.23 12.995 12.835 12.768 12.733 12.687 12.625 12.583 12.557 12.533 12.515 12.51 12.512 12.515 12.515 12.527 12.55 12.567 12.583 12.64 12.755 12.877 12.972 13.02 13.04 13.062 13.05 12.967 12.855 12.745 12.653 12.565 12.463 12.358 12.253 12.158 12.188 12.365 12.567 12.662 12.65 12.628 12.608 12.59 12.598 12.643 12.7 12.76 12.807 12.843 12.877 12.905 12.91 12.9 12.875 12.83 12.78 12.725 12.67 12.62 12.588 12.573 12.565 12.575 12.595 12.6 12.603 12.645 12.715 12.785 12.837 12.85 12.837 12.825 12.805 12.76 12.7 12.642 12.61 12.61 12.622 12.637 12.652 12.665 12.68 12.7 12.717 12.692 12.6 12.48 12.373 12.32 12.32 12.33 12.34 12.347 12.355 12.36 12.357 12.362 12.377 12.393 12.42 12.488 12.58 12.672 12.722 12.702 12.657 12.612 12.577 12.562 12.557 12.552 12.547 12.555 12.567 12.572 12.575 12.572 12.567 12.56 12.557 12.563 12.593 12.652 12.707 12.73 12.72 12.705 12.692 12.69 12.695 12.692 12.7 12.717 12.73 12.74 12.753 12.775 12.805 12.835 12.857 12.84 12.79 12.745 12.718 12.745 12.82 12.9 12.97 13.01 13.03 13.047 13.057 13.045 13.007 12.962 12.93 12.935 12.965
13.355 13.595 13.75 13.81 13.865 13.89 13.847 13.772 13.697 13.623 13.618 13.682 13.745 13.797 13.815 13.785 13.737 13.687 13.632 13.562 13.472 13.378 13.3 13.265 13.263 13.27 13.277 13.285 13.292 13.308 13.325 13.335 13.345 13.355 13.375 13.405 13.435 13.472 13.402 13.2 12.975 12.825 12.765 12.715 12.665 12.61 12.568 12.545 12.525 12.515 12.517 12.522 12.525 12.525 12.535 12.552 12.57 12.588 12.648 12.757 12.862 12.955 13.012 13.035 13.06 13.05 12.96 12.84 12.745 12.672 12.59 12.487 12.382 12.278 12.19 12.235 12.415 12.61 12.692 12.67 12.645 12.618 12.585 12.608 12.68 12.742 12.8 12.84 12.875 12.895 12.887 12.887 12.905 12.902 12.865 12.815 12.762 12.71 12.66 12.613 12.578 12.56 12.563 12.58 12.598 12.61 12.638 12.693 12.757 12.81 12.825 12.815 12.81 12.812 12.78 12.715 12.655 12.618 12.617 12.63 12.64 12.65 12.665 12.685 12.707 12.717 12.685 12.607 12.5 12.39 12.345 12.357 12.37 12.38 12.382 12.38 12.377 12.37 12.367 12.375 12.39 12.425 12.495 12.587 12.665 12.7 12.695 12.665 12.625 12.59 12.58 12.58 12.572 12.567 12.565 12.565 12.567 12.565 12.555 12.55 12.545 12.538 12.55 12.597 12.66 12.707 12.725 12.72 12.71 12.697 12.69 12.685 12.68 12.693 12.717 12.737 12.75 12.76 12.78 12.81 12.843 12.877 12.872 12.823 12.77 12.728 12.738 12.803 12.877 12.945 12.987 13.01 13.025 13.022 13 12.962 12.922 12.895 12.897 12.92
13.375 13.605 13.762 13.832 13.885 13.905 13.89 13.837 13.76 13.685 13.683 13.747 13.797 13.817 13.805 13.767 13.72 13.667 13.615 13.56 13.485 13.393 13.313 13.26 13.238 13.238 13.245 13.255 13.265 13.272 13.275 13.278 13.285 13.295 13.315 13.345 13.38 13.422 13.365 13.177 12.958 12.818 12.765 12.715 12.66 12.598 12.555 12.537 12.518 12.508 12.512 12.515 12.515 12.518 12.528 12.545 12.565 12.585 12.64 12.732 12.825 12.92 12.992 13.025 13.045 13.025 12.938 12.838 12.763 12.697 12.615 12.512 12.408 12.308 12.245 12.31 12.478 12.657 12.735 12.71 12.68 12.642 12.6 12.633 12.722 12.785 12.835 12.865 12.88 12.87 12.84 12.835 12.855 12.857 12.825 12.775 12.725 12.68 12.648 12.628 12.62 12.625 12.635 12.65 12.657 12.65 12.653 12.678 12.723 12.772 12.79 12.785 12.793 12.81 12.782 12.71 12.645 12.603 12.603 12.62 12.63 12.64 12.658 12.68 12.7 12.695 12.652 12.592 12.512 12.41 12.363 12.377 12.387 12.39 12.387 12.38 12.37 12.36 12.36 12.373 12.39 12.425 12.495 12.572 12.61 12.617 12.62 12.607 12.575 12.548 12.55 12.562 12.56 12.555 12.555 12.555 12.55 12.532 12.515 12.51 12.508 12.505 12.518 12.56 12.617 12.66 12.675 12.675 12.672 12.665 12.655 12.65 12.663 12.688 12.712 12.737 12.757 12.77 12.79 12.823 12.86 12.902 12.907 12.862 12.81 12.763 12.75 12.788 12.85 12.917 12.962 12.985 12.985 12.96 12.927 12.892 12.858 12.833 12.833 12.858
13.415 13.615 13.767 13.822 13.845 13.845 13.855 13.85 13.807 13.748 13.748 13.792 13.802 13.79 13.765 13.73 13.687 13.64 13.59 13.54 13.485 13.405 13.328 13.275 13.233 13.21 13.21 13.22 13.23 13.24 13.24 13.233 13.23 13.235 13.255 13.288 13.33 13.377 13.322 13.147 12.945 12.815 12.765 12.712 12.65 12.585 12.545 12.53 12.513 12.503 12.505 12.508 12.51 12.513 12.52 12.535 12.552 12.57 12.62 12.705 12.793 12.882 12.965 13.012 13.027 13.002 12.933 12.855 12.788 12.722 12.64 12.538 12.438 12.345 12.305 12.39 12.548 12.707 12.775 12.742 12.7 12.655 12.61 12.65 12.757 12.822 12.855 12.86 12.842 12.815 12.788 12.785 12.802 12.81 12.785 12.74 12.71 12.695 12.69 12.695 12.702 12.708 12.715 12.725 12.72 12.703 12.7 12.71 12.728 12.753 12.768 12.778 12.795 12.815 12.79 12.715 12.64 12.588 12.585 12.607 12.62 12.633 12.655 12.682 12.69 12.665 12.62 12.565 12.502 12.42 12.375 12.382 12.382 12.377 12.373 12.365 12.355 12.345 12.348 12.368 12.39 12.425 12.477 12.515 12.525 12.53 12.535 12.532 12.517 12.5 12.505 12.525 12.537 12.54 12.54 12.535 12.52 12.495 12.478 12.475 12.475 12.478 12.485 12.52 12.575 12.612 12.625 12.625 12.627 12.625 12.62 12.63 12.655 12.682 12.707 12.732 12.757 12.777 12.803 12.84 12.883 12.927 12.94 12.905 12.855 12.808 12.788 12.803 12.838 12.892 12.937 12.945 12.922 12.888 12.853 12.82 12.785 12.758 12.768 12.82
13.485 13.642 13.76 13.782 13.78 13.775 13.785 13.8 13.802 13.787 13.785 13.787 13.77 13.75 13.727 13.693 13.65 13.608 13.56 13.51 13.465 13.407 13.345 13.295 13.245 13.203 13.183 13.188 13.2 13.21 13.21 13.2 13.19 13.185 13.2 13.235 13.28 13.33 13.275 13.112 12.935 12.815 12.762 12.702 12.637 12.573 12.53 12.515 12.503 12.495 12.498 12.503 12.505 12.508 12.513 12.523 12.533 12.548 12.603 12.688 12.77 12.853 12.937 12.987 12.987 12.982 12.947 12.878 12.813 12.747 12.665 12.565 12.473 12.385 12.365 12.47 12.625 12.755 12.792 12.755 12.71 12.665 12.62 12.658 12.78 12.842 12.837 12.815 12.785 12.758 12.735 12.735 12.753 12.768 12.768 12.755 12.755 12.765 12.77 12.775 12.785 12.79 12.795 12.795 12.777 12.755 12.75 12.76 12.77 12.778 12.778 12.783 12.8 12.82 12.8 12.727 12.645 12.578 12.565 12.59 12.608 12.628 12.655 12.677 12.667 12.632 12.587 12.53 12.47 12.405 12.37 12.37 12.365 12.363 12.36 12.35 12.34 12.33 12.338 12.362 12.385 12.41 12.43 12.438 12.443 12.448 12.45 12.45 12.448 12.445 12.455 12.478 12.5 12.515 12.517 12.503 12.48 12.455 12.44 12.443 12.445 12.45 12.458 12.483 12.533 12.567 12.575 12.575 12.575 12.583 12.598 12.62 12.65 12.675 12.7 12.725 12.75 12.778 12.815 12.863 12.908 12.952 12.972 12.947 12.9 12.855 12.82 12.818 12.842 12.877 12.905 12.893 12.86 12.828 12.795 12.765 12.733 12.715 12.74 12.805
13.617 13.705 13.745 13.748 13.743 13.745 13.765 13.788 13.803 13.81 13.788 13.755 13.735 13.715 13.7 13.677 13.64 13.6 13.555 13.505 13.46 13.408 13.365 13.33 13.28 13.23 13.183 13.16 13.168 13.18 13.18 13.17 13.16 13.158 13.175 13.208 13.248 13.282 13.22 13.07 12.918 12.813 12.752 12.688 12.625 12.568 12.533 12.523 12.505 12.488 12.495 12.505 12.508 12.513 12.515 12.52 12.53 12.553 12.615 12.7 12.78 12.862 12.917 12.925 12.908 12.962 12.99 12.913 12.84 12.772 12.692 12.598 12.508 12.423 12.425 12.547 12.682 12.765 12.77 12.732 12.692 12.65 12.613 12.645 12.76 12.827 12.818 12.79 12.76 12.733 12.715 12.723 12.743 12.758 12.775 12.79 12.802 12.817 12.83 12.842 12.857 12.867 12.87 12.86 12.835 12.808 12.8 12.81 12.82 12.83 12.82 12.8 12.805 12.825 12.81 12.742 12.658 12.585 12.565 12.583 12.603 12.63 12.657 12.66 12.632 12.6 12.555 12.495 12.435 12.375 12.345 12.345 12.343 12.348 12.35 12.34 12.33 12.323 12.333 12.355 12.378 12.398 12.405 12.405 12.408 12.413 12.415 12.415 12.41 12.413 12.43 12.455 12.48 12.5 12.502 12.483 12.458 12.435 12.428 12.438 12.448 12.455 12.465 12.483 12.51 12.52 12.515 12.513 12.518 12.555 12.592 12.613 12.637 12.663 12.69 12.715 12.74 12.773 12.825 12.887 12.935 12.98 13.007 12.992 12.952 12.905 12.848 12.81 12.82 12.85 12.88 12.885 12.86 12.83 12.8 12.77 12.75 12.768 12.808 12.855
