ncols         200
nrows         71
xllcorner     544000
yllcorner     260095
cellsize      5
NODATA_value  -9999.0
15.73 15.683 15.635 15.58 15.528 15.488 15.47 15.47 15.462 15.385 15.285 15.23 15.178 15.127 15.07 15 14.93 14.868 14.83 14.813 14.805 14.807 14.785 14.725 14.617 14.455 14.355 14.363 14.408 14.463 14.507 14.492 14.47 14.49 14.51 14.53 14.55 14.567 14.572 14.545 14.485 14.42 14.39 14.39 14.39 14.39 14.39 14.39 14.39 14.395 14.405 14.415 14.425 14.435 14.445 14.45 14.45 14.45 14.45 14.45 14.45 14.437 14.41 14.382 14.357 14.363 14.402 14.442 14.477 14.515 14.56 14.61 14.657 14.7 14.712 14.695 14.68 14.665 14.65 14.637 14.622 14.607 14.597 14.592 14.587 14.585 14.595 14.615 14.635 14.658 14.685 14.715 14.743 14.773 14.81 14.85 14.89 14.938 15.003 15.093 15.195 15.293 15.395 15.505 15.592 15.625 15.62 15.61 15.603 15.598 15.63 15.7 15.77 15.835 15.88 15.905 15.93 15.955 15.972 15.972 15.952 15.933 15.933 15.948 15.965 15.988 16.04 16.103 16.153 16.198 16.17 16.105 16.07 16.035 16.008 15.998 15.988 16.018 16.095 16.177 16.242 16.267 16.272 16.28 16.287 16.302 16.33 16.362 16.395 16.43 16.45 16.44 16.42 16.405 16.418 16.45 16.48 16.49 16.457 16.405 16.35 16.292 16.225 16.152 16.088 16.025 15.97 15.922 15.877 15.832 15.787 15.74 15.695 15.657 15.612 15.555 15.495 15.443 15.403 15.365 15.317 15.21 15.075 14.967 14.862 14.757 14.62 14.397 14.133 13.905 13.775 13.715 13.653 13.608 13.565 13.518 13.483 13.448 13.41 13.375
15.645 15.61 15.57 15.518 15.49 15.505 15.522 15.525 15.485 15.365 15.255 15.2 15.155 15.112 15.055 14.985 14.918 14.863 14.833 14.823 14.825 14.832 14.807 14.745 14.67 14.562 14.47 14.438 14.45 14.497 14.525 14.46 14.388 14.39 14.413 14.432 14.447 14.46 14.485 14.505 14.477 14.42 14.39 14.39 14.39 14.39 14.39 14.39 14.39 14.393 14.4 14.41 14.42 14.43 14.442 14.45 14.45 14.45 14.45 14.44 14.417 14.38 14.335 14.3 14.298 14.355 14.427 14.47 14.508 14.55 14.593 14.637 14.682 14.722 14.73 14.708 14.69 14.675 14.66 14.65 14.635 14.615 14.603 14.598 14.595 14.598 14.608 14.628 14.655 14.688 14.718 14.745 14.775 14.808 14.845 14.885 14.935 15.005 15.085 15.178 15.275 15.365 15.463 15.57 15.637 15.65 15.647 15.642 15.637 15.63 15.66 15.73 15.797 15.862 15.91 15.935 15.958 15.98 16.007 16.03 16.027 16.01 16.008 16.022 16.037 16.053 16.138 16.28 16.4 16.447 16.367 16.255 16.2 16.168 16.14 16.12 16.095 16.095 16.15 16.23 16.277 16.282 16.282 16.285 16.288 16.303 16.332 16.365 16.395 16.427 16.457 16.467 16.455 16.445 16.462 16.49 16.505 16.507 16.487 16.442 16.387 16.322 16.227 16.14 16.105 16.078 16.008 15.935 15.885 15.837 15.792 15.745 15.703 15.672 15.64 15.587 15.528 15.483 15.448 15.41 15.347 15.177 14.955 14.805 14.697 14.59 14.448 14.245 14.025 13.843 13.735 13.68 13.645 13.63 13.585 13.52 13.478 13.443 13.408 13.372
15.605 15.563 15.52 15.493 15.51 15.55 15.575 15.567 15.477 15.325 15.223 15.175 15.137 15.097 15.04 14.97 14.903 14.855 14.84 14.843 14.85 14.857 14.827 14.762 14.692 14.605 14.555 14.54 14.52 14.537 14.537 14.445 14.33 14.295 14.317 14.332 14.338 14.345 14.373 14.415 14.435 14.412 14.39 14.39 14.39 14.39 14.39 14.39 14.39 14.39 14.395 14.405 14.415 14.425 14.437 14.447 14.45 14.442 14.422 14.387 14.34 14.29 14.245 14.235 14.288 14.375 14.452 14.502 14.542 14.585 14.625 14.665 14.708 14.747 14.752 14.725 14.703 14.688 14.672 14.657 14.64 14.623 14.61 14.605 14.603 14.608 14.625 14.655 14.695 14.735 14.765 14.788 14.813 14.843 14.88 14.93 15.003 15.088 15.173 15.265 15.357 15.445 15.538 15.63 15.675 15.675 15.675 15.675 15.67 15.663 15.693 15.757 15.823 15.89 15.94 15.965 15.985 16.005 16.033 16.067 16.09 16.085 16.083 16.097 16.107 16.118 16.215 16.397 16.565 16.635 16.57 16.445 16.348 16.3 16.272 16.245 16.215 16.188 16.195 16.252 16.282 16.27 16.268 16.275 16.285 16.3 16.33 16.365 16.395 16.425 16.455 16.48 16.482 16.483 16.5 16.512 16.515 16.515 16.507 16.475 16.42 16.33 16.213 16.15 16.168 16.182 16.1 15.973 15.89 15.835 15.788 15.745 15.713 15.69 15.667 15.622 15.57 15.535 15.502 15.467 15.38 15.19 14.913 14.66 14.51 14.418 14.368 14.22 13.983 13.805 13.71 13.685 13.69 13.677 13.615 13.535 13.478 13.44 13.405 13.37
15.59 15.535 15.49 15.498 15.547 15.59 15.622 15.587 15.45 15.288 15.193 15.155 15.122 15.085 15.03 14.96 14.893 14.858 14.86 14.87 14.88 14.882 14.84 14.757 14.667 14.568 14.525 14.545 14.555 14.577 14.552 14.435 14.298 14.22 14.215 14.223 14.23 14.24 14.265 14.308 14.35 14.375 14.385 14.39 14.39 14.39 14.39 14.39 14.39 14.387 14.377 14.365 14.367 14.385 14.405 14.422 14.427 14.405 14.36 14.31 14.258 14.205 14.18 14.22 14.305 14.395 14.478 14.535 14.575 14.615 14.655 14.695 14.735 14.772 14.775 14.745 14.718 14.7 14.685 14.665 14.645 14.628 14.615 14.61 14.61 14.625 14.658 14.698 14.742 14.785 14.815 14.835 14.855 14.88 14.928 15.002 15.09 15.175 15.26 15.352 15.44 15.525 15.612 15.68 15.705 15.702 15.7 15.7 15.697 15.695 15.725 15.785 15.85 15.918 15.967 15.995 16.015 16.035 16.06 16.093 16.125 16.145 16.155 16.162 16.168 16.18 16.28 16.455 16.615 16.717 16.7 16.6 16.5 16.432 16.395 16.365 16.335 16.305 16.28 16.283 16.28 16.258 16.255 16.27 16.285 16.3 16.33 16.365 16.395 16.425 16.455 16.485 16.505 16.515 16.522 16.522 16.52 16.52 16.517 16.502 16.435 16.305 16.213 16.218 16.265 16.305 16.242 16.085 15.948 15.85 15.788 15.753 15.73 15.71 15.693 15.662 15.625 15.592 15.557 15.512 15.4 15.22 14.948 14.613 14.375 14.338 14.46 14.39 14.093 13.835 13.725 13.735 13.747 13.715 13.64 13.558 13.485 13.438 13.402 13.365
15.6 15.538 15.483 15.478 15.525 15.58 15.62 15.557 15.392 15.248 15.173 15.14 15.108 15.078 15.033 14.968 14.898 14.855 14.855 14.867 14.88 14.872 14.812 14.712 14.61 14.505 14.428 14.43 14.485 14.547 14.535 14.42 14.28 14.18 14.16 14.178 14.193 14.208 14.215 14.228 14.26 14.305 14.34 14.355 14.365 14.38 14.39 14.39 14.387 14.372 14.342 14.308 14.283 14.288 14.312 14.35 14.385 14.37 14.318 14.265 14.213 14.17 14.188 14.27 14.365 14.455 14.533 14.58 14.615 14.655 14.695 14.735 14.772 14.802 14.8 14.77 14.74 14.715 14.695 14.675 14.655 14.635 14.62 14.618 14.635 14.668 14.705 14.745 14.79 14.832 14.862 14.885 14.905 14.92 14.963 15.045 15.135 15.222 15.312 15.405 15.49 15.572 15.652 15.705 15.72 15.717 15.715 15.715 15.715 15.73 15.773 15.83 15.895 15.962 16.01 16.035 16.055 16.073 16.095 16.125 16.155 16.197 16.225 16.225 16.228 16.24 16.333 16.49 16.635 16.757 16.767 16.685 16.605 16.532 16.485 16.455 16.422 16.39 16.357 16.33 16.305 16.285 16.288 16.3 16.313 16.328 16.353 16.388 16.42 16.45 16.483 16.507 16.522 16.522 16.515 16.512 16.507 16.505 16.505 16.477 16.375 16.263 16.228 16.252 16.305 16.365 16.325 16.175 16.015 15.878 15.805 15.783 15.768 15.753 15.732 15.682 15.625 15.592 15.567 15.525 15.41 15.243 15.085 14.932 14.785 14.715 14.715 14.607 14.322 13.98 13.805 13.805 13.8 13.745 13.665 13.585 13.505 13.44 13.395 13.355
15.612 15.545 15.483 15.445 15.455 15.507 15.54 15.455 15.308 15.21 15.16 15.13 15.103 15.09 15.06 14.995 14.915 14.84 14.815 14.827 14.84 14.817 14.74 14.64 14.54 14.438 14.348 14.33 14.388 14.465 14.487 14.4 14.265 14.168 14.158 14.195 14.217 14.235 14.23 14.205 14.198 14.225 14.26 14.283 14.315 14.362 14.39 14.39 14.377 14.345 14.308 14.272 14.23 14.2 14.208 14.263 14.34 14.352 14.303 14.253 14.215 14.195 14.238 14.345 14.457 14.555 14.62 14.643 14.663 14.7 14.74 14.78 14.812 14.832 14.827 14.8 14.77 14.743 14.718 14.693 14.668 14.643 14.633 14.648 14.685 14.725 14.758 14.795 14.84 14.88 14.907 14.93 14.947 14.955 14.983 15.05 15.135 15.225 15.32 15.415 15.502 15.585 15.655 15.697 15.715 15.72 15.72 15.72 15.733 15.785 15.848 15.898 15.958 16.025 16.07 16.09 16.107 16.12 16.138 16.165 16.203 16.26 16.297 16.3 16.3 16.333 16.415 16.523 16.65 16.787 16.825 16.755 16.675 16.6 16.548 16.513 16.478 16.445 16.415 16.39 16.373 16.365 16.368 16.37 16.378 16.39 16.41 16.445 16.48 16.502 16.52 16.53 16.53 16.517 16.495 16.483 16.477 16.475 16.462 16.395 16.305 16.268 16.255 16.25 16.278 16.332 16.295 16.15 16.013 15.898 15.84 15.835 15.827 15.815 15.78 15.687 15.583 15.525 15.502 15.48 15.402 15.263 15.207 15.237 15.215 15.082 14.885 14.7 14.477 14.175 13.933 13.87 13.847 13.775 13.695 13.612 13.53 13.445 13.382 13.342
15.62 15.548 15.485 15.44 15.415 15.435 15.432 15.343 15.248 15.19 15.15 15.128 15.12 15.125 15.095 15.02 14.935 14.845 14.788 14.783 14.792 14.752 14.66 14.56 14.465 14.383 14.315 14.298 14.335 14.398 14.44 14.377 14.258 14.165 14.15 14.197 14.235 14.262 14.26 14.225 14.19 14.178 14.195 14.233 14.288 14.352 14.387 14.38 14.352 14.315 14.275 14.238 14.2 14.16 14.16 14.215 14.287 14.32 14.298 14.265 14.245 14.233 14.28 14.403 14.532 14.645 14.71 14.718 14.718 14.745 14.785 14.82 14.842 14.857 14.852 14.828 14.8 14.775 14.75 14.72 14.695 14.675 14.67 14.698 14.742 14.785 14.82 14.853 14.89 14.927 14.952 14.967 14.98 14.985 15.01 15.068 15.14 15.228 15.322 15.415 15.505 15.59 15.65 15.68 15.7 15.717 15.725 15.733 15.78 15.867 15.935 15.978 16.028 16.087 16.13 16.147 16.157 16.165 16.18 16.21 16.263 16.332 16.372 16.383 16.418 16.5 16.58 16.638 16.715 16.82 16.872 16.825 16.747 16.673 16.613 16.57 16.533 16.5 16.473 16.458 16.455 16.455 16.455 16.455 16.458 16.465 16.482 16.507 16.527 16.535 16.532 16.53 16.53 16.522 16.495 16.463 16.445 16.44 16.408 16.348 16.323 16.317 16.3 16.28 16.27 16.277 16.225 16.11 16.01 15.92 15.878 15.887 15.89 15.875 15.815 15.702 15.58 15.478 15.42 15.395 15.36 15.272 15.218 15.21 15.17 15.055 14.875 14.698 14.52 14.307 14.06 13.93 13.885 13.8 13.705 13.6 13.495 13.39 13.315 13.29
15.625 15.552 15.488 15.44 15.405 15.39 15.358 15.293 15.235 15.185 15.153 15.148 15.155 15.16 15.12 15.037 14.952 14.865 14.783 14.745 14.737 14.68 14.583 14.498 14.428 14.368 14.318 14.305 14.325 14.358 14.4 14.362 14.26 14.17 14.145 14.19 14.235 14.275 14.287 14.26 14.223 14.188 14.185 14.23 14.293 14.352 14.377 14.355 14.318 14.283 14.245 14.205 14.17 14.145 14.16 14.21 14.263 14.31 14.325 14.31 14.293 14.275 14.325 14.455 14.59 14.717 14.792 14.8 14.79 14.8 14.827 14.85 14.868 14.882 14.88 14.86 14.838 14.813 14.793 14.775 14.76 14.75 14.743 14.758 14.798 14.845 14.885 14.915 14.945 14.975 14.995 15.005 15.015 15.023 15.048 15.098 15.155 15.233 15.325 15.415 15.505 15.59 15.642 15.665 15.685 15.708 15.728 15.768 15.852 15.947 16.012 16.057 16.105 16.152 16.182 16.195 16.202 16.21 16.225 16.265 16.333 16.407 16.458 16.505 16.585 16.677 16.752 16.8 16.84 16.897 16.927 16.882 16.81 16.737 16.675 16.63 16.59 16.558 16.54 16.538 16.54 16.54 16.54 16.54 16.54 16.542 16.545 16.545 16.545 16.543 16.538 16.533 16.53 16.527 16.507 16.468 16.43 16.41 16.388 16.373 16.375 16.365 16.345 16.325 16.292 16.255 16.202 16.123 16.037 15.95 15.91 15.925 15.94 15.922 15.84 15.72 15.597 15.475 15.373 15.313 15.285 15.247 15.207 15.175 15.132 15.055 14.912 14.735 14.553 14.37 14.165 14 13.905 13.81 13.705 13.593 13.478 13.363 13.273 13.24
15.62 15.55 15.493 15.455 15.425 15.398 15.363 15.313 15.26 15.203 15.17 15.175 15.182 15.165 15.11 15.032 14.952 14.875 14.792 14.723 14.675 14.615 14.54 14.478 14.425 14.373 14.325 14.315 14.335 14.355 14.372 14.347 14.268 14.175 14.143 14.18 14.233 14.287 14.315 14.297 14.26 14.225 14.22 14.258 14.315 14.355 14.357 14.332 14.295 14.26 14.225 14.185 14.153 14.138 14.16 14.21 14.268 14.332 14.372 14.377 14.368 14.35 14.39 14.51 14.645 14.76 14.817 14.825 14.82 14.835 14.86 14.875 14.895 14.92 14.93 14.913 14.89 14.865 14.85 14.85 14.845 14.835 14.825 14.825 14.853 14.9 14.94 14.97 15.005 15.048 15.075 15.085 15.093 15.093 15.11 15.155 15.198 15.25 15.33 15.42 15.507 15.585 15.64 15.672 15.695 15.715 15.743 15.808 15.905 15.995 16.06 16.11 16.157 16.195 16.215 16.225 16.235 16.248 16.283 16.345 16.418 16.49 16.55 16.617 16.697 16.772 16.845 16.9 16.94 16.975 16.97 16.915 16.845 16.78 16.73 16.69 16.65 16.623 16.615 16.615 16.615 16.615 16.615 16.615 16.615 16.615 16.6 16.575 16.565 16.563 16.558 16.553 16.548 16.545 16.535 16.508 16.47 16.435 16.423 16.427 16.427 16.415 16.395 16.347 16.285 16.242 16.202 16.142 16.062 15.978 15.943 15.96 15.96 15.912 15.822 15.707 15.582 15.46 15.34 15.255 15.223 15.21 15.19 15.155 15.115 15.065 14.977 14.835 14.655 14.47 14.283 14.09 13.945 13.845 13.745 13.645 13.537 13.41 13.3 13.248
15.61 15.545 15.5 15.482 15.47 15.45 15.417 15.365 15.302 15.23 15.193 15.197 15.182 15.13 15.065 14.997 14.925 14.855 14.78 14.703 14.643 14.593 14.538 14.483 14.428 14.375 14.333 14.325 14.347 14.357 14.345 14.337 14.29 14.193 14.153 14.19 14.255 14.317 14.342 14.327 14.297 14.265 14.258 14.292 14.332 14.337 14.325 14.312 14.285 14.25 14.215 14.178 14.15 14.133 14.15 14.2 14.28 14.365 14.412 14.44 14.452 14.445 14.468 14.57 14.687 14.757 14.785 14.793 14.808 14.852 14.892 14.91 14.935 14.977 14.997 14.977 14.95 14.923 14.91 14.915 14.917 14.912 14.905 14.898 14.913 14.952 14.99 15.023 15.073 15.145 15.19 15.2 15.2 15.18 15.188 15.227 15.252 15.278 15.34 15.43 15.51 15.575 15.635 15.687 15.72 15.743 15.778 15.845 15.937 16.025 16.09 16.137 16.177 16.207 16.227 16.24 16.253 16.29 16.368 16.45 16.52 16.59 16.647 16.695 16.753 16.82 16.892 16.955 16.997 17.01 16.985 16.93 16.86 16.813 16.788 16.755 16.715 16.69 16.685 16.685 16.685 16.685 16.685 16.685 16.685 16.682 16.662 16.628 16.603 16.595 16.59 16.585 16.58 16.573 16.567 16.557 16.537 16.51 16.488 16.483 16.48 16.457 16.395 16.31 16.255 16.22 16.185 16.147 16.085 16.008 15.98 15.977 15.927 15.842 15.752 15.655 15.54 15.42 15.303 15.223 15.193 15.177 15.162 15.14 15.105 15.057 14.997 14.912 14.78 14.607 14.412 14.2 14.028 13.915 13.815 13.712 13.592 13.445 13.325 13.275
15.608 15.548 15.508 15.5 15.505 15.5 15.467 15.405 15.33 15.25 15.212 15.2 15.15 15.083 15.017 14.95 14.882 14.815 14.743 14.675 14.62 14.577 14.537 14.487 14.432 14.378 14.34 14.34 14.35 14.32 14.298 14.34 14.325 14.24 14.208 14.238 14.298 14.35 14.365 14.35 14.327 14.3 14.29 14.312 14.317 14.298 14.285 14.28 14.267 14.237 14.203 14.175 14.155 14.135 14.145 14.203 14.313 14.407 14.447 14.48 14.507 14.522 14.543 14.615 14.692 14.73 14.75 14.77 14.813 14.875 14.922 14.95 14.99 15.045 15.062 15.037 15.007 14.98 14.97 14.975 14.98 14.982 14.982 14.977 14.98 15.005 15.043 15.09 15.16 15.242 15.297 15.307 15.29 15.258 15.258 15.282 15.298 15.313 15.358 15.435 15.505 15.565 15.625 15.685 15.735 15.767 15.81 15.885 15.973 16.058 16.12 16.158 16.19 16.215 16.238 16.255 16.293 16.375 16.472 16.557 16.63 16.697 16.75 16.79 16.835 16.888 16.945 17.005 17.04 17.03 16.995 16.94 16.885 16.865 16.852 16.82 16.783 16.76 16.755 16.755 16.755 16.755 16.755 16.755 16.753 16.747 16.73 16.692 16.653 16.63 16.622 16.617 16.61 16.6 16.593 16.587 16.58 16.57 16.555 16.54 16.507 16.43 16.33 16.265 16.235 16.2 16.165 16.135 16.092 16.037 15.995 15.94 15.852 15.758 15.667 15.58 15.485 15.377 15.27 15.2 15.165 15.143 15.13 15.115 15.09 15.05 14.99 14.925 14.845 14.722 14.542 14.323 14.123 13.985 13.885 13.77 13.627 13.473 13.355 13.297
15.61 15.553 15.515 15.513 15.525 15.535 15.502 15.425 15.345 15.268 15.212 15.165 15.1 15.035 14.97 14.903 14.84 14.775 14.708 14.645 14.585 14.543 14.517 14.482 14.435 14.383 14.35 14.345 14.315 14.24 14.233 14.34 14.367 14.31 14.295 14.313 14.355 14.385 14.382 14.365 14.347 14.327 14.31 14.3 14.278 14.255 14.248 14.243 14.235 14.223 14.2 14.178 14.16 14.143 14.148 14.223 14.357 14.447 14.48 14.51 14.54 14.57 14.597 14.637 14.678 14.705 14.733 14.773 14.833 14.898 14.953 15 15.055 15.112 15.125 15.095 15.063 15.035 15.028 15.033 15.038 15.042 15.047 15.05 15.05 15.063 15.105 15.175 15.255 15.335 15.395 15.397 15.357 15.323 15.325 15.343 15.35 15.36 15.385 15.435 15.495 15.555 15.615 15.675 15.735 15.785 15.845 15.93 16.02 16.11 16.178 16.208 16.225 16.243 16.258 16.295 16.378 16.48 16.575 16.66 16.737 16.802 16.85 16.89 16.93 16.967 17.005 17.045 17.057 17.035 17.002 16.963 16.938 16.932 16.917 16.885 16.853 16.833 16.825 16.825 16.825 16.825 16.825 16.825 16.82 16.812 16.795 16.757 16.715 16.678 16.655 16.647 16.64 16.63 16.62 16.613 16.608 16.602 16.597 16.565 16.462 16.345 16.28 16.245 16.215 16.183 16.15 16.12 16.087 16.037 15.957 15.862 15.767 15.672 15.58 15.49 15.405 15.318 15.235 15.18 15.14 15.113 15.097 15.083 15.067 15.037 14.98 14.915 14.85 14.775 14.637 14.437 14.228 14.063 13.945 13.807 13.653 13.498 13.378 13.31
15.615 15.558 15.525 15.528 15.543 15.565 15.53 15.44 15.36 15.28 15.203 15.135 15.073 15.008 14.943 14.878 14.813 14.743 14.675 14.615 14.555 14.508 14.478 14.452 14.422 14.382 14.347 14.312 14.255 14.185 14.205 14.35 14.422 14.395 14.383 14.397 14.412 14.4 14.38 14.36 14.345 14.33 14.305 14.273 14.24 14.223 14.218 14.21 14.2 14.223 14.235 14.208 14.183 14.163 14.17 14.26 14.4 14.48 14.51 14.54 14.567 14.59 14.615 14.652 14.688 14.713 14.748 14.8 14.863 14.93 15.003 15.07 15.13 15.182 15.187 15.153 15.118 15.09 15.085 15.09 15.095 15.1 15.105 15.113 15.118 15.125 15.17 15.247 15.322 15.392 15.445 15.442 15.4 15.375 15.398 15.432 15.44 15.443 15.45 15.475 15.523 15.58 15.64 15.7 15.76 15.828 15.913 16.005 16.098 16.19 16.272 16.332 16.36 16.37 16.37 16.378 16.45 16.572 16.68 16.755 16.815 16.862 16.897 16.932 16.965 16.995 17.027 17.047 17.042 17.022 16.995 16.992 17.002 16.997 16.982 16.952 16.925 16.905 16.895 16.895 16.895 16.895 16.895 16.892 16.887 16.88 16.86 16.825 16.782 16.735 16.695 16.675 16.665 16.657 16.65 16.64 16.635 16.63 16.62 16.545 16.403 16.313 16.275 16.24 16.21 16.18 16.15 16.12 16.087 16.017 15.9 15.78 15.678 15.582 15.49 15.4 15.325 15.27 15.223 15.178 15.13 15.088 15.063 15.05 15.04 15.017 14.967 14.905 14.84 14.772 14.657 14.49 14.305 14.135 13.99 13.838 13.685 13.53 13.4 13.323
15.62 15.565 15.535 15.543 15.565 15.6 15.562 15.46 15.375 15.292 15.208 15.13 15.065 15.002 14.937 14.867 14.792 14.715 14.645 14.585 14.523 14.47 14.435 14.41 14.39 14.365 14.332 14.285 14.23 14.178 14.22 14.375 14.485 14.495 14.47 14.455 14.422 14.383 14.36 14.343 14.327 14.31 14.285 14.253 14.22 14.2 14.19 14.18 14.193 14.26 14.295 14.268 14.245 14.225 14.238 14.323 14.44 14.51 14.537 14.56 14.58 14.595 14.618 14.663 14.712 14.747 14.783 14.838 14.905 14.983 15.07 15.15 15.217 15.272 15.272 15.228 15.185 15.153 15.145 15.153 15.16 15.165 15.17 15.18 15.182 15.18 15.218 15.285 15.347 15.407 15.457 15.462 15.435 15.425 15.463 15.525 15.555 15.56 15.558 15.56 15.59 15.643 15.7 15.76 15.828 15.913 16.008 16.102 16.195 16.285 16.375 16.465 16.535 16.57 16.565 16.523 16.515 16.605 16.722 16.795 16.837 16.867 16.89 16.915 16.945 16.978 17.007 17.017 17.01 16.995 16.978 17.01 17.057 17.065 17.047 17.018 16.995 16.975 16.965 16.965 16.965 16.965 16.965 16.96 16.953 16.947 16.93 16.892 16.845 16.795 16.75 16.715 16.693 16.683 16.675 16.667 16.663 16.655 16.622 16.515 16.395 16.333 16.29 16.253 16.22 16.19 16.157 16.125 16.087 16 15.86 15.72 15.595 15.488 15.395 15.33 15.298 15.273 15.24 15.197 15.145 15.09 15.063 15.055 15.032 14.992 14.942 14.887 14.827 14.76 14.645 14.485 14.325 14.172 14.022 13.872 13.725 13.573 13.43 13.338
15.61 15.567 15.545 15.565 15.6 15.64 15.602 15.488 15.388 15.305 15.22 15.135 15.06 14.995 14.927 14.847 14.765 14.685 14.615 14.552 14.488 14.433 14.395 14.373 14.358 14.343 14.32 14.282 14.235 14.183 14.238 14.4 14.545 14.6 14.545 14.462 14.398 14.36 14.343 14.328 14.31 14.295 14.278 14.245 14.21 14.183 14.163 14.163 14.218 14.315 14.357 14.342 14.33 14.318 14.335 14.407 14.487 14.53 14.55 14.565 14.58 14.595 14.623 14.67 14.723 14.773 14.82 14.883 14.962 15.05 15.137 15.222 15.302 15.37 15.377 15.343 15.333 15.307 15.248 15.22 15.23 15.237 15.242 15.245 15.24 15.23 15.255 15.31 15.363 15.42 15.475 15.492 15.48 15.475 15.515 15.592 15.652 15.675 15.67 15.66 15.668 15.708 15.765 15.83 15.913 16.01 16.105 16.198 16.29 16.38 16.47 16.56 16.65 16.717 16.725 16.687 16.643 16.64 16.7 16.77 16.823 16.863 16.888 16.905 16.93 16.962 16.98 16.98 16.975 16.963 16.96 17.01 17.09 17.127 17.115 17.088 17.065 17.045 17.035 17.035 17.035 17.035 17.032 17.027 17.02 17.012 16.995 16.955 16.905 16.855 16.81 16.768 16.73 16.71 16.7 16.695 16.69 16.67 16.6 16.495 16.415 16.36 16.315 16.275 16.238 16.202 16.165 16.13 16.08 15.975 15.83 15.683 15.54 15.408 15.323 15.308 15.312 15.295 15.26 15.22 15.172 15.123 15.095 15.07 15.02 14.957 14.902 14.855 14.805 14.747 14.635 14.48 14.333 14.19 14.047 13.902 13.755 13.607 13.46 13.358
15.58 15.55 15.54 15.572 15.62 15.667 15.632 15.505 15.392 15.31 15.225 15.14 15.057 14.98 14.905 14.82 14.735 14.655 14.583 14.515 14.45 14.395 14.36 14.345 14.338 14.33 14.307 14.27 14.228 14.19 14.255 14.415 14.575 14.662 14.587 14.453 14.378 14.345 14.328 14.315 14.305 14.303 14.292 14.258 14.218 14.18 14.148 14.165 14.245 14.342 14.402 14.412 14.405 14.398 14.418 14.477 14.537 14.563 14.57 14.578 14.585 14.595 14.628 14.688 14.75 14.813 14.865 14.923 15.007 15.1 15.187 15.275 15.362 15.447 15.485 15.48 15.497 15.487 15.402 15.32 15.3 15.31 15.31 15.308 15.308 15.293 15.305 15.355 15.408 15.463 15.515 15.537 15.533 15.53 15.57 15.65 15.727 15.777 15.782 15.77 15.763 15.78 15.833 15.91 16.005 16.105 16.202 16.295 16.385 16.475 16.565 16.652 16.73 16.795 16.815 16.787 16.755 16.725 16.735 16.785 16.835 16.878 16.903 16.915 16.93 16.95 16.953 16.943 16.935 16.928 16.94 17.003 17.097 17.17 17.185 17.16 17.135 17.115 17.105 17.105 17.105 17.102 17.095 17.087 17.077 17.065 17.045 17.005 16.957 16.912 16.867 16.822 16.78 16.748 16.73 16.722 16.707 16.67 16.59 16.505 16.445 16.39 16.345 16.305 16.262 16.217 16.175 16.135 16.07 15.955 15.815 15.673 15.535 15.408 15.34 15.34 15.342 15.32 15.28 15.237 15.192 15.145 15.1 15.045 14.977 14.91 14.855 14.81 14.765 14.72 14.627 14.492 14.355 14.215 14.072 13.925 13.778 13.635 13.495 13.388
15.512 15.485 15.467 15.482 15.527 15.58 15.545 15.427 15.342 15.275 15.19 15.105 15.025 14.947 14.867 14.783 14.703 14.638 14.575 14.505 14.438 14.38 14.345 14.33 14.323 14.317 14.305 14.278 14.243 14.218 14.27 14.41 14.567 14.647 14.582 14.445 14.358 14.333 14.32 14.315 14.318 14.325 14.317 14.285 14.242 14.198 14.17 14.198 14.265 14.343 14.42 14.457 14.455 14.458 14.483 14.525 14.58 14.615 14.62 14.62 14.62 14.635 14.683 14.753 14.828 14.9 14.943 14.968 15.025 15.11 15.2 15.29 15.382 15.49 15.562 15.575 15.58 15.57 15.517 15.437 15.388 15.385 15.39 15.392 15.387 15.363 15.365 15.413 15.47 15.525 15.572 15.59 15.585 15.6 15.655 15.735 15.813 15.872 15.9 15.897 15.883 15.878 15.92 16.008 16.105 16.203 16.297 16.39 16.48 16.57 16.655 16.727 16.785 16.84 16.865 16.845 16.813 16.805 16.838 16.878 16.915 16.953 16.973 16.975 16.98 16.993 16.995 16.985 16.973 16.963 16.97 17.025 17.115 17.202 17.235 17.212 17.19 17.17 17.162 17.162 17.16 17.157 17.145 17.127 17.112 17.1 17.08 17.04 16.995 16.952 16.91 16.87 16.832 16.797 16.768 16.742 16.71 16.662 16.597 16.53 16.468 16.41 16.362 16.315 16.265 16.215 16.165 16.115 16.062 15.965 15.83 15.703 15.585 15.483 15.425 15.412 15.39 15.34 15.29 15.245 15.182 15.112 15.057 15 14.932 14.865 14.808 14.763 14.718 14.677 14.615 14.505 14.37 14.232 14.095 13.953 13.808 13.665 13.535 13.433
15.415 15.385 15.355 15.34 15.355 15.395 15.36 15.278 15.247 15.202 15.12 15.038 14.968 14.9 14.822 14.74 14.678 14.64 14.59 14.523 14.455 14.395 14.355 14.33 14.313 14.303 14.3 14.297 14.285 14.265 14.283 14.388 14.522 14.572 14.517 14.408 14.338 14.33 14.33 14.33 14.335 14.345 14.342 14.312 14.268 14.225 14.22 14.26 14.31 14.363 14.428 14.482 14.5 14.515 14.545 14.578 14.62 14.665 14.685 14.685 14.693 14.728 14.79 14.86 14.933 15.007 15.047 15.048 15.06 15.11 15.19 15.283 15.383 15.515 15.617 15.632 15.63 15.62 15.575 15.518 15.48 15.478 15.49 15.485 15.46 15.43 15.423 15.463 15.527 15.585 15.627 15.643 15.653 15.698 15.77 15.847 15.912 15.96 16 16.025 16.022 16.01 16.05 16.143 16.232 16.31 16.39 16.48 16.572 16.655 16.72 16.775 16.828 16.882 16.915 16.903 16.883 16.905 16.952 16.993 17.03 17.067 17.095 17.093 17.078 17.083 17.092 17.095 17.087 17.073 17.068 17.095 17.165 17.24 17.26 17.24 17.22 17.203 17.2 17.205 17.202 17.2 17.185 17.16 17.143 17.13 17.11 17.07 17.02 16.97 16.93 16.895 16.86 16.833 16.805 16.76 16.71 16.665 16.61 16.547 16.483 16.425 16.375 16.323 16.268 16.215 16.16 16.105 16.067 15.992 15.875 15.768 15.665 15.57 15.515 15.49 15.43 15.348 15.287 15.227 15.117 15.018 14.977 14.94 14.885 14.82 14.76 14.715 14.675 14.638 14.595 14.505 14.373 14.248 14.125 13.987 13.84 13.695 13.575 13.485
15.32 15.285 15.255 15.23 15.215 15.223 15.198 15.155 15.147 15.12 15.055 14.98 14.915 14.852 14.78 14.715 14.678 14.65 14.602 14.54 14.477 14.418 14.375 14.342 14.31 14.29 14.285 14.292 14.3 14.297 14.298 14.363 14.452 14.477 14.425 14.353 14.335 14.342 14.345 14.348 14.355 14.365 14.365 14.337 14.295 14.263 14.278 14.33 14.382 14.428 14.468 14.515 14.55 14.575 14.605 14.638 14.673 14.715 14.745 14.758 14.788 14.84 14.903 14.97 15.04 15.112 15.147 15.143 15.14 15.153 15.195 15.275 15.395 15.555 15.682 15.705 15.688 15.67 15.633 15.598 15.585 15.587 15.582 15.56 15.53 15.498 15.478 15.51 15.58 15.642 15.683 15.71 15.753 15.813 15.885 15.952 16 16.04 16.082 16.125 16.152 16.157 16.2 16.282 16.352 16.41 16.483 16.575 16.667 16.735 16.778 16.823 16.873 16.925 16.965 16.97 16.98 17.025 17.07 17.108 17.145 17.18 17.222 17.23 17.195 17.178 17.18 17.19 17.195 17.187 17.187 17.202 17.238 17.28 17.285 17.265 17.245 17.23 17.23 17.24 17.245 17.242 17.227 17.202 17.18 17.16 17.135 17.095 17.04 16.983 16.94 16.91 16.885 16.868 16.842 16.787 16.72 16.67 16.622 16.562 16.5 16.445 16.395 16.345 16.29 16.235 16.182 16.128 16.085 16.025 15.94 15.852 15.755 15.66 15.6 15.545 15.447 15.348 15.27 15.165 15.008 14.905 14.88 14.855 14.82 14.77 14.715 14.67 14.635 14.602 14.567 14.5 14.393 14.285 14.167 14.023 13.873 13.733 13.62 13.535
15.278 15.203 15.158 15.133 15.108 15.1 15.075 15.035 15.02 15.007 14.972 14.912 14.852 14.8 14.75 14.712 14.685 14.657 14.615 14.555 14.492 14.43 14.387 14.355 14.315 14.285 14.273 14.275 14.285 14.297 14.305 14.333 14.368 14.378 14.35 14.325 14.34 14.355 14.363 14.37 14.38 14.39 14.39 14.365 14.328 14.313 14.343 14.397 14.452 14.505 14.545 14.585 14.633 14.67 14.698 14.725 14.753 14.783 14.81 14.843 14.895 14.955 15.015 15.08 15.15 15.217 15.245 15.24 15.24 15.238 15.243 15.293 15.425 15.605 15.745 15.78 15.752 15.73 15.713 15.702 15.697 15.68 15.652 15.625 15.595 15.562 15.535 15.56 15.628 15.695 15.753 15.805 15.865 15.925 15.987 16.04 16.08 16.117 16.157 16.2 16.24 16.272 16.325 16.39 16.445 16.503 16.578 16.672 16.762 16.822 16.858 16.895 16.935 16.978 17.02 17.053 17.09 17.14 17.185 17.222 17.258 17.293 17.345 17.367 17.335 17.3 17.283 17.282 17.285 17.277 17.28 17.295 17.307 17.317 17.312 17.295 17.275 17.26 17.26 17.27 17.28 17.282 17.27 17.245 17.217 17.19 17.16 17.12 17.065 17.005 16.963 16.945 16.935 16.925 16.89 16.822 16.745 16.677 16.627 16.577 16.52 16.465 16.415 16.365 16.31 16.255 16.205 16.15 16.102 16.05 15.98 15.902 15.817 15.735 15.66 15.57 15.458 15.345 15.218 15.053 14.885 14.8 14.78 14.758 14.732 14.702 14.667 14.633 14.6 14.57 14.537 14.492 14.42 14.327 14.21 14.062 13.91 13.77 13.657 13.565
15.24 15.133 15.073 15.048 15.045 15.06 15.02 14.943 14.883 14.848 14.827 14.787 14.74 14.725 14.715 14.687 14.66 14.632 14.59 14.527 14.462 14.4 14.365 14.35 14.322 14.288 14.263 14.258 14.265 14.28 14.315 14.338 14.33 14.32 14.313 14.32 14.34 14.357 14.38 14.4 14.41 14.42 14.42 14.395 14.363 14.365 14.405 14.46 14.517 14.575 14.625 14.678 14.742 14.795 14.825 14.848 14.87 14.89 14.905 14.943 15.005 15.065 15.125 15.188 15.255 15.32 15.345 15.34 15.34 15.335 15.34 15.378 15.49 15.667 15.802 15.83 15.805 15.798 15.8 15.795 15.78 15.742 15.703 15.675 15.645 15.618 15.603 15.635 15.705 15.78 15.85 15.908 15.967 16.03 16.075 16.103 16.128 16.15 16.178 16.215 16.255 16.305 16.377 16.46 16.532 16.595 16.673 16.77 16.857 16.915 16.95 16.985 17.02 17.055 17.093 17.135 17.185 17.232 17.282 17.332 17.372 17.408 17.457 17.495 17.48 17.44 17.4 17.363 17.34 17.325 17.323 17.337 17.35 17.35 17.337 17.32 17.303 17.29 17.29 17.3 17.307 17.307 17.295 17.27 17.242 17.215 17.185 17.15 17.1 17.04 17.003 16.992 16.987 16.967 16.91 16.83 16.747 16.672 16.62 16.585 16.548 16.493 16.435 16.383 16.328 16.275 16.225 16.17 16.118 16.06 15.988 15.915 15.845 15.77 15.687 15.595 15.49 15.367 15.2 15.003 14.833 14.73 14.69 14.67 14.648 14.625 14.612 14.6 14.575 14.545 14.515 14.48 14.43 14.355 14.237 14.09 13.945 13.808 13.67 13.55
15.155 15.053 14.998 14.998 15.05 15.072 15.01 14.915 14.815 14.733 14.675 14.63 14.618 14.655 14.667 14.635 14.608 14.58 14.532 14.465 14.4 14.34 14.31 14.31 14.302 14.282 14.257 14.243 14.248 14.303 14.367 14.377 14.36 14.335 14.32 14.323 14.335 14.353 14.385 14.425 14.445 14.455 14.452 14.428 14.405 14.418 14.463 14.52 14.58 14.635 14.692 14.765 14.842 14.91 14.955 14.982 15.005 15.002 15 15.045 15.112 15.175 15.235 15.293 15.355 15.42 15.445 15.44 15.445 15.458 15.483 15.52 15.593 15.74 15.852 15.863 15.855 15.865 15.877 15.875 15.85 15.795 15.745 15.715 15.688 15.68 15.703 15.75 15.82 15.897 15.96 16.008 16.063 16.125 16.162 16.175 16.185 16.193 16.205 16.228 16.26 16.32 16.413 16.518 16.615 16.69 16.77 16.87 16.952 17.005 17.04 17.072 17.105 17.14 17.175 17.218 17.267 17.31 17.36 17.422 17.48 17.52 17.563 17.615 17.62 17.577 17.517 17.438 17.378 17.353 17.35 17.362 17.382 17.382 17.363 17.345 17.328 17.318 17.32 17.327 17.33 17.325 17.307 17.283 17.257 17.23 17.2 17.17 17.132 17.083 17.048 17.03 17.007 16.965 16.887 16.8 16.715 16.645 16.61 16.608 16.612 16.573 16.505 16.44 16.375 16.313 16.25 16.193 16.135 16.07 16 15.93 15.857 15.775 15.698 15.625 15.535 15.415 15.245 15.055 14.885 14.74 14.638 14.59 14.57 14.553 14.553 14.562 14.552 14.525 14.495 14.46 14.42 14.365 14.257 14.118 13.988 13.857 13.703 13.545
15.07 14.97 14.95 15.008 15.085 15.082 14.997 14.902 14.805 14.705 14.61 14.55 14.555 14.605 14.62 14.588 14.555 14.527 14.477 14.405 14.338 14.278 14.25 14.25 14.25 14.247 14.237 14.228 14.273 14.377 14.425 14.41 14.395 14.372 14.353 14.34 14.338 14.35 14.385 14.435 14.475 14.495 14.487 14.468 14.463 14.475 14.515 14.572 14.625 14.673 14.738 14.827 14.917 15.002 15.075 15.117 15.125 15.088 15.083 15.145 15.215 15.282 15.345 15.4 15.457 15.52 15.545 15.55 15.575 15.61 15.645 15.68 15.725 15.825 15.902 15.91 15.923 15.94 15.955 15.955 15.917 15.845 15.788 15.758 15.753 15.785 15.833 15.878 15.94 16.012 16.067 16.113 16.163 16.22 16.257 16.27 16.28 16.3 16.333 16.368 16.41 16.478 16.575 16.67 16.75 16.82 16.893 16.977 17.047 17.092 17.125 17.155 17.185 17.22 17.258 17.3 17.347 17.39 17.433 17.493 17.565 17.625 17.67 17.737 17.762 17.705 17.622 17.527 17.443 17.388 17.373 17.375 17.407 17.427 17.398 17.373 17.355 17.345 17.35 17.352 17.347 17.34 17.32 17.295 17.273 17.245 17.215 17.185 17.155 17.12 17.08 17.04 16.992 16.937 16.86 16.765 16.68 16.633 16.635 16.663 16.695 16.687 16.627 16.553 16.48 16.403 16.32 16.243 16.163 16.088 16.02 15.942 15.858 15.775 15.703 15.635 15.56 15.457 15.305 15.135 14.978 14.82 14.665 14.548 14.493 14.48 14.49 14.507 14.515 14.502 14.475 14.44 14.397 14.347 14.265 14.157 14.04 13.912 13.765 13.593
15.043 14.923 14.965 15.06 15.112 15.072 14.982 14.888 14.792 14.695 14.613 14.565 14.553 14.573 14.575 14.545 14.513 14.478 14.422 14.35 14.278 14.218 14.195 14.195 14.198 14.2 14.2 14.233 14.355 14.455 14.457 14.442 14.425 14.407 14.39 14.373 14.36 14.36 14.388 14.435 14.485 14.522 14.527 14.523 14.527 14.533 14.56 14.607 14.65 14.703 14.78 14.875 14.97 15.065 15.157 15.22 15.212 15.155 15.16 15.23 15.3 15.37 15.435 15.492 15.55 15.61 15.645 15.67 15.707 15.745 15.782 15.817 15.855 15.915 15.96 15.975 15.995 16.015 16.032 16.027 15.975 15.898 15.838 15.825 15.863 15.92 15.97 16.01 16.065 16.125 16.173 16.22 16.27 16.323 16.368 16.4 16.433 16.48 16.537 16.595 16.655 16.715 16.787 16.86 16.917 16.975 17.035 17.087 17.12 17.15 17.19 17.23 17.267 17.302 17.34 17.38 17.423 17.467 17.51 17.555 17.622 17.705 17.772 17.855 17.877 17.795 17.692 17.592 17.495 17.423 17.395 17.383 17.428 17.49 17.468 17.418 17.388 17.375 17.375 17.37 17.36 17.35 17.332 17.31 17.29 17.268 17.24 17.21 17.18 17.147 17.1 17.04 16.98 16.92 16.845 16.753 16.678 16.663 16.695 16.73 16.765 16.785 16.745 16.665 16.585 16.5 16.412 16.317 16.21 16.113 16.03 15.945 15.855 15.775 15.708 15.643 15.577 15.492 15.367 15.222 15.072 14.915 14.753 14.59 14.463 14.42 14.433 14.445 14.46 14.468 14.45 14.41 14.357 14.3 14.23 14.147 14.052 13.95 13.822 13.657
15.183 15.005 15.023 15.12 15.135 15.06 14.97 14.875 14.78 14.695 14.638 14.605 14.583 14.58 14.58 14.56 14.52 14.45 14.368 14.295 14.225 14.18 14.163 14.155 14.16 14.165 14.173 14.265 14.425 14.49 14.475 14.46 14.44 14.427 14.42 14.407 14.393 14.383 14.403 14.448 14.495 14.547 14.575 14.577 14.58 14.58 14.598 14.635 14.675 14.733 14.815 14.907 15 15.095 15.19 15.257 15.255 15.205 15.215 15.285 15.355 15.422 15.485 15.545 15.605 15.66 15.702 15.74 15.775 15.81 15.847 15.882 15.935 15.997 16.025 16.035 16.055 16.075 16.097 16.082 16.015 15.945 15.908 15.918 15.965 16.022 16.075 16.122 16.182 16.243 16.29 16.34 16.393 16.445 16.495 16.547 16.605 16.662 16.717 16.775 16.832 16.877 16.915 16.965 17.025 17.085 17.14 17.165 17.145 17.153 17.205 17.255 17.302 17.352 17.41 17.46 17.5 17.545 17.59 17.6 17.623 17.697 17.782 17.857 17.882 17.82 17.71 17.605 17.518 17.463 17.435 17.418 17.465 17.557 17.562 17.495 17.438 17.413 17.408 17.403 17.395 17.37 17.345 17.335 17.32 17.3 17.275 17.245 17.21 17.167 17.115 17.05 16.983 16.92 16.875 16.815 16.743 16.735 16.773 16.807 16.837 16.85 16.822 16.752 16.665 16.575 16.487 16.387 16.262 16.138 16.038 15.95 15.863 15.788 15.728 15.67 15.605 15.517 15.4 15.27 15.135 14.992 14.845 14.685 14.53 14.438 14.42 14.43 14.443 14.455 14.425 14.36 14.3 14.237 14.167 14.09 14.01 13.937 13.855 13.712
15.365 15.203 15.13 15.16 15.137 15.05 14.96 14.865 14.778 14.715 14.675 14.645 14.62 14.61 14.617 14.6 14.53 14.42 14.313 14.235 14.185 14.17 14.158 14.14 14.135 14.135 14.175 14.297 14.435 14.485 14.472 14.457 14.44 14.43 14.43 14.432 14.427 14.413 14.428 14.47 14.523 14.59 14.625 14.625 14.623 14.62 14.633 14.665 14.713 14.773 14.84 14.92 15.01 15.102 15.19 15.252 15.275 15.245 15.25 15.322 15.392 15.455 15.517 15.577 15.632 15.68 15.72 15.757 15.792 15.828 15.863 15.92 16.013 16.092 16.11 16.1 16.108 16.128 16.145 16.112 16.05 16.015 16.015 16.033 16.058 16.093 16.138 16.19 16.277 16.367 16.423 16.478 16.535 16.59 16.633 16.678 16.733 16.788 16.845 16.902 16.95 16.985 17.013 17.048 17.1 17.16 17.215 17.22 17.153 17.13 17.18 17.232 17.285 17.368 17.465 17.532 17.58 17.625 17.665 17.64 17.59 17.623 17.707 17.765 17.8 17.787 17.7 17.61 17.555 17.518 17.485 17.47 17.52 17.617 17.622 17.542 17.488 17.468 17.465 17.462 17.44 17.385 17.35 17.352 17.35 17.337 17.312 17.277 17.235 17.185 17.127 17.06 16.985 16.928 16.92 16.91 16.848 16.823 16.857 16.887 16.895 16.88 16.855 16.812 16.74 16.652 16.56 16.445 16.302 16.16 16.05 15.965 15.89 15.825 15.768 15.71 15.632 15.53 15.41 15.283 15.157 15.03 14.897 14.757 14.642 14.55 14.478 14.46 14.47 14.465 14.402 14.31 14.238 14.172 14.102 14.028 13.958 13.908 13.87 13.757
15.44 15.345 15.25 15.187 15.122 15.038 14.95 14.86 14.79 14.745 14.713 14.688 14.663 14.637 14.59 14.512 14.435 14.355 14.26 14.188 14.168 14.17 14.16 14.14 14.123 14.118 14.183 14.302 14.417 14.477 14.47 14.455 14.443 14.435 14.435 14.442 14.45 14.445 14.455 14.495 14.563 14.64 14.675 14.672 14.667 14.663 14.668 14.7 14.763 14.832 14.89 14.95 15.025 15.11 15.182 15.235 15.277 15.273 15.285 15.357 15.425 15.485 15.55 15.607 15.655 15.7 15.737 15.773 15.808 15.848 15.908 16.005 16.12 16.195 16.205 16.185 16.173 16.183 16.18 16.148 16.128 16.133 16.148 16.165 16.183 16.198 16.22 16.253 16.355 16.485 16.56 16.62 16.68 16.735 16.777 16.815 16.86 16.915 16.972 17.022 17.06 17.09 17.12 17.15 17.185 17.235 17.29 17.275 17.175 17.123 17.155 17.208 17.28 17.398 17.512 17.592 17.657 17.707 17.73 17.687 17.603 17.578 17.63 17.68 17.71 17.727 17.697 17.645 17.608 17.573 17.535 17.523 17.575 17.645 17.627 17.565 17.54 17.535 17.532 17.51 17.455 17.385 17.348 17.35 17.358 17.365 17.345 17.3 17.255 17.202 17.137 17.062 16.983 16.935 16.94 16.957 16.937 16.918 16.935 16.94 16.922 16.897 16.872 16.845 16.8 16.727 16.625 16.49 16.335 16.183 16.068 15.993 15.93 15.87 15.81 15.742 15.652 15.542 15.42 15.295 15.17 15.04 14.918 14.798 14.7 14.632 14.567 14.515 14.5 14.467 14.377 14.275 14.183 14.11 14.04 13.975 13.93 13.9 13.88 13.795
15.472 15.39 15.305 15.212 15.12 15.03 14.943 14.87 14.82 14.78 14.75 14.73 14.705 14.675 14.54 14.348 14.263 14.238 14.205 14.178 14.17 14.17 14.16 14.148 14.14 14.138 14.185 14.285 14.4 14.47 14.47 14.455 14.445 14.44 14.44 14.445 14.455 14.463 14.483 14.535 14.615 14.695 14.725 14.718 14.712 14.705 14.705 14.745 14.82 14.895 14.955 15.005 15.058 15.12 15.175 15.218 15.262 15.288 15.323 15.39 15.455 15.515 15.578 15.63 15.673 15.715 15.752 15.788 15.828 15.895 15.998 16.112 16.227 16.295 16.295 16.275 16.255 16.25 16.245 16.24 16.25 16.265 16.282 16.3 16.317 16.33 16.343 16.36 16.448 16.59 16.69 16.757 16.822 16.88 16.922 16.955 16.993 17.042 17.095 17.137 17.17 17.197 17.225 17.255 17.283 17.318 17.357 17.32 17.208 17.128 17.13 17.195 17.305 17.442 17.555 17.64 17.72 17.785 17.792 17.733 17.645 17.575 17.565 17.603 17.645 17.685 17.712 17.7 17.663 17.628 17.59 17.575 17.608 17.645 17.638 17.618 17.61 17.602 17.58 17.525 17.455 17.385 17.345 17.348 17.368 17.395 17.38 17.325 17.275 17.215 17.137 17.055 16.98 16.948 16.96 16.98 16.99 16.99 16.985 16.965 16.94 16.915 16.888 16.86 16.832 16.782 16.67 16.512 16.347 16.19 16.08 16.017 15.962 15.905 15.845 15.765 15.665 15.555 15.432 15.307 15.18 15.055 14.955 14.84 14.708 14.635 14.605 14.56 14.522 14.465 14.36 14.253 14.15 14.06 13.993 13.95 13.922 13.897 13.872 13.807
15.495 15.41 15.325 15.23 15.133 15.04 14.96 14.903 14.86 14.82 14.79 14.77 14.745 14.72 14.555 14.283 14.16 14.158 14.188 14.22 14.22 14.21 14.198 14.193 14.198 14.2 14.213 14.273 14.38 14.457 14.467 14.455 14.448 14.445 14.445 14.448 14.455 14.49 14.553 14.62 14.698 14.777 14.792 14.768 14.76 14.75 14.755 14.805 14.885 14.955 15.002 15.045 15.092 15.138 15.18 15.22 15.265 15.31 15.36 15.425 15.49 15.553 15.612 15.658 15.693 15.73 15.768 15.808 15.868 15.963 16.077 16.192 16.307 16.37 16.365 16.345 16.335 16.35 16.365 16.37 16.383 16.398 16.415 16.435 16.452 16.465 16.48 16.503 16.565 16.688 16.8 16.875 16.942 16.995 17.035 17.075 17.117 17.165 17.21 17.245 17.272 17.297 17.325 17.355 17.382 17.41 17.44 17.392 17.258 17.138 17.118 17.21 17.355 17.5 17.61 17.698 17.785 17.862 17.87 17.803 17.718 17.638 17.58 17.575 17.618 17.67 17.72 17.742 17.72 17.685 17.65 17.628 17.64 17.668 17.677 17.675 17.672 17.657 17.608 17.535 17.465 17.393 17.353 17.365 17.398 17.43 17.417 17.36 17.295 17.217 17.133 17.048 16.983 16.965 16.98 17 17.012 17.007 17 16.985 16.96 16.935 16.905 16.875 16.84 16.782 16.66 16.49 16.325 16.175 16.075 16.02 15.97 15.915 15.855 15.777 15.677 15.567 15.447 15.32 15.195 15.09 15.01 14.882 14.713 14.62 14.59 14.56 14.525 14.465 14.373 14.265 14.158 14.035 13.94 13.902 13.877 13.852 13.825 13.747
15.515 15.43 15.345 15.25 15.155 15.075 15.01 14.953 14.903 14.863 14.833 14.81 14.785 14.76 14.605 14.303 14.145 14.165 14.223 14.285 14.307 14.298 14.283 14.273 14.273 14.277 14.273 14.285 14.363 14.445 14.465 14.455 14.45 14.45 14.45 14.455 14.493 14.583 14.675 14.74 14.808 14.885 14.89 14.835 14.81 14.8 14.813 14.87 14.95 15.012 15.045 15.075 15.118 15.162 15.205 15.245 15.293 15.35 15.41 15.47 15.53 15.595 15.655 15.695 15.723 15.748 15.783 15.843 15.925 16.023 16.133 16.247 16.36 16.42 16.415 16.413 16.44 16.487 16.512 16.51 16.518 16.53 16.545 16.568 16.59 16.605 16.623 16.653 16.698 16.793 16.9 16.972 17.025 17.057 17.095 17.145 17.195 17.252 17.3 17.332 17.36 17.385 17.415 17.442 17.467 17.495 17.53 17.535 17.43 17.278 17.22 17.298 17.455 17.61 17.725 17.815 17.9 17.965 17.97 17.915 17.84 17.765 17.688 17.625 17.618 17.658 17.71 17.752 17.765 17.745 17.713 17.69 17.695 17.715 17.725 17.725 17.725 17.717 17.67 17.595 17.525 17.47 17.425 17.408 17.43 17.462 17.455 17.397 17.317 17.223 17.13 17.043 16.99 16.988 17.005 17.022 17.022 17 16.992 16.995 16.977 16.952 16.922 16.88 16.822 16.742 16.61 16.445 16.293 16.158 16.065 16.01 15.96 15.902 15.84 15.772 15.685 15.58 15.46 15.335 15.23 15.15 15.065 14.915 14.725 14.613 14.575 14.545 14.512 14.47 14.4 14.302 14.192 14.025 13.88 13.825 13.793 13.767 13.74 13.627
15.52 15.45 15.363 15.273 15.195 15.13 15.067 15.005 14.95 14.91 14.88 14.852 14.825 14.8 14.652 14.338 14.16 14.195 14.265 14.335 14.385 14.392 14.377 14.365 14.355 14.352 14.347 14.338 14.368 14.435 14.465 14.458 14.455 14.458 14.465 14.505 14.603 14.722 14.807 14.865 14.925 14.995 15 14.93 14.878 14.855 14.873 14.933 15.01 15.067 15.095 15.12 15.15 15.188 15.23 15.278 15.338 15.403 15.465 15.523 15.578 15.638 15.695 15.733 15.755 15.775 15.818 15.895 15.985 16.078 16.185 16.3 16.407 16.472 16.495 16.53 16.585 16.642 16.667 16.66 16.655 16.66 16.677 16.702 16.725 16.743 16.768 16.805 16.845 16.913 16.997 17.055 17.085 17.105 17.138 17.185 17.243 17.312 17.367 17.402 17.435 17.465 17.492 17.518 17.545 17.575 17.613 17.667 17.67 17.612 17.568 17.573 17.64 17.763 17.885 17.967 18.037 18.08 18.072 18.032 17.975 17.902 17.822 17.738 17.673 17.66 17.698 17.745 17.782 17.795 17.78 17.762 17.758 17.767 17.775 17.775 17.778 17.782 17.757 17.7 17.65 17.625 17.57 17.493 17.473 17.497 17.492 17.43 17.34 17.238 17.135 17.043 17.003 17.015 17.035 17.04 17.02 16.99 16.97 16.982 16.99 16.96 16.912 16.85 16.78 16.695 16.565 16.413 16.27 16.143 16.055 16 15.947 15.885 15.82 15.755 15.68 15.587 15.475 15.37 15.29 15.22 15.115 14.945 14.75 14.613 14.555 14.525 14.495 14.462 14.417 14.337 14.205 13.995 13.83 13.763 13.713 13.68 13.637 13.523
15.502 15.46 15.388 15.313 15.25 15.188 15.123 15.06 15.003 14.958 14.925 14.895 14.868 14.842 14.7 14.403 14.23 14.26 14.328 14.393 14.455 14.48 14.467 14.455 14.44 14.427 14.422 14.415 14.413 14.443 14.467 14.468 14.475 14.488 14.525 14.618 14.745 14.855 14.927 14.987 15.047 15.107 15.107 15.043 14.978 14.925 14.935 15 15.073 15.122 15.145 15.17 15.195 15.223 15.265 15.323 15.39 15.458 15.523 15.593 15.663 15.733 15.79 15.82 15.84 15.868 15.92 15.993 16.068 16.145 16.24 16.35 16.46 16.54 16.59 16.645 16.707 16.77 16.797 16.792 16.787 16.787 16.805 16.83 16.85 16.877 16.915 16.955 16.995 17.04 17.085 17.115 17.135 17.155 17.183 17.23 17.3 17.375 17.43 17.465 17.5 17.537 17.567 17.595 17.625 17.653 17.693 17.753 17.82 17.87 17.885 17.882 17.89 17.945 18.03 18.1 18.16 18.187 18.167 18.132 18.092 18.035 17.96 17.875 17.788 17.72 17.703 17.733 17.78 17.815 17.822 17.815 17.812 17.817 17.82 17.822 17.827 17.83 17.822 17.805 17.795 17.785 17.727 17.63 17.555 17.538 17.525 17.457 17.358 17.255 17.16 17.083 17.043 17.045 17.055 17.04 17.01 16.983 16.955 16.97 17.002 16.97 16.9 16.828 16.755 16.663 16.533 16.39 16.25 16.128 16.045 15.99 15.932 15.865 15.798 15.732 15.665 15.587 15.5 15.417 15.345 15.272 15.147 14.962 14.77 14.615 14.54 14.508 14.475 14.445 14.415 14.355 14.192 13.955 13.79 13.71 13.648 13.6 13.538 13.453
15.467 15.447 15.417 15.37 15.31 15.248 15.183 15.12 15.065 15.018 14.975 14.94 14.913 14.885 14.752 14.51 14.36 14.368 14.43 14.49 14.545 14.552 14.512 14.482 14.467 14.452 14.447 14.45 14.447 14.463 14.485 14.498 14.515 14.548 14.628 14.75 14.877 14.932 14.962 15.037 15.105 15.162 15.182 15.157 15.107 15.04 15.038 15.103 15.16 15.195 15.218 15.245 15.273 15.3 15.35 15.42 15.488 15.555 15.63 15.715 15.8 15.882 15.937 15.96 15.983 16.013 16.068 16.137 16.2 16.263 16.333 16.42 16.528 16.622 16.672 16.705 16.758 16.822 16.855 16.852 16.857 16.872 16.892 16.915 16.948 16.997 17.045 17.085 17.125 17.142 17.145 17.16 17.18 17.2 17.225 17.273 17.342 17.417 17.48 17.522 17.56 17.6 17.637 17.67 17.7 17.728 17.773 17.84 17.915 17.975 18.01 18.045 18.075 18.087 18.122 18.19 18.257 18.28 18.257 18.227 18.192 18.152 18.095 18.015 17.925 17.832 17.75 17.73 17.767 17.805 17.822 17.825 17.827 17.832 17.84 17.847 17.85 17.852 17.855 17.86 17.867 17.865 17.822 17.745 17.665 17.607 17.56 17.483 17.388 17.295 17.215 17.165 17.125 17.088 17.065 17.04 17.013 16.99 16.97 16.988 17.022 17 16.935 16.863 16.787 16.68 16.525 16.37 16.23 16.113 16.035 15.977 15.915 15.845 15.775 15.702 15.622 15.55 15.485 15.412 15.34 15.247 15.095 14.905 14.725 14.598 14.54 14.505 14.47 14.44 14.41 14.34 14.155 13.933 13.778 13.675 13.603 13.54 13.47 13.405
15.428 15.415 15.417 15.412 15.37 15.31 15.248 15.188 15.145 15.102 15.05 15.005 14.965 14.927 14.817 14.65 14.528 14.503 14.553 14.61 14.647 14.62 14.548 14.488 14.45 14.428 14.425 14.44 14.463 14.498 14.53 14.55 14.575 14.635 14.745 14.875 14.982 14.95 14.92 15.005 15.082 15.152 15.202 15.222 15.215 15.182 15.185 15.232 15.27 15.295 15.32 15.35 15.38 15.408 15.463 15.547 15.625 15.697 15.78 15.872 15.96 16.037 16.085 16.105 16.128 16.158 16.213 16.285 16.352 16.417 16.473 16.53 16.613 16.712 16.767 16.775 16.798 16.838 16.865 16.875 16.893 16.92 16.945 16.975 17.033 17.105 17.16 17.2 17.225 17.205 17.183 17.195 17.218 17.245 17.273 17.303 17.35 17.42 17.495 17.56 17.61 17.65 17.69 17.727 17.763 17.808 17.865 17.933 18.008 18.075 18.12 18.147 18.16 18.153 18.175 18.242 18.31 18.337 18.322 18.297 18.267 18.235 18.197 18.127 18.03 17.927 17.818 17.745 17.75 17.787 17.807 17.81 17.81 17.818 17.835 17.85 17.855 17.858 17.86 17.865 17.872 17.875 17.845 17.787 17.73 17.665 17.6 17.525 17.44 17.355 17.29 17.26 17.23 17.17 17.1 17.058 17.033 17.01 17 17.017 17.042 17.042 16.997 16.925 16.842 16.72 16.55 16.37 16.213 16.098 16.022 15.96 15.89 15.807 15.725 15.64 15.553 15.485 15.427 15.36 15.275 15.147 14.975 14.793 14.655 14.585 14.548 14.513 14.48 14.453 14.427 14.312 14.11 13.938 13.793 13.663 13.568 13.495 13.423 13.358
15.398 15.38 15.385 15.405 15.407 15.37 15.313 15.268 15.237 15.195 15.14 15.09 15.04 14.987 14.907 14.81 14.71 14.653 14.677 14.732 14.74 14.682 14.607 14.532 14.465 14.43 14.433 14.46 14.505 14.552 14.585 14.613 14.658 14.74 14.865 14.997 15.045 14.925 14.865 14.953 15.04 15.125 15.195 15.24 15.267 15.285 15.31 15.347 15.377 15.403 15.43 15.46 15.49 15.515 15.57 15.657 15.742 15.83 15.922 16.022 16.117 16.19 16.23 16.25 16.27 16.303 16.36 16.43 16.5 16.57 16.625 16.67 16.728 16.81 16.867 16.88 16.882 16.883 16.895 16.92 16.945 16.97 17.005 17.06 17.135 17.212 17.272 17.305 17.297 17.25 17.22 17.233 17.263 17.302 17.332 17.345 17.363 17.408 17.48 17.56 17.632 17.687 17.73 17.78 17.85 17.938 18.01 18.063 18.118 18.177 18.22 18.23 18.222 18.208 18.228 18.285 18.34 18.372 18.367 18.342 18.315 18.285 18.255 18.197 18.1 17.992 17.88 17.768 17.735 17.772 17.79 17.792 17.795 17.803 17.82 17.84 17.855 17.862 17.865 17.87 17.88 17.887 17.86 17.803 17.745 17.683 17.63 17.575 17.5 17.425 17.38 17.36 17.337 17.282 17.193 17.115 17.063 17.03 17.025 17.04 17.06 17.075 17.052 16.987 16.887 16.75 16.587 16.4 16.213 16.078 15.99 15.912 15.827 15.732 15.64 15.553 15.48 15.425 15.372 15.3 15.182 15.03 14.858 14.715 14.64 14.595 14.555 14.52 14.493 14.472 14.432 14.29 14.108 13.962 13.818 13.673 13.545 13.455 13.383 13.31
15.378 15.36 15.373 15.4 15.417 15.412 15.385 15.36 15.332 15.287 15.227 15.165 15.102 15.04 14.985 14.927 14.852 14.785 14.775 14.8 14.772 14.697 14.622 14.547 14.478 14.48 14.54 14.57 14.58 14.605 14.645 14.695 14.758 14.85 14.982 15.12 15.087 14.878 14.81 14.9 15.008 15.145 15.248 15.29 15.323 15.36 15.4 15.44 15.475 15.507 15.54 15.567 15.595 15.62 15.673 15.755 15.84 15.935 16.037 16.142 16.24 16.307 16.342 16.37 16.397 16.435 16.492 16.555 16.617 16.682 16.74 16.792 16.85 16.915 16.96 16.967 16.952 16.938 16.948 16.972 16.998 17.028 17.082 17.16 17.24 17.317 17.377 17.387 17.347 17.29 17.263 17.283 17.323 17.367 17.395 17.403 17.408 17.423 17.465 17.543 17.638 17.723 17.793 17.883 18.002 18.122 18.205 18.237 18.252 18.27 18.282 18.28 18.267 18.255 18.27 18.315 18.365 18.407 18.412 18.385 18.355 18.325 18.292 18.247 18.165 18.057 17.942 17.808 17.738 17.757 17.775 17.778 17.78 17.785 17.8 17.82 17.84 17.86 17.872 17.88 17.89 17.9 17.877 17.82 17.76 17.7 17.648 17.602 17.552 17.5 17.46 17.43 17.402 17.36 17.287 17.202 17.125 17.065 17.045 17.06 17.077 17.092 17.095 17.042 16.922 16.777 16.622 16.442 16.245 16.073 15.938 15.83 15.735 15.64 15.55 15.473 15.415 15.368 15.325 15.235 15.08 14.913 14.773 14.695 14.652 14.608 14.565 14.535 14.515 14.5 14.432 14.288 14.132 13.987 13.842 13.697 13.553 13.433 13.348 13.27
15.365 15.353 15.38 15.425 15.443 15.448 15.45 15.442 15.407 15.35 15.28 15.205 15.135 15.08 15.037 14.985 14.925 14.852 14.81 14.797 14.747 14.673 14.598 14.523 14.498 14.583 14.712 14.77 14.748 14.723 14.75 14.813 14.873 14.953 15.065 15.182 15.097 14.835 14.773 14.905 15.073 15.27 15.38 15.383 15.4 15.438 15.477 15.52 15.56 15.592 15.627 15.662 15.69 15.715 15.765 15.845 15.93 16.028 16.132 16.23 16.312 16.37 16.407 16.442 16.487 16.54 16.587 16.637 16.692 16.75 16.81 16.872 16.937 17.005 17.037 17.022 16.995 16.983 17 17.025 17.048 17.078 17.137 17.222 17.305 17.382 17.435 17.43 17.382 17.325 17.308 17.34 17.385 17.435 17.465 17.473 17.48 17.495 17.535 17.615 17.715 17.815 17.9 17.983 18.1 18.237 18.322 18.335 18.325 18.312 18.305 18.302 18.295 18.285 18.295 18.335 18.385 18.41 18.425 18.422 18.39 18.36 18.327 18.29 18.222 18.122 18.005 17.865 17.755 17.74 17.76 17.763 17.765 17.77 17.785 17.805 17.825 17.853 17.875 17.887 17.9 17.91 17.89 17.835 17.777 17.72 17.663 17.613 17.572 17.532 17.49 17.452 17.42 17.387 17.335 17.262 17.187 17.113 17.073 17.078 17.093 17.11 17.125 17.07 16.937 16.792 16.647 16.485 16.297 16.108 15.928 15.773 15.65 15.55 15.468 15.415 15.398 15.377 15.312 15.177 15.003 14.843 14.75 14.707 14.665 14.62 14.575 14.548 14.532 14.52 14.445 14.3 14.15 14.005 13.86 13.712 13.567 13.433 13.333 13.255
15.355 15.345 15.378 15.44 15.48 15.492 15.497 15.49 15.445 15.375 15.3 15.225 15.168 15.13 15.09 15.035 14.965 14.87 14.813 14.785 14.725 14.65 14.575 14.533 14.588 14.72 14.847 14.925 14.94 14.907 14.91 14.965 15.002 15.048 15.13 15.215 15.117 14.883 14.848 15.02 15.23 15.44 15.53 15.495 15.485 15.513 15.553 15.595 15.627 15.645 15.68 15.735 15.777 15.805 15.853 15.933 16.02 16.12 16.22 16.297 16.36 16.412 16.453 16.495 16.57 16.642 16.675 16.708 16.758 16.815 16.875 16.938 17.005 17.085 17.117 17.078 17.038 17.033 17.052 17.075 17.092 17.11 17.163 17.247 17.327 17.372 17.395 17.422 17.407 17.358 17.355 17.4 17.455 17.517 17.555 17.568 17.585 17.625 17.695 17.78 17.87 17.965 18.04 18.085 18.153 18.265 18.34 18.342 18.328 18.315 18.313 18.315 18.312 18.305 18.315 18.355 18.377 18.343 18.36 18.425 18.425 18.395 18.362 18.325 18.272 18.187 18.065 17.923 17.788 17.733 17.743 17.747 17.75 17.755 17.77 17.79 17.815 17.85 17.875 17.89 17.907 17.92 17.902 17.85 17.793 17.737 17.68 17.623 17.573 17.53 17.49 17.458 17.43 17.4 17.36 17.297 17.225 17.155 17.11 17.1 17.108 17.125 17.127 17.057 16.925 16.782 16.645 16.507 16.347 16.165 15.975 15.788 15.618 15.5 15.455 15.458 15.465 15.42 15.292 15.123 14.963 14.833 14.745 14.705 14.675 14.632 14.588 14.55 14.53 14.515 14.437 14.297 14.152 14.007 13.86 13.71 13.568 13.443 13.35 13.275
15.345 15.338 15.373 15.44 15.5 15.532 15.542 15.52 15.46 15.392 15.32 15.255 15.215 15.185 15.142 15.077 14.987 14.883 14.815 14.767 14.7 14.628 14.573 14.603 14.712 14.832 14.912 14.955 15.015 15.06 15.085 15.115 15.125 15.145 15.207 15.267 15.18 15.06 15.108 15.253 15.42 15.6 15.67 15.62 15.583 15.59 15.63 15.662 15.677 15.683 15.715 15.78 15.845 15.89 15.938 16.018 16.112 16.207 16.287 16.345 16.4 16.455 16.503 16.573 16.68 16.755 16.777 16.795 16.828 16.88 16.94 17.005 17.085 17.18 17.215 17.148 17.083 17.083 17.105 17.122 17.135 17.145 17.19 17.267 17.312 17.302 17.305 17.372 17.41 17.395 17.415 17.473 17.543 17.615 17.657 17.678 17.718 17.788 17.87 17.952 18.035 18.12 18.185 18.222 18.257 18.31 18.347 18.345 18.333 18.32 18.318 18.322 18.325 18.323 18.337 18.347 18.305 18.23 18.24 18.352 18.43 18.43 18.397 18.36 18.317 18.247 18.125 17.98 17.84 17.748 17.728 17.73 17.733 17.738 17.75 17.775 17.81 17.85 17.875 17.89 17.91 17.925 17.912 17.867 17.81 17.752 17.697 17.64 17.582 17.532 17.493 17.465 17.44 17.41 17.38 17.332 17.265 17.198 17.155 17.14 17.133 17.137 17.115 17.022 16.892 16.755 16.623 16.5 16.37 16.212 16.03 15.843 15.683 15.58 15.56 15.572 15.522 15.4 15.238 15.08 14.953 14.84 14.733 14.68 14.672 14.645 14.602 14.56 14.53 14.5 14.415 14.282 14.145 14 13.85 13.705 13.57 13.46 13.38 13.305
15.335 15.33 15.368 15.435 15.502 15.557 15.58 15.545 15.475 15.407 15.345 15.3 15.27 15.24 15.19 15.107 15.005 14.898 14.813 14.745 14.675 14.61 14.613 14.702 14.807 14.887 14.925 14.94 15.008 15.132 15.222 15.245 15.243 15.245 15.275 15.312 15.29 15.305 15.407 15.515 15.627 15.745 15.785 15.745 15.7 15.683 15.7 15.713 15.715 15.718 15.75 15.815 15.888 15.953 16.015 16.103 16.197 16.275 16.335 16.388 16.445 16.5 16.56 16.652 16.767 16.84 16.867 16.892 16.915 16.948 17.005 17.085 17.18 17.28 17.315 17.228 17.138 17.133 17.152 17.165 17.175 17.185 17.218 17.252 17.243 17.215 17.228 17.303 17.385 17.438 17.495 17.565 17.64 17.715 17.765 17.808 17.877 17.96 18.037 18.112 18.187 18.235 18.257 18.285 18.315 18.345 18.355 18.345 18.335 18.325 18.32 18.325 18.33 18.332 18.337 18.308 18.243 18.19 18.208 18.298 18.388 18.437 18.432 18.395 18.357 18.297 18.18 18.032 17.888 17.773 17.728 17.723 17.72 17.72 17.735 17.77 17.81 17.85 17.875 17.89 17.902 17.905 17.895 17.86 17.805 17.745 17.69 17.635 17.575 17.525 17.493 17.467 17.442 17.415 17.387 17.347 17.285 17.222 17.192 17.182 17.168 17.16 17.107 16.99 16.863 16.735 16.608 16.485 16.363 16.23 16.085 15.947 15.842 15.76 15.697 15.625 15.502 15.35 15.198 15.07 14.96 14.847 14.733 14.655 14.64 14.64 14.615 14.575 14.537 14.49 14.395 14.263 14.127 13.988 13.845 13.71 13.583 13.483 13.41 13.338
15.325 15.323 15.363 15.43 15.497 15.557 15.58 15.545 15.477 15.405 15.353 15.325 15.307 15.287 15.23 15.135 15.035 14.933 14.833 14.743 14.658 14.623 14.683 14.777 14.857 14.905 14.92 14.93 14.988 15.185 15.357 15.385 15.372 15.343 15.34 15.37 15.41 15.477 15.56 15.65 15.75 15.837 15.86 15.83 15.798 15.785 15.788 15.783 15.778 15.773 15.81 15.89 15.97 16.05 16.133 16.218 16.29 16.35 16.408 16.465 16.523 16.568 16.613 16.688 16.79 16.87 16.91 16.945 16.975 17.015 17.09 17.185 17.285 17.385 17.432 17.34 17.21 17.18 17.198 17.21 17.223 17.238 17.26 17.268 17.253 17.24 17.253 17.32 17.425 17.53 17.618 17.69 17.76 17.845 17.903 17.948 18.025 18.1 18.17 18.24 18.287 18.277 18.263 18.285 18.315 18.345 18.355 18.345 18.335 18.325 18.317 18.317 18.323 18.34 18.342 18.305 18.263 18.258 18.3 18.36 18.42 18.465 18.457 18.415 18.377 18.315 18.195 18.05 17.925 17.833 17.778 17.753 17.743 17.738 17.753 17.788 17.823 17.85 17.86 17.862 17.862 17.855 17.845 17.82 17.772 17.715 17.658 17.603 17.55 17.513 17.487 17.462 17.437 17.41 17.377 17.335 17.277 17.22 17.2 17.205 17.197 17.185 17.117 16.99 16.865 16.745 16.618 16.49 16.368 16.245 16.12 16.015 15.93 15.84 15.735 15.6 15.455 15.318 15.193 15.08 14.97 14.858 14.745 14.643 14.603 14.617 14.607 14.57 14.53 14.477 14.38 14.248 14.113 13.98 13.85 13.72 13.608 13.533 13.47 13.403
15.315 15.315 15.358 15.425 15.48 15.507 15.512 15.497 15.455 15.39 15.34 15.32 15.312 15.3 15.262 15.185 15.088 14.99 14.888 14.785 14.698 14.68 14.743 14.825 14.885 14.907 14.913 14.92 14.97 15.265 15.527 15.525 15.485 15.428 15.408 15.443 15.498 15.563 15.63 15.705 15.79 15.88 15.91 15.89 15.89 15.91 15.92 15.91 15.898 15.875 15.918 16.032 16.135 16.225 16.31 16.37 16.41 16.458 16.515 16.57 16.615 16.645 16.67 16.71 16.788 16.872 16.922 16.958 17.008 17.09 17.193 17.295 17.393 17.495 17.562 17.5 17.36 17.283 17.273 17.28 17.295 17.315 17.335 17.353 17.365 17.37 17.373 17.42 17.535 17.672 17.775 17.845 17.938 18.083 18.145 18.113 18.143 18.215 18.285 18.337 18.337 18.295 18.275 18.29 18.315 18.345 18.355 18.345 18.332 18.317 18.305 18.303 18.313 18.352 18.377 18.345 18.328 18.36 18.415 18.475 18.522 18.522 18.478 18.428 18.385 18.31 18.193 18.08 17.998 17.933 17.87 17.82 17.798 17.793 17.805 17.832 17.852 17.852 17.833 17.81 17.798 17.792 17.782 17.765 17.732 17.68 17.623 17.573 17.535 17.508 17.483 17.457 17.43 17.397 17.362 17.317 17.262 17.208 17.185 17.2 17.21 17.205 17.14 17.018 16.895 16.777 16.653 16.52 16.393 16.267 16.133 16.003 15.9 15.807 15.69 15.553 15.428 15.32 15.212 15.1 14.99 14.867 14.735 14.625 14.583 14.59 14.58 14.547 14.51 14.465 14.372 14.24 14.108 13.98 13.855 13.73 13.645 13.602 13.557 13.5
15.308 15.305 15.347 15.397 15.415 15.412 15.41 15.41 15.4 15.365 15.325 15.305 15.292 15.275 15.26 15.227 15.152 15.055 14.958 14.873 14.81 14.778 14.803 14.862 14.892 14.9 14.907 14.913 14.953 15.342 15.677 15.627 15.565 15.5 15.48 15.528 15.592 15.657 15.722 15.785 15.853 15.93 15.975 15.993 16.025 16.062 16.075 16.06 16.035 15.998 16.035 16.18 16.322 16.42 16.482 16.517 16.545 16.577 16.62 16.66 16.69 16.715 16.74 16.765 16.808 16.878 16.935 16.99 17.078 17.185 17.295 17.4 17.503 17.615 17.685 17.672 17.582 17.483 17.43 17.398 17.39 17.405 17.425 17.445 17.465 17.485 17.495 17.525 17.645 17.817 17.935 18.043 18.212 18.415 18.487 18.382 18.303 18.33 18.392 18.405 18.362 18.31 18.29 18.303 18.32 18.345 18.355 18.342 18.325 18.305 18.288 18.285 18.315 18.377 18.412 18.403 18.42 18.473 18.527 18.577 18.59 18.555 18.502 18.448 18.397 18.33 18.243 18.167 18.102 18.037 17.975 17.913 17.865 17.848 17.86 17.877 17.872 17.85 17.815 17.778 17.745 17.728 17.718 17.705 17.685 17.642 17.593 17.553 17.525 17.503 17.477 17.45 17.417 17.382 17.347 17.3 17.245 17.193 17.168 17.18 17.202 17.217 17.162 17.047 16.93 16.812 16.695 16.56 16.42 16.287 16.147 16.003 15.878 15.77 15.653 15.535 15.432 15.335 15.232 15.115 14.982 14.835 14.698 14.613 14.573 14.563 14.55 14.52 14.487 14.45 14.365 14.235 14.108 13.982 13.855 13.748 13.69 13.662 13.632 13.59
15.307 15.29 15.305 15.317 15.313 15.315 15.32 15.32 15.32 15.315 15.302 15.288 15.268 15.245 15.23 15.22 15.19 15.125 15.042 14.97 14.907 14.86 14.84 14.843 14.855 14.867 14.885 14.9 14.965 15.347 15.7 15.697 15.632 15.568 15.555 15.607 15.67 15.732 15.795 15.855 15.917 15.977 16.04 16.107 16.17 16.217 16.225 16.195 16.155 16.113 16.14 16.287 16.46 16.565 16.602 16.62 16.642 16.662 16.685 16.712 16.742 16.772 16.8 16.827 16.855 16.903 16.973 17.065 17.175 17.285 17.395 17.502 17.615 17.732 17.795 17.805 17.772 17.702 17.635 17.568 17.535 17.548 17.57 17.588 17.605 17.625 17.643 17.668 17.778 17.967 18.118 18.265 18.452 18.635 18.7 18.615 18.512 18.472 18.47 18.437 18.38 18.323 18.303 18.318 18.33 18.348 18.353 18.335 18.315 18.298 18.28 18.285 18.338 18.41 18.46 18.493 18.535 18.587 18.64 18.66 18.627 18.575 18.525 18.475 18.42 18.36 18.3 18.242 18.185 18.127 18.072 18.015 17.955 17.913 17.902 17.895 17.87 17.84 17.805 17.765 17.725 17.695 17.678 17.66 17.64 17.61 17.575 17.548 17.525 17.505 17.475 17.438 17.403 17.368 17.33 17.282 17.23 17.18 17.153 17.16 17.177 17.19 17.137 17.03 16.927 16.825 16.725 16.602 16.447 16.292 16.142 15.99 15.852 15.738 15.635 15.535 15.432 15.33 15.227 15.097 14.938 14.783 14.675 14.615 14.565 14.54 14.522 14.49 14.46 14.425 14.352 14.235 14.11 13.985 13.86 13.778 13.742 13.717 13.69 13.66
15.272 15.242 15.23 15.228 15.223 15.23 15.255 15.27 15.27 15.275 15.28 15.275 15.258 15.235 15.218 15.205 15.192 15.152 15.08 15.005 14.943 14.9 14.858 14.818 14.795 14.803 14.85 14.908 14.998 15.308 15.65 15.737 15.695 15.63 15.62 15.665 15.72 15.78 15.842 15.905 15.962 16.015 16.083 16.17 16.257 16.322 16.335 16.302 16.257 16.215 16.218 16.325 16.49 16.607 16.652 16.665 16.68 16.695 16.71 16.733 16.762 16.795 16.827 16.86 16.9 16.973 17.058 17.15 17.26 17.37 17.48 17.59 17.705 17.822 17.885 17.897 17.907 17.875 17.805 17.75 17.755 17.8 17.828 17.843 17.858 17.875 17.9 17.93 17.993 18.14 18.305 18.437 18.57 18.7 18.737 18.685 18.635 18.582 18.532 18.483 18.425 18.368 18.348 18.363 18.375 18.39 18.395 18.38 18.363 18.35 18.335 18.343 18.395 18.465 18.53 18.587 18.642 18.695 18.727 18.71 18.658 18.605 18.555 18.507 18.445 18.375 18.32 18.27 18.22 18.17 18.12 18.07 18.023 17.983 17.933 17.885 17.855 17.825 17.805 17.792 17.77 17.74 17.713 17.688 17.665 17.645 17.625 17.605 17.585 17.53 17.465 17.425 17.39 17.355 17.315 17.267 17.215 17.168 17.133 17.125 17.127 17.122 17.057 16.945 16.85 16.762 16.675 16.565 16.407 16.235 16.075 15.922 15.8 15.707 15.617 15.517 15.413 15.31 15.2 15.06 14.903 14.763 14.668 14.61 14.56 14.528 14.503 14.473 14.448 14.41 14.34 14.237 14.117 13.99 13.87 13.8 13.772 13.747 13.72 13.695
15.198 15.168 15.153 15.15 15.148 15.153 15.19 15.235 15.25 15.253 15.257 15.26 15.255 15.24 15.223 15.207 15.182 15.132 15.06 14.998 14.963 14.935 14.895 14.843 14.805 14.823 14.898 14.985 15.063 15.32 15.62 15.722 15.732 15.69 15.68 15.72 15.768 15.825 15.887 15.95 16 16.048 16.118 16.202 16.285 16.355 16.385 16.375 16.342 16.3 16.283 16.33 16.453 16.585 16.657 16.682 16.698 16.712 16.73 16.748 16.77 16.8 16.833 16.883 16.968 17.092 17.185 17.243 17.335 17.445 17.555 17.663 17.773 17.89 17.96 17.983 18.015 18.007 17.958 17.958 18.03 18.107 18.142 18.16 18.18 18.21 18.253 18.287 18.31 18.37 18.48 18.597 18.695 18.762 18.767 18.723 18.678 18.628 18.595 18.562 18.505 18.458 18.443 18.45 18.463 18.48 18.49 18.482 18.47 18.46 18.448 18.45 18.485 18.545 18.61 18.67 18.727 18.775 18.782 18.743 18.693 18.645 18.595 18.54 18.465 18.388 18.33 18.28 18.23 18.18 18.14 18.113 18.093 18.067 17.975 17.875 17.833 17.8 17.798 17.817 17.825 17.817 17.8 17.78 17.762 17.747 17.732 17.715 17.665 17.545 17.45 17.417 17.382 17.347 17.305 17.25 17.195 17.147 17.103 17.07 17.055 17.045 16.975 16.85 16.74 16.648 16.56 16.445 16.292 16.125 15.963 15.83 15.743 15.67 15.587 15.492 15.39 15.29 15.17 15.023 14.883 14.763 14.665 14.603 14.57 14.553 14.523 14.488 14.457 14.402 14.32 14.225 14.12 14 13.88 13.805 13.77 13.742 13.717 13.692
15.135 15.093 15.075 15.07 15.073 15.08 15.11 15.167 15.215 15.23 15.235 15.24 15.242 15.24 15.227 15.205 15.165 15.11 15.053 15.015 14.995 14.972 14.935 14.895 14.898 14.945 15.023 15.102 15.17 15.365 15.582 15.67 15.72 15.73 15.743 15.785 15.828 15.875 15.93 15.987 16.025 16.073 16.15 16.225 16.295 16.36 16.397 16.41 16.407 16.38 16.37 16.393 16.45 16.558 16.645 16.69 16.715 16.73 16.747 16.763 16.783 16.81 16.863 16.96 17.092 17.232 17.327 17.375 17.433 17.523 17.63 17.737 17.843 17.952 18.032 18.072 18.112 18.137 18.16 18.23 18.33 18.415 18.462 18.49 18.525 18.568 18.615 18.65 18.655 18.615 18.64 18.745 18.802 18.82 18.812 18.777 18.727 18.67 18.645 18.637 18.595 18.56 18.555 18.555 18.563 18.577 18.587 18.585 18.577 18.57 18.56 18.568 18.593 18.633 18.69 18.747 18.795 18.832 18.832 18.785 18.73 18.68 18.63 18.567 18.483 18.4 18.34 18.293 18.255 18.228 18.213 18.208 18.202 18.172 18.052 17.898 17.813 17.778 17.778 17.802 17.822 17.822 17.825 17.832 17.83 17.83 17.83 17.795 17.682 17.53 17.44 17.41 17.375 17.34 17.292 17.23 17.173 17.12 17.07 17.02 16.983 16.965 16.895 16.765 16.64 16.535 16.44 16.315 16.163 16.005 15.865 15.768 15.7 15.63 15.55 15.462 15.367 15.267 15.14 15 14.88 14.77 14.668 14.6 14.6 14.627 14.602 14.53 14.457 14.38 14.288 14.193 14.1 14 13.89 13.81 13.768 13.733 13.703 13.677
15.095 15.023 14.998 14.995 15 15.008 15.03 15.09 15.165 15.205 15.212 15.217 15.222 15.227 15.23 15.207 15.163 15.115 15.075 15.05 15.03 15.01 14.988 14.988 15.025 15.077 15.145 15.215 15.28 15.407 15.54 15.615 15.685 15.745 15.795 15.842 15.885 15.927 15.975 16.018 16.043 16.09 16.165 16.232 16.3 16.365 16.405 16.425 16.44 16.44 16.45 16.477 16.505 16.56 16.628 16.685 16.727 16.75 16.768 16.785 16.805 16.838 16.923 17.052 17.185 17.302 17.392 17.46 17.52 17.597 17.7 17.807 17.912 18.02 18.105 18.147 18.175 18.212 18.295 18.415 18.535 18.647 18.74 18.815 18.88 18.932 18.977 18.97 18.882 18.77 18.773 18.845 18.86 18.862 18.852 18.82 18.77 18.713 18.688 18.692 18.68 18.665 18.665 18.667 18.672 18.678 18.685 18.685 18.68 18.675 18.67 18.682 18.707 18.735 18.772 18.815 18.85 18.885 18.885 18.835 18.775 18.717 18.662 18.59 18.497 18.415 18.367 18.345 18.332 18.33 18.327 18.322 18.32 18.277 18.145 17.965 17.823 17.76 17.76 17.767 17.747 17.723 17.75 17.797 17.815 17.827 17.842 17.787 17.647 17.505 17.425 17.397 17.367 17.33 17.278 17.215 17.158 17.103 17.048 16.99 16.935 16.895 16.815 16.685 16.555 16.433 16.318 16.195 16.063 15.928 15.815 15.733 15.663 15.59 15.51 15.425 15.338 15.24 15.12 15 14.89 14.78 14.67 14.615 14.65 14.697 14.647 14.525 14.432 14.355 14.263 14.168 14.075 13.982 13.88 13.802 13.765 13.73 13.692 13.652
15.068 14.968 14.925 14.928 14.935 14.943 14.963 15.028 15.117 15.172 15.185 15.19 15.198 15.205 15.22 15.227 15.202 15.16 15.125 15.1 15.078 15.048 15.04 15.072 15.117 15.162 15.22 15.287 15.355 15.435 15.52 15.6 15.68 15.762 15.832 15.882 15.927 15.973 16.033 16.07 16.08 16.108 16.16 16.23 16.3 16.365 16.41 16.44 16.462 16.478 16.5 16.53 16.56 16.59 16.635 16.693 16.74 16.772 16.798 16.82 16.84 16.88 16.975 17.1 17.207 17.297 17.38 17.462 17.545 17.635 17.742 17.852 17.96 18.07 18.147 18.172 18.182 18.205 18.29 18.43 18.557 18.667 18.83 18.99 19.08 19.157 19.207 19.142 18.97 18.86 18.882 18.92 18.917 18.892 18.84 18.805 18.782 18.747 18.722 18.715 18.727 18.75 18.762 18.767 18.772 18.777 18.78 18.775 18.767 18.76 18.76 18.772 18.792 18.815 18.84 18.87 18.903 18.932 18.902 18.83 18.772 18.717 18.665 18.59 18.492 18.41 18.372 18.37 18.37 18.37 18.367 18.365 18.362 18.312 18.182 18.02 17.865 17.758 17.712 17.672 17.608 17.58 17.635 17.71 17.75 17.765 17.772 17.707 17.575 17.465 17.403 17.372 17.347 17.317 17.277 17.225 17.17 17.115 17.055 16.995 16.93 16.86 16.76 16.63 16.5 16.365 16.245 16.14 16.025 15.908 15.805 15.718 15.638 15.557 15.48 15.403 15.32 15.23 15.125 15.015 14.905 14.792 14.675 14.603 14.617 14.66 14.585 14.453 14.387 14.327 14.245 14.152 14.057 13.96 13.847 13.745 13.695 13.677 13.66 13.612
15.03 14.93 14.878 14.873 14.88 14.89 14.91 14.978 15.075 15.137 15.157 15.163 15.173 15.188 15.205 15.232 15.245 15.222 15.188 15.16 15.13 15.075 15.06 15.102 15.147 15.19 15.245 15.315 15.382 15.453 15.543 15.63 15.703 15.785 15.865 15.92 15.965 16.028 16.112 16.147 16.14 16.148 16.168 16.22 16.29 16.352 16.4 16.442 16.48 16.507 16.532 16.56 16.587 16.618 16.663 16.715 16.762 16.8 16.83 16.857 16.88 16.92 17.007 17.112 17.202 17.285 17.365 17.45 17.543 17.645 17.76 17.877 17.99 18.097 18.16 18.167 18.168 18.178 18.253 18.387 18.472 18.533 18.737 18.99 19.127 19.222 19.257 19.18 19.02 18.94 18.965 18.962 18.925 18.855 18.773 18.738 18.737 18.73 18.712 18.71 18.748 18.8 18.832 18.842 18.85 18.86 18.86 18.85 18.84 18.83 18.83 18.84 18.853 18.87 18.893 18.923 18.955 18.972 18.907 18.785 18.705 18.657 18.617 18.557 18.465 18.383 18.34 18.33 18.33 18.33 18.33 18.327 18.312 18.255 18.137 17.992 17.857 17.742 17.625 17.525 17.453 17.443 17.515 17.6 17.67 17.705 17.697 17.617 17.505 17.43 17.375 17.338 17.313 17.29 17.267 17.237 17.197 17.145 17.085 17.015 16.93 16.837 16.727 16.6 16.465 16.318 16.203 16.12 16.015 15.9 15.8 15.71 15.617 15.523 15.45 15.392 15.322 15.242 15.147 15.04 14.925 14.8 14.68 14.578 14.525 14.542 14.487 14.383 14.335 14.287 14.22 14.135 14.042 13.935 13.805 13.675 13.58 13.55 13.555 13.535
14.98 14.905 14.865 14.84 14.833 14.84 14.858 14.925 15.03 15.105 15.132 15.138 15.15 15.17 15.19 15.218 15.25 15.265 15.247 15.215 15.165 15.088 15.063 15.105 15.157 15.207 15.263 15.33 15.398 15.468 15.577 15.68 15.743 15.813 15.89 15.955 16.018 16.123 16.215 16.227 16.208 16.205 16.21 16.228 16.28 16.338 16.383 16.433 16.485 16.525 16.555 16.585 16.612 16.642 16.685 16.735 16.785 16.825 16.855 16.885 16.913 16.95 17.02 17.105 17.188 17.27 17.355 17.45 17.555 17.665 17.78 17.9 18.015 18.122 18.175 18.168 18.158 18.158 18.22 18.315 18.337 18.378 18.6 18.917 19.142 19.247 19.247 19.182 19.072 19.01 18.997 18.94 18.86 18.773 18.695 18.663 18.665 18.665 18.675 18.713 18.77 18.83 18.88 18.907 18.92 18.932 18.932 18.917 18.905 18.898 18.9 18.91 18.92 18.933 18.95 18.977 19 19.005 18.93 18.775 18.65 18.585 18.547 18.505 18.432 18.358 18.315 18.295 18.29 18.29 18.29 18.275 18.24 18.175 18.06 17.93 17.818 17.715 17.578 17.425 17.315 17.31 17.393 17.478 17.565 17.63 17.622 17.548 17.47 17.41 17.35 17.305 17.278 17.255 17.235 17.217 17.197 17.16 17.095 17.005 16.905 16.805 16.692 16.56 16.415 16.263 16.148 16.075 15.992 15.89 15.79 15.692 15.582 15.475 15.403 15.357 15.305 15.245 15.167 15.06 14.932 14.798 14.68 14.583 14.493 14.45 14.4 14.328 14.283 14.238 14.185 14.112 14.017 13.895 13.755 13.625 13.505 13.425 13.405 13.402
14.945 14.895 14.863 14.828 14.803 14.793 14.8 14.865 14.977 15.07 15.107 15.118 15.135 15.155 15.175 15.203 15.235 15.267 15.285 15.255 15.183 15.098 15.065 15.103 15.157 15.212 15.275 15.345 15.413 15.483 15.605 15.73 15.8 15.86 15.925 16.003 16.108 16.247 16.325 16.312 16.285 16.27 16.27 16.27 16.293 16.34 16.395 16.455 16.512 16.542 16.563 16.595 16.627 16.655 16.698 16.755 16.805 16.845 16.875 16.905 16.935 16.968 17.025 17.105 17.185 17.268 17.363 17.47 17.58 17.688 17.8 17.918 18.033 18.142 18.187 18.173 18.158 18.145 18.168 18.19 18.173 18.225 18.458 18.787 19.085 19.22 19.192 19.135 19.077 19.025 18.955 18.865 18.775 18.688 18.615 18.588 18.592 18.598 18.64 18.717 18.785 18.845 18.905 18.95 18.975 18.997 19 18.982 18.97 18.965 18.97 18.977 18.985 18.995 19.007 19.022 19.032 19.032 18.95 18.79 18.635 18.525 18.473 18.44 18.392 18.333 18.29 18.263 18.25 18.25 18.24 18.208 18.165 18.105 18.005 17.9 17.805 17.708 17.593 17.443 17.298 17.24 17.285 17.37 17.458 17.537 17.557 17.51 17.45 17.39 17.33 17.275 17.24 17.223 17.21 17.2 17.192 17.16 17.08 16.98 16.88 16.777 16.657 16.512 16.36 16.213 16.1 16.025 15.955 15.87 15.77 15.66 15.54 15.428 15.35 15.305 15.26 15.215 15.145 15.032 14.902 14.783 14.68 14.582 14.487 14.403 14.345 14.303 14.255 14.208 14.16 14.092 13.982 13.845 13.705 13.575 13.455 13.343 13.27 13.248
14.973 14.94 14.895 14.85 14.808 14.768 14.753 14.81 14.923 15.03 15.087 15.105 15.125 15.145 15.165 15.19 15.22 15.255 15.292 15.287 15.222 15.135 15.088 15.105 15.153 15.208 15.278 15.357 15.427 15.498 15.62 15.767 15.86 15.92 15.983 16.068 16.205 16.36 16.42 16.395 16.365 16.342 16.335 16.335 16.34 16.375 16.44 16.505 16.547 16.555 16.565 16.598 16.63 16.65 16.697 16.77 16.825 16.865 16.895 16.925 16.952 16.98 17.035 17.118 17.2 17.283 17.383 17.5 17.615 17.72 17.828 17.943 18.057 18.16 18.21 18.21 18.198 18.183 18.168 18.148 18.115 18.123 18.28 18.57 18.895 19.047 19.005 18.97 19.002 18.985 18.88 18.785 18.695 18.605 18.538 18.515 18.52 18.533 18.593 18.697 18.787 18.855 18.912 18.96 18.997 19.025 19.027 19.012 19 18.997 19.012 19.027 19.035 19.045 19.052 19.047 19.045 19.04 18.957 18.802 18.638 18.508 18.44 18.4 18.36 18.315 18.273 18.238 18.215 18.205 18.193 18.175 18.158 18.118 18.035 17.94 17.845 17.745 17.65 17.55 17.425 17.313 17.273 17.303 17.373 17.455 17.49 17.46 17.41 17.36 17.305 17.248 17.22 17.218 17.215 17.215 17.2 17.145 17.057 16.96 16.855 16.74 16.612 16.467 16.315 16.183 16.085 16.008 15.935 15.857 15.747 15.618 15.498 15.383 15.3 15.255 15.21 15.155 15.067 14.95 14.843 14.76 14.672 14.57 14.472 14.375 14.338 14.33 14.285 14.235 14.185 14.095 13.953 13.8 13.658 13.53 13.413 13.3 13.205 13.16
15.048 15.035 14.988 14.933 14.878 14.82 14.778 14.8 14.89 15.005 15.077 15.098 15.113 15.13 15.15 15.175 15.208 15.25 15.292 15.305 15.27 15.195 15.14 15.135 15.158 15.203 15.273 15.36 15.44 15.51 15.633 15.8 15.915 15.98 16.053 16.145 16.278 16.427 16.482 16.457 16.43 16.4 16.392 16.402 16.408 16.435 16.493 16.547 16.567 16.558 16.568 16.602 16.627 16.64 16.67 16.752 16.84 16.885 16.915 16.942 16.965 16.993 17.05 17.132 17.215 17.298 17.4 17.525 17.647 17.757 17.865 17.977 18.082 18.172 18.235 18.262 18.272 18.267 18.247 18.212 18.158 18.113 18.143 18.318 18.615 18.762 18.735 18.775 18.902 18.937 18.83 18.713 18.615 18.525 18.46 18.443 18.453 18.47 18.538 18.657 18.772 18.857 18.917 18.965 19 19.02 19.02 19.005 18.988 18.985 19.015 19.055 19.075 19.085 19.082 19.058 19.042 19.022 18.937 18.8 18.645 18.525 18.458 18.41 18.375 18.34 18.3 18.26 18.235 18.225 18.225 18.23 18.227 18.197 18.122 18.03 17.932 17.82 17.725 17.665 17.582 17.47 17.38 17.333 17.33 17.383 17.412 17.383 17.348 17.31 17.26 17.225 17.233 17.245 17.245 17.237 17.195 17.12 17.035 16.935 16.817 16.69 16.56 16.423 16.285 16.178 16.092 16.01 15.933 15.857 15.742 15.59 15.455 15.338 15.253 15.202 15.15 15.075 14.97 14.865 14.8 14.75 14.662 14.553 14.448 14.348 14.328 14.36 14.34 14.29 14.227 14.102 13.933 13.77 13.623 13.5 13.393 13.293 13.203 13.148
15.117 15.13 15.102 15.047 14.985 14.913 14.868 14.875 14.923 15.003 15.072 15.1 15.108 15.118 15.135 15.16 15.203 15.26 15.297 15.302 15.29 15.245 15.2 15.19 15.193 15.21 15.268 15.358 15.447 15.525 15.648 15.822 15.957 16.043 16.133 16.238 16.35 16.477 16.53 16.502 16.472 16.438 16.435 16.46 16.477 16.5 16.545 16.577 16.575 16.56 16.57 16.602 16.62 16.627 16.635 16.705 16.827 16.905 16.937 16.96 16.98 17.008 17.065 17.145 17.228 17.315 17.42 17.545 17.67 17.79 17.9 18 18.09 18.175 18.24 18.28 18.315 18.335 18.317 18.26 18.195 18.153 18.13 18.168 18.355 18.487 18.525 18.65 18.807 18.887 18.815 18.673 18.548 18.445 18.383 18.373 18.39 18.413 18.488 18.612 18.737 18.847 18.925 18.97 18.995 19.01 19.01 18.995 18.975 18.965 18.995 19.052 19.097 19.12 19.107 19.065 19.04 18.997 18.897 18.78 18.648 18.545 18.493 18.458 18.432 18.4 18.363 18.335 18.325 18.325 18.327 18.33 18.315 18.272 18.207 18.12 18.007 17.88 17.785 17.742 17.702 17.62 17.53 17.46 17.395 17.368 17.35 17.318 17.29 17.255 17.22 17.22 17.25 17.27 17.272 17.242 17.175 17.095 17.01 16.902 16.775 16.645 16.515 16.383 16.268 16.18 16.097 16.015 15.932 15.855 15.75 15.595 15.435 15.298 15.205 15.142 15.072 14.983 14.888 14.823 14.79 14.747 14.657 14.543 14.43 14.325 14.303 14.36 14.38 14.345 14.252 14.095 13.92 13.753 13.608 13.495 13.395 13.298 13.203 13.143
15.177 15.205 15.2 15.145 15.067 14.995 14.973 14.992 15.015 15.048 15.09 15.115 15.123 15.13 15.145 15.17 15.215 15.275 15.302 15.298 15.292 15.277 15.263 15.26 15.26 15.26 15.29 15.363 15.45 15.535 15.663 15.838 15.997 16.118 16.22 16.33 16.435 16.537 16.575 16.542 16.507 16.475 16.475 16.505 16.532 16.555 16.582 16.592 16.577 16.563 16.573 16.597 16.607 16.613 16.62 16.655 16.768 16.902 16.965 16.985 17.005 17.035 17.093 17.168 17.248 17.335 17.443 17.568 17.693 17.82 17.93 18.015 18.095 18.177 18.24 18.28 18.317 18.355 18.35 18.29 18.233 18.198 18.172 18.15 18.19 18.27 18.38 18.537 18.695 18.815 18.785 18.645 18.507 18.38 18.31 18.31 18.33 18.36 18.443 18.568 18.693 18.817 18.917 18.965 18.985 19.002 19.002 18.985 18.965 18.948 18.97 19.03 19.09 19.137 19.132 19.08 19.035 18.965 18.858 18.758 18.655 18.58 18.545 18.52 18.495 18.465 18.442 18.435 18.435 18.43 18.417 18.407 18.382 18.332 18.272 18.185 18.065 17.935 17.845 17.807 17.782 17.74 17.675 17.6 17.52 17.435 17.355 17.295 17.248 17.213 17.208 17.23 17.26 17.288 17.29 17.25 17.19 17.107 16.997 16.875 16.745 16.618 16.485 16.353 16.245 16.162 16.085 16.007 15.927 15.85 15.755 15.61 15.44 15.278 15.155 15.07 14.988 14.905 14.845 14.813 14.79 14.745 14.652 14.538 14.425 14.315 14.29 14.35 14.4 14.382 14.257 14.077 13.895 13.725 13.603 13.507 13.405 13.305 13.205 13.143
15.21 15.24 15.245 15.197 15.117 15.058 15.055 15.08 15.1 15.12 15.14 15.155 15.165 15.178 15.198 15.225 15.26 15.298 15.313 15.305 15.3 15.3 15.325 15.35 15.35 15.35 15.363 15.408 15.48 15.565 15.698 15.873 16.055 16.205 16.313 16.42 16.52 16.577 16.58 16.557 16.535 16.513 16.515 16.548 16.582 16.607 16.62 16.608 16.58 16.565 16.573 16.588 16.593 16.605 16.625 16.653 16.74 16.895 17 17.03 17.05 17.095 17.165 17.235 17.31 17.393 17.488 17.6 17.725 17.855 17.962 18.043 18.118 18.197 18.248 18.275 18.31 18.342 18.35 18.312 18.267 18.237 18.205 18.167 18.133 18.148 18.24 18.375 18.527 18.665 18.662 18.535 18.405 18.298 18.258 18.265 18.278 18.31 18.4 18.535 18.67 18.8 18.907 18.96 18.978 18.995 19 18.985 18.965 18.945 18.968 19.03 19.09 19.145 19.142 19.087 19.035 18.965 18.873 18.783 18.698 18.638 18.605 18.58 18.547 18.515 18.5 18.487 18.475 18.46 18.44 18.425 18.397 18.35 18.29 18.197 18.08 17.957 17.857 17.807 17.782 17.77 17.75 17.695 17.615 17.522 17.43 17.343 17.265 17.23 17.248 17.28 17.313 17.348 17.355 17.325 17.255 17.135 16.992 16.858 16.73 16.6 16.46 16.328 16.218 16.128 16.052 15.977 15.902 15.825 15.725 15.595 15.442 15.275 15.123 15.013 14.925 14.86 14.83 14.81 14.787 14.74 14.647 14.532 14.418 14.323 14.313 14.367 14.407 14.367 14.222 14.035 13.845 13.68 13.59 13.52 13.418 13.315 13.22 13.155
15.223 15.25 15.25 15.21 15.145 15.088 15.09 15.127 15.157 15.18 15.2 15.215 15.23 15.253 15.28 15.31 15.34 15.36 15.358 15.338 15.325 15.325 15.37 15.432 15.45 15.453 15.465 15.495 15.548 15.625 15.755 15.933 16.125 16.29 16.407 16.505 16.56 16.555 16.537 16.53 16.528 16.54 16.57 16.607 16.635 16.65 16.67 16.67 16.633 16.59 16.58 16.598 16.615 16.64 16.673 16.718 16.79 16.913 17.035 17.092 17.12 17.183 17.265 17.338 17.415 17.495 17.575 17.665 17.773 17.895 18 18.08 18.16 18.242 18.28 18.278 18.298 18.33 18.34 18.322 18.287 18.245 18.2 18.147 18.105 18.1 18.135 18.205 18.325 18.47 18.477 18.35 18.258 18.23 18.24 18.25 18.255 18.293 18.398 18.543 18.68 18.805 18.905 18.955 18.972 18.987 18.995 18.987 18.97 18.955 18.983 19.047 19.11 19.15 19.132 19.085 19.045 19 18.935 18.85 18.765 18.703 18.667 18.63 18.565 18.513 18.49 18.467 18.445 18.428 18.415 18.405 18.385 18.342 18.277 18.18 18.06 17.94 17.823 17.74 17.713 17.74 17.757 17.722 17.667 17.597 17.515 17.428 17.355 17.328 17.348 17.383 17.42 17.457 17.467 17.41 17.28 17.125 16.975 16.84 16.712 16.572 16.43 16.305 16.195 16.098 16.018 15.943 15.867 15.772 15.652 15.535 15.41 15.262 15.108 14.985 14.895 14.833 14.81 14.795 14.775 14.73 14.637 14.52 14.4 14.335 14.357 14.385 14.362 14.287 14.15 13.97 13.78 13.628 13.56 13.517 13.432 13.328 13.24 13.178
15.245 15.257 15.25 15.21 15.162 15.113 15.11 15.155 15.198 15.23 15.258 15.28 15.305 15.335 15.365 15.395 15.425 15.447 15.437 15.403 15.378 15.363 15.4 15.487 15.542 15.56 15.575 15.6 15.633 15.69 15.818 16.003 16.197 16.37 16.492 16.547 16.535 16.5 16.483 16.495 16.53 16.582 16.637 16.667 16.675 16.678 16.705 16.747 16.745 16.698 16.67 16.675 16.688 16.71 16.75 16.808 16.875 16.96 17.075 17.155 17.2 17.28 17.365 17.44 17.522 17.605 17.685 17.765 17.85 17.948 18.043 18.125 18.21 18.297 18.332 18.313 18.303 18.32 18.33 18.32 18.287 18.225 18.165 18.113 18.078 18.08 18.1 18.123 18.178 18.285 18.298 18.218 18.2 18.22 18.237 18.25 18.265 18.315 18.43 18.567 18.687 18.8 18.897 18.947 18.965 18.982 18.987 18.982 18.972 18.965 18.998 19.062 19.125 19.15 19.125 19.09 19.055 19.02 18.98 18.915 18.835 18.77 18.72 18.65 18.555 18.485 18.453 18.433 18.418 18.405 18.395 18.385 18.372 18.337 18.265 18.16 18.04 17.917 17.793 17.685 17.665 17.732 17.755 17.715 17.675 17.63 17.575 17.52 17.475 17.453 17.465 17.5 17.532 17.542 17.515 17.412 17.257 17.105 16.955 16.815 16.68 16.535 16.4 16.285 16.175 16.07 15.983 15.907 15.822 15.702 15.57 15.455 15.34 15.215 15.083 14.965 14.87 14.803 14.775 14.755 14.73 14.692 14.612 14.502 14.39 14.35 14.362 14.327 14.26 14.175 14.05 13.89 13.71 13.573 13.52 13.492 13.435 13.345 13.265 13.205
15.285 15.273 15.25 15.21 15.17 15.133 15.143 15.198 15.25 15.3 15.333 15.348 15.37 15.4 15.432 15.467 15.5 15.527 15.517 15.475 15.435 15.398 15.423 15.517 15.607 15.66 15.685 15.71 15.738 15.775 15.893 16.083 16.275 16.445 16.53 16.52 16.482 16.458 16.46 16.5 16.56 16.62 16.675 16.7 16.702 16.705 16.728 16.785 16.832 16.835 16.812 16.792 16.78 16.783 16.825 16.897 16.97 17.04 17.128 17.208 17.283 17.377 17.465 17.545 17.625 17.705 17.785 17.865 17.945 18.023 18.103 18.183 18.263 18.35 18.385 18.365 18.34 18.325 18.32 18.31 18.29 18.227 18.145 18.08 18.048 18.055 18.078 18.1 18.123 18.173 18.195 18.19 18.208 18.223 18.238 18.253 18.285 18.348 18.45 18.57 18.682 18.795 18.892 18.942 18.958 18.975 18.98 18.975 18.97 18.97 19.007 19.07 19.13 19.157 19.14 19.108 19.073 19.04 19.007 18.962 18.897 18.827 18.745 18.645 18.545 18.463 18.42 18.405 18.395 18.385 18.375 18.365 18.355 18.327 18.252 18.14 18.017 17.89 17.763 17.663 17.668 17.737 17.745 17.705 17.67 17.643 17.623 17.607 17.59 17.572 17.575 17.582 17.572 17.545 17.487 17.375 17.225 17.078 16.935 16.793 16.645 16.5 16.375 16.265 16.155 16.045 15.95 15.867 15.76 15.622 15.49 15.375 15.263 15.153 15.05 14.948 14.85 14.773 14.725 14.692 14.658 14.622 14.562 14.47 14.378 14.327 14.285 14.215 14.145 14.063 13.94 13.79 13.63 13.518 13.478 13.453 13.42 13.362 13.295 13.235
15.337 15.308 15.27 15.23 15.193 15.17 15.213 15.297 15.363 15.412 15.43 15.42 15.428 15.453 15.48 15.512 15.547 15.575 15.562 15.515 15.467 15.423 15.435 15.523 15.625 15.722 15.805 15.855 15.885 15.915 16.023 16.21 16.385 16.482 16.48 16.44 16.415 16.423 16.46 16.51 16.565 16.622 16.677 16.712 16.722 16.725 16.745 16.795 16.857 16.897 16.89 16.865 16.85 16.848 16.89 16.97 17.047 17.12 17.193 17.265 17.35 17.445 17.537 17.632 17.717 17.795 17.875 17.952 18.03 18.108 18.183 18.258 18.332 18.402 18.42 18.39 18.357 18.322 18.303 18.297 18.292 18.245 18.152 18.063 18.03 18.053 18.083 18.113 18.143 18.183 18.215 18.233 18.248 18.26 18.28 18.308 18.345 18.405 18.478 18.568 18.678 18.79 18.887 18.937 18.95 18.965 18.972 18.967 18.96 18.96 18.995 19.055 19.112 19.155 19.167 19.147 19.115 19.083 19.048 19.005 18.942 18.872 18.8 18.705 18.598 18.498 18.433 18.4 18.378 18.365 18.355 18.345 18.335 18.312 18.237 18.117 17.99 17.86 17.73 17.66 17.693 17.742 17.74 17.715 17.698 17.685 17.68 17.677 17.675 17.665 17.637 17.587 17.535 17.493 17.44 17.335 17.188 17.05 16.922 16.782 16.628 16.488 16.368 16.255 16.143 16.028 15.923 15.815 15.68 15.538 15.418 15.315 15.215 15.12 15.03 14.938 14.848 14.763 14.685 14.63 14.593 14.557 14.5 14.418 14.348 14.285 14.215 14.145 14.075 13.993 13.895 13.77 13.62 13.518 13.478 13.455 13.4 13.315 13.237 13.172
15.39 15.35 15.31 15.273 15.248 15.238 15.283 15.392 15.492 15.532 15.525 15.508 15.503 15.515 15.533 15.553 15.58 15.595 15.575 15.53 15.485 15.443 15.443 15.515 15.615 15.735 15.875 15.992 16.062 16.1 16.198 16.362 16.46 16.437 16.38 16.353 16.36 16.398 16.448 16.5 16.555 16.615 16.672 16.717 16.735 16.738 16.76 16.805 16.86 16.91 16.917 16.9 16.895 16.9 16.945 17.028 17.11 17.185 17.26 17.33 17.4 17.485 17.58 17.682 17.782 17.875 17.96 18.037 18.115 18.195 18.27 18.342 18.402 18.427 18.412 18.375 18.335 18.295 18.275 18.275 18.275 18.24 18.155 18.073 18.058 18.09 18.125 18.163 18.2 18.245 18.282 18.3 18.313 18.338 18.39 18.432 18.445 18.485 18.54 18.593 18.675 18.78 18.88 18.932 18.945 18.958 18.965 18.957 18.943 18.935 18.965 19.022 19.072 19.117 19.162 19.185 19.17 19.137 19.102 19.05 18.978 18.913 18.867 18.815 18.725 18.618 18.535 18.478 18.433 18.398 18.363 18.333 18.315 18.295 18.215 18.085 17.955 17.825 17.7 17.663 17.717 17.762 17.77 17.763 17.758 17.75 17.745 17.745 17.745 17.73 17.675 17.593 17.52 17.455 17.393 17.295 17.16 17.035 16.915 16.777 16.628 16.495 16.375 16.258 16.142 16.022 15.905 15.795 15.67 15.53 15.4 15.295 15.205 15.115 15.023 14.933 14.855 14.772 14.68 14.6 14.543 14.502 14.442 14.37 14.32 14.267 14.2 14.13 14.047 13.953 13.88 13.805 13.687 13.578 13.525 13.47 13.342 13.21 13.113 13.028
15.437 15.393 15.353 15.325 15.315 15.313 15.33 15.43 15.572 15.627 15.615 15.602 15.588 15.585 15.598 15.615 15.625 15.615 15.585 15.542 15.498 15.455 15.45 15.508 15.6 15.723 15.875 16.035 16.17 16.262 16.362 16.44 16.417 16.34 16.293 16.3 16.34 16.385 16.433 16.488 16.545 16.605 16.665 16.72 16.747 16.753 16.775 16.82 16.87 16.92 16.945 16.947 16.95 16.953 16.998 17.082 17.165 17.245 17.322 17.39 17.453 17.525 17.618 17.72 17.823 17.927 18.025 18.115 18.202 18.282 18.357 18.41 18.422 18.405 18.375 18.342 18.307 18.268 18.245 18.245 18.242 18.215 18.148 18.103 18.115 18.145 18.18 18.22 18.263 18.307 18.345 18.368 18.395 18.455 18.537 18.57 18.55 18.57 18.617 18.653 18.703 18.783 18.875 18.927 18.94 18.952 18.955 18.94 18.918 18.905 18.933 18.985 19.03 19.07 19.122 19.177 19.205 19.192 19.15 19.087 19.015 18.948 18.903 18.877 18.832 18.755 18.68 18.617 18.555 18.492 18.433 18.383 18.343 18.3 18.202 18.063 17.928 17.793 17.685 17.678 17.74 17.79 17.82 17.827 17.822 17.817 17.815 17.815 17.815 17.792 17.727 17.642 17.557 17.468 17.378 17.273 17.15 17.03 16.91 16.772 16.63 16.503 16.382 16.265 16.145 16.015 15.888 15.797 15.715 15.605 15.467 15.33 15.213 15.11 15.018 14.935 14.867 14.785 14.69 14.6 14.518 14.455 14.395 14.34 14.3 14.25 14.185 14.107 14.002 13.9 13.833 13.78 13.712 13.627 13.537 13.407 13.243 13.11 13.01 12.918
15.48 15.435 15.405 15.4 15.4 15.4 15.403 15.47 15.615 15.692 15.687 15.68 15.667 15.66 15.662 15.665 15.655 15.63 15.595 15.555 15.513 15.475 15.48 15.533 15.608 15.728 15.888 16.05 16.212 16.357 16.452 16.45 16.378 16.303 16.275 16.305 16.345 16.383 16.425 16.48 16.538 16.595 16.655 16.715 16.755 16.768 16.79 16.835 16.885 16.932 16.965 16.98 16.99 17.003 17.053 17.135 17.215 17.3 17.382 17.447 17.505 17.573 17.658 17.755 17.858 17.962 18.065 18.167 18.267 18.357 18.415 18.42 18.395 18.365 18.335 18.305 18.275 18.24 18.218 18.215 18.21 18.19 18.155 18.148 18.175 18.208 18.245 18.285 18.328 18.37 18.408 18.455 18.525 18.615 18.687 18.695 18.665 18.663 18.693 18.73 18.77 18.82 18.883 18.923 18.938 18.953 18.945 18.918 18.89 18.875 18.898 18.943 18.985 19.028 19.078 19.135 19.195 19.225 19.192 19.125 19.052 18.98 18.935 18.907 18.875 18.832 18.777 18.715 18.645 18.577 18.512 18.45 18.387 18.32 18.21 18.065 17.925 17.785 17.68 17.68 17.75 17.807 17.85 17.88 17.885 17.88 17.88 17.88 17.88 17.852 17.78 17.687 17.592 17.495 17.39 17.272 17.147 17.025 16.905 16.77 16.635 16.51 16.388 16.267 16.132 15.985 15.863 15.78 15.705 15.622 15.522 15.392 15.25 15.123 15.023 14.95 14.88 14.792 14.7 14.61 14.517 14.428 14.358 14.312 14.275 14.23 14.162 14.065 13.948 13.85 13.785 13.733 13.685 13.625 13.492 13.303 13.135 13.023 12.95 12.873
15.52 15.478 15.473 15.502 15.515 15.515 15.515 15.54 15.65 15.742 15.745 15.74 15.735 15.722 15.705 15.682 15.66 15.637 15.605 15.565 15.53 15.51 15.533 15.59 15.663 15.788 15.955 16.12 16.267 16.385 16.457 16.465 16.415 16.348 16.33 16.36 16.39 16.413 16.438 16.48 16.533 16.59 16.65 16.707 16.757 16.782 16.805 16.85 16.9 16.942 16.97 16.987 17.005 17.048 17.11 17.18 17.26 17.345 17.427 17.49 17.543 17.623 17.718 17.808 17.903 17.998 18.098 18.202 18.305 18.4 18.435 18.41 18.38 18.35 18.32 18.288 18.258 18.233 18.213 18.203 18.195 18.185 18.2 18.238 18.273 18.313 18.358 18.4 18.44 18.48 18.52 18.59 18.687 18.78 18.825 18.81 18.78 18.76 18.773 18.81 18.85 18.89 18.93 18.96 18.98 18.993 18.988 18.96 18.92 18.893 18.908 18.955 19.003 19.05 19.095 19.145 19.205 19.232 19.195 19.127 19.06 18.992 18.945 18.91 18.87 18.832 18.8 18.755 18.69 18.622 18.55 18.472 18.4 18.33 18.22 18.075 17.935 17.808 17.705 17.67 17.722 17.795 17.847 17.895 17.93 17.94 17.935 17.927 17.927 17.895 17.81 17.707 17.602 17.5 17.395 17.275 17.145 17.02 16.897 16.77 16.643 16.518 16.39 16.255 16.11 15.943 15.813 15.732 15.645 15.563 15.492 15.407 15.285 15.145 15.038 14.967 14.89 14.8 14.707 14.612 14.515 14.41 14.32 14.268 14.232 14.197 14.125 14.01 13.893 13.803 13.745 13.698 13.647 13.582 13.44 13.233 13.078 13.003 12.947 12.857
15.563 15.525 15.538 15.59 15.63 15.647 15.647 15.64 15.698 15.785 15.805 15.8 15.787 15.757 15.725 15.695 15.668 15.645 15.615 15.578 15.558 15.555 15.585 15.648 15.74 15.885 16.052 16.192 16.295 16.375 16.437 16.477 16.467 16.415 16.4 16.43 16.45 16.452 16.463 16.495 16.54 16.59 16.645 16.703 16.76 16.795 16.82 16.865 16.91 16.947 16.975 16.993 17.028 17.105 17.177 17.23 17.3 17.382 17.46 17.52 17.573 17.675 17.795 17.882 17.968 18.053 18.145 18.243 18.335 18.417 18.445 18.42 18.39 18.36 18.33 18.3 18.275 18.255 18.235 18.22 18.213 18.21 18.27 18.36 18.41 18.455 18.507 18.557 18.602 18.645 18.685 18.755 18.847 18.907 18.915 18.89 18.865 18.853 18.865 18.898 18.935 18.975 19.013 19.042 19.06 19.065 19.075 19.067 19.025 18.983 18.988 19.038 19.09 19.132 19.167 19.212 19.24 19.212 19.153 19.09 19.033 18.978 18.93 18.888 18.845 18.808 18.782 18.76 18.715 18.647 18.57 18.488 18.41 18.34 18.23 18.085 17.958 17.855 17.765 17.688 17.68 17.74 17.802 17.857 17.907 17.932 17.925 17.917 17.932 17.915 17.827 17.715 17.608 17.505 17.397 17.275 17.147 17.01 16.865 16.76 16.662 16.54 16.41 16.265 16.09 15.87 15.72 15.652 15.57 15.493 15.427 15.362 15.277 15.155 15.05 14.977 14.895 14.802 14.707 14.607 14.502 14.39 14.29 14.223 14.175 14.142 14.067 13.948 13.845 13.77 13.717 13.667 13.607 13.535 13.397 13.21 13.093 13.03 12.94 12.82
15.605 15.573 15.593 15.65 15.71 15.755 15.772 15.765 15.773 15.83 15.865 15.852 15.822 15.78 15.745 15.715 15.685 15.658 15.628 15.603 15.6 15.608 15.64 15.705 15.808 15.957 16.115 16.22 16.283 16.35 16.412 16.462 16.492 16.477 16.468 16.485 16.485 16.475 16.485 16.523 16.565 16.605 16.65 16.7 16.755 16.8 16.835 16.877 16.917 16.952 16.98 17.013 17.083 17.18 17.255 17.3 17.35 17.42 17.49 17.54 17.608 17.743 17.872 17.958 18.042 18.128 18.215 18.292 18.36 18.43 18.455 18.43 18.403 18.378 18.35 18.325 18.305 18.285 18.268 18.258 18.253 18.25 18.315 18.445 18.542 18.6 18.652 18.707 18.76 18.807 18.852 18.915 18.97 18.98 18.965 18.95 18.945 18.95 18.968 18.995 19.028 19.065 19.1 19.125 19.135 19.135 19.15 19.165 19.142 19.098 19.093 19.135 19.177 19.205 19.23 19.245 19.22 19.167 19.11 19.053 19.003 18.955 18.91 18.865 18.82 18.783 18.758 18.745 18.722 18.67 18.592 18.507 18.425 18.35 18.24 18.108 18.005 17.915 17.825 17.735 17.668 17.678 17.738 17.788 17.828 17.855 17.865 17.888 17.922 17.917 17.847 17.735 17.62 17.512 17.4 17.262 17.107 16.94 16.785 16.71 16.667 16.577 16.447 16.265 16.012 15.75 15.605 15.552 15.493 15.428 15.36 15.295 15.23 15.145 15.055 14.975 14.89 14.797 14.702 14.597 14.482 14.368 14.268 14.19 14.125 14.08 14.005 13.898 13.815 13.747 13.687 13.627 13.56 13.485 13.353 13.208 13.125 13.037 12.91 12.775
15.645 15.62 15.65 15.71 15.77 15.83 15.867 15.872 15.873 15.9 15.915 15.885 15.842 15.8 15.765 15.735 15.705 15.675 15.65 15.643 15.65 15.66 15.698 15.768 15.863 16 16.145 16.235 16.283 16.333 16.387 16.437 16.482 16.512 16.52 16.515 16.505 16.495 16.508 16.548 16.59 16.63 16.67 16.713 16.76 16.805 16.845 16.883 16.92 16.958 16.995 17.06 17.158 17.26 17.33 17.37 17.407 17.457 17.51 17.553 17.653 17.817 17.947 18.033 18.118 18.205 18.277 18.317 18.365 18.437 18.472 18.46 18.44 18.42 18.398 18.378 18.36 18.333 18.31 18.303 18.295 18.29 18.335 18.47 18.627 18.727 18.785 18.84 18.895 18.945 18.99 19.02 19.025 19.012 19.007 19.02 19.042 19.06 19.075 19.1 19.127 19.157 19.187 19.202 19.205 19.205 19.218 19.242 19.245 19.213 19.2 19.227 19.25 19.262 19.265 19.232 19.18 19.128 19.073 19.023 18.977 18.932 18.89 18.845 18.8 18.76 18.733 18.72 18.707 18.672 18.6 18.517 18.44 18.362 18.262 18.155 18.062 17.97 17.877 17.782 17.69 17.653 17.685 17.73 17.77 17.805 17.84 17.892 17.927 17.912 17.86 17.765 17.645 17.512 17.375 17.22 17.038 16.855 16.708 16.64 16.622 16.58 16.432 16.17 15.865 15.608 15.483 15.448 15.42 15.37 15.303 15.238 15.173 15.105 15.022 14.937 14.86 14.782 14.69 14.577 14.46 14.343 14.243 14.163 14.09 14.028 13.952 13.865 13.79 13.717 13.647 13.58 13.51 13.435 13.325 13.218 13.14 13.037 12.898 12.75
15.688 15.685 15.72 15.775 15.835 15.897 15.937 15.952 15.967 15.97 15.945 15.902 15.855 15.817 15.792 15.765 15.735 15.705 15.683 15.68 15.69 15.708 15.758 15.833 15.913 16.035 16.172 16.252 16.297 16.33 16.36 16.403 16.453 16.52 16.557 16.545 16.528 16.515 16.53 16.572 16.615 16.652 16.69 16.732 16.775 16.823 16.878 16.925 16.963 17 17.053 17.138 17.242 17.322 17.345 17.352 17.382 17.422 17.485 17.578 17.718 17.892 18.022 18.107 18.195 18.26 18.285 18.305 18.36 18.442 18.507 18.53 18.52 18.5 18.48 18.46 18.435 18.398 18.37 18.36 18.35 18.343 18.363 18.473 18.65 18.787 18.86 18.912 18.965 19.012 19.042 19.04 19.022 19.01 19.022 19.055 19.09 19.12 19.142 19.17 19.2 19.23 19.26 19.272 19.27 19.27 19.283 19.31 19.332 19.322 19.31 19.295 19.275 19.277 19.265 19.22 19.165 19.11 19.048 18.99 18.943 18.9 18.857 18.812 18.77 18.735 18.71 18.693 18.68 18.652 18.585 18.5 18.422 18.347 18.26 18.165 18.07 17.975 17.893 17.818 17.75 17.7 17.7 17.743 17.788 17.823 17.858 17.91 17.932 17.905 17.865 17.792 17.677 17.487 17.298 17.16 16.995 16.815 16.665 16.59 16.565 16.52 16.33 16.02 15.708 15.47 15.38 15.368 15.36 15.32 15.255 15.19 15.122 15.05 14.96 14.868 14.79 14.722 14.645 14.547 14.437 14.32 14.218 14.138 14.065 13.987 13.893 13.8 13.722 13.647 13.575 13.507 13.44 13.37 13.3 13.222 13.137 13.037 12.902 12.75
15.758 15.773 15.805 15.85 15.905 15.965 16.005 16.025 16.03 16.005 15.96 15.912 15.858 15.818 15.807 15.8 15.78 15.75 15.723 15.715 15.725 15.753 15.818 15.897 15.97 16.078 16.2 16.27 16.302 16.307 16.318 16.363 16.433 16.525 16.592 16.595 16.57 16.55 16.553 16.588 16.63 16.667 16.702 16.74 16.788 16.855 16.93 16.995 17.047 17.09 17.145 17.232 17.312 17.342 17.32 17.28 17.28 17.318 17.413 17.59 17.787 17.97 18.1 18.177 18.237 18.255 18.253 18.288 18.363 18.45 18.535 18.597 18.615 18.6 18.572 18.537 18.497 18.46 18.44 18.433 18.43 18.43 18.44 18.508 18.653 18.802 18.89 18.94 18.982 19.015 19.03 19.02 19 18.993 19.015 19.052 19.087 19.122 19.155 19.187 19.222 19.255 19.292 19.325 19.335 19.335 19.35 19.38 19.41 19.422 19.407 19.347 19.283 19.265 19.252 19.215 19.165 19.107 19.035 18.96 18.903 18.86 18.815 18.77 18.738 18.715 18.693 18.668 18.65 18.63 18.57 18.478 18.388 18.305 18.22 18.14 18.068 17.995 17.935 17.885 17.838 17.79 17.775 17.808 17.847 17.875 17.895 17.925 17.93 17.897 17.862 17.81 17.672 17.408 17.193 17.082 16.952 16.79 16.64 16.553 16.515 16.427 16.19 15.88 15.61 15.425 15.335 15.305 15.3 15.27 15.207 15.14 15.067 14.99 14.902 14.805 14.71 14.63 14.565 14.495 14.405 14.297 14.195 14.113 14.037 13.95 13.833 13.713 13.62 13.543 13.47 13.405 13.345 13.295 13.257 13.207 13.132 13.035 12.905 12.758
15.85 15.868 15.9 15.938 15.98 16.033 16.075 16.09 16.067 16.017 15.965 15.912 15.85 15.805 15.8 15.807 15.805 15.79 15.765 15.753 15.765 15.803 15.873 15.955 16.035 16.132 16.23 16.277 16.277 16.258 16.27 16.34 16.435 16.535 16.625 16.652 16.627 16.6 16.588 16.603 16.633 16.67 16.705 16.748 16.815 16.9 16.982 17.055 17.122 17.182 17.242 17.302 17.332 17.337 17.31 17.248 17.205 17.218 17.338 17.57 17.82 18.035 18.165 18.207 18.22 18.215 18.225 18.283 18.37 18.462 18.547 18.625 18.682 18.682 18.642 18.597 18.553 18.528 18.525 18.528 18.535 18.543 18.56 18.605 18.693 18.82 18.917 18.96 18.985 19.005 19.012 18.997 18.975 18.975 19.005 19.045 19.082 19.12 19.155 19.19 19.225 19.258 19.3 19.35 19.39 19.405 19.42 19.45 19.475 19.485 19.46 19.397 19.318 19.265 19.24 19.207 19.165 19.102 19.025 18.945 18.873 18.818 18.773 18.738 18.72 18.705 18.68 18.65 18.625 18.607 18.555 18.463 18.37 18.285 18.215 18.163 18.12 18.08 18.035 17.985 17.935 17.885 17.855 17.87 17.902 17.922 17.93 17.91 17.875 17.845 17.812 17.755 17.582 17.293 17.085 16.983 16.877 16.75 16.618 16.523 16.47 16.332 16.083 15.843 15.65 15.5 15.38 15.305 15.258 15.215 15.157 15.085 15.01 14.93 14.845 14.75 14.648 14.55 14.475 14.413 14.342 14.26 14.17 14.083 14 13.907 13.785 13.65 13.53 13.435 13.363 13.305 13.263 13.233 13.205 13.17 13.117 13.032 12.907 12.77
