ncols         200
nrows         71
xllcorner     544000
yllcorner     254030
cellsize      5
NODATA_value  -9999.0
16.892 17.012 17.105 17.165 17.192 17.208 17.24 17.29 17.337 17.382 17.427 17.472 17.515 17.54 17.54 17.53 17.528 17.535 17.545 17.56 17.577 17.567 17.525 17.475 17.433 17.413 17.468 17.577 17.67 17.745 17.815 17.885 17.963 18.052 18.092 18.062 18.02 17.993 17.985 17.99 17.998 18.002 17.983 17.948 17.928 17.912 17.885 17.84 17.8 17.778 17.755 17.74 17.743 17.755 17.78 17.807 17.83 17.845 17.865 17.887 17.872 17.817 17.753 17.685 17.64 17.665 17.75 17.845 17.92 17.98 18.162 18.36 18.422 18.435 18.42 18.405 18.395 18.387 18.357 18.303 18.275 18.308 18.328 18.353 18.425 18.46 18.523 19.085 19.455 19.288 19.287 19.15 18.925 18.79 18.61 18.47 18.423 18.433 18.465 18.505 18.54 18.565 18.565 18.588 18.697 18.747 18.724 18.689 18.422 17.944 17.337 16.733 16.15 15.411 15.001 15.026 15.083 15.303 15.823 16.463 17.09 17.68 18.212 18.592 18.707 18.69 18.672 18.655 18.605 18.528 18.473 18.453 18.44 18.405 18.38 18.38 18.382 18.382 18.367 18.345 18.322 18.298 18.288 18.292 18.298 18.31 18.33 18.35 18.37 18.39 18.382 18.345 18.302 18.26 18.228 18.225 18.263 18.325 18.408 18.495 18.532 18.538 18.587 18.59 18.475 18.325 18.243 18.22 18.175 18.125 18.085 18.05 18.007 17.947 17.882 17.823 17.765 17.708 17.663 17.65 17.655 17.652 17.62 17.563 17.508 17.458 17.41 17.365 17.338 17.342 17.352 17.347 17.325 17.28 17.252 17.232 17.187 17.105 17.05 17.07
16.89 16.98 17.057 17.125 17.165 17.183 17.215 17.267 17.317 17.365 17.412 17.458 17.502 17.537 17.547 17.543 17.545 17.555 17.565 17.58 17.595 17.575 17.522 17.465 17.408 17.388 17.455 17.572 17.682 17.777 17.855 17.92 17.975 18.027 18.047 18.027 17.997 17.968 17.955 17.963 17.977 17.982 17.96 17.92 17.883 17.853 17.82 17.798 17.8 17.815 17.79 17.738 17.718 17.725 17.75 17.78 17.812 17.84 17.865 17.9 17.925 17.91 17.858 17.808 17.793 17.828 17.902 17.967 17.998 18.068 18.217 18.33 18.38 18.407 18.402 18.39 18.385 18.38 18.35 18.295 18.238 18.213 18.233 18.29 18.37 18.415 18.76 19.352 19.532 19.467 19.352 19.008 18.798 18.792 18.677 18.488 18.348 18.31 18.338 18.37 18.413 18.488 18.585 18.724 18.769 18.404 17.847 17.27 16.648 16.068 15.398 15.019 15.043 15.098 15.293 15.833 16.508 17.095 17.675 18.254 18.649 18.769 18.757 18.725 18.695 18.673 18.657 18.627 18.56 18.475 18.42 18.405 18.4 18.378 18.36 18.36 18.36 18.357 18.342 18.318 18.295 18.27 18.263 18.278 18.293 18.31 18.33 18.35 18.368 18.385 18.377 18.34 18.3 18.258 18.23 18.23 18.253 18.305 18.39 18.445 18.43 18.4 18.42 18.442 18.395 18.29 18.215 18.2 18.177 18.137 18.095 18.05 17.99 17.92 17.855 17.795 17.735 17.68 17.63 17.598 17.58 17.568 17.537 17.483 17.43 17.383 17.338 17.29 17.245 17.223 17.235 17.27 17.29 17.285 17.252 17.18 17.08 16.97 16.923 16.995
16.855 16.935 17.012 17.082 17.132 17.158 17.19 17.243 17.295 17.345 17.395 17.442 17.49 17.535 17.557 17.562 17.567 17.575 17.585 17.6 17.602 17.567 17.51 17.447 17.395 17.395 17.46 17.56 17.675 17.79 17.862 17.9 17.935 17.965 17.975 17.965 17.95 17.932 17.928 17.94 17.96 17.965 17.94 17.897 17.853 17.813 17.793 17.813 17.852 17.87 17.835 17.767 17.715 17.7 17.72 17.75 17.782 17.817 17.855 17.895 17.937 17.965 17.962 17.957 17.965 17.985 18.02 18.045 18.055 18.125 18.225 18.285 18.333 18.372 18.385 18.378 18.375 18.377 18.343 18.273 18.213 18.2 18.25 18.303 18.338 18.445 19.088 19.66 19.675 19.555 19.14 18.775 18.723 18.75 18.712 18.56 18.365 18.233 18.262 18.397 18.549 18.462 18.109 17.712 17.152 16.525 15.961 15.361 15.039 15.058 15.106 15.283 15.828 16.533 17.08 17.652 18.274 18.634 18.722 18.747 18.775 18.802 18.797 18.755 18.71 18.675 18.645 18.592 18.51 18.423 18.368 18.355 18.353 18.345 18.34 18.34 18.34 18.335 18.317 18.293 18.268 18.243 18.243 18.27 18.293 18.308 18.325 18.345 18.363 18.38 18.375 18.337 18.295 18.255 18.235 18.24 18.253 18.293 18.347 18.347 18.305 18.265 18.255 18.26 18.255 18.228 18.193 18.178 18.165 18.14 18.092 18.03 17.96 17.89 17.825 17.765 17.705 17.65 17.605 17.568 17.533 17.5 17.465 17.423 17.375 17.328 17.285 17.24 17.193 17.155 17.135 17.15 17.19 17.222 17.18 17.068 16.953 16.84 16.798 16.875
16.81 16.89 16.967 17.035 17.095 17.132 17.165 17.218 17.272 17.32 17.365 17.415 17.465 17.512 17.542 17.557 17.567 17.577 17.59 17.6 17.59 17.545 17.482 17.418 17.393 17.43 17.488 17.563 17.668 17.785 17.84 17.838 17.855 17.885 17.895 17.885 17.878 17.885 17.9 17.915 17.935 17.942 17.917 17.873 17.83 17.793 17.793 17.835 17.872 17.875 17.835 17.78 17.725 17.685 17.688 17.715 17.745 17.778 17.825 17.882 17.932 17.975 18.022 18.057 18.07 18.082 18.095 18.105 18.115 18.15 18.203 18.25 18.298 18.343 18.367 18.37 18.375 18.398 18.395 18.318 18.22 18.265 18.405 18.457 18.435 18.753 19.482 19.862 19.835 19.412 18.808 18.623 18.65 18.677 18.68 18.552 18.447 18.314 18.004 17.679 17.357 16.857 16.31 15.838 15.328 15.078 15.086 15.121 15.278 15.796 16.53 17.07 17.63 18.294 18.657 18.722 18.717 18.705 18.71 18.74 18.77 18.792 18.78 18.735 18.687 18.642 18.595 18.527 18.44 18.365 18.328 18.32 18.323 18.323 18.32 18.32 18.32 18.315 18.295 18.27 18.245 18.23 18.25 18.285 18.305 18.31 18.32 18.34 18.36 18.38 18.372 18.333 18.29 18.258 18.245 18.25 18.26 18.275 18.275 18.245 18.208 18.173 18.153 18.153 18.16 18.183 18.192 18.178 18.162 18.132 18.072 18 17.93 17.86 17.795 17.735 17.675 17.623 17.585 17.55 17.507 17.45 17.413 17.39 17.348 17.305 17.263 17.218 17.178 17.145 17.095 17.065 17.088 17.117 17.072 16.958 16.84 16.745 16.733 16.813
16.765 16.845 16.92 16.987 17.052 17.1 17.143 17.192 17.24 17.28 17.32 17.367 17.412 17.457 17.49 17.512 17.532 17.547 17.56 17.562 17.55 17.51 17.448 17.403 17.415 17.47 17.525 17.585 17.67 17.777 17.825 17.8 17.788 17.803 17.812 17.81 17.818 17.845 17.872 17.888 17.905 17.917 17.895 17.85 17.813 17.783 17.79 17.827 17.845 17.83 17.792 17.748 17.708 17.68 17.67 17.68 17.705 17.735 17.785 17.855 17.917 17.965 18.025 18.092 18.125 18.138 18.152 18.16 18.162 18.173 18.2 18.243 18.288 18.333 18.363 18.378 18.403 18.445 18.487 18.455 18.395 18.472 18.615 18.65 18.68 19.273 19.907 19.98 19.73 19.048 18.563 18.545 18.574 18.562 18.307 17.784 17.327 16.857 16.33 15.888 15.438 15.138 15.113 15.161 15.168 15.291 15.776 16.533 17.067 17.587 18.292 18.669 18.734 18.762 18.77 18.752 18.712 18.678 18.68 18.71 18.732 18.74 18.715 18.66 18.603 18.555 18.505 18.433 18.363 18.325 18.31 18.305 18.307 18.307 18.305 18.305 18.302 18.295 18.277 18.253 18.238 18.248 18.282 18.312 18.325 18.327 18.328 18.34 18.36 18.38 18.37 18.33 18.288 18.26 18.255 18.255 18.252 18.24 18.215 18.185 18.155 18.125 18.113 18.12 18.14 18.182 18.205 18.192 18.17 18.122 18.05 17.975 17.903 17.833 17.768 17.705 17.648 17.603 17.568 17.53 17.472 17.393 17.358 17.36 17.335 17.292 17.248 17.208 17.175 17.147 17.09 17.018 16.995 17.015 16.97 16.853 16.763 16.72 16.74 16.82
16.723 16.8 16.872 16.94 17.007 17.065 17.115 17.157 17.192 17.227 17.267 17.31 17.35 17.392 17.427 17.455 17.482 17.5 17.51 17.51 17.5 17.47 17.423 17.415 17.455 17.51 17.565 17.62 17.685 17.772 17.815 17.785 17.75 17.733 17.735 17.753 17.78 17.815 17.845 17.86 17.875 17.89 17.872 17.833 17.803 17.78 17.787 17.805 17.8 17.782 17.748 17.713 17.695 17.69 17.68 17.668 17.673 17.698 17.75 17.82 17.89 17.95 18.015 18.102 18.17 18.195 18.202 18.202 18.198 18.2 18.223 18.26 18.298 18.337 18.373 18.405 18.45 18.5 18.552 18.582 18.49 18.584 18.8 18.835 19.138 19.805 20.142 20.077 19.41 18.582 18.194 17.812 17.427 16.965 16.423 15.918 15.476 15.031 14.831 14.891 14.958 15.076 15.303 15.883 16.627 17.032 17.497 18.232 18.634 18.709 18.775 18.812 18.825 18.812 18.777 18.732 18.69 18.653 18.65 18.672 18.68 18.68 18.655 18.595 18.528 18.47 18.415 18.358 18.323 18.31 18.3 18.295 18.295 18.295 18.292 18.29 18.285 18.275 18.26 18.25 18.26 18.283 18.312 18.335 18.342 18.347 18.345 18.345 18.358 18.375 18.367 18.327 18.283 18.26 18.257 18.25 18.238 18.223 18.195 18.155 18.12 18.09 18.078 18.095 18.135 18.187 18.215 18.205 18.167 18.102 18.028 17.952 17.878 17.808 17.74 17.675 17.623 17.585 17.552 17.5 17.412 17.323 17.293 17.307 17.307 17.277 17.235 17.203 17.175 17.15 17.095 17.005 16.935 16.918 16.87 16.783 16.745 16.735 16.76 16.832
16.688 16.757 16.822 16.887 16.952 17.017 17.067 17.1 17.132 17.17 17.21 17.25 17.29 17.33 17.365 17.395 17.425 17.45 17.46 17.455 17.445 17.428 17.418 17.445 17.497 17.552 17.605 17.66 17.715 17.78 17.807 17.775 17.733 17.693 17.685 17.713 17.747 17.785 17.812 17.827 17.842 17.857 17.85 17.822 17.797 17.775 17.77 17.765 17.748 17.732 17.712 17.702 17.705 17.705 17.695 17.677 17.662 17.668 17.715 17.785 17.855 17.922 17.995 18.085 18.177 18.227 18.232 18.23 18.227 18.227 18.245 18.277 18.31 18.338 18.395 18.465 18.518 18.57 18.622 18.205 17.47 17.518 18.212 18.895 19.694 20.231 20.251 19.933 18.562 17.063 16.375 15.908 15.528 15.116 14.806 14.753 14.841 14.906 14.986 15.383 16.13 16.74 17.037 17.562 18.111 18.391 18.569 18.605 18.655 18.747 18.842 18.872 18.842 18.8 18.755 18.708 18.665 18.625 18.615 18.625 18.623 18.62 18.593 18.53 18.468 18.415 18.368 18.338 18.325 18.315 18.303 18.293 18.288 18.283 18.278 18.273 18.268 18.26 18.255 18.27 18.295 18.315 18.337 18.352 18.358 18.365 18.367 18.363 18.363 18.372 18.362 18.323 18.283 18.263 18.255 18.245 18.235 18.225 18.197 18.15 18.105 18.065 18.053 18.088 18.14 18.192 18.225 18.21 18.155 18.08 18.005 17.93 17.855 17.783 17.71 17.648 17.603 17.57 17.527 17.447 17.34 17.253 17.228 17.242 17.255 17.252 17.227 17.2 17.175 17.15 17.097 17.01 16.92 16.858 16.81 16.775 16.765 16.753 16.77 16.795
16.657 16.712 16.763 16.822 16.885 16.947 16.995 17.028 17.065 17.105 17.145 17.185 17.228 17.27 17.302 17.33 17.357 17.385 17.412 17.42 17.41 17.4 17.405 17.44 17.492 17.545 17.597 17.652 17.705 17.76 17.785 17.76 17.715 17.67 17.658 17.678 17.71 17.75 17.775 17.787 17.8 17.815 17.815 17.795 17.772 17.752 17.737 17.723 17.705 17.675 17.652 17.652 17.655 17.655 17.647 17.632 17.622 17.633 17.678 17.745 17.815 17.885 17.963 18.055 18.155 18.217 18.232 18.235 18.235 18.235 18.25 18.28 18.305 18.318 18.422 18.55 18.603 18.657 18.342 17.413 16.613 16.448 17.103 18.579 19.218 18.472 17.76 17.322 16.395 15.323 14.864 14.808 14.828 14.883 14.939 15.221 15.856 16.57 16.967 17.297 17.954 18.468 18.359 17.804 17.29 17.733 18.497 18.62 18.66 18.738 18.832 18.86 18.827 18.785 18.74 18.693 18.648 18.615 18.608 18.608 18.6 18.593 18.568 18.52 18.47 18.418 18.378 18.36 18.35 18.337 18.323 18.31 18.3 18.29 18.283 18.273 18.263 18.258 18.265 18.29 18.315 18.335 18.352 18.365 18.372 18.38 18.387 18.385 18.38 18.38 18.36 18.325 18.298 18.275 18.258 18.245 18.235 18.225 18.202 18.16 18.11 18.07 18.07 18.11 18.158 18.203 18.232 18.205 18.135 18.06 17.985 17.91 17.835 17.763 17.688 17.628 17.59 17.557 17.493 17.39 17.28 17.19 17.16 17.173 17.193 17.217 17.217 17.195 17.17 17.15 17.105 17.02 16.933 16.873 16.845 16.825 16.808 16.788 16.767 16.728
16.622 16.665 16.705 16.753 16.81 16.872 16.92 16.955 16.995 17.035 17.075 17.118 17.163 17.207 17.237 17.257 17.28 17.305 17.355 17.397 17.4 17.39 17.385 17.398 17.433 17.48 17.532 17.587 17.642 17.697 17.732 17.727 17.692 17.65 17.635 17.648 17.673 17.71 17.732 17.74 17.75 17.762 17.762 17.745 17.728 17.718 17.705 17.69 17.66 17.598 17.558 17.553 17.55 17.55 17.543 17.538 17.558 17.598 17.648 17.708 17.775 17.848 17.93 18.023 18.12 18.187 18.21 18.217 18.22 18.223 18.238 18.262 18.277 18.28 18.427 18.62 18.69 18.547 17.778 17.061 16.925 16.532 16.225 16.707 16.62 15.609 14.952 14.902 14.991 14.978 14.998 15.216 15.736 16.46 16.927 17.237 17.787 18.404 18.701 18.339 17.695 17.402 17.17 16.663 16.341 17.06 18.21 18.622 18.67 18.733 18.807 18.83 18.812 18.777 18.733 18.688 18.653 18.643 18.645 18.643 18.638 18.63 18.607 18.567 18.512 18.448 18.405 18.39 18.377 18.362 18.347 18.335 18.325 18.32 18.315 18.295 18.273 18.265 18.275 18.3 18.322 18.34 18.357 18.372 18.382 18.39 18.397 18.397 18.395 18.39 18.37 18.345 18.325 18.3 18.273 18.25 18.235 18.225 18.205 18.167 18.125 18.11 18.133 18.168 18.205 18.232 18.247 18.22 18.15 18.075 18 17.928 17.855 17.785 17.715 17.655 17.613 17.575 17.5 17.385 17.263 17.143 17.093 17.113 17.145 17.185 17.2 17.185 17.165 17.155 17.115 17.03 16.963 16.94 16.93 16.907 16.882 16.847 16.783 16.705
16.578 16.62 16.658 16.695 16.74 16.798 16.847 16.885 16.925 16.965 17.008 17.052 17.097 17.142 17.17 17.183 17.2 17.225 17.28 17.352 17.387 17.385 17.38 17.38 17.388 17.413 17.458 17.515 17.575 17.63 17.665 17.672 17.66 17.63 17.615 17.625 17.64 17.668 17.688 17.695 17.703 17.71 17.71 17.7 17.69 17.685 17.675 17.645 17.585 17.508 17.468 17.46 17.453 17.448 17.453 17.48 17.525 17.575 17.625 17.675 17.735 17.813 17.9 17.99 18.082 18.155 18.185 18.195 18.202 18.208 18.22 18.235 18.24 18.24 18.378 18.635 18.755 18.227 17.5 17.205 16.847 16.208 15.596 15.197 15.22 15.376 15.379 15.538 15.908 16.495 16.902 17.15 17.67 18.364 18.746 18.688 18.239 17.635 17.402 17.08 16.483 16.238 16.29 16.33 16.33 16.66 17.787 18.607 18.672 18.732 18.785 18.8 18.79 18.765 18.725 18.693 18.683 18.692 18.697 18.695 18.695 18.69 18.66 18.602 18.538 18.473 18.433 18.417 18.403 18.387 18.37 18.355 18.348 18.353 18.355 18.327 18.29 18.275 18.285 18.307 18.325 18.34 18.36 18.378 18.39 18.4 18.405 18.405 18.405 18.402 18.39 18.372 18.355 18.33 18.3 18.27 18.245 18.23 18.21 18.178 18.158 18.17 18.205 18.235 18.25 18.245 18.25 18.252 18.205 18.133 18.06 17.99 17.92 17.853 17.79 17.73 17.678 17.627 17.537 17.413 17.283 17.148 17.08 17.093 17.12 17.155 17.18 17.175 17.165 17.165 17.125 17.058 17.028 17.022 17.012 16.992 16.957 16.902 16.82 16.725
16.538 16.578 16.612 16.647 16.685 16.73 16.775 16.815 16.858 16.9 16.943 16.987 17.033 17.077 17.105 17.115 17.128 17.148 17.2 17.285 17.355 17.377 17.37 17.36 17.35 17.358 17.398 17.453 17.51 17.565 17.6 17.61 17.607 17.595 17.59 17.6 17.612 17.635 17.655 17.665 17.673 17.68 17.68 17.673 17.663 17.653 17.63 17.573 17.495 17.42 17.385 17.388 17.393 17.398 17.423 17.468 17.513 17.558 17.603 17.648 17.703 17.78 17.87 17.96 18.05 18.125 18.16 18.17 18.18 18.193 18.208 18.213 18.208 18.205 18.295 18.612 18.54 17.923 17.502 16.912 16.118 16.181 17.23 17.892 18.072 18.069 17.63 17.41 17.697 18.332 18.749 18.802 18.657 18.144 17.593 17.338 16.92 16.361 16.176 16.228 16.28 16.333 16.382 16.4 16.378 16.413 17.483 18.559 18.657 18.727 18.765 18.768 18.76 18.748 18.73 18.725 18.735 18.747 18.752 18.747 18.74 18.73 18.695 18.63 18.565 18.5 18.458 18.442 18.427 18.41 18.392 18.38 18.377 18.385 18.382 18.352 18.31 18.288 18.295 18.315 18.33 18.345 18.365 18.385 18.403 18.412 18.415 18.415 18.415 18.415 18.407 18.397 18.385 18.36 18.33 18.3 18.27 18.245 18.22 18.205 18.217 18.242 18.257 18.257 18.245 18.22 18.228 18.27 18.257 18.192 18.125 18.055 17.985 17.92 17.86 17.8 17.742 17.675 17.575 17.455 17.33 17.205 17.133 17.125 17.138 17.155 17.17 17.173 17.173 17.175 17.15 17.118 17.107 17.1 17.085 17.052 17 16.935 16.852 16.757
16.51 16.543 16.57 16.6 16.635 16.675 16.715 16.755 16.798 16.84 16.88 16.923 16.967 17.012 17.045 17.06 17.07 17.085 17.135 17.22 17.297 17.327 17.315 17.298 17.298 17.323 17.363 17.408 17.458 17.512 17.547 17.555 17.55 17.543 17.545 17.555 17.567 17.592 17.635 17.662 17.67 17.68 17.68 17.67 17.658 17.655 17.653 17.613 17.54 17.46 17.393 17.375 17.395 17.418 17.448 17.485 17.525 17.568 17.61 17.655 17.703 17.763 17.845 17.933 18.02 18.097 18.138 18.153 18.168 18.19 18.22 18.242 18.245 18.238 18.355 18.447 18.17 17.757 17.167 16.291 16.261 17.84 19.754 20.493 20.428 19.899 19.067 18.68 18.685 18.775 18.835 18.852 18.017 16.821 16.293 16.143 16.188 16.238 16.288 16.34 16.403 16.45 16.467 16.455 16.42 16.38 17.195 18.315 18.635 18.725 18.78 18.78 18.778 18.768 18.755 18.755 18.767 18.782 18.792 18.79 18.778 18.765 18.73 18.665 18.597 18.52 18.463 18.445 18.43 18.412 18.397 18.385 18.382 18.385 18.38 18.355 18.315 18.298 18.31 18.33 18.348 18.363 18.38 18.4 18.42 18.43 18.428 18.425 18.425 18.425 18.42 18.415 18.41 18.39 18.36 18.327 18.292 18.257 18.225 18.217 18.237 18.26 18.257 18.235 18.215 18.193 18.205 18.262 18.267 18.207 18.14 18.07 18.002 17.955 17.91 17.85 17.782 17.7 17.615 17.52 17.4 17.275 17.2 17.188 17.195 17.2 17.19 17.188 17.195 17.195 17.187 17.175 17.165 17.14 17.1 17.06 17.01 16.942 16.862 16.775
16.49 16.515 16.535 16.555 16.585 16.625 16.665 16.702 16.743 16.785 16.823 16.86 16.903 16.945 16.98 17.005 17.02 17.035 17.085 17.162 17.222 17.242 17.23 17.228 17.255 17.295 17.335 17.375 17.418 17.467 17.5 17.502 17.495 17.485 17.483 17.493 17.505 17.53 17.602 17.667 17.685 17.695 17.692 17.683 17.685 17.705 17.737 17.75 17.715 17.64 17.535 17.45 17.433 17.453 17.48 17.515 17.558 17.605 17.65 17.692 17.728 17.765 17.833 17.918 18.005 18.098 18.145 18.155 18.175 18.2 18.24 18.285 18.315 18.337 18.38 18.272 17.922 17.335 16.605 16.304 17.535 19.534 20.419 20.48 20.245 19.545 18.888 18.69 18.71 18.785 18.88 18.942 17.538 16.209 16.338 16.412 16.467 16.515 16.565 16.575 16.547 16.53 16.51 16.48 16.448 16.413 16.793 17.885 18.627 18.752 18.837 18.842 18.835 18.815 18.79 18.773 18.773 18.79 18.807 18.817 18.815 18.805 18.767 18.7 18.62 18.52 18.448 18.423 18.407 18.392 18.377 18.365 18.36 18.358 18.355 18.34 18.31 18.305 18.327 18.35 18.37 18.387 18.403 18.42 18.44 18.45 18.448 18.443 18.438 18.435 18.43 18.422 18.417 18.402 18.372 18.335 18.295 18.255 18.22 18.205 18.208 18.22 18.222 18.205 18.188 18.175 18.19 18.235 18.237 18.18 18.11 18.045 18 17.985 17.955 17.885 17.797 17.705 17.63 17.56 17.462 17.345 17.268 17.253 17.255 17.245 17.218 17.21 17.222 17.227 17.225 17.212 17.182 17.12 17.058 17.027 17 16.94 16.86 16.785
16.465 16.485 16.505 16.52 16.54 16.575 16.615 16.65 16.688 16.73 16.767 16.802 16.838 16.878 16.912 16.94 16.965 16.985 17.03 17.09 17.135 17.158 17.163 17.185 17.225 17.265 17.305 17.345 17.385 17.43 17.452 17.445 17.435 17.425 17.42 17.428 17.443 17.47 17.55 17.652 17.702 17.712 17.71 17.713 17.738 17.77 17.805 17.84 17.855 17.82 17.725 17.605 17.518 17.493 17.513 17.55 17.595 17.645 17.69 17.727 17.755 17.78 17.833 17.918 18.023 18.142 18.195 18.185 18.19 18.21 18.248 18.293 18.34 18.372 18.327 18.025 17.398 16.768 16.568 17.148 18.79 20.104 20.375 20.405 19.902 19.158 18.763 18.65 18.675 18.74 18.885 19.024 17.953 16.633 16.475 16.572 16.667 16.757 16.755 16.675 16.595 16.54 16.496 16.651 16.955 17.198 17.5 18.135 18.655 18.805 18.9 18.9 18.88 18.857 18.832 18.807 18.79 18.793 18.81 18.83 18.842 18.84 18.8 18.72 18.62 18.51 18.43 18.398 18.385 18.37 18.355 18.348 18.343 18.335 18.328 18.32 18.313 18.32 18.342 18.367 18.39 18.41 18.427 18.443 18.46 18.472 18.472 18.465 18.455 18.443 18.427 18.412 18.4 18.385 18.357 18.322 18.285 18.245 18.213 18.198 18.19 18.19 18.19 18.18 18.173 18.17 18.18 18.205 18.202 18.152 18.088 18.043 18.03 18.03 17.992 17.905 17.805 17.71 17.635 17.575 17.505 17.41 17.333 17.31 17.297 17.262 17.23 17.23 17.245 17.255 17.252 17.217 17.147 17.063 17.005 16.985 16.972 16.94 16.882 16.827
16.432 16.455 16.472 16.487 16.505 16.53 16.565 16.6 16.635 16.675 16.712 16.745 16.778 16.815 16.848 16.875 16.905 16.935 16.975 17.023 17.065 17.098 17.125 17.16 17.2 17.24 17.28 17.323 17.365 17.405 17.415 17.398 17.383 17.368 17.365 17.375 17.388 17.415 17.495 17.613 17.7 17.735 17.748 17.77 17.805 17.84 17.872 17.9 17.922 17.917 17.847 17.745 17.642 17.568 17.555 17.588 17.635 17.685 17.727 17.76 17.785 17.805 17.843 17.93 18.06 18.197 18.257 18.24 18.225 18.228 18.255 18.3 18.34 18.3 18.102 17.575 16.983 16.803 17.326 18.545 19.692 20.185 20.325 20.112 19.448 18.883 18.668 18.63 18.643 18.693 18.848 19.06 18.777 17.403 16.445 16.53 16.63 16.703 16.638 16.531 16.786 17.238 17.513 17.81 18.095 18.305 18.527 18.665 18.76 18.892 18.955 18.935 18.91 18.887 18.86 18.832 18.805 18.795 18.81 18.83 18.85 18.862 18.822 18.725 18.615 18.505 18.423 18.39 18.38 18.368 18.358 18.353 18.348 18.34 18.333 18.325 18.32 18.33 18.352 18.38 18.405 18.425 18.445 18.462 18.477 18.492 18.495 18.483 18.47 18.452 18.425 18.395 18.375 18.36 18.335 18.305 18.27 18.233 18.205 18.19 18.18 18.173 18.165 18.163 18.167 18.172 18.177 18.183 18.168 18.125 18.085 18.073 18.075 18.072 18.022 17.923 17.818 17.718 17.64 17.58 17.522 17.455 17.39 17.35 17.315 17.27 17.243 17.247 17.255 17.257 17.245 17.185 17.095 17.01 16.96 16.945 16.935 16.905 16.852 16.812
16.375 16.412 16.427 16.427 16.445 16.46 16.482 16.517 16.555 16.61 16.66 16.69 16.725 16.765 16.81 16.85 16.88 16.913 16.953 16.998 17.038 17.073 17.108 17.145 17.185 17.22 17.26 17.307 17.35 17.382 17.385 17.365 17.345 17.328 17.338 17.378 17.405 17.423 17.493 17.603 17.7 17.757 17.785 17.815 17.847 17.877 17.895 17.912 17.93 17.93 17.882 17.797 17.712 17.64 17.615 17.64 17.683 17.728 17.762 17.785 17.805 17.825 17.855 17.935 18.065 18.205 18.27 18.255 18.24 18.248 18.28 18.32 18.227 18.055 17.81 17.428 17.176 17.526 18.572 19.567 19.99 20.13 20.182 19.717 19.048 18.735 18.635 18.62 18.618 18.648 18.795 19.04 19.229 17.837 16.429 16.498 16.518 16.876 17.46 17.725 18.03 18.477 18.792 18.927 18.875 18.747 18.71 18.803 18.912 18.985 18.98 18.938 18.91 18.885 18.855 18.825 18.803 18.8 18.815 18.835 18.855 18.87 18.835 18.737 18.625 18.525 18.46 18.43 18.415 18.405 18.4 18.398 18.393 18.388 18.38 18.363 18.34 18.338 18.355 18.38 18.405 18.427 18.447 18.465 18.483 18.505 18.515 18.5 18.483 18.465 18.435 18.395 18.363 18.338 18.31 18.28 18.25 18.223 18.198 18.178 18.165 18.155 18.145 18.143 18.15 18.16 18.167 18.175 18.163 18.128 18.113 18.12 18.125 18.122 18.067 17.96 17.85 17.743 17.658 17.595 17.538 17.48 17.422 17.368 17.32 17.278 17.248 17.242 17.24 17.235 17.215 17.147 17.055 16.973 16.92 16.9 16.89 16.842 16.758 16.703
16.303 16.367 16.37 16.335 16.347 16.355 16.37 16.403 16.455 16.542 16.61 16.643 16.678 16.72 16.78 16.842 16.885 16.918 16.957 16.997 17.03 17.06 17.095 17.132 17.167 17.198 17.238 17.29 17.335 17.36 17.355 17.338 17.32 17.305 17.328 17.397 17.465 17.497 17.55 17.642 17.72 17.767 17.8 17.83 17.855 17.867 17.868 17.885 17.915 17.927 17.892 17.81 17.733 17.69 17.69 17.715 17.75 17.787 17.802 17.803 17.815 17.833 17.865 17.935 18.043 18.175 18.24 18.228 18.235 18.275 18.282 18.235 18.078 17.925 17.83 17.715 17.943 18.63 19.377 19.782 19.925 20.065 19.892 19.308 18.835 18.673 18.63 18.613 18.598 18.61 18.748 18.987 19.224 18.183 17.176 17.643 17.933 18.282 18.909 19.214 19.234 19.2 19.195 19.19 19.115 18.925 18.855 18.952 19.022 19.03 18.99 18.933 18.893 18.865 18.835 18.81 18.803 18.81 18.825 18.845 18.86 18.865 18.842 18.762 18.655 18.578 18.535 18.505 18.483 18.47 18.463 18.46 18.455 18.447 18.435 18.407 18.373 18.358 18.363 18.375 18.398 18.422 18.44 18.458 18.485 18.517 18.532 18.52 18.5 18.477 18.445 18.405 18.365 18.328 18.295 18.268 18.245 18.228 18.203 18.17 18.148 18.135 18.125 18.12 18.123 18.13 18.143 18.165 18.18 18.165 18.153 18.162 18.172 18.175 18.12 18.01 17.9 17.79 17.698 17.625 17.56 17.503 17.443 17.38 17.325 17.28 17.245 17.223 17.21 17.205 17.182 17.112 17.02 16.94 16.885 16.858 16.842 16.787 16.685 16.593
16.25 16.337 16.307 16.235 16.243 16.245 16.258 16.303 16.385 16.49 16.56 16.595 16.633 16.673 16.733 16.807 16.872 16.92 16.96 16.995 17.022 17.05 17.082 17.115 17.145 17.173 17.213 17.267 17.317 17.337 17.327 17.315 17.3 17.285 17.313 17.39 17.48 17.55 17.61 17.68 17.735 17.775 17.81 17.832 17.84 17.835 17.83 17.85 17.89 17.917 17.895 17.828 17.775 17.76 17.773 17.8 17.832 17.86 17.857 17.838 17.83 17.838 17.878 17.95 18.038 18.15 18.212 18.222 18.25 18.272 18.227 18.145 18.09 18.043 18.178 18.415 18.775 19.192 19.45 19.68 19.86 19.905 19.53 18.98 18.738 18.668 18.63 18.608 18.585 18.583 18.7 18.932 19.175 18.92 18.675 19.119 19.427 19.424 19.425 19.407 19.38 19.355 19.33 19.3 19.225 19.058 18.998 19.062 19.07 19.05 19.01 18.943 18.883 18.845 18.82 18.808 18.81 18.818 18.83 18.85 18.857 18.855 18.847 18.787 18.703 18.653 18.618 18.585 18.558 18.538 18.528 18.522 18.512 18.5 18.485 18.455 18.41 18.383 18.383 18.388 18.398 18.415 18.435 18.463 18.498 18.532 18.552 18.542 18.517 18.49 18.455 18.415 18.375 18.335 18.3 18.278 18.26 18.245 18.217 18.175 18.14 18.118 18.105 18.1 18.1 18.103 18.115 18.143 18.175 18.19 18.19 18.197 18.207 18.207 18.155 18.055 17.947 17.835 17.74 17.663 17.59 17.528 17.467 17.402 17.34 17.285 17.243 17.212 17.19 17.177 17.147 17.075 16.985 16.905 16.853 16.82 16.792 16.73 16.625 16.515
16.218 16.31 16.265 16.158 16.145 16.183 16.21 16.258 16.36 16.468 16.533 16.558 16.593 16.628 16.685 16.765 16.845 16.905 16.942 16.975 17 17.025 17.06 17.092 17.12 17.148 17.188 17.242 17.295 17.315 17.305 17.295 17.28 17.265 17.298 17.38 17.467 17.552 17.63 17.69 17.737 17.78 17.807 17.815 17.81 17.8 17.793 17.81 17.855 17.895 17.897 17.867 17.847 17.842 17.85 17.867 17.885 17.897 17.892 17.875 17.858 17.853 17.89 17.965 18.048 18.14 18.187 18.195 18.2 18.185 18.163 18.183 18.235 18.278 18.522 18.81 18.94 19.07 19.273 19.57 19.787 19.647 19.193 18.853 18.728 18.66 18.625 18.602 18.58 18.565 18.648 18.845 19.06 19.25 19.347 19.365 19.365 19.357 19.345 19.327 19.312 19.297 19.278 19.248 19.212 19.137 19.097 19.105 19.087 19.07 19.027 18.958 18.888 18.835 18.815 18.815 18.817 18.823 18.835 18.85 18.852 18.848 18.845 18.815 18.767 18.735 18.702 18.667 18.635 18.607 18.59 18.58 18.565 18.55 18.535 18.502 18.453 18.415 18.408 18.41 18.413 18.423 18.445 18.48 18.515 18.547 18.572 18.562 18.527 18.495 18.46 18.42 18.38 18.343 18.315 18.298 18.28 18.257 18.222 18.18 18.14 18.105 18.088 18.085 18.085 18.083 18.093 18.125 18.163 18.195 18.21 18.212 18.215 18.21 18.16 18.07 17.972 17.87 17.78 17.702 17.625 17.55 17.482 17.415 17.347 17.282 17.228 17.195 17.172 17.152 17.112 17.035 16.945 16.868 16.82 16.785 16.742 16.67 16.565 16.455
16.19 16.282 16.27 16.25 16.307 16.33 16.288 16.293 16.403 16.525 16.578 16.57 16.59 16.62 16.675 16.758 16.837 16.867 16.878 16.912 16.942 16.97 17.01 17.055 17.09 17.12 17.16 17.19 17.23 17.275 17.28 17.27 17.258 17.245 17.28 17.365 17.45 17.535 17.615 17.672 17.72 17.788 17.825 17.818 17.81 17.8 17.788 17.783 17.808 17.852 17.875 17.87 17.865 17.867 17.877 17.887 17.895 17.9 17.897 17.89 17.88 17.873 17.9 17.97 18.055 18.137 18.165 18.148 18.13 18.113 18.13 18.208 18.322 18.445 18.567 18.693 18.815 18.935 19.143 19.467 19.637 19.355 18.96 18.795 18.713 18.65 18.613 18.587 18.565 18.55 18.598 18.745 18.935 19.125 19.227 19.238 19.237 19.23 19.222 19.215 19.213 19.23 19.237 19.212 19.178 19.147 19.13 19.117 19.102 19.085 19.042 18.975 18.908 18.855 18.833 18.828 18.825 18.83 18.84 18.845 18.848 18.85 18.847 18.835 18.81 18.78 18.75 18.717 18.685 18.657 18.637 18.625 18.612 18.597 18.58 18.545 18.495 18.45 18.43 18.433 18.44 18.45 18.468 18.5 18.535 18.565 18.582 18.567 18.53 18.495 18.46 18.42 18.383 18.353 18.335 18.32 18.297 18.255 18.205 18.165 18.128 18.1 18.09 18.09 18.09 18.088 18.1 18.135 18.17 18.197 18.21 18.208 18.205 18.2 18.15 18.06 17.97 17.88 17.795 17.715 17.635 17.557 17.477 17.397 17.325 17.258 17.203 17.165 17.14 17.12 17.075 16.995 16.9 16.81 16.755 16.722 16.675 16.592 16.485 16.377
16.218 16.308 16.4 16.137 16.002 16.334 16.41 16.378 16.508 16.645 16.68 16.64 16.633 16.653 16.705 16.785 16.83 16.802 16.788 16.825 16.862 16.897 16.94 16.995 17.048 17.088 17.107 17.07 17.103 17.215 17.252 17.245 17.238 17.245 17.285 17.353 17.43 17.515 17.592 17.65 17.72 17.825 17.875 17.858 17.842 17.83 17.81 17.78 17.768 17.795 17.817 17.815 17.82 17.835 17.855 17.875 17.892 17.902 17.902 17.895 17.89 17.893 17.92 17.978 18.055 18.13 18.145 18.128 18.118 18.108 18.138 18.23 18.353 18.47 18.585 18.705 18.818 18.928 19.145 19.397 19.435 19.14 18.853 18.765 18.695 18.64 18.6 18.57 18.54 18.54 18.59 18.69 18.85 19.04 19.132 19.123 19.11 19.103 19.098 19.103 19.13 19.183 19.21 19.187 19.155 19.13 19.122 19.122 19.115 19.1 19.06 19 18.945 18.903 18.873 18.858 18.853 18.848 18.848 18.853 18.86 18.867 18.86 18.84 18.817 18.79 18.76 18.73 18.705 18.688 18.673 18.66 18.65 18.635 18.61 18.575 18.53 18.48 18.455 18.46 18.47 18.48 18.493 18.52 18.555 18.577 18.582 18.565 18.53 18.495 18.46 18.423 18.393 18.373 18.358 18.34 18.305 18.24 18.18 18.14 18.113 18.105 18.105 18.107 18.11 18.113 18.13 18.157 18.18 18.2 18.21 18.203 18.195 18.19 18.142 18.055 17.962 17.87 17.785 17.705 17.625 17.55 17.462 17.368 17.29 17.228 17.18 17.138 17.103 17.08 17.035 16.952 16.845 16.728 16.655 16.622 16.572 16.492 16.39 16.285
16.318 16.432 15.913 14.841 14.509 15.365 16.304 16.555 16.645 16.777 16.792 16.74 16.703 16.695 16.735 16.787 16.775 16.715 16.698 16.73 16.773 16.818 16.87 16.96 17.075 17.152 17.1 16.955 16.985 17.157 17.227 17.228 17.243 17.283 17.33 17.375 17.43 17.5 17.573 17.653 17.765 17.882 17.925 17.902 17.867 17.842 17.825 17.795 17.763 17.753 17.76 17.768 17.785 17.805 17.828 17.852 17.877 17.897 17.905 17.905 17.907 17.918 17.95 17.998 18.06 18.12 18.13 18.12 18.118 18.115 18.168 18.285 18.415 18.537 18.655 18.77 18.87 18.995 19.17 19.247 19.182 19.008 18.828 18.745 18.688 18.635 18.593 18.565 18.545 18.563 18.62 18.685 18.788 18.95 19.035 19.015 18.995 18.983 18.995 19.035 19.095 19.16 19.185 19.162 19.135 19.115 19.11 19.115 19.117 19.115 19.085 19.038 18.995 18.955 18.92 18.903 18.892 18.878 18.875 18.882 18.887 18.885 18.865 18.84 18.82 18.795 18.77 18.75 18.733 18.72 18.707 18.695 18.677 18.647 18.607 18.57 18.535 18.498 18.48 18.487 18.5 18.51 18.52 18.542 18.57 18.58 18.577 18.56 18.527 18.495 18.462 18.433 18.413 18.397 18.382 18.352 18.292 18.218 18.158 18.125 18.115 18.118 18.12 18.122 18.125 18.13 18.147 18.165 18.18 18.2 18.21 18.2 18.188 18.18 18.135 18.047 17.952 17.86 17.775 17.695 17.615 17.54 17.45 17.345 17.26 17.2 17.155 17.113 17.073 17.042 16.992 16.9 16.78 16.65 16.563 16.515 16.458 16.388 16.298 16.203
16.518 16.712 16.06 14.831 14.017 14.179 15.338 16.392 16.832 16.91 16.907 16.852 16.8 16.762 16.757 16.745 16.69 16.625 16.605 16.64 16.693 16.745 16.8 16.903 17.057 17.197 17.1 16.893 16.93 17.107 17.207 17.238 17.28 17.332 17.382 17.425 17.465 17.513 17.585 17.695 17.825 17.922 17.932 17.885 17.83 17.813 17.827 17.812 17.778 17.745 17.73 17.74 17.76 17.78 17.802 17.827 17.852 17.875 17.89 17.902 17.915 17.935 17.975 18.023 18.075 18.117 18.128 18.125 18.128 18.138 18.21 18.34 18.47 18.597 18.715 18.817 18.907 18.997 19.05 19.023 18.963 18.903 18.835 18.768 18.705 18.648 18.608 18.593 18.59 18.61 18.658 18.718 18.783 18.88 18.935 18.923 18.915 18.913 18.948 19.01 19.075 19.14 19.162 19.14 19.12 19.105 19.098 19.103 19.108 19.117 19.107 19.072 19.037 19.002 18.97 18.947 18.93 18.913 18.91 18.915 18.907 18.89 18.868 18.845 18.825 18.803 18.785 18.775 18.762 18.747 18.735 18.715 18.677 18.63 18.583 18.548 18.528 18.518 18.505 18.498 18.507 18.522 18.537 18.557 18.572 18.575 18.57 18.55 18.52 18.49 18.465 18.447 18.435 18.42 18.397 18.347 18.273 18.198 18.143 18.128 18.13 18.133 18.135 18.137 18.135 18.13 18.142 18.162 18.18 18.2 18.207 18.197 18.185 18.172 18.122 18.032 17.937 17.85 17.77 17.69 17.61 17.533 17.443 17.335 17.243 17.178 17.13 17.09 17.048 17.01 16.947 16.838 16.713 16.59 16.493 16.425 16.365 16.303 16.213 16.13
16.787 16.982 16.944 16.482 15.792 15.448 15.541 15.693 16.39 17.04 16.985 16.857 16.74 16.692 16.682 16.637 16.57 16.503 16.503 16.567 16.627 16.682 16.735 16.8 16.92 17.087 16.992 16.838 16.948 17.105 17.212 17.27 17.32 17.37 17.42 17.465 17.505 17.548 17.628 17.75 17.857 17.902 17.87 17.8 17.755 17.77 17.815 17.822 17.795 17.76 17.728 17.72 17.735 17.755 17.775 17.8 17.825 17.837 17.847 17.865 17.89 17.935 17.992 18.045 18.095 18.135 18.153 18.155 18.17 18.215 18.285 18.39 18.52 18.65 18.757 18.842 18.93 18.982 18.978 18.953 18.928 18.9 18.87 18.83 18.77 18.703 18.66 18.65 18.648 18.66 18.703 18.76 18.817 18.857 18.87 18.875 18.88 18.89 18.93 18.99 19.055 19.12 19.14 19.123 19.108 19.093 19.085 19.09 19.1 19.12 19.12 19.09 19.06 19.03 19.005 18.985 18.965 18.945 18.938 18.935 18.917 18.895 18.878 18.86 18.843 18.823 18.803 18.79 18.78 18.767 18.747 18.72 18.678 18.62 18.575 18.555 18.553 18.557 18.54 18.505 18.495 18.51 18.53 18.55 18.562 18.565 18.56 18.542 18.515 18.485 18.465 18.455 18.442 18.425 18.405 18.36 18.288 18.213 18.16 18.145 18.147 18.15 18.15 18.15 18.135 18.113 18.123 18.152 18.177 18.2 18.205 18.192 18.172 18.147 18.087 17.992 17.905 17.84 17.79 17.725 17.645 17.565 17.475 17.37 17.28 17.218 17.168 17.12 17.07 17.01 16.923 16.81 16.693 16.58 16.478 16.398 16.335 16.275 16.153 16.01
16.985 17.06 17.07 17.07 17.072 17.077 16.812 16.183 16.398 16.872 16.685 16.56 16.498 16.505 16.522 16.48 16.412 16.34 16.36 16.477 16.565 16.62 16.675 16.725 16.803 16.94 16.89 16.835 16.992 17.135 17.235 17.295 17.345 17.395 17.445 17.492 17.538 17.588 17.677 17.777 17.82 17.817 17.777 17.718 17.703 17.74 17.79 17.822 17.815 17.78 17.74 17.71 17.708 17.725 17.748 17.772 17.787 17.785 17.79 17.815 17.863 17.935 18.005 18.06 18.115 18.17 18.197 18.205 18.258 18.35 18.398 18.45 18.565 18.692 18.79 18.863 18.94 19.007 19.027 19.007 18.983 18.955 18.925 18.895 18.852 18.79 18.74 18.718 18.705 18.71 18.748 18.805 18.845 18.845 18.84 18.85 18.858 18.873 18.915 18.975 19.038 19.1 19.122 19.11 19.095 19.08 19.075 19.083 19.103 19.13 19.132 19.103 19.073 19.05 19.033 19.015 18.995 18.975 18.96 18.948 18.93 18.913 18.9 18.885 18.867 18.845 18.82 18.805 18.792 18.772 18.743 18.722 18.695 18.638 18.598 18.593 18.597 18.6 18.58 18.535 18.498 18.493 18.51 18.53 18.55 18.56 18.555 18.537 18.512 18.485 18.465 18.455 18.437 18.415 18.402 18.385 18.332 18.26 18.205 18.173 18.163 18.165 18.165 18.152 18.12 18.09 18.098 18.13 18.162 18.187 18.185 18.16 18.127 18.092 18.025 17.94 17.88 17.84 17.815 17.777 17.71 17.632 17.542 17.445 17.37 17.315 17.262 17.205 17.132 17.032 16.928 16.827 16.72 16.608 16.503 16.418 16.348 16.282 16.132 15.91
17.052 17.055 17.055 17.055 17.057 17.062 17.067 16.967 16.732 16.453 16.27 16.253 16.298 16.355 16.367 16.317 16.247 16.173 16.188 16.332 16.477 16.56 16.615 16.665 16.718 16.812 16.843 16.878 17.017 17.152 17.255 17.317 17.37 17.42 17.47 17.52 17.57 17.63 17.7 17.737 17.73 17.715 17.68 17.648 17.665 17.71 17.76 17.807 17.822 17.797 17.76 17.72 17.695 17.7 17.722 17.737 17.735 17.728 17.74 17.785 17.858 17.94 18.012 18.073 18.138 18.207 18.24 18.278 18.385 18.5 18.535 18.538 18.61 18.727 18.82 18.888 18.955 19.027 19.065 19.057 19.037 19.01 18.98 18.95 18.917 18.87 18.825 18.795 18.77 18.76 18.79 18.832 18.835 18.815 18.81 18.82 18.83 18.858 18.91 18.973 19.035 19.092 19.112 19.1 19.085 19.07 19.068 19.083 19.11 19.14 19.145 19.12 19.098 19.083 19.068 19.05 19.03 19.01 18.99 18.972 18.955 18.94 18.927 18.912 18.892 18.863 18.835 18.817 18.795 18.763 18.733 18.717 18.705 18.665 18.635 18.638 18.642 18.642 18.62 18.575 18.525 18.493 18.493 18.51 18.535 18.552 18.55 18.532 18.507 18.483 18.462 18.447 18.425 18.4 18.388 18.385 18.362 18.307 18.255 18.215 18.188 18.18 18.17 18.14 18.103 18.073 18.073 18.098 18.125 18.147 18.14 18.105 18.068 18.03 17.975 17.923 17.885 17.85 17.825 17.802 17.762 17.697 17.613 17.533 17.47 17.415 17.35 17.267 17.165 17.045 16.94 16.845 16.742 16.633 16.53 16.445 16.367 16.292 16.14 15.9
17.04 17.04 17.04 17.04 17.04 17.035 16.977 16.77 16.49 16.273 16.185 16.2 16.225 16.247 16.222 16.153 16.08 16.008 16.018 16.16 16.342 16.48 16.555 16.605 16.655 16.72 16.8 16.905 17.035 17.167 17.272 17.34 17.395 17.445 17.495 17.545 17.595 17.635 17.65 17.642 17.628 17.615 17.593 17.595 17.635 17.68 17.73 17.777 17.812 17.81 17.775 17.737 17.703 17.685 17.687 17.685 17.678 17.678 17.71 17.783 17.865 17.945 18.023 18.093 18.163 18.238 18.305 18.403 18.537 18.647 18.682 18.665 18.685 18.765 18.847 18.912 18.98 19.05 19.087 19.092 19.087 19.065 19.032 19 18.97 18.935 18.897 18.867 18.842 18.82 18.82 18.822 18.805 18.785 18.78 18.798 18.823 18.865 18.925 18.99 19.055 19.102 19.11 19.095 19.08 19.063 19.065 19.09 19.12 19.147 19.157 19.145 19.13 19.117 19.102 19.082 19.057 19.035 19.017 19 18.982 18.97 18.955 18.937 18.915 18.88 18.845 18.817 18.785 18.748 18.723 18.713 18.707 18.69 18.678 18.682 18.687 18.685 18.66 18.615 18.565 18.52 18.49 18.49 18.512 18.535 18.54 18.525 18.5 18.475 18.455 18.432 18.407 18.385 18.375 18.375 18.37 18.345 18.305 18.265 18.228 18.2 18.173 18.138 18.103 18.068 18.065 18.09 18.11 18.13 18.123 18.085 18.045 18 17.96 17.927 17.892 17.862 17.837 17.815 17.79 17.747 17.685 17.617 17.555 17.492 17.405 17.292 17.175 17.058 16.953 16.858 16.76 16.658 16.555 16.462 16.377 16.295 16.135 15.885
16.955 16.955 16.955 16.955 16.952 16.94 16.862 16.688 16.475 16.283 16.203 16.217 16.225 16.175 16.08 15.998 15.923 15.868 15.903 16.043 16.22 16.385 16.495 16.558 16.613 16.675 16.785 16.927 17.06 17.19 17.287 17.347 17.4 17.452 17.502 17.55 17.585 17.582 17.563 17.548 17.533 17.52 17.523 17.555 17.602 17.647 17.695 17.74 17.785 17.8 17.772 17.737 17.7 17.665 17.645 17.635 17.63 17.658 17.725 17.808 17.89 17.97 18.053 18.13 18.203 18.278 18.378 18.51 18.642 18.737 18.77 18.765 18.762 18.798 18.86 18.922 18.987 19.042 19.07 19.082 19.095 19.097 19.077 19.045 19.013 18.987 18.95 18.905 18.88 18.857 18.832 18.81 18.788 18.765 18.77 18.805 18.848 18.898 18.955 19.02 19.075 19.105 19.107 19.095 19.08 19.065 19.075 19.105 19.13 19.147 19.165 19.167 19.155 19.145 19.125 19.095 19.065 19.04 19.025 19.01 18.995 18.985 18.97 18.952 18.93 18.897 18.86 18.825 18.79 18.75 18.728 18.723 18.718 18.715 18.72 18.727 18.73 18.725 18.7 18.655 18.607 18.56 18.505 18.468 18.47 18.492 18.502 18.487 18.462 18.44 18.422 18.405 18.387 18.373 18.368 18.37 18.37 18.365 18.345 18.307 18.265 18.228 18.193 18.16 18.125 18.085 18.08 18.11 18.135 18.15 18.135 18.095 18.05 17.998 17.958 17.927 17.885 17.845 17.812 17.777 17.752 17.747 17.725 17.665 17.6 17.532 17.435 17.315 17.195 17.088 16.993 16.9 16.805 16.7 16.573 16.443 16.342 16.257 16.095 15.84
16.805 16.805 16.805 16.802 16.792 16.777 16.755 16.662 16.48 16.293 16.218 16.23 16.19 16.06 15.933 15.853 15.798 15.795 15.87 16.01 16.173 16.32 16.435 16.522 16.59 16.665 16.79 16.945 17.085 17.212 17.3 17.348 17.395 17.447 17.497 17.53 17.527 17.5 17.478 17.462 17.448 17.44 17.463 17.512 17.565 17.61 17.655 17.702 17.747 17.77 17.755 17.72 17.677 17.635 17.608 17.598 17.618 17.688 17.775 17.855 17.93 17.998 18.09 18.185 18.26 18.335 18.438 18.57 18.682 18.757 18.787 18.79 18.792 18.808 18.85 18.91 18.962 18.997 19.017 19.035 19.06 19.087 19.097 19.08 19.053 19.04 19 18.93 18.885 18.86 18.837 18.813 18.788 18.77 18.788 18.833 18.88 18.93 18.985 19.042 19.08 19.1 19.105 19.095 19.08 19.073 19.09 19.115 19.13 19.14 19.16 19.18 19.177 19.165 19.14 19.1 19.065 19.038 19.02 19.007 18.995 18.985 18.97 18.955 18.937 18.912 18.88 18.845 18.81 18.773 18.753 18.748 18.745 18.745 18.755 18.767 18.772 18.767 18.74 18.695 18.642 18.58 18.512 18.458 18.428 18.43 18.442 18.427 18.4 18.38 18.365 18.355 18.355 18.363 18.368 18.37 18.37 18.37 18.365 18.34 18.3 18.263 18.228 18.192 18.155 18.113 18.095 18.125 18.16 18.167 18.145 18.1 18.047 17.993 17.95 17.912 17.842 17.77 17.725 17.693 17.693 17.725 17.725 17.677 17.62 17.555 17.462 17.345 17.235 17.145 17.06 16.967 16.872 16.755 16.595 16.425 16.29 16.19 16.035 15.787
16.647 16.655 16.653 16.643 16.625 16.605 16.595 16.572 16.465 16.303 16.232 16.202 16.08 15.91 15.785 15.733 15.738 15.783 15.87 16.007 16.15 16.267 16.375 16.48 16.565 16.655 16.79 16.95 17.102 17.23 17.307 17.35 17.392 17.44 17.477 17.477 17.448 17.413 17.39 17.38 17.373 17.373 17.403 17.46 17.52 17.57 17.615 17.665 17.71 17.742 17.735 17.695 17.65 17.603 17.573 17.585 17.65 17.742 17.825 17.895 17.957 18.01 18.123 18.245 18.32 18.395 18.497 18.612 18.695 18.76 18.79 18.793 18.8 18.808 18.835 18.883 18.92 18.945 18.965 18.99 19.023 19.058 19.087 19.1 19.1 19.097 19.055 18.975 18.905 18.865 18.843 18.82 18.803 18.793 18.813 18.86 18.91 18.96 19.012 19.055 19.08 19.1 19.105 19.093 19.078 19.078 19.095 19.11 19.12 19.13 19.148 19.177 19.192 19.185 19.157 19.11 19.068 19.035 19.015 19.005 18.995 18.985 18.97 18.955 18.94 18.923 18.897 18.862 18.827 18.795 18.78 18.778 18.775 18.775 18.785 18.802 18.815 18.81 18.775 18.717 18.647 18.57 18.505 18.46 18.415 18.385 18.385 18.372 18.343 18.32 18.313 18.32 18.34 18.362 18.372 18.375 18.373 18.37 18.37 18.362 18.335 18.298 18.262 18.222 18.18 18.138 18.105 18.125 18.175 18.182 18.147 18.095 18.04 17.988 17.942 17.88 17.775 17.678 17.628 17.63 17.67 17.715 17.715 17.675 17.63 17.575 17.49 17.383 17.29 17.21 17.125 17.032 16.932 16.795 16.622 16.445 16.275 16.138 15.977 15.735
16.5 16.515 16.51 16.495 16.475 16.453 16.433 16.425 16.392 16.3 16.21 16.097 15.93 15.763 15.668 15.678 15.73 15.788 15.868 15.982 16.098 16.203 16.31 16.42 16.525 16.643 16.79 16.95 17.11 17.237 17.305 17.345 17.385 17.427 17.44 17.41 17.373 17.338 17.313 17.305 17.305 17.305 17.338 17.4 17.465 17.525 17.575 17.62 17.657 17.692 17.687 17.647 17.607 17.563 17.553 17.605 17.69 17.782 17.842 17.892 17.962 18.033 18.17 18.307 18.383 18.458 18.543 18.625 18.695 18.76 18.792 18.803 18.815 18.823 18.84 18.868 18.89 18.908 18.93 18.965 19.005 19.048 19.088 19.12 19.145 19.152 19.11 19.03 18.95 18.885 18.85 18.835 18.828 18.82 18.838 18.885 18.937 18.99 19.032 19.06 19.08 19.1 19.105 19.093 19.085 19.088 19.093 19.1 19.11 19.12 19.135 19.165 19.197 19.202 19.17 19.122 19.077 19.038 19.015 19.005 18.995 18.993 18.993 18.993 18.993 18.97 18.925 18.88 18.843 18.81 18.803 18.807 18.805 18.805 18.815 18.832 18.847 18.845 18.797 18.718 18.635 18.558 18.5 18.46 18.418 18.375 18.348 18.33 18.31 18.295 18.3 18.323 18.348 18.368 18.378 18.38 18.378 18.373 18.37 18.37 18.36 18.332 18.293 18.248 18.205 18.163 18.12 18.123 18.172 18.185 18.142 18.087 18.033 17.98 17.92 17.825 17.708 17.605 17.57 17.608 17.662 17.71 17.71 17.67 17.63 17.585 17.52 17.438 17.355 17.275 17.19 17.1 16.987 16.83 16.653 16.475 16.295 16.128 15.95 15.73
16.433 16.453 16.453 16.438 16.42 16.393 16.35 16.313 16.295 16.252 16.14 15.985 15.825 15.673 15.618 15.665 15.725 15.783 15.858 15.955 16.058 16.163 16.27 16.383 16.498 16.623 16.772 16.935 17.09 17.21 17.275 17.315 17.357 17.402 17.412 17.38 17.34 17.303 17.278 17.268 17.265 17.263 17.293 17.355 17.42 17.472 17.51 17.545 17.575 17.605 17.602 17.57 17.535 17.513 17.545 17.622 17.71 17.8 17.835 17.838 17.893 17.995 18.167 18.357 18.465 18.535 18.608 18.675 18.737 18.78 18.81 18.832 18.845 18.858 18.873 18.89 18.908 18.92 18.943 18.98 19.023 19.07 19.112 19.145 19.175 19.195 19.177 19.117 19.043 18.968 18.925 18.918 18.91 18.878 18.855 18.885 18.938 19.002 19.06 19.088 19.103 19.118 19.123 19.12 19.123 19.12 19.113 19.11 19.108 19.11 19.123 19.15 19.19 19.205 19.175 19.127 19.08 19.035 19.03 19.05 19.06 19.078 19.095 19.105 19.092 19.037 18.965 18.903 18.858 18.825 18.818 18.83 18.835 18.835 18.845 18.86 18.872 18.875 18.827 18.74 18.653 18.578 18.525 18.485 18.445 18.405 18.368 18.343 18.33 18.325 18.335 18.353 18.37 18.39 18.4 18.4 18.403 18.403 18.4 18.4 18.395 18.372 18.333 18.288 18.245 18.2 18.15 18.125 18.147 18.165 18.132 18.08 18.025 17.967 17.887 17.775 17.665 17.578 17.558 17.603 17.657 17.705 17.705 17.665 17.625 17.58 17.54 17.492 17.42 17.34 17.255 17.157 17.027 16.867 16.697 16.52 16.34 16.163 15.978 15.778
16.43 16.452 16.462 16.452 16.435 16.405 16.35 16.285 16.233 16.182 16.077 15.93 15.788 15.653 15.61 15.655 15.71 15.768 15.843 15.945 16.05 16.153 16.263 16.378 16.49 16.603 16.743 16.905 17.047 17.157 17.225 17.265 17.315 17.372 17.392 17.37 17.335 17.298 17.275 17.265 17.255 17.245 17.27 17.332 17.382 17.402 17.418 17.445 17.475 17.505 17.507 17.48 17.46 17.475 17.538 17.628 17.72 17.81 17.845 17.813 17.8 17.88 18.088 18.362 18.542 18.625 18.7 18.762 18.792 18.795 18.823 18.865 18.887 18.902 18.917 18.935 18.955 18.97 18.99 19.02 19.057 19.1 19.132 19.16 19.19 19.215 19.227 19.215 19.177 19.12 19.075 19.06 19.025 18.945 18.868 18.865 18.93 19.018 19.092 19.135 19.157 19.17 19.175 19.175 19.175 19.173 19.165 19.153 19.138 19.128 19.12 19.128 19.155 19.172 19.15 19.1 19.058 19.03 19.06 19.132 19.192 19.235 19.245 19.22 19.16 19.08 19.005 18.938 18.883 18.843 18.83 18.847 18.862 18.865 18.875 18.89 18.897 18.9 18.867 18.79 18.7 18.628 18.578 18.535 18.495 18.458 18.428 18.403 18.383 18.375 18.385 18.403 18.42 18.44 18.453 18.455 18.458 18.46 18.46 18.457 18.445 18.42 18.385 18.342 18.295 18.242 18.185 18.14 18.128 18.137 18.12 18.067 18.01 17.947 17.86 17.75 17.658 17.59 17.573 17.605 17.653 17.7 17.7 17.66 17.617 17.568 17.535 17.52 17.475 17.4 17.315 17.2 17.052 16.897 16.74 16.575 16.4 16.22 16.032 15.832
16.43 16.45 16.465 16.465 16.45 16.415 16.358 16.29 16.22 16.153 16.047 15.91 15.775 15.648 15.61 15.653 15.7 15.753 15.828 15.935 16.047 16.15 16.26 16.375 16.483 16.59 16.718 16.862 16.99 17.097 17.172 17.223 17.285 17.347 17.367 17.35 17.325 17.293 17.27 17.26 17.245 17.228 17.25 17.295 17.31 17.31 17.323 17.35 17.378 17.405 17.413 17.403 17.418 17.463 17.535 17.63 17.725 17.815 17.86 17.835 17.78 17.845 18.1 18.415 18.625 18.717 18.78 18.81 18.8 18.788 18.82 18.875 18.917 18.942 18.96 18.98 19 19.017 19.04 19.062 19.087 19.117 19.143 19.17 19.197 19.22 19.24 19.257 19.262 19.247 19.217 19.172 19.095 18.995 18.898 18.86 18.945 19.055 19.117 19.17 19.212 19.237 19.245 19.24 19.233 19.23 19.222 19.205 19.182 19.155 19.125 19.108 19.11 19.12 19.1 19.06 19.04 19.035 19.083 19.18 19.277 19.342 19.34 19.28 19.2 19.12 19.045 18.98 18.918 18.863 18.845 18.862 18.882 18.892 18.903 18.915 18.92 18.92 18.9 18.837 18.753 18.683 18.63 18.585 18.548 18.515 18.49 18.467 18.442 18.428 18.435 18.455 18.475 18.497 18.517 18.525 18.525 18.525 18.52 18.507 18.49 18.467 18.432 18.385 18.33 18.27 18.21 18.168 18.14 18.13 18.107 18.048 17.985 17.92 17.833 17.74 17.67 17.613 17.598 17.62 17.653 17.695 17.695 17.652 17.605 17.553 17.52 17.517 17.507 17.457 17.365 17.23 17.075 16.922 16.767 16.612 16.45 16.275 16.087 15.887
16.43 16.45 16.465 16.475 16.467 16.43 16.375 16.31 16.243 16.16 16.038 15.9 15.768 15.645 15.61 15.655 15.7 15.743 15.815 15.925 16.04 16.148 16.257 16.37 16.475 16.58 16.692 16.81 16.925 17.035 17.122 17.19 17.26 17.32 17.34 17.325 17.307 17.285 17.263 17.25 17.235 17.218 17.225 17.238 17.235 17.235 17.248 17.273 17.293 17.313 17.333 17.36 17.408 17.463 17.535 17.63 17.727 17.82 17.87 17.842 17.773 17.903 18.273 18.605 18.762 18.807 18.827 18.817 18.792 18.785 18.818 18.872 18.925 18.967 18.997 19.022 19.045 19.062 19.08 19.097 19.112 19.13 19.153 19.178 19.203 19.225 19.245 19.262 19.272 19.282 19.29 19.252 19.175 19.095 18.998 18.925 18.988 19.09 19.142 19.195 19.245 19.29 19.315 19.312 19.3 19.287 19.265 19.235 19.197 19.155 19.123 19.1 19.085 19.078 19.063 19.048 19.048 19.05 19.1 19.2 19.297 19.352 19.335 19.277 19.215 19.152 19.085 19.02 18.955 18.89 18.86 18.87 18.892 18.912 18.925 18.932 18.935 18.935 18.927 18.882 18.805 18.738 18.683 18.638 18.605 18.577 18.552 18.525 18.492 18.473 18.483 18.507 18.53 18.552 18.577 18.59 18.59 18.585 18.57 18.55 18.527 18.487 18.435 18.382 18.327 18.272 18.222 18.187 18.16 18.135 18.097 18.035 17.968 17.9 17.823 17.75 17.69 17.635 17.62 17.64 17.665 17.695 17.687 17.638 17.585 17.535 17.508 17.505 17.51 17.495 17.402 17.252 17.097 16.945 16.792 16.638 16.482 16.322 16.142 15.943
16.43 16.45 16.462 16.472 16.475 16.452 16.405 16.343 16.28 16.182 16.04 15.895 15.76 15.643 15.613 15.657 15.7 15.735 15.808 15.923 16.038 16.15 16.25 16.347 16.45 16.555 16.657 16.753 16.855 16.965 17.062 17.145 17.222 17.29 17.312 17.298 17.282 17.267 17.26 17.255 17.243 17.23 17.225 17.225 17.225 17.225 17.235 17.255 17.273 17.29 17.32 17.37 17.43 17.487 17.518 17.568 17.665 17.762 17.802 17.763 17.82 18.145 18.567 18.787 18.82 18.817 18.807 18.79 18.77 18.77 18.805 18.857 18.91 18.962 19.02 19.062 19.087 19.105 19.11 19.12 19.135 19.15 19.17 19.19 19.212 19.23 19.24 19.245 19.25 19.265 19.295 19.297 19.25 19.19 19.112 19.038 19.048 19.11 19.162 19.215 19.265 19.315 19.345 19.347 19.335 19.31 19.275 19.235 19.193 19.155 19.13 19.11 19.09 19.07 19.06 19.06 19.063 19.065 19.118 19.22 19.292 19.307 19.277 19.23 19.182 19.137 19.095 19.045 18.982 18.915 18.863 18.845 18.86 18.885 18.905 18.925 18.942 18.95 18.95 18.92 18.855 18.792 18.735 18.685 18.647 18.615 18.582 18.545 18.515 18.508 18.523 18.55 18.577 18.602 18.627 18.642 18.64 18.622 18.597 18.575 18.537 18.452 18.37 18.32 18.27 18.23 18.21 18.192 18.165 18.135 18.095 18.037 17.97 17.9 17.833 17.768 17.708 17.66 17.64 17.65 17.672 17.695 17.68 17.628 17.575 17.52 17.488 17.485 17.487 17.485 17.407 17.267 17.12 16.965 16.815 16.663 16.51 16.362 16.21 16.032
16.43 16.442 16.442 16.448 16.462 16.465 16.435 16.38 16.312 16.2 16.05 15.898 15.753 15.638 15.615 15.657 15.69 15.718 15.795 15.922 16.042 16.157 16.247 16.32 16.41 16.512 16.61 16.695 16.783 16.885 16.985 17.075 17.157 17.227 17.267 17.27 17.255 17.243 17.252 17.27 17.267 17.255 17.253 17.255 17.257 17.26 17.27 17.288 17.305 17.325 17.358 17.41 17.473 17.535 17.51 17.473 17.54 17.632 17.645 17.655 18.023 18.577 18.832 18.82 18.768 18.753 18.745 18.735 18.728 18.738 18.775 18.828 18.883 18.94 19.017 19.087 19.122 19.14 19.143 19.145 19.155 19.17 19.19 19.21 19.217 19.21 19.202 19.203 19.22 19.25 19.285 19.31 19.287 19.23 19.17 19.113 19.09 19.12 19.172 19.225 19.262 19.275 19.28 19.3 19.317 19.305 19.27 19.233 19.2 19.175 19.155 19.132 19.108 19.088 19.08 19.077 19.078 19.08 19.135 19.222 19.257 19.252 19.222 19.175 19.128 19.088 19.062 19.037 18.992 18.932 18.87 18.823 18.805 18.815 18.84 18.875 18.91 18.935 18.955 18.95 18.905 18.842 18.777 18.715 18.66 18.615 18.575 18.545 18.538 18.543 18.558 18.585 18.615 18.642 18.662 18.67 18.662 18.64 18.61 18.572 18.497 18.375 18.28 18.23 18.193 18.183 18.193 18.19 18.165 18.135 18.097 18.042 17.977 17.91 17.845 17.785 17.735 17.7 17.675 17.663 17.67 17.69 17.675 17.625 17.567 17.5 17.46 17.455 17.452 17.442 17.372 17.247 17.115 16.98 16.843 16.698 16.553 16.405 16.27 16.137
16.42 16.412 16.405 16.415 16.437 16.457 16.457 16.42 16.335 16.207 16.06 15.905 15.75 15.635 15.613 15.645 15.67 15.693 15.773 15.91 16.042 16.162 16.252 16.315 16.385 16.473 16.562 16.642 16.72 16.81 16.905 16.987 17.057 17.12 17.175 17.21 17.22 17.217 17.23 17.262 17.282 17.28 17.28 17.285 17.29 17.295 17.305 17.323 17.34 17.36 17.395 17.453 17.517 17.58 17.542 17.433 17.428 17.485 17.463 17.753 18.465 18.91 18.89 18.775 18.725 18.698 18.688 18.685 18.688 18.703 18.743 18.8 18.86 18.92 18.998 19.092 19.155 19.175 19.177 19.173 19.178 19.192 19.207 19.21 19.187 19.163 19.158 19.175 19.208 19.24 19.275 19.31 19.315 19.272 19.213 19.16 19.12 19.128 19.172 19.197 19.19 19.16 19.158 19.2 19.25 19.28 19.272 19.247 19.225 19.202 19.177 19.15 19.123 19.108 19.102 19.095 19.093 19.098 19.145 19.197 19.202 19.195 19.165 19.118 19.075 19.04 19.018 19.005 18.982 18.94 18.885 18.83 18.785 18.76 18.77 18.808 18.848 18.888 18.932 18.96 18.94 18.88 18.81 18.74 18.67 18.613 18.578 18.568 18.573 18.578 18.595 18.622 18.645 18.662 18.675 18.675 18.665 18.647 18.61 18.535 18.42 18.288 18.195 18.16 18.155 18.17 18.187 18.185 18.162 18.135 18.102 18.05 17.985 17.92 17.86 17.815 17.78 17.753 17.728 17.703 17.688 17.69 17.67 17.615 17.547 17.475 17.433 17.422 17.412 17.397 17.327 17.203 17.093 17 16.887 16.75 16.605 16.453 16.313 16.2
16.385 16.368 16.368 16.388 16.413 16.435 16.455 16.445 16.355 16.212 16.067 15.915 15.758 15.638 15.605 15.628 15.65 15.67 15.748 15.888 16.03 16.16 16.252 16.315 16.375 16.443 16.518 16.593 16.67 16.753 16.83 16.893 16.948 17.003 17.055 17.108 17.152 17.177 17.2 17.235 17.272 17.297 17.307 17.313 17.32 17.325 17.335 17.355 17.375 17.397 17.435 17.49 17.55 17.61 17.585 17.452 17.358 17.345 17.498 18.203 18.917 19 18.843 18.738 18.695 18.66 18.645 18.648 18.653 18.67 18.718 18.78 18.84 18.9 18.975 19.077 19.172 19.212 19.21 19.203 19.205 19.205 19.195 19.17 19.133 19.118 19.132 19.165 19.2 19.232 19.267 19.302 19.33 19.312 19.26 19.21 19.16 19.138 19.143 19.128 19.095 19.055 19.055 19.11 19.17 19.222 19.24 19.227 19.212 19.207 19.195 19.165 19.143 19.132 19.125 19.117 19.112 19.115 19.135 19.15 19.148 19.14 19.11 19.065 19.025 18.993 18.973 18.96 18.948 18.927 18.892 18.842 18.79 18.74 18.735 18.78 18.828 18.875 18.925 18.957 18.95 18.905 18.84 18.77 18.7 18.638 18.608 18.608 18.61 18.613 18.625 18.645 18.66 18.67 18.675 18.67 18.662 18.645 18.58 18.465 18.333 18.203 18.133 18.133 18.148 18.165 18.182 18.177 18.155 18.132 18.105 18.057 17.995 17.933 17.885 17.855 17.827 17.805 17.78 17.752 17.728 17.705 17.665 17.6 17.528 17.455 17.405 17.383 17.368 17.352 17.288 17.185 17.105 17.035 16.94 16.805 16.65 16.495 16.355 16.24
16.398 16.38 16.383 16.403 16.428 16.45 16.473 16.45 16.332 16.175 16.042 15.92 15.78 15.648 15.6 15.62 15.64 15.663 15.74 15.878 16.022 16.15 16.235 16.295 16.355 16.413 16.478 16.555 16.635 16.718 16.783 16.825 16.87 16.92 16.97 17.023 17.078 17.14 17.193 17.23 17.27 17.31 17.332 17.34 17.347 17.345 17.337 17.345 17.365 17.387 17.41 17.43 17.47 17.53 17.525 17.417 17.313 17.408 17.963 18.775 19.12 18.975 18.8 18.708 18.665 18.633 18.62 18.62 18.625 18.645 18.695 18.76 18.82 18.877 18.942 19.032 19.147 19.225 19.235 19.23 19.222 19.197 19.165 19.13 19.088 19.068 19.085 19.12 19.157 19.195 19.23 19.265 19.307 19.332 19.32 19.28 19.233 19.193 19.16 19.133 19.095 19.03 19 19.045 19.11 19.16 19.175 19.165 19.165 19.19 19.202 19.183 19.165 19.155 19.147 19.135 19.102 19.09 19.115 19.13 19.13 19.123 19.093 19.05 19.01 18.978 18.958 18.943 18.93 18.918 18.895 18.847 18.79 18.74 18.74 18.79 18.84 18.89 18.94 18.96 18.942 18.915 18.872 18.81 18.745 18.685 18.655 18.655 18.655 18.65 18.65 18.66 18.67 18.672 18.662 18.645 18.625 18.585 18.505 18.397 18.27 18.148 18.105 18.125 18.142 18.16 18.177 18.172 18.15 18.128 18.108 18.07 18.013 17.955 17.913 17.887 17.865 17.845 17.82 17.792 17.767 17.732 17.677 17.608 17.533 17.458 17.398 17.365 17.348 17.327 17.28 17.213 17.145 17.075 16.982 16.847 16.693 16.538 16.395 16.28
16.48 16.458 16.455 16.468 16.488 16.513 16.535 16.462 16.275 16.095 15.978 15.897 15.795 15.663 15.605 15.625 15.645 15.67 15.75 15.885 16.017 16.125 16.2 16.262 16.322 16.378 16.445 16.525 16.608 16.697 16.762 16.795 16.83 16.875 16.925 16.978 17.045 17.135 17.207 17.25 17.292 17.335 17.36 17.367 17.365 17.347 17.323 17.308 17.315 17.335 17.34 17.328 17.333 17.363 17.365 17.313 17.353 17.813 18.58 19.102 19.132 18.91 18.753 18.685 18.64 18.608 18.595 18.598 18.608 18.628 18.673 18.737 18.79 18.827 18.875 18.96 19.095 19.217 19.255 19.247 19.222 19.18 19.145 19.105 19.048 19.003 19.005 19.038 19.075 19.115 19.153 19.195 19.258 19.32 19.35 19.35 19.325 19.285 19.252 19.212 19.137 19.04 18.985 19 19.053 19.102 19.115 19.113 19.133 19.172 19.2 19.197 19.185 19.155 19.107 19.057 19.018 19.02 19.077 19.135 19.15 19.14 19.11 19.07 19.03 18.995 18.973 18.955 18.94 18.925 18.902 18.85 18.783 18.74 18.75 18.8 18.853 18.905 18.947 18.952 18.933 18.92 18.897 18.855 18.797 18.735 18.705 18.705 18.7 18.688 18.683 18.685 18.672 18.642 18.615 18.587 18.54 18.47 18.395 18.317 18.217 18.12 18.093 18.115 18.137 18.157 18.172 18.167 18.145 18.138 18.135 18.097 18.038 17.983 17.94 17.915 17.895 17.875 17.85 17.825 17.797 17.755 17.7 17.63 17.555 17.48 17.413 17.375 17.352 17.325 17.295 17.252 17.19 17.12 17.022 16.885 16.735 16.58 16.435 16.32
16.57 16.545 16.54 16.548 16.558 16.577 16.59 16.475 16.238 16.028 15.903 15.84 15.775 15.67 15.613 15.633 15.655 15.68 15.758 15.88 15.99 16.085 16.16 16.225 16.287 16.345 16.415 16.498 16.585 16.68 16.745 16.775 16.803 16.835 16.888 16.96 17.05 17.147 17.22 17.267 17.315 17.36 17.387 17.387 17.37 17.345 17.318 17.293 17.278 17.285 17.29 17.275 17.26 17.253 17.255 17.29 17.653 18.44 18.985 19.08 18.975 18.803 18.715 18.665 18.618 18.583 18.57 18.578 18.595 18.613 18.65 18.7 18.73 18.748 18.788 18.89 19.05 19.21 19.275 19.257 19.215 19.163 19.12 19.067 19 18.94 18.93 18.96 18.99 19.025 19.073 19.138 19.22 19.29 19.33 19.36 19.372 19.365 19.332 19.255 19.147 19.04 18.985 18.98 19.005 19.045 19.06 19.075 19.113 19.157 19.192 19.172 19.115 19.045 18.965 18.918 18.92 18.95 19.015 19.102 19.155 19.16 19.13 19.09 19.045 19.01 18.99 18.968 18.948 18.93 18.91 18.857 18.78 18.74 18.76 18.81 18.865 18.92 18.95 18.945 18.933 18.925 18.907 18.88 18.842 18.79 18.758 18.747 18.73 18.717 18.71 18.69 18.645 18.587 18.542 18.495 18.425 18.345 18.27 18.2 18.133 18.085 18.083 18.105 18.13 18.153 18.167 18.163 18.16 18.19 18.19 18.135 18.07 18.013 17.97 17.945 17.925 17.905 17.882 17.855 17.817 17.772 17.72 17.65 17.573 17.495 17.425 17.385 17.36 17.33 17.302 17.272 17.227 17.165 17.062 16.92 16.77 16.62 16.478 16.363
16.625 16.62 16.625 16.632 16.637 16.647 16.622 16.465 16.212 15.973 15.828 15.77 15.723 15.658 15.62 15.64 15.665 15.688 15.753 15.855 15.953 16.045 16.12 16.185 16.25 16.313 16.388 16.475 16.567 16.662 16.725 16.755 16.783 16.81 16.865 16.958 17.062 17.162 17.235 17.28 17.32 17.357 17.38 17.377 17.362 17.342 17.315 17.29 17.265 17.25 17.245 17.235 17.23 17.225 17.238 17.51 18.227 18.872 18.992 18.895 18.815 18.77 18.732 18.658 18.595 18.558 18.55 18.57 18.605 18.62 18.643 18.663 18.655 18.66 18.71 18.84 19.013 19.187 19.277 19.255 19.205 19.158 19.103 19.035 18.963 18.89 18.87 18.903 18.933 18.965 19.025 19.11 19.2 19.265 19.303 19.335 19.365 19.39 19.357 19.262 19.152 19.043 18.985 18.975 18.973 18.99 19.018 19.053 19.097 19.135 19.155 19.092 18.968 18.868 18.82 18.828 18.855 18.885 18.945 19.037 19.122 19.155 19.125 19.075 19.033 19.018 19.015 18.995 18.97 18.948 18.925 18.872 18.788 18.74 18.757 18.805 18.857 18.907 18.937 18.94 18.932 18.925 18.91 18.885 18.86 18.827 18.797 18.777 18.755 18.732 18.697 18.642 18.575 18.507 18.442 18.372 18.297 18.22 18.148 18.1 18.08 18.08 18.095 18.113 18.133 18.153 18.168 18.183 18.217 18.255 18.232 18.167 18.102 18.04 17.995 17.97 17.95 17.93 17.91 17.877 17.83 17.782 17.735 17.67 17.59 17.51 17.438 17.393 17.365 17.335 17.305 17.275 17.242 17.197 17.097 16.953 16.808 16.663 16.525 16.415
16.63 16.652 16.677 16.69 16.697 16.692 16.61 16.405 16.142 15.903 15.783 15.745 15.7 15.655 15.633 15.648 15.672 15.695 15.748 15.838 15.932 16.012 16.08 16.15 16.215 16.278 16.358 16.45 16.542 16.632 16.697 16.735 16.765 16.795 16.853 16.95 17.06 17.152 17.205 17.235 17.265 17.295 17.31 17.307 17.305 17.295 17.272 17.25 17.225 17.213 17.218 17.225 17.235 17.24 17.415 18.023 18.722 18.912 18.82 18.788 18.753 18.757 18.767 18.732 18.673 18.618 18.623 18.652 18.662 18.645 18.655 18.7 18.703 18.683 18.708 18.828 19 19.175 19.285 19.28 19.238 19.2 19.14 19.065 18.99 18.908 18.878 18.91 18.943 18.97 19.03 19.12 19.202 19.252 19.283 19.318 19.347 19.365 19.33 19.245 19.15 19.045 18.985 18.975 18.96 18.96 18.993 19.037 19.072 19.092 19.087 19 18.868 18.8 18.82 18.858 18.87 18.883 18.9 18.958 19.05 19.102 19.08 19.035 19.02 19.028 19.037 19.03 19.01 18.985 18.955 18.895 18.8 18.728 18.718 18.752 18.8 18.847 18.89 18.91 18.91 18.905 18.89 18.867 18.842 18.815 18.792 18.775 18.745 18.687 18.61 18.532 18.457 18.385 18.31 18.235 18.165 18.113 18.085 18.083 18.098 18.113 18.127 18.14 18.155 18.17 18.183 18.21 18.255 18.275 18.237 18.175 18.11 18.045 18 17.975 17.955 17.935 17.912 17.875 17.825 17.777 17.735 17.682 17.61 17.53 17.453 17.393 17.355 17.325 17.297 17.27 17.24 17.192 17.112 16.997 16.86 16.715 16.583 16.48
16.633 16.673 16.702 16.715 16.697 16.637 16.525 16.302 16.02 15.818 15.758 15.752 15.72 15.675 15.653 15.663 15.683 15.705 15.755 15.84 15.917 15.967 16.028 16.11 16.182 16.245 16.323 16.417 16.507 16.587 16.655 16.707 16.745 16.775 16.835 16.935 17.03 17.09 17.117 17.138 17.165 17.192 17.205 17.205 17.208 17.205 17.188 17.17 17.163 17.175 17.202 17.222 17.238 17.355 17.84 18.562 18.86 18.765 18.74 18.745 18.71 18.705 18.745 18.785 18.787 18.765 18.76 18.75 18.71 18.66 18.66 18.747 18.83 18.832 18.823 18.885 19.025 19.195 19.307 19.332 19.315 19.28 19.22 19.142 19.062 18.975 18.94 18.967 18.99 19.005 19.06 19.147 19.212 19.245 19.27 19.305 19.327 19.33 19.29 19.21 19.125 19.043 18.993 18.975 18.96 18.953 18.975 19.007 19.025 19.035 19.012 18.92 18.835 18.838 18.905 18.972 19 19.003 18.98 18.973 18.998 19.033 19.038 19.023 19.03 19.042 19.052 19.055 19.047 19.025 18.985 18.912 18.805 18.705 18.665 18.678 18.713 18.76 18.81 18.85 18.865 18.862 18.85 18.83 18.805 18.778 18.757 18.73 18.68 18.602 18.505 18.408 18.32 18.243 18.168 18.115 18.085 18.078 18.095 18.115 18.132 18.147 18.16 18.173 18.187 18.2 18.208 18.22 18.255 18.267 18.225 18.165 18.102 18.038 17.993 17.968 17.945 17.927 17.9 17.858 17.81 17.765 17.725 17.682 17.625 17.55 17.47 17.393 17.34 17.31 17.283 17.255 17.215 17.145 17.077 17.01 16.907 16.777 16.65 16.55
16.655 16.702 16.712 16.68 16.602 16.495 16.387 16.18 15.89 15.735 15.723 15.735 15.73 15.698 15.68 15.688 15.698 15.715 15.765 15.835 15.877 15.905 15.965 16.055 16.14 16.212 16.29 16.38 16.465 16.54 16.605 16.665 16.717 16.755 16.818 16.905 16.965 17 17.025 17.045 17.068 17.088 17.098 17.105 17.113 17.115 17.11 17.113 17.133 17.16 17.187 17.208 17.268 17.65 18.402 18.855 18.72 18.618 18.697 18.7 18.668 18.655 18.685 18.732 18.775 18.8 18.792 18.762 18.72 18.67 18.65 18.733 18.875 18.96 18.987 19.015 19.093 19.22 19.315 19.357 19.377 19.36 19.3 19.217 19.127 19.035 19 19.017 19.027 19.038 19.09 19.167 19.212 19.235 19.26 19.287 19.295 19.287 19.25 19.188 19.133 19.09 19.058 19.03 19.003 18.97 18.958 18.96 18.965 18.975 18.943 18.88 18.863 18.895 18.965 19.055 19.13 19.172 19.162 19.115 19.065 19.04 19.033 19.033 19.045 19.057 19.067 19.075 19.077 19.062 19.012 18.92 18.8 18.685 18.633 18.63 18.64 18.673 18.72 18.77 18.807 18.817 18.805 18.785 18.762 18.74 18.712 18.662 18.597 18.525 18.43 18.32 18.22 18.145 18.09 18.073 18.085 18.1 18.12 18.142 18.165 18.18 18.19 18.202 18.215 18.225 18.233 18.238 18.258 18.26 18.215 18.155 18.095 18.033 17.988 17.963 17.94 17.922 17.89 17.845 17.802 17.76 17.72 17.68 17.632 17.567 17.49 17.405 17.335 17.295 17.265 17.232 17.172 17.085 17.015 16.965 16.905 16.82 16.715 16.612
16.682 16.7 16.65 16.555 16.445 16.338 16.233 16.067 15.81 15.673 15.688 15.705 15.717 15.712 15.708 15.713 15.72 15.73 15.76 15.8 15.828 15.853 15.905 15.993 16.085 16.17 16.252 16.335 16.415 16.49 16.555 16.615 16.675 16.727 16.785 16.842 16.88 16.91 16.935 16.958 16.983 17.005 17.018 17.025 17.035 17.045 17.06 17.085 17.115 17.145 17.172 17.193 17.455 18.147 18.772 18.73 18.48 18.548 18.647 18.647 18.62 18.602 18.62 18.657 18.687 18.712 18.725 18.717 18.697 18.67 18.64 18.705 18.862 19.007 19.092 19.13 19.177 19.25 19.317 19.363 19.405 19.42 19.372 19.285 19.19 19.095 19.053 19.055 19.06 19.07 19.118 19.177 19.205 19.225 19.237 19.24 19.235 19.227 19.215 19.197 19.185 19.175 19.155 19.117 19.065 19.005 18.963 18.943 18.935 18.933 18.91 18.898 18.912 18.942 19.005 19.085 19.165 19.237 19.27 19.24 19.177 19.115 19.075 19.065 19.068 19.075 19.085 19.092 19.097 19.092 19.03 18.915 18.79 18.668 18.608 18.6 18.595 18.603 18.633 18.68 18.73 18.76 18.755 18.735 18.715 18.69 18.647 18.585 18.515 18.448 18.383 18.315 18.248 18.195 18.16 18.143 18.133 18.128 18.14 18.165 18.193 18.213 18.225 18.233 18.24 18.25 18.26 18.268 18.278 18.273 18.238 18.19 18.143 18.065 17.995 17.965 17.938 17.913 17.878 17.835 17.795 17.755 17.715 17.675 17.632 17.582 17.512 17.425 17.343 17.285 17.25 17.202 17.12 17.025 16.953 16.905 16.862 16.815 16.75 16.662
16.68 16.675 16.585 16.47 16.358 16.248 16.135 15.987 15.775 15.65 15.66 15.678 15.693 15.71 15.73 15.745 15.753 15.758 15.763 15.78 15.808 15.833 15.87 15.938 16.025 16.117 16.205 16.282 16.36 16.432 16.502 16.57 16.63 16.69 16.745 16.788 16.82 16.85 16.875 16.9 16.933 16.965 16.978 16.98 16.99 17.003 17.028 17.062 17.097 17.13 17.158 17.313 17.893 18.605 18.755 18.445 18.323 18.465 18.557 18.557 18.532 18.515 18.527 18.562 18.592 18.62 18.632 18.628 18.625 18.622 18.615 18.688 18.845 19.005 19.11 19.16 19.217 19.282 19.335 19.378 19.42 19.445 19.422 19.35 19.257 19.165 19.11 19.098 19.095 19.1 19.135 19.17 19.175 19.175 19.165 19.15 19.138 19.148 19.17 19.175 19.175 19.19 19.195 19.16 19.1 19.035 18.99 18.965 18.948 18.923 18.898 18.9 18.917 18.94 18.982 19.045 19.115 19.185 19.247 19.275 19.247 19.19 19.148 19.125 19.11 19.103 19.105 19.107 19.102 19.09 19.017 18.895 18.772 18.653 18.588 18.578 18.575 18.573 18.578 18.605 18.65 18.692 18.7 18.68 18.657 18.625 18.572 18.507 18.44 18.4 18.403 18.405 18.382 18.345 18.31 18.278 18.243 18.203 18.193 18.22 18.253 18.28 18.295 18.3 18.305 18.3 18.328 18.382 18.405 18.4 18.375 18.332 18.25 18.118 18.023 17.988 17.955 17.918 17.875 17.835 17.795 17.755 17.715 17.675 17.635 17.6 17.54 17.45 17.363 17.285 17.225 17.157 17.073 16.983 16.908 16.863 16.825 16.785 16.745 16.687
16.652 16.657 16.575 16.46 16.345 16.22 16.085 15.9 15.73 15.665 15.653 15.655 15.67 15.695 15.732 15.77 15.787 15.792 15.793 15.798 15.815 15.84 15.87 15.91 15.975 16.063 16.15 16.227 16.3 16.368 16.44 16.515 16.582 16.645 16.707 16.762 16.8 16.83 16.855 16.878 16.908 16.94 16.952 16.953 16.96 16.97 16.995 17.035 17.072 17.108 17.205 17.653 18.437 18.847 18.668 18.39 18.275 18.34 18.43 18.432 18.413 18.398 18.408 18.447 18.487 18.522 18.538 18.543 18.558 18.57 18.595 18.685 18.835 18.995 19.1 19.155 19.225 19.302 19.362 19.405 19.435 19.442 19.43 19.392 19.325 19.24 19.183 19.163 19.15 19.138 19.125 19.11 19.09 19.073 19.055 19.038 19.033 19.07 19.105 19.105 19.123 19.17 19.195 19.172 19.125 19.065 19.02 18.995 18.967 18.922 18.88 18.868 18.88 18.9 18.93 18.975 19.035 19.107 19.172 19.23 19.265 19.252 19.22 19.195 19.172 19.137 19.107 19.092 19.075 19.052 18.98 18.86 18.75 18.663 18.603 18.573 18.565 18.565 18.56 18.563 18.585 18.622 18.637 18.617 18.59 18.555 18.5 18.433 18.385 18.395 18.447 18.49 18.51 18.495 18.457 18.422 18.375 18.303 18.275 18.308 18.345 18.377 18.395 18.4 18.39 18.355 18.398 18.52 18.602 18.62 18.577 18.48 18.32 18.15 18.058 18.025 17.987 17.938 17.89 17.85 17.81 17.77 17.73 17.69 17.655 17.627 17.57 17.48 17.39 17.295 17.208 17.13 17.05 16.96 16.883 16.835 16.795 16.758 16.722 16.68
16.63 16.637 16.562 16.442 16.312 16.17 16.02 15.838 15.715 15.69 15.668 15.653 15.655 15.673 15.713 15.767 15.81 15.827 15.828 15.825 15.83 15.85 15.88 15.91 15.953 16.015 16.093 16.17 16.238 16.303 16.37 16.445 16.523 16.595 16.663 16.725 16.78 16.82 16.845 16.863 16.885 16.915 16.93 16.93 16.933 16.94 16.965 17.003 17.038 17.075 17.39 18.14 18.822 18.937 18.7 18.485 18.313 18.258 18.302 18.31 18.295 18.283 18.288 18.328 18.385 18.443 18.48 18.505 18.533 18.558 18.598 18.693 18.833 18.985 19.092 19.16 19.24 19.322 19.387 19.42 19.43 19.425 19.41 19.39 19.357 19.302 19.257 19.232 19.212 19.185 19.135 19.08 19.033 18.993 18.955 18.923 18.943 19.005 19.038 19.058 19.108 19.172 19.195 19.17 19.135 19.09 19.047 19.012 18.97 18.915 18.87 18.848 18.845 18.86 18.89 18.925 18.968 19.033 19.095 19.15 19.21 19.252 19.255 19.222 19.175 19.115 19.068 19.048 19.03 19.007 18.935 18.833 18.76 18.71 18.655 18.593 18.563 18.558 18.553 18.548 18.545 18.56 18.57 18.55 18.517 18.482 18.43 18.373 18.368 18.415 18.472 18.527 18.58 18.607 18.597 18.555 18.48 18.39 18.36 18.395 18.438 18.475 18.492 18.482 18.442 18.39 18.432 18.58 18.715 18.772 18.705 18.54 18.35 18.183 18.095 18.057 18.007 17.953 17.905 17.865 17.825 17.785 17.745 17.71 17.685 17.66 17.6 17.507 17.41 17.308 17.21 17.122 17.032 16.938 16.86 16.81 16.77 16.732 16.695 16.657
16.62 16.617 16.535 16.398 16.25 16.1 15.95 15.813 15.738 15.715 15.695 15.675 15.658 15.655 15.69 15.753 15.815 15.86 15.87 15.86 15.855 15.865 15.89 15.92 15.955 15.998 16.053 16.118 16.183 16.245 16.308 16.385 16.475 16.565 16.638 16.695 16.757 16.805 16.832 16.852 16.87 16.895 16.91 16.91 16.91 16.913 16.935 16.973 17.01 17.183 17.783 18.602 18.99 18.927 18.762 18.585 18.405 18.258 18.2 18.2 18.2 18.203 18.218 18.265 18.338 18.413 18.467 18.5 18.527 18.553 18.6 18.705 18.84 18.98 19.092 19.172 19.252 19.33 19.382 19.395 19.395 19.395 19.387 19.367 19.345 19.322 19.297 19.275 19.255 19.23 19.18 19.112 19.045 18.978 18.913 18.865 18.888 18.95 18.993 19.045 19.11 19.172 19.192 19.165 19.135 19.102 19.062 19.015 18.962 18.905 18.86 18.838 18.825 18.825 18.85 18.885 18.92 18.968 19.025 19.088 19.155 19.222 19.247 19.2 19.12 19.048 19.01 19 18.985 18.965 18.915 18.853 18.81 18.772 18.72 18.645 18.583 18.555 18.548 18.543 18.538 18.535 18.518 18.48 18.443 18.407 18.36 18.34 18.38 18.44 18.498 18.553 18.608 18.662 18.697 18.662 18.575 18.483 18.453 18.49 18.532 18.57 18.575 18.54 18.49 18.415 18.36 18.397 18.482 18.545 18.53 18.46 18.355 18.217 18.13 18.08 18.023 17.968 17.918 17.878 17.84 17.8 17.763 17.735 17.715 17.69 17.627 17.53 17.428 17.318 17.205 17.103 17.008 16.915 16.84 16.788 16.745 16.705 16.668 16.632
16.642 16.615 16.517 16.375 16.225 16.083 15.958 15.848 15.785 15.765 15.745 15.725 15.703 15.703 15.745 15.81 15.88 15.945 15.97 15.958 15.945 15.943 15.963 15.998 16.035 16.07 16.1 16.145 16.205 16.265 16.32 16.378 16.46 16.56 16.635 16.69 16.745 16.78 16.802 16.827 16.85 16.875 16.89 16.89 16.89 16.89 16.908 16.945 17.043 17.493 18.32 18.915 18.995 18.86 18.747 18.625 18.455 18.278 18.165 18.155 18.17 18.185 18.213 18.263 18.333 18.407 18.46 18.49 18.52 18.545 18.585 18.685 18.822 18.947 19.045 19.122 19.195 19.265 19.307 19.315 19.315 19.335 19.352 19.337 19.315 19.302 19.292 19.277 19.26 19.232 19.182 19.115 19.045 18.975 18.905 18.868 18.88 18.923 18.983 19.047 19.112 19.172 19.187 19.16 19.13 19.097 19.057 19.01 18.955 18.895 18.85 18.83 18.818 18.82 18.853 18.893 18.928 18.963 19.005 19.063 19.135 19.21 19.23 19.17 19.085 19.018 18.985 18.975 18.96 18.945 18.92 18.882 18.845 18.807 18.755 18.682 18.61 18.568 18.555 18.55 18.548 18.537 18.5 18.44 18.388 18.34 18.315 18.348 18.413 18.48 18.538 18.588 18.648 18.71 18.755 18.75 18.682 18.585 18.555 18.595 18.63 18.597 18.595 18.615 18.57 18.38 18.143 18.055 18.028 18.023 18.058 18.138 18.197 18.195 18.155 18.103 18.045 17.99 17.943 17.903 17.865 17.825 17.793 17.77 17.75 17.722 17.66 17.565 17.46 17.33 17.195 17.083 16.985 16.893 16.818 16.765 16.718 16.678 16.642 16.608
16.667 16.605 16.515 16.405 16.288 16.18 16.078 15.948 15.86 15.84 15.82 15.8 15.798 15.833 15.888 15.948 16.013 16.08 16.117 16.112 16.098 16.088 16.105 16.145 16.177 16.2 16.22 16.25 16.298 16.355 16.402 16.428 16.473 16.56 16.635 16.687 16.727 16.742 16.758 16.783 16.813 16.85 16.87 16.87 16.87 16.87 16.885 16.925 17.223 17.955 18.742 19.027 18.902 18.728 18.628 18.577 18.45 18.278 18.175 18.168 18.183 18.198 18.225 18.268 18.328 18.4 18.45 18.48 18.507 18.527 18.548 18.63 18.767 18.865 18.927 18.997 19.072 19.145 19.192 19.205 19.223 19.275 19.312 19.305 19.288 19.28 19.275 19.26 19.235 19.192 19.142 19.09 19.025 18.953 18.89 18.875 18.885 18.91 18.975 19.047 19.115 19.172 19.18 19.15 19.117 19.08 19.037 18.99 18.94 18.885 18.84 18.828 18.838 18.865 18.907 18.947 18.977 19.005 19.033 19.068 19.128 19.2 19.21 19.143 19.07 19.015 18.985 18.973 18.96 18.95 18.925 18.888 18.852 18.815 18.76 18.693 18.633 18.593 18.578 18.572 18.562 18.542 18.497 18.433 18.38 18.345 18.353 18.41 18.483 18.565 18.615 18.645 18.703 18.765 18.805 18.815 18.78 18.698 18.668 18.705 18.675 18.515 18.475 18.62 18.67 18.292 17.893 17.8 17.733 17.7 17.765 17.913 18.055 18.162 18.177 18.13 18.075 18.02 17.975 17.935 17.898 17.86 17.828 17.805 17.782 17.747 17.695 17.61 17.485 17.33 17.185 17.068 16.963 16.868 16.795 16.745 16.695 16.653 16.615 16.58
16.658 16.595 16.535 16.478 16.42 16.35 16.232 16.053 15.94 15.92 15.9 15.898 15.933 15.987 16.042 16.098 16.155 16.217 16.262 16.265 16.25 16.24 16.255 16.287 16.305 16.318 16.338 16.365 16.4 16.45 16.487 16.498 16.513 16.565 16.632 16.675 16.692 16.698 16.713 16.74 16.778 16.827 16.857 16.858 16.853 16.85 16.863 17.023 17.608 18.48 18.977 18.955 18.775 18.588 18.48 18.46 18.407 18.275 18.183 18.183 18.198 18.21 18.238 18.28 18.328 18.392 18.442 18.467 18.49 18.505 18.515 18.58 18.687 18.75 18.795 18.863 18.94 19.017 19.077 19.113 19.16 19.23 19.275 19.275 19.263 19.263 19.257 19.237 19.2 19.145 19.09 19.05 19 18.928 18.885 18.882 18.88 18.888 18.948 19.035 19.112 19.167 19.17 19.137 19.1 19.057 19.013 18.965 18.918 18.87 18.843 18.855 18.887 18.925 18.962 18.992 19.017 19.042 19.068 19.095 19.133 19.19 19.192 19.128 19.068 19.015 18.985 18.973 18.963 18.955 18.932 18.895 18.86 18.825 18.773 18.713 18.663 18.623 18.6 18.588 18.57 18.543 18.5 18.46 18.44 18.435 18.448 18.498 18.583 18.677 18.72 18.725 18.76 18.815 18.852 18.86 18.85 18.803 18.78 18.755 18.605 18.385 18.235 18.42 18.594 18.12 17.67 17.623 17.6 17.6 17.698 17.885 18.055 18.177 18.2 18.155 18.102 18.05 18.005 17.967 17.932 17.895 17.862 17.835 17.802 17.762 17.717 17.63 17.485 17.32 17.175 17.055 16.943 16.845 16.775 16.725 16.675 16.628 16.588 16.55
16.685 16.64 16.603 16.572 16.545 16.502 16.377 16.155 16.02 16 15.998 16.03 16.085 16.14 16.195 16.252 16.307 16.36 16.402 16.417 16.408 16.393 16.398 16.415 16.425 16.435 16.455 16.485 16.515 16.55 16.57 16.572 16.575 16.59 16.62 16.64 16.647 16.653 16.67 16.708 16.757 16.812 16.853 16.855 16.84 16.833 16.903 17.32 18.13 18.84 19.002 18.825 18.637 18.453 18.338 18.308 18.293 18.238 18.19 18.2 18.215 18.225 18.25 18.292 18.337 18.392 18.435 18.453 18.468 18.48 18.49 18.528 18.583 18.62 18.663 18.728 18.805 18.888 18.973 19.045 19.112 19.185 19.237 19.247 19.243 19.247 19.24 19.207 19.155 19.095 19.035 18.995 18.962 18.913 18.885 18.88 18.868 18.86 18.91 19.007 19.097 19.157 19.157 19.12 19.077 19.033 18.99 18.948 18.905 18.865 18.853 18.88 18.917 18.957 18.997 19.027 19.052 19.078 19.105 19.132 19.158 19.192 19.185 19.128 19.073 19.018 18.985 18.978 18.97 18.96 18.94 18.905 18.87 18.835 18.795 18.755 18.718 18.683 18.653 18.628 18.603 18.57 18.543 18.538 18.54 18.54 18.545 18.593 18.692 18.795 18.835 18.828 18.833 18.868 18.897 18.903 18.905 18.89 18.837 18.695 18.48 18.257 18.035 18.127 18.095 17.705 17.545 17.538 17.538 17.543 17.628 17.815 18.017 18.177 18.217 18.172 18.125 18.075 18.033 18 17.965 17.927 17.895 17.86 17.817 17.77 17.717 17.617 17.465 17.305 17.165 17.045 16.93 16.828 16.755 16.705 16.655 16.605 16.56 16.515
16.765 16.72 16.685 16.657 16.632 16.595 16.475 16.258 16.113 16.098 16.13 16.183 16.237 16.292 16.347 16.4 16.445 16.485 16.527 16.565 16.575 16.56 16.555 16.565 16.572 16.562 16.555 16.575 16.602 16.627 16.64 16.64 16.64 16.617 16.588 16.585 16.595 16.605 16.633 16.68 16.735 16.805 16.902 16.945 16.92 16.923 17.133 17.76 18.592 18.985 18.872 18.678 18.495 18.32 18.223 18.213 18.22 18.223 18.22 18.228 18.24 18.253 18.263 18.275 18.313 18.37 18.417 18.442 18.455 18.468 18.48 18.488 18.495 18.508 18.533 18.598 18.693 18.793 18.898 18.985 19.06 19.137 19.2 19.225 19.227 19.23 19.212 19.165 19.105 19.045 18.985 18.933 18.905 18.895 18.885 18.875 18.863 18.85 18.89 18.985 19.08 19.137 19.13 19.09 19.045 19.008 18.98 18.945 18.91 18.875 18.86 18.885 18.925 18.973 19.022 19.06 19.088 19.115 19.142 19.167 19.19 19.202 19.187 19.14 19.085 19.033 19.003 18.998 18.993 18.985 18.962 18.928 18.893 18.863 18.85 18.837 18.81 18.78 18.75 18.72 18.68 18.63 18.608 18.612 18.615 18.618 18.635 18.69 18.787 18.895 18.94 18.932 18.928 18.935 18.945 18.95 18.955 18.95 18.802 18.55 18.332 18.115 17.895 17.652 17.373 17.368 17.507 17.503 17.5 17.52 17.593 17.753 17.965 18.147 18.202 18.16 18.117 18.08 18.05 18.02 17.987 17.955 17.915 17.867 17.82 17.767 17.702 17.587 17.433 17.293 17.173 17.058 16.945 16.835 16.728 16.643 16.587 16.542 16.517 16.49
16.847 16.803 16.768 16.74 16.7 16.642 16.522 16.335 16.22 16.23 16.283 16.337 16.39 16.437 16.482 16.525 16.562 16.598 16.64 16.69 16.727 16.735 16.733 16.74 16.73 16.682 16.643 16.64 16.658 16.685 16.7 16.7 16.682 16.615 16.543 16.525 16.538 16.563 16.605 16.655 16.713 16.818 16.985 17.095 17.125 17.173 17.493 18.21 18.862 19 18.785 18.57 18.405 18.263 18.21 18.235 18.265 18.285 18.283 18.273 18.275 18.287 18.287 18.273 18.278 18.313 18.37 18.43 18.46 18.475 18.485 18.475 18.458 18.45 18.46 18.518 18.62 18.735 18.842 18.927 19.002 19.075 19.135 19.167 19.177 19.185 19.167 19.115 19.055 18.997 18.94 18.878 18.838 18.84 18.862 18.872 18.865 18.855 18.888 18.975 19.06 19.102 19.09 19.05 19.015 19 18.987 18.955 18.92 18.885 18.87 18.895 18.938 18.988 19.042 19.09 19.125 19.152 19.177 19.2 19.21 19.202 19.185 19.152 19.105 19.055 19.033 19.032 19.028 19.02 18.995 18.963 18.935 18.915 18.917 18.925 18.915 18.89 18.86 18.82 18.76 18.693 18.663 18.665 18.67 18.69 18.73 18.79 18.87 18.97 19.025 19.025 19.02 19.007 19 19.005 19.002 18.982 18.782 18.428 18.153 17.94 17.565 17.05 16.963 17.302 17.482 17.478 17.505 17.583 17.66 17.758 17.93 18.107 18.16 18.123 18.093 18.078 18.06 18.03 18 17.965 17.917 17.865 17.815 17.765 17.687 17.555 17.418 17.315 17.215 17.1 16.985 16.87 16.73 16.588 16.483 16.42 16.425 16.452
16.927 16.887 16.847 16.802 16.742 16.675 16.55 16.413 16.368 16.39 16.44 16.492 16.535 16.567 16.598 16.635 16.675 16.712 16.755 16.805 16.855 16.892 16.907 16.895 16.845 16.778 16.735 16.718 16.72 16.742 16.755 16.742 16.687 16.59 16.5 16.47 16.493 16.535 16.582 16.627 16.678 16.802 16.997 17.175 17.297 17.41 17.833 18.562 18.98 18.965 18.775 18.548 18.385 18.285 18.275 18.312 18.345 18.362 18.355 18.335 18.323 18.325 18.323 18.308 18.305 18.308 18.335 18.398 18.45 18.482 18.485 18.465 18.443 18.43 18.445 18.493 18.575 18.682 18.785 18.87 18.94 18.995 19.04 19.07 19.087 19.102 19.095 19.06 19.01 18.952 18.895 18.83 18.775 18.763 18.797 18.837 18.857 18.86 18.888 18.96 19.022 19.06 19.052 19.023 19.013 19.015 19.005 18.97 18.933 18.895 18.878 18.903 18.95 19 19.055 19.112 19.157 19.187 19.21 19.217 19.21 19.195 19.175 19.155 19.122 19.078 19.058 19.062 19.062 19.052 19.03 19.008 18.99 18.975 18.975 18.99 19.002 18.995 18.96 18.9 18.83 18.76 18.72 18.723 18.748 18.79 18.84 18.9 18.97 19.05 19.105 19.11 19.092 19.07 19.06 19.057 19.037 19.005 18.822 18.415 18.018 17.675 17.143 16.778 16.935 17.285 17.467 17.503 17.59 17.71 17.797 17.85 17.94 18.072 18.125 18.103 18.09 18.085 18.07 18.037 18.002 17.962 17.915 17.865 17.815 17.765 17.675 17.55 17.45 17.37 17.272 17.153 17.033 16.915 16.772 16.608 16.45 16.325 16.3 16.36
16.977 16.95 16.91 16.845 16.778 16.705 16.62 16.573 16.57 16.577 16.605 16.642 16.672 16.695 16.718 16.748 16.785 16.825 16.87 16.92 16.97 17.02 17.045 17.007 16.93 16.863 16.825 16.807 16.798 16.802 16.8 16.753 16.663 16.558 16.47 16.433 16.453 16.498 16.54 16.58 16.62 16.725 16.912 17.142 17.333 17.6 18.197 18.8 18.985 18.927 18.785 18.573 18.393 18.32 18.342 18.377 18.412 18.435 18.43 18.41 18.39 18.378 18.378 18.385 18.398 18.385 18.37 18.398 18.45 18.492 18.487 18.458 18.43 18.413 18.435 18.485 18.548 18.635 18.727 18.8 18.855 18.9 18.94 18.97 18.993 19.01 19.005 18.985 18.955 18.905 18.845 18.783 18.72 18.69 18.715 18.765 18.812 18.845 18.88 18.93 18.978 19.023 19.035 19.03 19.038 19.045 19.033 18.993 18.95 18.91 18.888 18.91 18.96 19.01 19.065 19.125 19.177 19.212 19.225 19.215 19.2 19.185 19.165 19.15 19.13 19.1 19.085 19.088 19.092 19.087 19.075 19.065 19.05 19.035 19.035 19.05 19.072 19.08 19.045 18.978 18.905 18.833 18.79 18.805 18.85 18.897 18.945 19.005 19.075 19.142 19.177 19.172 19.152 19.13 19.112 19.092 19.063 19.03 18.867 18.467 17.937 17.423 16.945 16.805 17.043 17.33 17.51 17.603 17.725 17.845 17.93 17.977 18.025 18.082 18.107 18.1 18.097 18.095 18.077 18.04 18 17.96 17.915 17.865 17.815 17.762 17.682 17.59 17.507 17.425 17.325 17.205 17.085 16.975 16.835 16.665 16.503 16.34 16.278 16.325
16.978 16.997 16.975 16.905 16.835 16.76 16.718 16.715 16.712 16.71 16.72 16.75 16.792 16.827 16.85 16.873 16.9 16.935 16.98 17.03 17.08 17.13 17.145 17.092 17.005 16.93 16.892 16.88 16.87 16.865 16.88 16.895 16.893 16.888 16.895 16.983 17.072 17.033 16.9 16.733 16.613 16.628 16.785 17.063 17.373 17.858 18.545 18.927 18.94 18.892 18.782 18.592 18.41 18.335 18.355 18.385 18.422 18.47 18.51 18.52 18.505 18.485 18.488 18.515 18.517 18.48 18.44 18.445 18.487 18.515 18.502 18.468 18.438 18.428 18.458 18.508 18.558 18.618 18.673 18.718 18.763 18.808 18.858 18.903 18.933 18.95 18.945 18.925 18.905 18.87 18.813 18.745 18.675 18.625 18.64 18.698 18.755 18.818 18.885 18.943 18.993 19.045 19.078 19.09 19.1 19.11 19.087 19.035 18.99 18.948 18.915 18.918 18.955 19.005 19.057 19.115 19.167 19.19 19.187 19.187 19.187 19.175 19.158 19.145 19.135 19.125 19.12 19.123 19.122 19.112 19.102 19.097 19.09 19.083 19.09 19.112 19.132 19.135 19.117 19.067 18.995 18.92 18.875 18.895 18.947 19 19.05 19.102 19.157 19.21 19.22 19.195 19.175 19.155 19.142 19.125 19.093 19.06 18.897 18.418 17.723 17.22 16.925 16.915 17.213 17.487 17.633 17.713 17.83 17.95 18.035 18.08 18.112 18.115 18.103 18.097 18.095 18.09 18.065 18.025 17.985 17.95 17.91 17.86 17.807 17.752 17.695 17.632 17.56 17.48 17.38 17.27 17.175 17.095 16.95 16.75 16.58 16.42 16.358 16.395
16.99 17.055 17.052 16.985 16.905 16.825 16.785 16.777 16.772 16.768 16.778 16.823 16.9 16.957 16.98 17 17.035 17.078 17.105 17.14 17.19 17.24 17.242 17.172 17.07 16.975 16.93 16.92 16.917 16.92 16.968 17.065 17.165 17.262 17.365 17.587 17.765 17.707 17.545 17.347 17.195 17.155 16.973 17.013 17.523 18.172 18.745 18.922 18.895 18.867 18.772 18.6 18.433 18.33 18.31 18.343 18.393 18.465 18.545 18.605 18.635 18.635 18.63 18.64 18.62 18.57 18.52 18.503 18.532 18.547 18.525 18.5 18.49 18.498 18.525 18.568 18.61 18.64 18.653 18.67 18.695 18.73 18.793 18.86 18.905 18.925 18.92 18.9 18.883 18.855 18.8 18.728 18.658 18.608 18.618 18.678 18.743 18.845 18.96 19.025 19.073 19.125 19.16 19.177 19.19 19.2 19.17 19.1 19.045 19.003 18.965 18.945 18.95 18.985 19.035 19.09 19.125 19.122 19.11 19.11 19.12 19.132 19.152 19.162 19.16 19.16 19.16 19.162 19.15 19.125 19.11 19.105 19.11 19.125 19.15 19.175 19.182 19.177 19.172 19.15 19.092 19.018 18.97 18.98 19.028 19.085 19.135 19.17 19.205 19.242 19.242 19.203 19.168 19.145 19.145 19.15 19.13 19.1 19.012 18.635 17.94 17.348 17.045 17.103 17.43 17.707 17.812 17.835 17.915 18.03 18.115 18.152 18.152 18.118 18.095 18.09 18.08 18.062 18.03 17.993 17.958 17.93 17.897 17.847 17.793 17.74 17.69 17.64 17.585 17.527 17.46 17.385 17.32 17.26 17.112 16.883 16.675 16.5 16.44 16.475
17.04 17.11 17.122 17.055 16.958 16.878 16.845 16.835 16.828 16.823 16.838 16.903 17.005 17.077 17.105 17.133 17.208 17.28 17.285 17.28 17.305 17.35 17.337 17.242 17.122 17.013 16.96 16.955 16.96 16.97 17.02 17.115 17.22 17.33 17.445 17.652 17.805 17.8 17.78 17.76 17.737 17.722 17.275 17.075 17.71 18.467 18.855 18.84 18.818 18.825 18.76 18.618 18.473 18.35 18.285 18.305 18.37 18.45 18.53 18.61 18.685 18.735 18.755 18.745 18.705 18.655 18.608 18.57 18.573 18.577 18.563 18.563 18.575 18.59 18.607 18.637 18.662 18.673 18.678 18.683 18.688 18.705 18.75 18.81 18.867 18.902 18.9 18.883 18.87 18.847 18.795 18.728 18.675 18.645 18.645 18.69 18.783 18.94 19.075 19.125 19.163 19.21 19.245 19.262 19.275 19.287 19.26 19.18 19.105 19.058 19.025 19 18.98 18.98 19.015 19.057 19.065 19.048 19.03 19.013 19.005 19.033 19.097 19.157 19.19 19.2 19.2 19.192 19.165 19.133 19.118 19.123 19.148 19.188 19.22 19.23 19.228 19.222 19.215 19.207 19.177 19.115 19.068 19.07 19.105 19.153 19.195 19.218 19.24 19.27 19.267 19.22 19.168 19.135 19.135 19.15 19.155 19.145 19.12 18.937 18.5 17.995 17.585 17.455 17.67 17.932 18.02 18.013 18.035 18.115 18.19 18.2 18.165 18.113 18.085 18.075 18.055 18.03 17.995 17.963 17.938 17.915 17.882 17.833 17.78 17.73 17.68 17.63 17.588 17.56 17.555 17.535 17.48 17.42 17.285 17.057 16.818 16.603 16.52 16.542
17.085 17.157 17.182 17.115 17.008 16.933 16.905 16.895 16.885 16.878 16.908 16.995 17.105 17.192 17.235 17.293 17.402 17.472 17.472 17.455 17.45 17.462 17.415 17.295 17.165 17.053 17.005 17.008 17.015 17.025 17.078 17.18 17.295 17.415 17.535 17.685 17.772 17.76 17.74 17.72 17.7 17.73 17.423 17.293 17.938 18.655 18.875 18.758 18.723 18.747 18.735 18.645 18.515 18.388 18.283 18.275 18.35 18.43 18.51 18.59 18.67 18.75 18.807 18.81 18.78 18.74 18.695 18.65 18.623 18.617 18.62 18.63 18.64 18.65 18.672 18.695 18.703 18.71 18.718 18.723 18.73 18.74 18.76 18.798 18.845 18.883 18.885 18.87 18.86 18.84 18.795 18.745 18.715 18.695 18.68 18.728 18.872 19.062 19.182 19.222 19.257 19.295 19.322 19.332 19.337 19.347 19.322 19.25 19.172 19.115 19.082 19.057 19.032 19.01 19.008 19.015 19.008 18.99 18.973 18.958 18.943 18.955 19.018 19.1 19.17 19.22 19.232 19.207 19.172 19.14 19.138 19.17 19.215 19.26 19.28 19.277 19.272 19.265 19.257 19.252 19.24 19.202 19.16 19.163 19.195 19.227 19.255 19.272 19.287 19.305 19.292 19.24 19.182 19.135 19.123 19.135 19.15 19.155 19.072 18.867 18.615 18.412 18.21 18.013 18.01 18.155 18.227 18.22 18.213 18.232 18.247 18.215 18.165 18.113 18.075 18.05 18.025 18 17.97 17.945 17.925 17.905 17.872 17.823 17.77 17.72 17.675 17.635 17.603 17.59 17.62 17.655 17.637 17.585 17.457 17.24 16.995 16.728 16.588 16.597
17.122 17.192 17.225 17.187 17.095 17.01 16.975 16.965 16.955 16.94 16.98 17.087 17.202 17.305 17.372 17.432 17.497 17.527 17.53 17.525 17.517 17.525 17.47 17.34 17.21 17.108 17.075 17.083 17.088 17.095 17.155 17.27 17.39 17.51 17.625 17.702 17.723 17.715 17.7 17.68 17.695 17.79 17.603 17.575 18.232 18.795 18.847 18.69 18.635 18.673 18.695 18.65 18.535 18.405 18.285 18.258 18.325 18.405 18.485 18.565 18.645 18.735 18.805 18.815 18.8 18.782 18.755 18.712 18.66 18.64 18.647 18.652 18.658 18.678 18.717 18.742 18.75 18.76 18.765 18.77 18.78 18.788 18.8 18.828 18.863 18.895 18.898 18.878 18.863 18.843 18.813 18.785 18.765 18.745 18.73 18.775 18.923 19.115 19.227 19.265 19.3 19.332 19.357 19.365 19.365 19.367 19.342 19.28 19.212 19.155 19.115 19.085 19.06 19.035 19.015 19.008 19 18.985 18.97 18.96 18.955 18.963 19 19.068 19.145 19.217 19.235 19.2 19.165 19.14 19.155 19.205 19.257 19.3 19.307 19.3 19.297 19.295 19.295 19.292 19.287 19.272 19.25 19.252 19.272 19.282 19.267 19.257 19.272 19.29 19.282 19.232 19.172 19.115 19.093 19.105 19.117 19.122 19.005 18.775 18.583 18.5 18.49 18.447 18.392 18.4 18.417 18.402 18.385 18.35 18.298 18.245 18.193 18.133 18.083 18.05 18.023 17.99 17.96 17.94 17.92 17.9 17.875 17.833 17.78 17.728 17.685 17.655 17.625 17.617 17.655 17.715 17.752 17.74 17.63 17.417 17.147 16.83 16.645 16.64
17.152 17.212 17.247 17.245 17.195 17.108 17.055 17.042 17.03 17.005 17.04 17.155 17.277 17.377 17.437 17.462 17.472 17.487 17.492 17.488 17.498 17.54 17.51 17.385 17.255 17.17 17.155 17.165 17.172 17.178 17.243 17.367 17.49 17.61 17.712 17.735 17.7 17.675 17.658 17.665 17.747 17.777 17.678 17.875 18.547 18.955 18.862 18.69 18.603 18.625 18.65 18.62 18.53 18.408 18.298 18.26 18.305 18.38 18.46 18.54 18.628 18.737 18.805 18.797 18.778 18.767 18.755 18.725 18.675 18.64 18.64 18.645 18.665 18.718 18.767 18.79 18.797 18.805 18.813 18.82 18.827 18.833 18.843 18.865 18.898 18.93 18.932 18.91 18.893 18.878 18.86 18.838 18.815 18.795 18.798 18.84 18.935 19.092 19.21 19.255 19.293 19.33 19.36 19.37 19.373 19.375 19.347 19.288 19.233 19.188 19.14 19.095 19.063 19.035 19.023 19.03 19.03 19.017 19.003 18.995 19 19.01 19.028 19.075 19.15 19.21 19.215 19.183 19.155 19.138 19.155 19.205 19.26 19.307 19.31 19.29 19.285 19.29 19.295 19.295 19.297 19.295 19.29 19.297 19.302 19.295 19.25 19.195 19.188 19.207 19.212 19.18 19.125 19.068 19.05 19.065 19.075 19.082 18.967 18.765 18.663 18.653 18.655 18.645 18.627 18.595 18.56 18.532 18.492 18.422 18.355 18.3 18.235 18.163 18.108 18.075 18.042 18 17.963 17.94 17.92 17.9 17.88 17.852 17.807 17.753 17.71 17.68 17.625 17.577 17.602 17.68 17.772 17.84 17.787 17.567 17.25 16.91 16.703 16.678
17.172 17.227 17.262 17.27 17.257 17.2 17.14 17.118 17.097 17.06 17.09 17.205 17.307 17.37 17.402 17.418 17.43 17.45 17.455 17.463 17.503 17.56 17.545 17.432 17.3 17.233 17.235 17.245 17.255 17.263 17.328 17.457 17.587 17.71 17.795 17.792 17.74 17.693 17.658 17.703 17.835 17.683 17.668 18.173 18.785 19.035 18.885 18.738 18.633 18.605 18.605 18.572 18.51 18.41 18.31 18.275 18.3 18.36 18.44 18.525 18.63 18.752 18.805 18.783 18.76 18.743 18.725 18.705 18.677 18.643 18.633 18.655 18.705 18.775 18.822 18.837 18.843 18.85 18.86 18.868 18.873 18.88 18.89 18.908 18.935 18.965 18.97 18.955 18.948 18.94 18.922 18.895 18.87 18.86 18.885 18.94 19.003 19.098 19.192 19.245 19.287 19.33 19.362 19.375 19.38 19.385 19.355 19.303 19.265 19.23 19.18 19.123 19.073 19.038 19.03 19.045 19.055 19.05 19.04 19.04 19.05 19.06 19.07 19.095 19.155 19.202 19.195 19.17 19.155 19.14 19.155 19.208 19.262 19.312 19.315 19.28 19.26 19.26 19.265 19.265 19.265 19.257 19.255 19.28 19.302 19.297 19.25 19.175 19.123 19.115 19.12 19.102 19.067 19.023 19.008 19.022 19.035 19.045 18.95 18.825 18.808 18.82 18.82 18.802 18.765 18.715 18.672 18.63 18.562 18.478 18.405 18.337 18.263 18.188 18.13 18.092 18.052 18.008 17.97 17.945 17.923 17.9 17.88 17.86 17.827 17.78 17.732 17.67 17.562 17.473 17.465 17.525 17.635 17.757 17.792 17.627 17.322 16.99 16.76 16.713
17.188 17.242 17.277 17.285 17.285 17.267 17.225 17.19 17.157 17.11 17.135 17.222 17.277 17.315 17.355 17.378 17.39 17.41 17.428 17.463 17.52 17.58 17.582 17.485 17.358 17.305 17.315 17.325 17.335 17.345 17.413 17.542 17.677 17.807 17.88 17.865 17.818 17.77 17.73 17.785 17.93 17.738 17.813 18.475 18.957 19.05 18.905 18.777 18.68 18.608 18.563 18.52 18.47 18.397 18.32 18.295 18.308 18.348 18.42 18.52 18.645 18.76 18.797 18.77 18.745 18.725 18.705 18.685 18.665 18.64 18.645 18.698 18.765 18.835 18.875 18.883 18.89 18.9 18.91 18.918 18.925 18.935 18.942 18.947 18.967 19 19.012 19.01 19.012 19.007 18.985 18.955 18.93 18.937 18.977 19.027 19.08 19.13 19.182 19.23 19.275 19.32 19.36 19.38 19.385 19.392 19.372 19.335 19.305 19.27 19.22 19.16 19.1 19.05 19.038 19.055 19.073 19.08 19.083 19.09 19.1 19.11 19.12 19.133 19.17 19.197 19.183 19.165 19.155 19.143 19.16 19.212 19.265 19.315 19.322 19.285 19.25 19.235 19.235 19.23 19.218 19.2 19.2 19.238 19.282 19.295 19.252 19.177 19.1 19.048 19.028 19.013 18.993 18.968 18.963 18.98 18.998 19.01 18.983 18.957 18.972 18.987 18.982 18.945 18.89 18.83 18.772 18.707 18.627 18.54 18.458 18.38 18.3 18.223 18.158 18.108 18.06 18.015 17.978 17.95 17.928 17.905 17.883 17.857 17.832 17.79 17.71 17.593 17.455 17.37 17.348 17.35 17.41 17.51 17.575 17.527 17.32 17.025 16.805 16.743
17.202 17.257 17.29 17.295 17.295 17.295 17.285 17.26 17.223 17.175 17.173 17.215 17.255 17.3 17.348 17.373 17.383 17.395 17.425 17.48 17.543 17.605 17.627 17.55 17.433 17.388 17.395 17.405 17.415 17.43 17.498 17.62 17.755 17.89 17.962 17.95 17.907 17.863 17.833 17.888 18.025 17.925 18.105 18.777 19.102 19.037 18.895 18.775 18.68 18.59 18.53 18.49 18.435 18.373 18.325 18.315 18.325 18.345 18.41 18.528 18.66 18.76 18.785 18.763 18.74 18.72 18.7 18.68 18.66 18.65 18.683 18.75 18.82 18.895 18.935 18.94 18.953 18.965 18.975 18.985 18.995 18.997 18.982 18.97 18.99 19.025 19.045 19.05 19.05 19.04 19.017 18.99 18.963 18.972 19.015 19.057 19.097 19.13 19.16 19.197 19.242 19.287 19.332 19.365 19.38 19.39 19.38 19.352 19.325 19.292 19.245 19.185 19.123 19.083 19.078 19.09 19.11 19.125 19.133 19.14 19.153 19.165 19.175 19.185 19.192 19.192 19.18 19.165 19.155 19.145 19.165 19.215 19.265 19.302 19.302 19.272 19.24 19.215 19.208 19.205 19.195 19.185 19.198 19.24 19.28 19.29 19.247 19.17 19.093 19.033 19 18.985 18.97 18.955 18.96 18.978 18.995 19.005 19.02 19.047 19.07 19.087 19.085 19.042 18.98 18.915 18.845 18.772 18.695 18.61 18.525 18.445 18.363 18.285 18.213 18.148 18.095 18.048 17.998 17.96 17.94 17.92 17.888 17.85 17.825 17.78 17.675 17.535 17.405 17.328 17.298 17.27 17.258 17.26 17.275 17.295 17.202 16.975 16.8 16.76
17.218 17.272 17.302 17.308 17.31 17.318 17.333 17.332 17.312 17.277 17.243 17.243 17.28 17.33 17.372 17.395 17.405 17.413 17.445 17.505 17.57 17.64 17.695 17.645 17.54 17.495 17.483 17.485 17.495 17.52 17.59 17.698 17.825 17.96 18.032 18.032 18.002 17.958 17.935 17.99 18.12 18.11 18.37 18.972 19.15 18.995 18.855 18.738 18.638 18.55 18.503 18.477 18.427 18.368 18.34 18.348 18.365 18.385 18.433 18.523 18.64 18.742 18.777 18.765 18.745 18.725 18.705 18.685 18.675 18.685 18.728 18.795 18.883 18.977 19.017 19.02 19.033 19.045 19.055 19.065 19.062 19.037 18.995 18.98 19.01 19.045 19.062 19.065 19.06 19.045 19.022 18.995 18.965 18.965 19 19.04 19.072 19.097 19.12 19.153 19.198 19.243 19.288 19.33 19.362 19.377 19.367 19.343 19.32 19.297 19.252 19.19 19.148 19.15 19.163 19.165 19.178 19.192 19.198 19.198 19.208 19.22 19.23 19.232 19.205 19.18 19.175 19.165 19.155 19.145 19.165 19.212 19.25 19.265 19.255 19.23 19.208 19.198 19.203 19.215 19.22 19.223 19.247 19.28 19.29 19.28 19.23 19.153 19.09 19.058 19.04 19.025 19.01 18.993 18.995 19.012 19.022 19.02 19.03 19.06 19.082 19.09 19.097 19.087 19.04 18.975 18.905 18.835 18.762 18.68 18.595 18.515 18.438 18.365 18.29 18.218 18.158 18.105 18.045 17.988 17.955 17.935 17.897 17.848 17.812 17.767 17.665 17.533 17.425 17.353 17.31 17.272 17.21 17.13 17.078 17.053 17.012 16.88 16.765 16.752
17.25 17.288 17.317 17.328 17.343 17.368 17.392 17.4 17.395 17.377 17.35 17.323 17.323 17.36 17.397 17.415 17.425 17.435 17.473 17.538 17.608 17.685 17.762 17.747 17.675 17.638 17.605 17.58 17.575 17.61 17.69 17.79 17.903 18.03 18.097 18.1 18.087 18.053 18.035 18.09 18.185 18.25 18.588 19.062 19.127 18.955 18.815 18.703 18.6 18.513 18.468 18.453 18.425 18.39 18.385 18.408 18.438 18.47 18.498 18.538 18.608 18.7 18.757 18.762 18.75 18.73 18.71 18.7 18.71 18.73 18.77 18.853 18.983 19.09 19.115 19.113 19.118 19.125 19.135 19.13 19.095 19.042 18.998 18.995 19.03 19.062 19.075 19.072 19.065 19.05 19.028 18.998 18.965 18.958 18.982 19.015 19.04 19.06 19.08 19.11 19.153 19.198 19.245 19.29 19.332 19.36 19.355 19.333 19.313 19.297 19.258 19.213 19.215 19.245 19.26 19.26 19.262 19.27 19.27 19.265 19.265 19.27 19.277 19.255 19.195 19.16 19.16 19.157 19.152 19.145 19.163 19.195 19.21 19.215 19.205 19.188 19.183 19.193 19.212 19.235 19.252 19.267 19.282 19.285 19.272 19.255 19.21 19.15 19.113 19.095 19.08 19.063 19.045 19.028 19.028 19.037 19.035 19.025 19.035 19.057 19.062 19.055 19.065 19.087 19.08 19.032 18.965 18.895 18.825 18.747 18.665 18.588 18.515 18.445 18.37 18.295 18.228 18.165 18.102 18.035 17.98 17.95 17.912 17.855 17.803 17.752 17.66 17.55 17.465 17.393 17.34 17.285 17.2 17.105 17.02 16.935 16.873 16.803 16.74 16.718
17.315 17.32 17.342 17.367 17.397 17.432 17.452 17.45 17.44 17.43 17.42 17.402 17.39 17.403 17.423 17.435 17.448 17.465 17.51 17.583 17.66 17.74 17.817 17.845 17.82 17.79 17.755 17.713 17.68 17.703 17.788 17.89 17.995 18.107 18.165 18.162 18.155 18.138 18.135 18.19 18.173 18.293 18.782 19.142 19.1 18.918 18.778 18.673 18.57 18.493 18.458 18.445 18.433 18.435 18.46 18.49 18.523 18.555 18.583 18.61 18.64 18.688 18.725 18.735 18.737 18.73 18.723 18.73 18.752 18.775 18.83 18.952 19.115 19.207 19.212 19.21 19.207 19.205 19.192 19.152 19.095 19.038 19.005 19.018 19.052 19.08 19.087 19.08 19.07 19.058 19.037 19.005 18.97 18.95 18.958 18.98 19 19.023 19.045 19.073 19.113 19.16 19.208 19.253 19.298 19.337 19.345 19.327 19.31 19.293 19.278 19.28 19.307 19.34 19.355 19.347 19.332 19.325 19.322 19.32 19.32 19.322 19.305 19.245 19.173 19.14 19.14 19.143 19.145 19.145 19.16 19.173 19.173 19.175 19.17 19.17 19.185 19.2 19.218 19.24 19.262 19.285 19.29 19.275 19.253 19.23 19.2 19.168 19.147 19.132 19.117 19.1 19.08 19.063 19.055 19.05 19.04 19.03 19.027 19.027 19.02 19.012 19.022 19.052 19.08 19.075 19.025 18.955 18.885 18.813 18.738 18.665 18.595 18.525 18.45 18.375 18.302 18.228 18.158 18.09 18.025 17.975 17.925 17.865 17.808 17.753 17.675 17.587 17.51 17.432 17.357 17.272 17.178 17.085 17 16.923 16.85 16.79 16.748 16.713
