ncols         200
nrows         74
xllcorner     545000
yllcorner     258360
cellsize      5
NODATA_value  -9999.0
9.13 9.077 9.02 8.97 8.925 8.893 8.913 8.967 9.025 9.075 9.092 9.062 9.007 8.95 8.893 8.85 8.838 8.845 8.847 8.822 8.782 8.765 8.767 8.732 8.622 8.49 8.357 8.215 8.072 7.927 7.81 7.723 7.655 7.613 7.585 7.56 7.522 7.473 7.46 7.513 7.585 7.67 7.767 7.852 7.925 7.995 8.065 8.135 8.202 8.24 8.24 8.265 8.342 8.4 8.385 8.327 8.245 8.143 8.09 8.115 8.15 8.167 8.162 8.14 8.133 8.138 8.145 8.18 8.243 8.305 8.37 8.447 8.53 8.61 8.675 8.71 8.725 8.74 8.76 8.785 8.82 8.87 8.925 8.983 9.05 9.117 9.177 9.217 9.235 9.235 9.202 9.148 9.1 9.073 9.075 9.095 9.115 9.135 9.157 9.087 8.87 8.6 8.423 8.4 8.44 8.49 8.56 8.665 8.805 8.912 8.937 8.92 8.913 8.915 8.935 8.985 9.055 9.153 9.298 9.467 9.627 9.762 9.88 9.997 10.112 10.22 10.305 10.375 10.435 10.495 10.603 10.76 10.945 11.145 11.323 11.473 11.62 11.765 11.858 11.9 11.94 11.973 12.223 12.527 12.632 12.733 12.84 12.933 13.023 13.098 13.16 13.22 13.283 13.342 13.385 13.41 13.43 13.422 13.375 13.315 13.258 13.218 13.205 13.23 13.28 13.33 13.38 13.43 13.475 13.513 13.57 13.66 13.76 13.86 13.905 13.882 13.847 13.815 13.785 13.755 13.688 13.603 13.6 13.658 13.713 13.77 13.833 13.897 13.945 13.932 13.825 13.753 13.765 13.747 13.685 13.6 13.522 13.54 13.617 13.647
9.145 9.11 9.07 9.04 9.007 8.97 8.98 9.03 9.085 9.12 9.105 9.06 9.007 8.952 8.898 8.845 8.823 8.83 8.815 8.76 8.688 8.628 8.59 8.57 8.512 8.392 8.25 8.105 7.983 7.883 7.813 7.765 7.715 7.678 7.655 7.635 7.612 7.577 7.55 7.578 7.643 7.715 7.788 7.855 7.923 7.99 8.06 8.128 8.195 8.258 8.32 8.4 8.485 8.505 8.445 8.355 8.252 8.148 8.095 8.118 8.147 8.167 8.167 8.165 8.187 8.202 8.208 8.24 8.3 8.36 8.425 8.503 8.587 8.67 8.74 8.785 8.807 8.823 8.84 8.863 8.885 8.915 8.965 9.035 9.11 9.175 9.235 9.29 9.325 9.33 9.295 9.235 9.188 9.173 9.182 9.2 9.215 9.228 9.245 9.147 8.888 8.595 8.37 8.305 8.365 8.453 8.568 8.71 8.86 8.977 9.015 9.005 8.987 8.963 8.953 8.99 9.078 9.193 9.343 9.51 9.665 9.802 9.922 10.04 10.155 10.245 10.31 10.373 10.466 10.588 10.718 10.861 11.011 11.226 11.648 12.077 12.28 12.353 12.388 12.422 12.457 12.49 12.655 12.785 12.76 12.8 12.89 12.985 13.065 13.112 13.16 13.223 13.287 13.347 13.395 13.427 13.45 13.447 13.405 13.348 13.303 13.278 13.273 13.3 13.35 13.4 13.45 13.492 13.522 13.545 13.59 13.668 13.758 13.855 13.902 13.88 13.845 13.815 13.785 13.755 13.705 13.64 13.635 13.685 13.73 13.778 13.833 13.888 13.942 13.932 13.753 13.573 13.52 13.46 13.368 13.27 13.215 13.315 13.482 13.58
9.148 9.1 9.08 9.077 9.075 9.05 9.053 9.095 9.127 9.127 9.095 9.05 9 8.952 8.9 8.843 8.813 8.805 8.765 8.695 8.622 8.548 8.475 8.425 8.382 8.285 8.155 8.048 7.973 7.923 7.875 7.825 7.778 7.745 7.725 7.705 7.69 7.67 7.638 7.648 7.728 7.803 7.843 7.89 7.953 8.02 8.088 8.153 8.223 8.315 8.422 8.517 8.582 8.56 8.465 8.362 8.258 8.155 8.103 8.118 8.142 8.162 8.163 8.185 8.242 8.267 8.273 8.3 8.355 8.418 8.483 8.555 8.64 8.727 8.802 8.852 8.882 8.902 8.922 8.947 8.967 8.985 9.033 9.105 9.17 9.23 9.29 9.347 9.397 9.42 9.39 9.325 9.273 9.265 9.28 9.292 9.305 9.317 9.325 9.215 8.965 8.683 8.408 8.283 8.35 8.473 8.61 8.76 8.912 9.042 9.09 9.08 9.067 9.052 9.04 9.055 9.12 9.233 9.382 9.537 9.685 9.83 9.96 10.08 10.185 10.258 10.32 11.085 11.85 11.922 11.977 12.01 12.043 12.14 12.465 12.825 12.962 12.975 12.947 12.92 12.9 12.885 12.875 12.84 12.825 12.888 12.98 13.057 13.1 13.12 13.16 13.225 13.292 13.355 13.405 13.44 13.467 13.475 13.44 13.39 13.363 13.345 13.34 13.37 13.42 13.47 13.51 13.535 13.555 13.573 13.615 13.688 13.765 13.852 13.9 13.88 13.845 13.815 13.785 13.755 13.717 13.673 13.675 13.725 13.77 13.815 13.865 13.912 13.95 13.942 13.772 13.528 13.39 13.305 13.22 13.135 13.095 13.145 13.24 13.365
9.183 9.103 9.08 9.09 9.102 9.105 9.107 9.122 9.127 9.115 9.085 9.04 8.99 8.945 8.897 8.845 8.805 8.765 8.705 8.633 8.558 8.483 8.408 8.335 8.275 8.21 8.135 8.078 8.033 7.985 7.935 7.885 7.843 7.815 7.795 7.775 7.76 7.745 7.72 7.74 7.845 7.925 7.938 7.955 8.003 8.068 8.133 8.203 8.29 8.385 8.462 8.525 8.572 8.552 8.47 8.37 8.265 8.163 8.105 8.115 8.14 8.16 8.165 8.213 8.302 8.337 8.338 8.36 8.41 8.475 8.54 8.608 8.69 8.78 8.862 8.915 8.945 8.965 8.977 8.995 9.015 9.037 9.092 9.165 9.225 9.285 9.345 9.402 9.46 9.502 9.477 9.398 9.343 9.343 9.362 9.377 9.39 9.402 9.392 9.265 9.047 8.82 8.57 8.375 8.375 8.513 8.663 8.815 8.967 9.107 9.165 9.153 9.14 9.13 9.13 9.148 9.185 9.273 9.41 9.558 9.703 9.848 9.988 10.112 10.213 10.295 10.383 11.867 13.289 13.259 13.229 13.199 13.17 13.14 13.11 13.08 13.065 13.065 13.06 13.053 13.028 12.983 12.935 12.923 12.965 13.023 13.068 13.095 13.11 13.123 13.163 13.227 13.295 13.362 13.412 13.447 13.48 13.5 13.482 13.448 13.428 13.41 13.408 13.44 13.487 13.525 13.547 13.565 13.582 13.598 13.64 13.712 13.785 13.862 13.902 13.88 13.845 13.815 13.785 13.755 13.72 13.695 13.718 13.77 13.818 13.867 13.91 13.94 13.957 13.962 13.85 13.605 13.433 13.345 13.26 13.178 13.125 13.12 13.135 13.19
9.255 9.14 9.083 9.092 9.105 9.117 9.105 9.087 9.09 9.085 9.067 9.03 8.98 8.935 8.89 8.84 8.787 8.723 8.65 8.578 8.505 8.433 8.358 8.285 8.228 8.2 8.182 8.145 8.095 8.045 7.995 7.948 7.91 7.885 7.865 7.845 7.833 7.83 7.835 7.87 7.965 8.035 8.042 8.05 8.073 8.118 8.18 8.26 8.345 8.4 8.427 8.455 8.495 8.5 8.447 8.37 8.275 8.17 8.11 8.118 8.14 8.158 8.18 8.253 8.36 8.407 8.405 8.42 8.468 8.532 8.597 8.663 8.74 8.83 8.912 8.967 9 9.015 8.988 8.97 8.992 9.03 9.112 9.207 9.275 9.335 9.395 9.455 9.515 9.562 9.537 9.458 9.415 9.418 9.435 9.457 9.475 9.487 9.46 9.315 9.103 8.9 8.713 8.535 8.483 8.58 8.718 8.87 9.022 9.172 9.24 9.228 9.215 9.208 9.215 9.24 9.278 9.35 9.463 9.598 9.743 9.888 10.033 10.163 10.28 10.39 10.493 12.002 13.444 13.415 13.385 13.355 13.325 13.295 13.27 13.26 13.273 13.295 13.315 13.33 13.32 13.285 13.223 13.185 13.282 13.35 13.29 13.26 13.25 13.18 13.155 13.22 13.295 13.37 13.42 13.455 13.493 13.525 13.53 13.51 13.492 13.475 13.475 13.505 13.537 13.557 13.572 13.59 13.607 13.623 13.665 13.732 13.797 13.865 13.895 13.875 13.853 13.837 13.82 13.793 13.758 13.743 13.773 13.827 13.872 13.905 13.925 13.935 13.942 13.947 13.897 13.7 13.493 13.385 13.3 13.22 13.163 13.15 13.158 13.168
9.342 9.193 9.095 9.088 9.102 9.112 9.075 9.033 9.035 9.04 9.037 9.015 8.97 8.922 8.875 8.822 8.762 8.69 8.61 8.535 8.465 8.395 8.323 8.255 8.22 8.218 8.22 8.205 8.165 8.113 8.06 8.013 7.978 7.958 7.948 7.94 7.943 7.965 7.998 8.023 8.08 8.132 8.14 8.152 8.165 8.185 8.23 8.295 8.342 8.362 8.378 8.395 8.422 8.43 8.395 8.34 8.27 8.178 8.115 8.118 8.14 8.155 8.2 8.298 8.41 8.472 8.478 8.483 8.523 8.587 8.655 8.72 8.79 8.872 8.947 9.002 9.042 9.062 9.008 8.933 8.928 8.985 9.1 9.227 9.32 9.385 9.445 9.505 9.562 9.602 9.58 9.523 9.495 9.493 9.508 9.532 9.552 9.57 9.527 9.373 9.19 9.03 8.883 8.765 8.718 8.75 8.825 8.935 9.078 9.23 9.307 9.305 9.295 9.29 9.3 9.335 9.398 9.48 9.573 9.68 9.813 9.958 10.102 10.232 10.37 10.502 10.606 12.135 13.599 13.57 13.54 13.51 13.48 13.463 13.463 13.48 13.505 13.525 13.545 13.565 13.585 13.602 13.595 13.558 13.595 13.682 13.637 13.562 13.452 13.23 13.143 13.203 13.273 13.353 13.43 13.49 13.535 13.565 13.57 13.557 13.545 13.527 13.525 13.545 13.56 13.575 13.59 13.605 13.622 13.635 13.673 13.735 13.792 13.85 13.877 13.87 13.865 13.862 13.857 13.845 13.827 13.817 13.832 13.867 13.892 13.902 13.908 13.915 13.925 13.932 13.925 13.79 13.568 13.425 13.34 13.26 13.2 13.183 13.188 13.195
9.407 9.24 9.118 9.085 9.097 9.105 9.057 8.983 8.963 8.977 8.987 8.985 8.957 8.907 8.855 8.797 8.735 8.667 8.585 8.5 8.425 8.355 8.285 8.238 8.228 8.232 8.235 8.237 8.227 8.19 8.138 8.09 8.065 8.06 8.065 8.08 8.108 8.145 8.175 8.185 8.21 8.232 8.227 8.227 8.23 8.23 8.247 8.28 8.302 8.317 8.33 8.345 8.363 8.365 8.335 8.285 8.233 8.168 8.115 8.115 8.14 8.165 8.233 8.343 8.455 8.532 8.552 8.558 8.585 8.638 8.705 8.772 8.837 8.905 8.967 9.02 9.07 9.105 9.055 8.943 8.885 8.943 9.075 9.215 9.34 9.43 9.495 9.555 9.605 9.635 9.622 9.59 9.575 9.57 9.583 9.605 9.628 9.65 9.63 9.523 9.383 9.26 9.14 9.043 9 9.013 9.045 9.095 9.178 9.293 9.372 9.383 9.375 9.37 9.39 9.453 9.543 9.635 9.72 9.805 9.905 10.033 10.172 10.295 10.425 10.582 10.716 12.265 13.749 13.72 13.69 13.668 13.658 13.665 13.688 13.712 13.735 13.755 13.775 13.795 13.818 13.842 13.865 13.877 13.865 13.902 13.915 13.782 13.51 13.22 13.138 13.193 13.26 13.35 13.455 13.55 13.592 13.585 13.565 13.545 13.525 13.5 13.502 13.537 13.562 13.577 13.592 13.605 13.615 13.625 13.66 13.72 13.777 13.827 13.835 13.807 13.782 13.755 13.728 13.74 13.795 13.842 13.862 13.867 13.875 13.885 13.892 13.9 13.908 13.915 13.922 13.847 13.643 13.468 13.38 13.3 13.238 13.215 13.22 13.227
9.46 9.29 9.15 9.093 9.095 9.095 9.042 8.953 8.903 8.903 8.917 8.927 8.915 8.88 8.833 8.773 8.71 8.645 8.565 8.475 8.393 8.318 8.26 8.24 8.243 8.247 8.25 8.253 8.26 8.257 8.232 8.205 8.192 8.192 8.205 8.232 8.265 8.297 8.315 8.305 8.292 8.285 8.27 8.252 8.24 8.23 8.228 8.243 8.258 8.267 8.28 8.295 8.323 8.345 8.325 8.273 8.218 8.17 8.15 8.16 8.178 8.213 8.295 8.405 8.513 8.597 8.632 8.645 8.665 8.695 8.743 8.802 8.867 8.927 8.983 9.035 9.088 9.14 9.135 9.048 8.953 8.968 9.075 9.195 9.33 9.455 9.542 9.605 9.645 9.665 9.672 9.665 9.655 9.65 9.658 9.675 9.703 9.732 9.757 9.74 9.647 9.525 9.405 9.323 9.288 9.29 9.323 9.355 9.388 9.438 9.475 9.48 9.478 9.475 9.51 9.595 9.695 9.792 9.88 9.957 10.035 10.125 10.237 10.355 10.47 10.628 10.801 12.31 13.817 13.875 13.857 13.86 13.875 13.894 13.919 13.944 13.964 13.984 14.004 14.024 14.049 13.982 13.797 13.537 13.4 13.435 13.492 13.452 13.288 13.168 13.168 13.245 13.335 13.427 13.51 13.58 13.592 13.555 13.518 13.485 13.453 13.423 13.433 13.487 13.542 13.57 13.58 13.587 13.592 13.597 13.587 13.562 13.542 13.52 13.478 13.468 13.503 13.538 13.573 13.645 13.763 13.85 13.867 13.858 13.86 13.868 13.875 13.885 13.892 13.898 13.905 13.887 13.727 13.528 13.423 13.34 13.273 13.248 13.253 13.26
9.505 9.34 9.19 9.108 9.095 9.085 9.025 8.935 8.858 8.83 8.842 8.847 8.84 8.848 8.84 8.79 8.73 8.663 8.583 8.493 8.4 8.31 8.26 8.255 8.258 8.262 8.265 8.268 8.28 8.3 8.307 8.3 8.287 8.27 8.267 8.29 8.317 8.345 8.352 8.325 8.292 8.277 8.267 8.25 8.233 8.22 8.208 8.215 8.218 8.215 8.233 8.265 8.325 8.377 8.367 8.313 8.263 8.238 8.253 8.278 8.29 8.328 8.413 8.52 8.62 8.687 8.71 8.72 8.74 8.76 8.785 8.825 8.883 8.943 9 9.055 9.108 9.173 9.235 9.222 9.133 9.11 9.18 9.268 9.37 9.478 9.578 9.65 9.685 9.708 9.727 9.732 9.728 9.725 9.733 9.753 9.783 9.815 9.857 9.902 9.885 9.79 9.675 9.608 9.583 9.575 9.6 9.627 9.635 9.632 9.628 9.623 9.623 9.625 9.658 9.74 9.84 9.93 10.01 10.085 10.157 10.212 10.295 10.417 10.533 10.66 10.84 12.022 13.576 14.056 14.002 13.729 13.292 12.985 12.917 12.96 13 13.042 13.085 13.125 13.167 13.12 12.963 12.758 12.7 12.823 12.965 13.07 13.115 13.175 13.262 13.345 13.417 13.485 13.537 13.562 13.545 13.508 13.47 13.433 13.398 13.378 13.39 13.433 13.495 13.512 13.48 13.467 13.472 13.442 13.353 13.258 13.19 13.14 13.14 13.22 13.34 13.46 13.58 13.703 13.827 13.89 13.88 13.86 13.85 13.853 13.858 13.865 13.875 13.882 13.888 13.895 13.797 13.603 13.465 13.38 13.308 13.28 13.285 13.29
9.53 9.387 9.23 9.123 9.095 9.077 9.01 8.918 8.825 8.773 8.768 8.77 8.788 8.838 8.875 8.85 8.787 8.715 8.635 8.547 8.45 8.35 8.283 8.268 8.272 8.275 8.278 8.288 8.308 8.335 8.35 8.345 8.327 8.293 8.258 8.26 8.29 8.32 8.327 8.3 8.273 8.263 8.257 8.245 8.228 8.215 8.2 8.2 8.19 8.18 8.215 8.28 8.36 8.42 8.412 8.365 8.345 8.358 8.388 8.42 8.44 8.48 8.565 8.665 8.745 8.787 8.792 8.788 8.8 8.82 8.84 8.865 8.905 8.96 9.017 9.073 9.133 9.208 9.3 9.362 9.33 9.305 9.363 9.437 9.512 9.58 9.645 9.697 9.73 9.762 9.79 9.805 9.818 9.83 9.84 9.85 9.87 9.9 9.943 10.007 10.057 10.03 9.95 9.897 9.875 9.855 9.85 9.847 9.825 9.8 9.79 9.788 9.79 9.795 9.813 9.878 9.975 10.047 10.108 10.182 10.232 10.26 10.343 10.475 10.595 10.708 10.858 11.388 12.205 12.627 12.652 12.43 12.02 11.738 11.693 11.756 11.818 11.891 11.968 12.041 12.113 12.195 12.295 12.443 12.625 12.8 12.965 13.107 13.195 13.255 13.325 13.382 13.43 13.477 13.517 13.527 13.5 13.462 13.425 13.388 13.363 13.363 13.38 13.403 13.442 13.432 13.358 13.3 13.275 13.233 13.158 13.105 13.078 13.08 13.158 13.28 13.4 13.52 13.643 13.767 13.88 13.92 13.897 13.873 13.85 13.84 13.843 13.848 13.855 13.865 13.872 13.88 13.845 13.677 13.505 13.42 13.345 13.313 13.318 13.323
9.527 9.42 9.273 9.148 9.1 9.067 8.995 8.902 8.81 8.733 8.7 8.72 8.775 8.84 8.897 8.9 8.84 8.765 8.685 8.6 8.507 8.41 8.328 8.29 8.285 8.288 8.298 8.318 8.345 8.377 8.392 8.385 8.362 8.317 8.265 8.243 8.26 8.29 8.302 8.28 8.255 8.248 8.242 8.232 8.22 8.21 8.195 8.185 8.168 8.175 8.24 8.32 8.4 8.462 8.465 8.445 8.46 8.49 8.523 8.557 8.583 8.628 8.712 8.792 8.845 8.88 8.885 8.87 8.868 8.88 8.9 8.92 8.948 8.988 9.038 9.095 9.163 9.245 9.34 9.435 9.485 9.5 9.545 9.605 9.652 9.692 9.72 9.748 9.783 9.82 9.863 9.907 9.947 9.977 9.985 9.975 9.975 9.993 10.028 10.09 10.165 10.207 10.187 10.132 10.077 10.025 10.01 10.01 9.987 9.965 9.955 9.955 9.958 9.963 9.97 10.018 10.102 10.157 10.205 10.257 10.262 10.285 10.385 10.52 10.652 10.772 10.848 10.95 10.968 10.901 10.993 11.158 11.3 11.443 11.563 11.648 11.725 11.81 11.9 11.988 12.075 12.178 12.303 12.458 12.63 12.795 12.958 13.115 13.22 13.272 13.32 13.368 13.415 13.46 13.492 13.49 13.455 13.417 13.38 13.35 13.345 13.358 13.375 13.393 13.415 13.4 13.33 13.253 13.2 13.173 13.148 13.125 13.11 13.135 13.223 13.34 13.46 13.583 13.707 13.83 13.92 13.937 13.913 13.887 13.863 13.84 13.83 13.833 13.84 13.848 13.855 13.865 13.867 13.745 13.563 13.46 13.383 13.345 13.35 13.357
9.51 9.422 9.305 9.188 9.115 9.055 8.975 8.885 8.795 8.703 8.68 8.733 8.788 8.843 8.905 8.935 8.892 8.815 8.732 8.647 8.562 8.472 8.39 8.328 8.3 8.308 8.33 8.36 8.39 8.422 8.435 8.425 8.395 8.342 8.29 8.245 8.235 8.26 8.275 8.257 8.238 8.232 8.225 8.217 8.21 8.2 8.187 8.17 8.16 8.2 8.28 8.36 8.442 8.512 8.542 8.56 8.59 8.62 8.655 8.692 8.722 8.775 8.847 8.897 8.935 8.97 8.977 8.963 8.95 8.948 8.96 8.983 9.01 9.038 9.073 9.125 9.198 9.285 9.38 9.475 9.567 9.625 9.657 9.692 9.715 9.735 9.762 9.802 9.845 9.885 9.932 9.995 10.057 10.102 10.115 10.107 10.102 10.102 10.118 10.167 10.232 10.29 10.295 10.232 10.152 10.08 10.08 10.12 10.135 10.132 10.125 10.125 10.125 10.13 10.135 10.168 10.22 10.252 10.282 10.29 10.268 10.308 10.428 10.563 10.7 10.817 10.825 10.832 10.792 10.665 10.733 10.948 11.163 11.378 11.552 11.665 11.755 11.845 11.935 12.025 12.118 12.228 12.353 12.493 12.653 12.815 12.96 13.087 13.192 13.257 13.305 13.352 13.397 13.435 13.457 13.447 13.41 13.373 13.34 13.325 13.335 13.352 13.37 13.393 13.417 13.405 13.345 13.275 13.225 13.198 13.173 13.15 13.153 13.198 13.285 13.4 13.52 13.645 13.77 13.89 13.957 13.952 13.927 13.903 13.877 13.853 13.833 13.823 13.825 13.832 13.838 13.845 13.855 13.797 13.638 13.5 13.42 13.38 13.383 13.39
9.492 9.405 9.31 9.207 9.115 9.037 8.955 8.862 8.77 8.678 8.685 8.787 8.865 8.918 8.965 8.987 8.945 8.862 8.775 8.687 8.602 8.517 8.442 8.373 8.333 8.343 8.373 8.405 8.435 8.467 8.477 8.46 8.422 8.368 8.315 8.263 8.228 8.235 8.25 8.238 8.223 8.215 8.208 8.202 8.197 8.19 8.18 8.165 8.175 8.235 8.315 8.395 8.475 8.542 8.592 8.637 8.682 8.72 8.757 8.8 8.837 8.89 8.947 8.987 9.025 9.06 9.07 9.055 9.037 9.028 9.035 9.06 9.088 9.113 9.138 9.175 9.243 9.333 9.43 9.527 9.615 9.667 9.685 9.705 9.73 9.752 9.79 9.84 9.887 9.932 9.982 10.042 10.105 10.157 10.18 10.177 10.177 10.177 10.182 10.217 10.267 10.312 10.312 10.252 10.178 10.123 10.135 10.19 10.237 10.26 10.262 10.267 10.272 10.28 10.287 10.305 10.32 10.322 10.317 10.298 10.278 10.335 10.47 10.605 10.735 10.827 10.805 10.74 10.688 10.653 10.75 10.955 11.175 11.392 11.572 11.695 11.79 11.88 11.97 12.06 12.16 12.28 12.4 12.54 12.71 12.875 12.99 13.07 13.167 13.242 13.29 13.337 13.377 13.405 13.417 13.402 13.365 13.328 13.308 13.313 13.33 13.348 13.37 13.403 13.432 13.425 13.367 13.295 13.248 13.222 13.198 13.178 13.2 13.263 13.348 13.46 13.583 13.707 13.83 13.942 13.987 13.967 13.943 13.917 13.893 13.87 13.847 13.825 13.813 13.815 13.822 13.83 13.837 13.827 13.7 13.543 13.46 13.418 13.415 13.42
9.475 9.385 9.292 9.175 9.063 8.987 8.92 8.837 8.742 8.65 8.67 8.812 8.95 9.047 9.08 9.037 8.962 8.88 8.79 8.7 8.61 8.533 8.47 8.405 8.358 8.373 8.417 8.45 8.48 8.512 8.52 8.492 8.447 8.392 8.338 8.285 8.238 8.22 8.227 8.22 8.205 8.198 8.193 8.188 8.183 8.183 8.188 8.19 8.21 8.265 8.34 8.42 8.487 8.54 8.59 8.645 8.695 8.727 8.765 8.812 8.862 8.92 8.975 9.022 9.067 9.11 9.122 9.105 9.095 9.105 9.125 9.148 9.172 9.198 9.223 9.258 9.313 9.395 9.495 9.585 9.65 9.687 9.7 9.71 9.73 9.755 9.798 9.85 9.9 9.953 10.01 10.07 10.125 10.175 10.2 10.195 10.193 10.195 10.208 10.24 10.283 10.327 10.33 10.27 10.21 10.185 10.208 10.26 10.305 10.33 10.34 10.35 10.36 10.37 10.382 10.395 10.395 10.382 10.345 10.305 10.3 10.373 10.507 10.637 10.757 10.82 10.775 10.708 10.705 10.73 10.808 10.978 11.188 11.405 11.585 11.717 11.825 11.915 12.005 12.098 12.208 12.327 12.435 12.588 12.78 12.947 13.04 13.073 13.145 13.225 13.275 13.32 13.352 13.375 13.38 13.357 13.32 13.293 13.293 13.308 13.328 13.353 13.385 13.425 13.45 13.442 13.392 13.32 13.273 13.248 13.225 13.22 13.26 13.33 13.413 13.523 13.647 13.77 13.89 13.985 14.007 13.983 13.957 13.933 13.91 13.887 13.863 13.838 13.815 13.803 13.805 13.815 13.822 13.827 13.747 13.603 13.5 13.453 13.448 13.453
9.455 9.362 9.257 9.11 8.98 8.91 8.855 8.792 8.71 8.625 8.658 8.81 8.96 9.085 9.112 9.025 8.94 8.87 8.78 8.69 8.603 8.538 8.487 8.427 8.368 8.38 8.45 8.495 8.525 8.555 8.557 8.522 8.472 8.417 8.363 8.308 8.255 8.215 8.205 8.2 8.188 8.183 8.18 8.185 8.193 8.203 8.223 8.245 8.268 8.303 8.365 8.435 8.485 8.53 8.578 8.62 8.65 8.673 8.71 8.765 8.83 8.895 8.95 9.003 9.058 9.107 9.128 9.13 9.15 9.185 9.215 9.235 9.258 9.283 9.313 9.355 9.405 9.473 9.557 9.625 9.67 9.705 9.72 9.723 9.733 9.758 9.803 9.858 9.913 9.973 10.033 10.09 10.145 10.195 10.22 10.218 10.213 10.213 10.23 10.263 10.3 10.342 10.345 10.3 10.27 10.26 10.28 10.325 10.36 10.382 10.395 10.405 10.415 10.425 10.44 10.455 10.455 10.445 10.4 10.33 10.325 10.413 10.537 10.657 10.772 10.812 10.76 10.743 10.785 10.823 10.88 11.013 11.205 11.417 11.595 11.735 11.855 11.95 12.04 12.143 12.257 12.365 12.473 12.64 12.847 13.01 13.08 13.09 13.135 13.205 13.26 13.3 13.325 13.345 13.342 13.313 13.283 13.273 13.285 13.305 13.333 13.37 13.41 13.45 13.467 13.457 13.415 13.345 13.298 13.273 13.253 13.27 13.33 13.4 13.48 13.588 13.71 13.83 13.95 14.022 14.022 13.997 13.973 13.95 13.927 13.903 13.877 13.853 13.83 13.808 13.793 13.795 13.805 13.812 13.79 13.672 13.54 13.488 13.48 13.487
9.41 9.315 9.192 9.033 8.898 8.82 8.765 8.712 8.652 8.598 8.638 8.767 8.89 9 9.047 8.98 8.905 8.852 8.767 8.675 8.598 8.545 8.502 8.45 8.385 8.383 8.455 8.525 8.57 8.597 8.592 8.547 8.495 8.442 8.388 8.333 8.28 8.228 8.193 8.18 8.18 8.188 8.198 8.215 8.233 8.248 8.27 8.307 8.34 8.36 8.398 8.445 8.488 8.535 8.578 8.603 8.62 8.643 8.683 8.743 8.81 8.875 8.933 8.993 9.055 9.11 9.15 9.185 9.225 9.267 9.302 9.325 9.345 9.37 9.407 9.452 9.5 9.552 9.607 9.653 9.688 9.723 9.74 9.74 9.745 9.773 9.825 9.885 9.948 10.013 10.068 10.113 10.163 10.215 10.242 10.245 10.245 10.253 10.275 10.303 10.333 10.365 10.37 10.353 10.34 10.33 10.345 10.38 10.41 10.435 10.45 10.46 10.47 10.483 10.502 10.517 10.515 10.505 10.475 10.388 10.353 10.438 10.555 10.67 10.782 10.802 10.768 10.798 10.855 10.905 10.953 11.06 11.233 11.432 11.61 11.747 11.875 11.982 12.08 12.187 12.295 12.395 12.518 12.698 12.91 13.06 13.11 13.12 13.14 13.188 13.242 13.275 13.295 13.312 13.302 13.268 13.253 13.263 13.285 13.318 13.355 13.395 13.435 13.472 13.482 13.47 13.432 13.368 13.323 13.298 13.29 13.328 13.395 13.465 13.545 13.65 13.77 13.89 14.005 14.055 14.037 14.013 13.99 13.967 13.943 13.917 13.893 13.87 13.847 13.823 13.798 13.783 13.785 13.795 13.802 13.712 13.58 13.525 13.513 13.52
9.34 9.245 9.11 8.953 8.82 8.725 8.665 8.615 8.575 8.568 8.603 8.673 8.765 8.87 8.96 8.935 8.86 8.822 8.752 8.663 8.598 8.555 8.517 8.47 8.405 8.39 8.45 8.532 8.602 8.64 8.625 8.573 8.518 8.465 8.415 8.365 8.318 8.268 8.22 8.198 8.205 8.225 8.245 8.262 8.277 8.29 8.313 8.372 8.425 8.44 8.453 8.48 8.525 8.573 8.615 8.648 8.668 8.685 8.723 8.78 8.845 8.91 8.968 9.025 9.088 9.15 9.202 9.247 9.29 9.332 9.365 9.385 9.405 9.432 9.475 9.522 9.567 9.612 9.652 9.688 9.72 9.763 9.795 9.803 9.81 9.838 9.888 9.948 10.013 10.077 10.127 10.16 10.2 10.245 10.273 10.285 10.295 10.31 10.335 10.36 10.385 10.41 10.42 10.415 10.405 10.395 10.403 10.43 10.46 10.485 10.5 10.51 10.523 10.543 10.567 10.58 10.575 10.57 10.545 10.47 10.43 10.478 10.57 10.683 10.782 10.803 10.808 10.863 10.92 10.977 11.028 11.123 11.275 11.455 11.625 11.76 11.892 12.012 12.12 12.225 12.325 12.425 12.563 12.755 12.96 13.102 13.15 13.158 13.163 13.185 13.22 13.245 13.265 13.275 13.258 13.235 13.24 13.265 13.3 13.34 13.38 13.42 13.46 13.492 13.495 13.48 13.45 13.393 13.348 13.323 13.335 13.393 13.46 13.53 13.608 13.71 13.83 13.95 14.05 14.077 14.053 14.03 14.007 13.983 13.957 13.933 13.91 13.887 13.863 13.837 13.813 13.79 13.778 13.778 13.785 13.742 13.638 13.563 13.545 13.55
9.27 9.167 9.03 8.885 8.755 8.64 8.565 8.528 8.528 8.568 8.603 8.625 8.668 8.745 8.85 8.867 8.815 8.785 8.732 8.66 8.605 8.568 8.532 8.485 8.423 8.398 8.448 8.533 8.617 8.67 8.662 8.62 8.57 8.52 8.475 8.43 8.385 8.343 8.3 8.268 8.26 8.275 8.292 8.307 8.32 8.323 8.35 8.435 8.507 8.53 8.533 8.545 8.583 8.628 8.675 8.72 8.755 8.78 8.813 8.863 8.923 8.985 9.04 9.09 9.145 9.205 9.255 9.3 9.345 9.387 9.41 9.418 9.438 9.47 9.515 9.565 9.612 9.657 9.697 9.733 9.775 9.838 9.887 9.905 9.918 9.945 9.985 10.03 10.088 10.152 10.2 10.232 10.267 10.298 10.32 10.34 10.355 10.37 10.395 10.42 10.445 10.47 10.48 10.475 10.465 10.458 10.465 10.485 10.51 10.537 10.555 10.565 10.583 10.608 10.632 10.642 10.643 10.655 10.63 10.58 10.56 10.575 10.63 10.71 10.785 10.828 10.87 10.927 10.982 11.035 11.082 11.167 11.305 11.462 11.615 11.752 11.887 12.015 12.132 12.242 12.35 12.455 12.6 12.79 12.97 13.122 13.202 13.212 13.205 13.203 13.205 13.215 13.235 13.237 13.223 13.225 13.25 13.285 13.325 13.365 13.405 13.445 13.485 13.51 13.507 13.492 13.467 13.418 13.373 13.358 13.39 13.46 13.53 13.6 13.673 13.77 13.89 14.012 14.09 14.092 14.07 14.047 14.023 13.997 13.973 13.95 13.927 13.903 13.877 13.853 13.83 13.807 13.785 13.77 13.768 13.765 13.69 13.598 13.578 13.582
9.177 9.09 8.957 8.825 8.695 8.568 8.49 8.488 8.53 8.59 8.635 8.65 8.655 8.683 8.74 8.78 8.77 8.743 8.707 8.66 8.617 8.582 8.545 8.497 8.448 8.428 8.475 8.563 8.64 8.667 8.665 8.662 8.645 8.612 8.567 8.523 8.478 8.435 8.395 8.355 8.325 8.323 8.337 8.347 8.347 8.345 8.393 8.495 8.582 8.62 8.62 8.618 8.64 8.685 8.732 8.778 8.825 8.865 8.902 8.952 9.005 9.06 9.115 9.165 9.215 9.265 9.31 9.355 9.403 9.447 9.465 9.46 9.475 9.51 9.555 9.605 9.655 9.702 9.745 9.788 9.848 9.925 9.98 10.005 10.025 10.055 10.095 10.133 10.175 10.227 10.27 10.302 10.335 10.362 10.382 10.4 10.415 10.43 10.455 10.48 10.505 10.53 10.537 10.532 10.525 10.52 10.53 10.548 10.565 10.59 10.61 10.625 10.647 10.672 10.697 10.715 10.735 10.76 10.747 10.717 10.703 10.71 10.743 10.78 10.825 10.87 10.9 10.93 10.973 11.015 11.055 11.133 11.273 11.428 11.57 11.71 11.85 11.988 12.12 12.245 12.368 12.485 12.618 12.78 12.948 13.115 13.22 13.242 13.24 13.227 13.208 13.195 13.205 13.208 13.208 13.233 13.27 13.31 13.35 13.39 13.43 13.47 13.51 13.527 13.52 13.505 13.482 13.44 13.398 13.405 13.46 13.53 13.597 13.665 13.735 13.83 13.952 14.072 14.125 14.11 14.087 14.063 14.038 14.013 13.99 13.967 13.943 13.917 13.893 13.87 13.847 13.823 13.798 13.775 13.76 13.757 13.71 13.633 13.61 13.617
9.075 8.995 8.865 8.732 8.6 8.478 8.44 8.493 8.555 8.612 8.662 8.687 8.692 8.698 8.708 8.73 8.735 8.718 8.685 8.635 8.595 8.562 8.527 8.512 8.497 8.483 8.53 8.617 8.657 8.63 8.618 8.64 8.657 8.66 8.645 8.615 8.57 8.525 8.485 8.447 8.41 8.382 8.382 8.385 8.373 8.378 8.445 8.553 8.652 8.707 8.71 8.697 8.705 8.742 8.787 8.833 8.88 8.925 8.97 9.025 9.08 9.137 9.195 9.245 9.295 9.34 9.378 9.42 9.467 9.512 9.53 9.518 9.518 9.548 9.595 9.645 9.695 9.745 9.795 9.858 9.935 10.015 10.07 10.1 10.13 10.162 10.2 10.237 10.27 10.305 10.34 10.368 10.395 10.425 10.445 10.46 10.477 10.495 10.518 10.543 10.568 10.59 10.595 10.59 10.585 10.58 10.59 10.61 10.628 10.645 10.66 10.677 10.7 10.722 10.747 10.777 10.815 10.842 10.847 10.84 10.832 10.835 10.85 10.865 10.888 10.928 10.973 11.003 11.015 11.025 11.038 11.1 11.26 11.425 11.558 11.703 11.85 11.998 12.138 12.27 12.4 12.52 12.623 12.755 12.925 13.095 13.195 13.22 13.232 13.237 13.24 13.215 13.188 13.193 13.215 13.25 13.29 13.33 13.37 13.41 13.45 13.49 13.53 13.542 13.53 13.515 13.497 13.463 13.433 13.46 13.525 13.595 13.663 13.73 13.8 13.895 14.017 14.12 14.15 14.127 14.102 14.078 14.053 14.03 14.007 13.983 13.957 13.933 13.91 13.887 13.863 13.837 13.813 13.788 13.765 13.75 13.73 13.678 13.643 13.627
8.967 8.88 8.745 8.603 8.47 8.385 8.41 8.497 8.575 8.637 8.692 8.722 8.728 8.733 8.738 8.743 8.743 8.735 8.687 8.605 8.54 8.5 8.473 8.5 8.542 8.543 8.585 8.65 8.64 8.583 8.565 8.585 8.607 8.632 8.652 8.657 8.647 8.617 8.57 8.52 8.47 8.418 8.418 8.445 8.443 8.463 8.535 8.633 8.73 8.78 8.772 8.755 8.757 8.792 8.84 8.885 8.928 8.973 9.02 9.075 9.138 9.207 9.275 9.33 9.38 9.425 9.46 9.495 9.535 9.577 9.597 9.59 9.598 9.633 9.678 9.725 9.775 9.823 9.873 9.943 10.025 10.102 10.155 10.187 10.22 10.252 10.287 10.322 10.355 10.382 10.408 10.433 10.46 10.487 10.507 10.523 10.54 10.563 10.585 10.61 10.635 10.65 10.652 10.65 10.645 10.643 10.655 10.675 10.69 10.702 10.712 10.722 10.737 10.753 10.778 10.815 10.855 10.887 10.905 10.91 10.912 10.917 10.922 10.925 10.938 10.983 11.06 11.132 11.182 11.197 11.183 11.243 11.388 11.51 11.615 11.75 11.9 12.047 12.187 12.32 12.447 12.56 12.645 12.75 12.905 13.072 13.165 13.182 13.198 13.228 13.282 13.32 13.305 13.268 13.26 13.283 13.315 13.355 13.395 13.435 13.475 13.515 13.55 13.555 13.54 13.527 13.512 13.483 13.475 13.523 13.59 13.66 13.73 13.8 13.87 13.963 14.08 14.16 14.167 14.142 14.118 14.093 14.07 14.047 14.023 13.997 13.973 13.95 13.927 13.903 13.877 13.852 13.828 13.803 13.78 13.758 13.742 13.707 13.665 13.625
8.845 8.775 8.635 8.47 8.35 8.328 8.4 8.49 8.577 8.655 8.72 8.755 8.765 8.77 8.772 8.775 8.777 8.77 8.707 8.605 8.51 8.443 8.42 8.47 8.555 8.592 8.63 8.647 8.6 8.54 8.515 8.53 8.553 8.578 8.602 8.627 8.66 8.66 8.61 8.547 8.482 8.418 8.44 8.507 8.525 8.565 8.645 8.715 8.762 8.777 8.762 8.745 8.763 8.822 8.882 8.932 8.975 9.02 9.07 9.128 9.195 9.27 9.35 9.415 9.465 9.51 9.547 9.58 9.613 9.648 9.668 9.68 9.723 9.775 9.813 9.853 9.898 9.943 9.988 10.043 10.115 10.187 10.237 10.272 10.3 10.33 10.365 10.398 10.43 10.455 10.475 10.498 10.525 10.552 10.572 10.588 10.605 10.63 10.655 10.68 10.7 10.705 10.705 10.705 10.702 10.705 10.717 10.732 10.74 10.747 10.757 10.762 10.77 10.78 10.805 10.845 10.882 10.915 10.94 10.95 10.958 10.97 10.975 10.975 10.985 11.03 11.1 11.178 11.27 11.345 11.387 11.462 11.56 11.637 11.718 11.818 11.948 12.093 12.235 12.367 12.492 12.602 12.685 12.765 12.89 13.045 13.13 13.148 13.17 13.218 13.3 13.4 13.462 13.462 13.408 13.37 13.385 13.408 13.433 13.463 13.5 13.54 13.567 13.565 13.55 13.54 13.525 13.505 13.525 13.59 13.66 13.73 13.8 13.867 13.935 14.025 14.14 14.197 14.182 14.158 14.133 14.11 14.087 14.063 14.038 14.013 13.99 13.967 13.943 13.917 13.892 13.868 13.843 13.82 13.797 13.773 13.748 13.72 13.695 13.673
8.725 8.67 8.54 8.353 8.258 8.295 8.385 8.475 8.565 8.652 8.732 8.785 8.802 8.805 8.805 8.807 8.812 8.795 8.72 8.615 8.51 8.413 8.383 8.445 8.542 8.62 8.647 8.615 8.555 8.495 8.463 8.473 8.497 8.523 8.553 8.59 8.637 8.655 8.612 8.55 8.485 8.42 8.44 8.535 8.595 8.64 8.692 8.715 8.715 8.713 8.705 8.693 8.74 8.837 8.91 8.967 9.02 9.07 9.123 9.188 9.26 9.333 9.415 9.492 9.547 9.59 9.63 9.667 9.7 9.73 9.758 9.798 9.865 9.927 9.962 9.993 10.028 10.07 10.115 10.155 10.21 10.275 10.322 10.355 10.382 10.41 10.442 10.475 10.502 10.525 10.545 10.565 10.588 10.615 10.637 10.655 10.675 10.7 10.725 10.745 10.755 10.755 10.755 10.755 10.755 10.757 10.765 10.775 10.78 10.783 10.79 10.795 10.8 10.81 10.835 10.873 10.908 10.943 10.975 10.992 11.005 11.02 11.025 11.025 11.035 11.08 11.15 11.218 11.29 11.382 11.482 11.575 11.667 11.76 11.845 11.925 12.02 12.145 12.285 12.415 12.537 12.645 12.725 12.795 12.888 13.015 13.092 13.115 13.15 13.21 13.3 13.4 13.5 13.585 13.567 13.51 13.505 13.51 13.52 13.535 13.558 13.58 13.595 13.595 13.588 13.583 13.583 13.57 13.59 13.66 13.727 13.795 13.865 13.933 14 14.088 14.187 14.222 14.198 14.173 14.15 14.127 14.102 14.078 14.053 14.03 14.007 13.983 13.958 13.933 13.908 13.883 13.86 13.84 13.818 13.795 13.77 13.748 13.74 13.735
8.605 8.555 8.448 8.298 8.24 8.295 8.385 8.475 8.565 8.653 8.74 8.807 8.832 8.835 8.832 8.827 8.822 8.792 8.71 8.602 8.495 8.393 8.353 8.41 8.507 8.605 8.625 8.567 8.51 8.45 8.413 8.418 8.443 8.478 8.523 8.575 8.63 8.652 8.615 8.55 8.487 8.423 8.425 8.537 8.642 8.677 8.685 8.683 8.678 8.675 8.673 8.675 8.748 8.86 8.935 8.995 9.055 9.115 9.178 9.25 9.325 9.395 9.475 9.565 9.632 9.673 9.71 9.75 9.788 9.825 9.873 9.937 10.012 10.075 10.11 10.135 10.162 10.195 10.235 10.275 10.32 10.367 10.405 10.435 10.465 10.49 10.517 10.547 10.57 10.593 10.615 10.635 10.658 10.683 10.705 10.725 10.745 10.77 10.792 10.802 10.805 10.805 10.805 10.805 10.805 10.805 10.81 10.82 10.822 10.818 10.82 10.825 10.833 10.848 10.873 10.908 10.945 10.985 11.017 11.037 11.055 11.07 11.077 11.08 11.088 11.13 11.197 11.263 11.33 11.408 11.498 11.6 11.71 11.817 11.917 12.012 12.107 12.215 12.337 12.46 12.58 12.685 12.765 12.835 12.905 12.995 13.062 13.095 13.135 13.203 13.3 13.4 13.492 13.565 13.58 13.57 13.602 13.637 13.647 13.652 13.655 13.65 13.655 13.673 13.687 13.7 13.732 13.757 13.725 13.73 13.795 13.86 13.93 14 14.07 14.152 14.225 14.237 14.213 14.19 14.167 14.143 14.118 14.093 14.07 14.048 14.023 14 13.978 13.955 13.933 13.91 13.888 13.865 13.845 13.825 13.803 13.785 13.778 13.773
8.505 8.465 8.415 8.363 8.323 8.34 8.418 8.505 8.595 8.677 8.747 8.805 8.837 8.842 8.83 8.81 8.795 8.76 8.675 8.565 8.463 8.375 8.333 8.373 8.463 8.555 8.572 8.517 8.462 8.408 8.365 8.368 8.408 8.46 8.515 8.57 8.627 8.65 8.61 8.542 8.48 8.42 8.425 8.545 8.667 8.712 8.723 8.725 8.723 8.72 8.718 8.733 8.813 8.91 8.975 9.038 9.1 9.163 9.233 9.307 9.38 9.455 9.54 9.635 9.722 9.782 9.825 9.865 9.905 9.933 9.972 10.042 10.115 10.177 10.212 10.235 10.26 10.285 10.32 10.362 10.405 10.442 10.475 10.505 10.532 10.557 10.585 10.613 10.64 10.67 10.695 10.715 10.74 10.762 10.778 10.795 10.815 10.835 10.847 10.85 10.85 10.852 10.855 10.855 10.855 10.858 10.863 10.87 10.87 10.86 10.863 10.875 10.89 10.91 10.928 10.955 10.995 11.032 11.06 11.08 11.1 11.117 11.13 11.135 11.143 11.18 11.243 11.31 11.38 11.448 11.523 11.61 11.708 11.812 11.917 12.022 12.127 12.235 12.355 12.492 12.625 12.727 12.805 12.872 12.935 12.992 13.04 13.08 13.125 13.2 13.295 13.382 13.46 13.51 13.515 13.548 13.647 13.73 13.755 13.752 13.74 13.725 13.733 13.76 13.765 13.765 13.805 13.867 13.845 13.81 13.865 13.935 14.003 14.07 14.138 14.215 14.262 14.252 14.23 14.208 14.183 14.16 14.138 14.115 14.095 14.073 14.05 14.03 14.008 13.985 13.965 13.945 13.922 13.9 13.878 13.855 13.835 13.823 13.815 13.81
8.455 8.44 8.443 8.447 8.43 8.418 8.463 8.547 8.622 8.685 8.737 8.782 8.822 8.835 8.81 8.775 8.755 8.722 8.64 8.535 8.445 8.365 8.318 8.343 8.42 8.502 8.515 8.463 8.408 8.36 8.335 8.355 8.41 8.468 8.523 8.58 8.635 8.655 8.605 8.525 8.46 8.425 8.46 8.578 8.705 8.767 8.787 8.802 8.812 8.815 8.813 8.83 8.9 8.972 9.028 9.092 9.155 9.218 9.288 9.36 9.435 9.52 9.61 9.705 9.807 9.9 9.967 10.015 10.055 10.045 10.045 10.11 10.177 10.24 10.277 10.295 10.318 10.345 10.38 10.42 10.46 10.5 10.535 10.562 10.588 10.615 10.645 10.68 10.72 10.755 10.782 10.805 10.827 10.845 10.853 10.865 10.875 10.882 10.895 10.898 10.895 10.898 10.9 10.9 10.903 10.91 10.915 10.92 10.923 10.92 10.93 10.95 10.97 10.99 11.003 11.015 11.043 11.075 11.1 11.12 11.14 11.16 11.177 11.185 11.195 11.23 11.29 11.36 11.43 11.503 11.575 11.635 11.7 11.788 11.885 11.987 12.09 12.195 12.33 12.495 12.652 12.762 12.832 12.892 12.942 12.98 13.018 13.063 13.118 13.192 13.272 13.345 13.415 13.452 13.47 13.548 13.67 13.78 13.832 13.827 13.805 13.793 13.805 13.805 13.757 13.735 13.773 13.833 13.87 13.878 13.925 14.002 14.077 14.147 14.21 14.272 14.295 14.275 14.255 14.233 14.21 14.19 14.17 14.15 14.128 14.105 14.085 14.065 14.042 14.02 13.998 13.975 13.955 13.935 13.912 13.888 13.868 13.858 13.852 13.847
8.455 8.46 8.47 8.48 8.49 8.485 8.505 8.565 8.617 8.665 8.713 8.758 8.802 8.827 8.805 8.758 8.723 8.685 8.61 8.52 8.44 8.36 8.303 8.318 8.385 8.45 8.455 8.413 8.375 8.343 8.348 8.39 8.44 8.49 8.543 8.595 8.64 8.667 8.615 8.513 8.45 8.458 8.525 8.623 8.74 8.81 8.833 8.857 8.88 8.895 8.902 8.925 8.977 9.03 9.083 9.145 9.208 9.273 9.34 9.413 9.495 9.585 9.678 9.778 9.882 9.987 10.082 10.155 10.192 10.142 10.113 10.172 10.237 10.3 10.342 10.36 10.375 10.403 10.44 10.477 10.515 10.555 10.59 10.618 10.645 10.675 10.71 10.752 10.795 10.835 10.87 10.895 10.912 10.925 10.927 10.925 10.913 10.913 10.937 10.95 10.95 10.948 10.945 10.945 10.948 10.955 10.96 10.97 10.985 10.993 11.005 11.028 11.05 11.072 11.087 11.093 11.105 11.125 11.143 11.16 11.18 11.203 11.225 11.238 11.248 11.28 11.34 11.415 11.495 11.58 11.647 11.683 11.718 11.775 11.855 11.948 12.048 12.16 12.305 12.48 12.66 12.782 12.842 12.89 12.925 12.955 12.99 13.038 13.097 13.165 13.235 13.305 13.372 13.405 13.453 13.563 13.685 13.797 13.87 13.882 13.862 13.855 13.847 13.797 13.725 13.71 13.76 13.825 13.885 13.927 13.983 14.06 14.145 14.227 14.287 14.32 14.325 14.31 14.29 14.27 14.248 14.225 14.205 14.185 14.163 14.14 14.118 14.095 14.075 14.055 14.032 14.008 13.985 13.965 13.945 13.923 13.905 13.895 13.888 13.877
8.46 8.467 8.472 8.477 8.485 8.5 8.527 8.565 8.608 8.653 8.695 8.738 8.78 8.815 8.805 8.758 8.713 8.663 8.593 8.512 8.435 8.355 8.288 8.293 8.358 8.415 8.423 8.395 8.375 8.365 8.39 8.44 8.485 8.53 8.578 8.618 8.653 8.687 8.645 8.528 8.473 8.513 8.59 8.673 8.78 8.855 8.878 8.903 8.928 8.952 8.975 9.005 9.05 9.098 9.148 9.203 9.263 9.325 9.393 9.472 9.56 9.65 9.745 9.85 9.955 10.06 10.165 10.262 10.295 10.215 10.173 10.227 10.295 10.36 10.407 10.43 10.438 10.458 10.495 10.533 10.57 10.61 10.645 10.675 10.702 10.728 10.767 10.817 10.865 10.912 10.955 10.985 10.997 11.005 11.005 10.99 10.965 10.955 10.973 10.995 11.007 11.002 10.993 10.99 10.99 10.995 11.003 11.02 11.045 11.063 11.083 11.108 11.133 11.158 11.178 11.19 11.208 11.238 11.258 11.265 11.275 11.29 11.305 11.31 11.313 11.34 11.405 11.49 11.58 11.662 11.715 11.74 11.765 11.803 11.86 11.933 12.018 12.138 12.3 12.483 12.67 12.792 12.84 12.875 12.905 12.935 12.965 13.005 13.06 13.125 13.195 13.265 13.323 13.373 13.46 13.572 13.672 13.775 13.86 13.9 13.907 13.887 13.835 13.76 13.695 13.695 13.755 13.825 13.895 13.96 14.02 14.09 14.175 14.262 14.317 14.332 14.347 14.352 14.335 14.315 14.29 14.265 14.245 14.223 14.2 14.18 14.155 14.13 14.11 14.088 14.065 14.043 14.018 13.995 13.975 13.955 13.943 13.935 13.925 13.895
8.432 8.437 8.44 8.44 8.453 8.493 8.537 8.575 8.615 8.655 8.695 8.735 8.775 8.815 8.812 8.768 8.728 8.68 8.598 8.503 8.423 8.345 8.275 8.278 8.345 8.405 8.422 8.407 8.39 8.398 8.437 8.485 8.53 8.573 8.628 8.675 8.71 8.75 8.717 8.603 8.56 8.608 8.665 8.735 8.832 8.9 8.923 8.95 8.978 9.005 9.035 9.075 9.125 9.175 9.225 9.275 9.33 9.388 9.445 9.517 9.602 9.69 9.785 9.89 10 10.112 10.227 10.337 10.365 10.273 10.218 10.265 10.335 10.405 10.467 10.502 10.513 10.528 10.56 10.6 10.638 10.675 10.707 10.732 10.755 10.775 10.815 10.87 10.922 10.975 11.025 11.065 11.082 11.087 11.087 11.075 11.055 11.043 11.048 11.065 11.072 11.06 11.045 11.038 11.038 11.043 11.053 11.073 11.098 11.13 11.17 11.2 11.225 11.25 11.28 11.308 11.335 11.39 11.432 11.44 11.443 11.448 11.45 11.443 11.425 11.43 11.49 11.58 11.67 11.735 11.77 11.797 11.822 11.85 11.89 11.963 12.055 12.168 12.323 12.5 12.677 12.782 12.815 12.845 12.872 12.9 12.93 12.963 13.013 13.082 13.155 13.225 13.283 13.358 13.455 13.54 13.625 13.735 13.825 13.875 13.89 13.85 13.79 13.722 13.668 13.683 13.753 13.828 13.9 13.96 14.007 14.065 14.142 14.227 14.28 14.297 14.332 14.375 14.392 14.387 14.368 14.345 14.323 14.298 14.275 14.253 14.228 14.205 14.183 14.158 14.135 14.113 14.088 14.065 14.055 14.033 14.005 13.995 13.975 13.915
8.39 8.393 8.398 8.408 8.448 8.507 8.552 8.588 8.625 8.665 8.705 8.743 8.78 8.82 8.822 8.788 8.762 8.722 8.625 8.505 8.41 8.333 8.273 8.28 8.348 8.41 8.427 8.415 8.4 8.412 8.452 8.493 8.548 8.618 8.705 8.772 8.81 8.85 8.822 8.725 8.7 8.745 8.785 8.838 8.902 8.947 8.975 9.005 9.038 9.07 9.103 9.148 9.202 9.255 9.305 9.355 9.41 9.467 9.5 9.535 9.605 9.69 9.788 9.895 10.005 10.12 10.242 10.36 10.405 10.325 10.26 10.293 10.355 10.427 10.5 10.555 10.59 10.612 10.64 10.68 10.717 10.747 10.767 10.785 10.803 10.823 10.863 10.917 10.967 11.017 11.067 11.11 11.14 11.157 11.17 11.167 11.158 11.155 11.16 11.162 11.145 11.12 11.105 11.095 11.093 11.095 11.105 11.125 11.155 11.2 11.25 11.292 11.325 11.353 11.39 11.427 11.463 11.525 11.592 11.622 11.627 11.63 11.63 11.615 11.583 11.56 11.588 11.668 11.75 11.795 11.818 11.845 11.872 11.898 11.938 12.02 12.132 12.25 12.38 12.53 12.677 12.752 12.773 12.8 12.825 12.85 12.88 12.91 12.958 13.03 13.105 13.177 13.247 13.325 13.402 13.473 13.578 13.702 13.785 13.815 13.795 13.75 13.707 13.66 13.64 13.683 13.76 13.84 13.905 13.945 13.98 14.025 14.085 14.165 14.22 14.248 14.295 14.365 14.425 14.447 14.45 14.445 14.427 14.405 14.382 14.358 14.335 14.312 14.288 14.265 14.242 14.217 14.193 14.185 14.2 14.17 14.11 14.085 14.042 13.95
8.35 8.35 8.358 8.398 8.467 8.525 8.565 8.6 8.635 8.675 8.715 8.75 8.785 8.825 8.835 8.818 8.807 8.767 8.665 8.535 8.415 8.32 8.278 8.3 8.36 8.417 8.43 8.41 8.388 8.395 8.438 8.498 8.585 8.693 8.805 8.885 8.922 8.955 8.93 8.853 8.84 8.88 8.92 8.957 8.98 9.005 9.04 9.07 9.103 9.138 9.177 9.225 9.277 9.332 9.385 9.437 9.492 9.55 9.567 9.555 9.595 9.683 9.785 9.892 9.998 10.108 10.22 10.33 10.395 10.357 10.313 10.328 10.375 10.443 10.508 10.573 10.632 10.677 10.715 10.755 10.792 10.817 10.83 10.843 10.855 10.873 10.908 10.955 11.003 11.048 11.093 11.132 11.162 11.19 11.22 11.245 11.26 11.265 11.262 11.245 11.212 11.183 11.165 11.155 11.15 11.15 11.158 11.183 11.225 11.275 11.325 11.375 11.42 11.457 11.5 11.542 11.59 11.66 11.74 11.795 11.81 11.81 11.807 11.785 11.75 11.718 11.705 11.755 11.817 11.845 11.865 11.888 11.915 11.94 11.993 12.085 12.193 12.312 12.44 12.572 12.675 12.715 12.73 12.75 12.773 12.8 12.828 12.858 12.9 12.965 13.042 13.117 13.188 13.255 13.325 13.418 13.555 13.675 13.727 13.722 13.68 13.633 13.595 13.588 13.63 13.705 13.785 13.85 13.89 13.923 13.96 14 14.045 14.108 14.16 14.205 14.265 14.337 14.417 14.465 14.485 14.502 14.51 14.505 14.487 14.465 14.442 14.417 14.393 14.37 14.348 14.323 14.318 14.35 14.367 14.315 14.235 14.177 14.102 13.993
8.318 8.313 8.343 8.42 8.492 8.535 8.575 8.612 8.648 8.685 8.725 8.763 8.803 8.85 8.87 8.86 8.852 8.807 8.702 8.575 8.445 8.33 8.295 8.335 8.388 8.427 8.425 8.39 8.358 8.383 8.463 8.563 8.675 8.787 8.9 8.967 8.995 9.027 9.025 8.973 8.958 8.995 9.025 9.04 9.043 9.068 9.11 9.14 9.17 9.202 9.242 9.287 9.332 9.38 9.435 9.497 9.56 9.622 9.642 9.61 9.608 9.678 9.785 9.893 10.003 10.118 10.228 10.323 10.375 10.378 10.37 10.375 10.405 10.463 10.528 10.595 10.665 10.73 10.78 10.82 10.855 10.882 10.9 10.91 10.928 10.953 10.983 11.018 11.055 11.093 11.128 11.153 11.173 11.203 11.242 11.287 11.325 11.347 11.342 11.312 11.278 11.245 11.225 11.218 11.213 11.21 11.218 11.25 11.303 11.355 11.397 11.44 11.49 11.537 11.585 11.632 11.702 11.792 11.875 11.947 11.985 11.992 11.985 11.955 11.92 11.885 11.85 11.853 11.88 11.9 11.917 11.933 11.955 11.983 12.048 12.152 12.255 12.36 12.478 12.605 12.682 12.698 12.705 12.713 12.725 12.75 12.775 12.805 12.843 12.9 12.977 13.053 13.135 13.195 13.258 13.383 13.537 13.635 13.645 13.613 13.575 13.548 13.53 13.563 13.643 13.727 13.797 13.837 13.865 13.9 13.94 13.98 14.02 14.065 14.113 14.168 14.23 14.298 14.387 14.462 14.497 14.522 14.545 14.56 14.565 14.562 14.547 14.522 14.498 14.475 14.458 14.458 14.495 14.537 14.51 14.42 14.322 14.232 14.14 14.035
8.295 8.298 8.365 8.452 8.512 8.548 8.585 8.625 8.663 8.7 8.745 8.795 8.848 8.907 8.932 8.915 8.9 8.847 8.737 8.61 8.495 8.398 8.36 8.395 8.442 8.465 8.443 8.398 8.38 8.438 8.545 8.657 8.77 8.88 8.99 9.03 9.018 9.035 9.07 9.067 9.062 9.09 9.1 9.1 9.098 9.125 9.175 9.205 9.225 9.245 9.267 9.3 9.34 9.38 9.437 9.51 9.577 9.652 9.71 9.7 9.67 9.71 9.813 9.928 10.043 10.16 10.277 10.365 10.405 10.428 10.44 10.445 10.46 10.505 10.575 10.645 10.718 10.787 10.84 10.88 10.915 10.945 10.968 10.99 11.025 11.06 11.09 11.12 11.15 11.175 11.185 11.183 11.185 11.21 11.252 11.295 11.335 11.37 11.382 11.37 11.342 11.308 11.285 11.28 11.278 11.275 11.29 11.33 11.382 11.43 11.457 11.483 11.525 11.575 11.625 11.678 11.755 11.862 11.975 12.077 12.15 12.175 12.157 12.122 12.08 12.025 11.965 11.933 11.94 11.957 11.967 11.975 11.993 12.023 12.088 12.187 12.295 12.402 12.512 12.625 12.69 12.7 12.7 12.7 12.703 12.713 12.728 12.755 12.79 12.84 12.913 13.01 13.152 13.225 13.25 13.365 13.512 13.572 13.555 13.533 13.518 13.518 13.525 13.573 13.657 13.732 13.78 13.81 13.84 13.875 13.915 13.958 14 14.045 14.095 14.15 14.208 14.268 14.348 14.44 14.505 14.535 14.555 14.575 14.597 14.617 14.625 14.62 14.605 14.592 14.587 14.587 14.61 14.62 14.555 14.445 14.34 14.245 14.155 14.06
8.3 8.325 8.405 8.477 8.525 8.563 8.6 8.645 8.695 8.745 8.8 8.86 8.92 8.982 9.007 8.98 8.95 8.89 8.783 8.673 8.583 8.508 8.458 8.47 8.51 8.52 8.49 8.45 8.465 8.54 8.64 8.75 8.86 8.97 9.08 9.102 9.035 9.015 9.065 9.112 9.135 9.145 9.147 9.152 9.152 9.18 9.227 9.247 9.252 9.26 9.27 9.29 9.323 9.363 9.423 9.495 9.563 9.65 9.76 9.795 9.775 9.81 9.893 9.99 10.098 10.215 10.335 10.425 10.472 10.502 10.517 10.525 10.535 10.57 10.635 10.705 10.775 10.842 10.897 10.94 10.972 11 11.037 11.087 11.132 11.167 11.2 11.23 11.252 11.257 11.245 11.235 11.23 11.228 11.248 11.285 11.325 11.36 11.385 11.397 11.395 11.372 11.35 11.345 11.345 11.348 11.373 11.42 11.462 11.49 11.507 11.523 11.553 11.6 11.648 11.703 11.773 11.873 12.005 12.137 12.255 12.312 12.287 12.232 12.167 12.09 12.015 11.985 11.997 12.01 12.015 12.02 12.033 12.058 12.115 12.2 12.3 12.412 12.527 12.625 12.682 12.702 12.705 12.705 12.705 12.705 12.708 12.725 12.753 12.785 12.865 13.005 13.175 13.282 13.312 13.375 13.477 13.517 13.505 13.508 13.51 13.513 13.53 13.588 13.662 13.712 13.748 13.78 13.813 13.853 13.895 13.94 13.988 14.038 14.093 14.15 14.205 14.26 14.328 14.415 14.5 14.545 14.565 14.587 14.61 14.63 14.647 14.66 14.652 14.632 14.627 14.62 14.62 14.61 14.535 14.43 14.335 14.245 14.155 14.062
8.348 8.378 8.437 8.495 8.54 8.59 8.64 8.695 8.755 8.815 8.875 8.935 8.995 9.055 9.085 9.057 9.007 8.947 8.865 8.78 8.7 8.623 8.553 8.543 8.57 8.57 8.54 8.52 8.563 8.64 8.735 8.845 8.953 9.06 9.167 9.172 9.073 9.015 9.045 9.105 9.14 9.145 9.145 9.152 9.165 9.212 9.262 9.273 9.268 9.27 9.28 9.295 9.315 9.348 9.405 9.478 9.55 9.65 9.785 9.87 9.898 9.945 10.013 10.083 10.168 10.27 10.38 10.475 10.545 10.582 10.595 10.605 10.615 10.64 10.695 10.765 10.832 10.897 10.952 10.992 11.022 11.048 11.093 11.16 11.22 11.267 11.307 11.33 11.33 11.317 11.303 11.3 11.305 11.288 11.27 11.283 11.315 11.347 11.373 11.395 11.412 11.42 11.417 11.415 11.418 11.425 11.455 11.5 11.527 11.54 11.553 11.568 11.588 11.625 11.673 11.73 11.8 11.883 12 12.135 12.257 12.327 12.312 12.255 12.19 12.115 12.053 12.038 12.05 12.057 12.063 12.07 12.078 12.095 12.15 12.23 12.315 12.413 12.52 12.605 12.66 12.697 12.71 12.71 12.71 12.71 12.713 12.725 12.75 12.78 12.82 12.885 13 13.137 13.22 13.27 13.397 13.495 13.498 13.502 13.505 13.508 13.535 13.592 13.643 13.683 13.733 13.778 13.808 13.843 13.888 13.935 13.985 14.035 14.09 14.147 14.203 14.26 14.325 14.402 14.482 14.532 14.55 14.565 14.577 14.59 14.597 14.597 14.592 14.575 14.575 14.6 14.622 14.602 14.522 14.425 14.332 14.232 14.13 14.027
8.407 8.427 8.465 8.515 8.57 8.632 8.695 8.755 8.817 8.88 8.942 9.005 9.065 9.125 9.155 9.105 9.022 8.995 8.96 8.882 8.807 8.732 8.658 8.623 8.625 8.62 8.595 8.605 8.67 8.745 8.835 8.94 9.047 9.155 9.245 9.227 9.125 9.038 9.023 9.065 9.103 9.125 9.12 9.113 9.15 9.235 9.302 9.313 9.298 9.29 9.298 9.315 9.33 9.358 9.415 9.485 9.558 9.668 9.81 9.935 10.017 10.077 10.142 10.207 10.275 10.348 10.43 10.523 10.61 10.66 10.675 10.685 10.695 10.71 10.755 10.822 10.888 10.952 11.002 11.035 11.065 11.093 11.135 11.205 11.28 11.347 11.397 11.405 11.388 11.373 11.365 11.373 11.385 11.372 11.34 11.318 11.318 11.338 11.365 11.393 11.42 11.45 11.47 11.482 11.495 11.507 11.532 11.56 11.575 11.587 11.6 11.615 11.63 11.653 11.698 11.76 11.827 11.898 11.99 12.097 12.195 12.26 12.26 12.22 12.175 12.123 12.09 12.09 12.097 12.102 12.107 12.115 12.122 12.135 12.185 12.265 12.345 12.428 12.512 12.583 12.64 12.695 12.72 12.718 12.715 12.715 12.723 12.748 12.785 12.827 12.818 12.763 12.755 12.835 12.94 13.05 13.27 13.452 13.49 13.495 13.498 13.503 13.535 13.593 13.643 13.698 13.762 13.807 13.822 13.84 13.88 13.93 13.983 14.035 14.09 14.145 14.2 14.26 14.323 14.385 14.442 14.49 14.512 14.518 14.52 14.528 14.528 14.518 14.515 14.515 14.523 14.56 14.61 14.595 14.505 14.4 14.297 14.185 14.07 13.767
8.43 8.445 8.445 8.465 8.527 8.592 8.655 8.717 8.782 8.847 8.912 8.975 9.035 9.095 9.127 9.062 8.98 9.02 9.037 8.965 8.895 8.825 8.77 8.725 8.685 8.665 8.663 8.705 8.78 8.855 8.938 9.035 9.137 9.22 9.252 9.2 9.103 9.045 9.05 9.078 9.103 9.125 9.125 9.128 9.193 9.295 9.362 9.375 9.363 9.35 9.353 9.373 9.4 9.443 9.505 9.575 9.653 9.765 9.905 10.035 10.13 10.195 10.26 10.325 10.382 10.435 10.498 10.585 10.67 10.722 10.745 10.755 10.765 10.773 10.813 10.88 10.945 11.01 11.062 11.1 11.128 11.155 11.205 11.278 11.35 11.415 11.462 11.472 11.455 11.435 11.43 11.445 11.46 11.455 11.427 11.393 11.365 11.365 11.388 11.415 11.448 11.48 11.507 11.535 11.557 11.575 11.595 11.61 11.62 11.633 11.648 11.663 11.677 11.69 11.723 11.782 11.845 11.91 11.973 12.038 12.12 12.192 12.2 12.16 12.128 12.113 12.115 12.125 12.13 12.135 12.14 12.145 12.155 12.17 12.215 12.29 12.37 12.447 12.513 12.57 12.633 12.695 12.73 12.732 12.73 12.73 12.748 12.79 12.838 12.885 12.875 12.793 12.7 12.665 12.738 12.893 13.133 13.377 13.48 13.49 13.5 13.508 13.548 13.62 13.685 13.75 13.805 13.83 13.83 13.833 13.868 13.922 13.98 14.035 14.09 14.148 14.205 14.268 14.323 14.363 14.405 14.452 14.477 14.482 14.485 14.487 14.485 14.478 14.473 14.468 14.465 14.493 14.547 14.545 14.455 14.34 14.23 14.115 13.987 13.16
8.43 8.435 8.403 8.365 8.403 8.465 8.528 8.592 8.655 8.72 8.785 8.845 8.902 8.96 9.01 8.967 8.93 9.032 9.097 9.047 8.975 8.92 8.895 8.855 8.788 8.733 8.738 8.802 8.877 8.955 9.032 9.105 9.167 9.21 9.19 9.113 9.063 9.088 9.142 9.17 9.18 9.188 9.195 9.218 9.28 9.367 9.427 9.445 9.44 9.433 9.445 9.48 9.525 9.58 9.645 9.723 9.815 9.925 10.05 10.16 10.24 10.305 10.367 10.425 10.47 10.513 10.57 10.652 10.725 10.772 10.802 10.815 10.822 10.823 10.863 10.937 11.005 11.07 11.13 11.18 11.212 11.24 11.295 11.367 11.427 11.475 11.515 11.542 11.537 11.513 11.505 11.52 11.535 11.535 11.512 11.48 11.45 11.438 11.448 11.465 11.488 11.515 11.545 11.572 11.592 11.61 11.632 11.655 11.67 11.68 11.695 11.71 11.715 11.72 11.748 11.798 11.855 11.917 11.967 12.008 12.063 12.127 12.14 12.115 12.11 12.12 12.135 12.142 12.148 12.155 12.16 12.165 12.18 12.208 12.248 12.31 12.39 12.462 12.52 12.573 12.63 12.69 12.735 12.75 12.748 12.755 12.793 12.845 12.895 12.945 12.932 12.853 12.778 12.72 12.755 12.87 13.043 13.297 13.457 13.495 13.515 13.525 13.585 13.672 13.737 13.797 13.83 13.83 13.812 13.808 13.845 13.91 13.982 14.045 14.1 14.16 14.223 14.292 14.34 14.358 14.385 14.425 14.445 14.448 14.45 14.45 14.448 14.442 14.435 14.428 14.423 14.43 14.452 14.455 14.385 14.27 14.16 14.045 13.392 12.23
8.465 8.44 8.397 8.308 8.28 8.338 8.402 8.465 8.527 8.59 8.65 8.71 8.765 8.82 8.88 8.868 8.888 9.027 9.137 9.13 9.07 9.053 9.045 8.997 8.92 8.838 8.805 8.848 8.917 8.99 9.052 9.095 9.127 9.152 9.125 9.088 9.115 9.18 9.245 9.28 9.29 9.3 9.312 9.33 9.37 9.438 9.492 9.51 9.515 9.53 9.565 9.615 9.665 9.72 9.788 9.873 9.97 10.075 10.182 10.275 10.347 10.407 10.462 10.51 10.55 10.59 10.645 10.717 10.775 10.818 10.857 10.88 10.88 10.868 10.905 10.987 11.062 11.13 11.187 11.242 11.29 11.33 11.382 11.44 11.485 11.525 11.565 11.602 11.615 11.598 11.588 11.6 11.615 11.607 11.587 11.567 11.54 11.523 11.525 11.535 11.548 11.565 11.585 11.602 11.615 11.63 11.655 11.685 11.71 11.727 11.74 11.745 11.738 11.745 11.78 11.82 11.868 11.922 11.97 12.005 12.04 12.088 12.108 12.11 12.125 12.14 12.155 12.16 12.165 12.175 12.18 12.19 12.215 12.25 12.285 12.333 12.405 12.472 12.525 12.578 12.632 12.687 12.74 12.765 12.768 12.795 12.847 12.9 12.95 12.997 13.002 12.957 12.912 12.88 12.905 12.97 13.053 13.233 13.4 13.472 13.522 13.55 13.618 13.72 13.79 13.83 13.83 13.805 13.773 13.773 13.82 13.895 13.987 14.062 14.12 14.183 14.253 14.33 14.372 14.373 14.375 14.398 14.415 14.415 14.415 14.415 14.412 14.405 14.398 14.392 14.385 14.383 14.375 14.36 14.305 14.2 14.087 13.535 12.37 11.663
8.533 8.483 8.422 8.3 8.198 8.213 8.275 8.335 8.398 8.455 8.51 8.57 8.625 8.68 8.74 8.78 8.868 9.02 9.162 9.215 9.203 9.212 9.197 9.132 9.042 8.95 8.888 8.88 8.913 8.958 8.998 9.033 9.07 9.098 9.108 9.14 9.203 9.27 9.345 9.39 9.4 9.41 9.42 9.433 9.465 9.52 9.568 9.595 9.623 9.66 9.705 9.755 9.805 9.86 9.93 10.017 10.11 10.205 10.297 10.382 10.45 10.497 10.542 10.585 10.627 10.67 10.72 10.775 10.822 10.865 10.907 10.937 10.935 10.915 10.948 11.032 11.112 11.18 11.237 11.295 11.352 11.405 11.452 11.495 11.535 11.575 11.615 11.655 11.685 11.682 11.67 11.677 11.682 11.655 11.63 11.625 11.612 11.602 11.602 11.605 11.607 11.612 11.617 11.625 11.635 11.65 11.675 11.705 11.735 11.762 11.772 11.765 11.763 11.783 11.82 11.855 11.893 11.935 11.975 12.015 12.055 12.095 12.12 12.135 12.15 12.162 12.167 12.165 12.172 12.187 12.202 12.225 12.257 12.292 12.327 12.365 12.418 12.475 12.528 12.583 12.635 12.685 12.74 12.775 12.798 12.842 12.892 12.937 12.982 13.022 13.045 13.045 13.035 13.025 13.045 13.092 13.14 13.228 13.333 13.413 13.49 13.552 13.637 13.757 13.822 13.822 13.797 13.762 13.728 13.738 13.8 13.885 13.987 14.075 14.145 14.218 14.293 14.367 14.402 14.397 14.387 14.38 14.38 14.38 14.38 14.38 14.377 14.37 14.363 14.355 14.348 14.35 14.342 14.303 14.23 14.127 13.7 12.625 11.771 11.585
8.61 8.547 8.462 8.327 8.173 8.113 8.16 8.228 8.293 8.355 8.42 8.488 8.55 8.613 8.68 8.77 8.91 9.07 9.217 9.302 9.327 9.35 9.33 9.255 9.163 9.07 9 8.96 8.953 8.975 9.005 9.038 9.073 9.11 9.163 9.225 9.288 9.36 9.442 9.495 9.51 9.515 9.513 9.528 9.573 9.63 9.68 9.72 9.76 9.8 9.845 9.895 9.942 9.987 10.055 10.145 10.235 10.322 10.407 10.485 10.537 10.577 10.62 10.66 10.703 10.745 10.775 10.805 10.847 10.89 10.93 10.967 10.977 10.96 10.99 11.072 11.147 11.21 11.27 11.33 11.39 11.44 11.485 11.535 11.582 11.625 11.665 11.705 11.745 11.76 11.753 11.755 11.735 11.683 11.655 11.655 11.655 11.662 11.662 11.653 11.647 11.645 11.645 11.648 11.655 11.67 11.695 11.725 11.755 11.785 11.795 11.788 11.805 11.843 11.88 11.915 11.943 11.965 11.995 12.038 12.082 12.125 12.15 12.163 12.177 12.19 12.182 12.155 12.148 12.165 12.19 12.222 12.257 12.303 12.368 12.415 12.45 12.5 12.55 12.6 12.65 12.7 12.752 12.792 12.825 12.867 12.91 12.95 12.987 13.022 13.045 13.057 13.07 13.082 13.11 13.152 13.2 13.25 13.305 13.375 13.455 13.525 13.615 13.737 13.8 13.782 13.75 13.718 13.688 13.708 13.785 13.88 13.993 14.12 14.213 14.27 14.335 14.402 14.43 14.415 14.39 14.36 14.343 14.34 14.34 14.34 14.34 14.335 14.328 14.32 14.318 14.325 14.332 14.3 14.187 13.865 12.915 11.94 11.613 11.472
8.68 8.595 8.485 8.35 8.188 8.08 8.1 8.178 8.253 8.328 8.405 8.482 8.555 8.628 8.705 8.815 8.982 9.165 9.305 9.377 9.412 9.437 9.427 9.372 9.29 9.2 9.125 9.073 9.043 9.05 9.08 9.11 9.143 9.183 9.243 9.312 9.378 9.453 9.537 9.597 9.615 9.603 9.6 9.64 9.703 9.77 9.822 9.86 9.898 9.938 9.985 10.03 10.062 10.09 10.158 10.257 10.35 10.435 10.515 10.575 10.613 10.653 10.695 10.735 10.777 10.8 10.795 10.81 10.847 10.885 10.925 10.97 11.002 11 11.03 11.105 11.17 11.23 11.29 11.35 11.407 11.45 11.49 11.545 11.602 11.655 11.707 11.755 11.795 11.827 11.835 11.825 11.775 11.705 11.68 11.68 11.69 11.717 11.72 11.698 11.685 11.68 11.678 11.675 11.678 11.69 11.715 11.745 11.775 11.805 11.815 11.82 11.863 11.92 11.962 11.992 12.005 12.008 12.028 12.065 12.108 12.15 12.177 12.19 12.203 12.217 12.205 12.155 12.115 12.118 12.145 12.185 12.245 12.328 12.427 12.482 12.503 12.545 12.593 12.64 12.69 12.732 12.765 12.805 12.847 12.88 12.913 12.948 12.983 13.02 13.045 13.055 13.068 13.085 13.115 13.16 13.207 13.255 13.305 13.368 13.437 13.49 13.558 13.655 13.702 13.71 13.702 13.67 13.653 13.688 13.775 13.895 14.058 14.242 14.347 14.378 14.418 14.442 14.435 14.407 14.37 14.335 14.315 14.308 14.305 14.305 14.302 14.298 14.292 14.288 14.29 14.3 14.31 14.297 14.094 13.207 12.108 11.65 11.52 11.353
8.725 8.615 8.5 8.385 8.233 8.098 8.088 8.16 8.24 8.32 8.397 8.475 8.553 8.643 8.743 8.858 9.015 9.197 9.36 9.45 9.487 9.5 9.49 9.465 9.41 9.33 9.258 9.202 9.148 9.13 9.155 9.185 9.218 9.253 9.313 9.392 9.468 9.545 9.63 9.697 9.71 9.685 9.693 9.753 9.835 9.92 9.97 10 10.035 10.075 10.117 10.142 10.157 10.18 10.25 10.36 10.46 10.545 10.612 10.655 10.69 10.73 10.77 10.81 10.832 10.812 10.793 10.813 10.845 10.88 10.92 10.965 11.012 11.035 11.07 11.135 11.195 11.253 11.31 11.37 11.422 11.46 11.49 11.535 11.595 11.655 11.72 11.78 11.83 11.88 11.907 11.88 11.8 11.728 11.705 11.715 11.745 11.785 11.79 11.76 11.735 11.72 11.713 11.708 11.71 11.725 11.745 11.768 11.795 11.825 11.84 11.868 11.93 11.995 12.04 12.06 12.06 12.053 12.065 12.098 12.135 12.175 12.202 12.217 12.23 12.24 12.22 12.165 12.11 12.09 12.13 12.208 12.305 12.415 12.515 12.56 12.565 12.593 12.64 12.69 12.727 12.745 12.758 12.805 12.87 12.905 12.928 12.955 12.985 13.018 13.042 13.058 13.075 13.095 13.125 13.17 13.215 13.26 13.308 13.36 13.41 13.45 13.5 13.562 13.578 13.595 13.635 13.622 13.618 13.675 13.798 13.978 14.195 14.405 14.512 14.537 14.52 14.412 14.335 14.337 14.332 14.31 14.29 14.28 14.273 14.27 14.267 14.262 14.255 14.253 14.26 14.272 14.25 14.187 13.54 12.343 11.695 11.578 11.455 11.318
8.768 8.66 8.555 8.455 8.305 8.143 8.09 8.14 8.217 8.295 8.373 8.46 8.565 8.68 8.792 8.903 9.04 9.205 9.377 9.507 9.557 9.555 9.54 9.525 9.497 9.45 9.387 9.32 9.248 9.215 9.235 9.265 9.295 9.328 9.388 9.47 9.558 9.648 9.735 9.795 9.8 9.808 9.85 9.925 10.033 10.115 10.145 10.175 10.205 10.213 10.222 10.232 10.245 10.27 10.34 10.455 10.565 10.647 10.7 10.735 10.77 10.807 10.845 10.867 10.847 10.803 10.79 10.815 10.845 10.878 10.915 10.96 11.01 11.055 11.103 11.16 11.22 11.277 11.333 11.39 11.437 11.47 11.495 11.53 11.585 11.645 11.71 11.775 11.835 11.9 11.94 11.907 11.82 11.75 11.74 11.77 11.81 11.85 11.857 11.83 11.8 11.773 11.753 11.745 11.755 11.772 11.788 11.805 11.825 11.848 11.878 11.927 11.992 12.055 12.1 12.112 12.105 12.095 12.103 12.133 12.168 12.205 12.232 12.248 12.262 12.26 12.222 12.167 12.113 12.12 12.198 12.295 12.405 12.515 12.602 12.635 12.635 12.65 12.682 12.715 12.73 12.733 12.75 12.808 12.885 12.932 12.958 12.983 13.005 13.025 13.045 13.065 13.085 13.105 13.135 13.178 13.223 13.27 13.318 13.373 13.42 13.443 13.458 13.473 13.463 13.455 13.513 13.56 13.593 13.708 13.9 14.125 14.355 14.567 14.677 14.66 14.53 14.303 14.183 14.215 14.258 14.272 14.265 14.253 14.24 14.233 14.23 14.227 14.222 14.225 14.21 14.18 14.132 13.715 12.633 11.805 11.615 11.52 11.45 11.37
8.835 8.742 8.645 8.545 8.422 8.25 8.12 8.123 8.193 8.28 8.385 8.505 8.632 8.745 8.845 8.948 9.08 9.24 9.387 9.475 9.51 9.517 9.502 9.485 9.47 9.477 9.47 9.41 9.333 9.295 9.313 9.345 9.375 9.413 9.475 9.56 9.663 9.765 9.852 9.89 9.923 10.015 10.103 10.195 10.297 10.34 10.343 10.372 10.412 10.38 10.32 10.315 10.337 10.363 10.43 10.54 10.637 10.702 10.747 10.787 10.827 10.867 10.9 10.895 10.853 10.81 10.808 10.84 10.87 10.9 10.933 10.975 11.025 11.078 11.13 11.185 11.243 11.3 11.357 11.41 11.45 11.483 11.51 11.533 11.575 11.638 11.705 11.78 11.842 11.892 11.915 11.88 11.81 11.77 11.79 11.83 11.87 11.91 11.925 11.902 11.87 11.84 11.813 11.8 11.805 11.818 11.832 11.85 11.865 11.885 11.918 11.962 12.02 12.08 12.127 12.15 12.15 12.14 12.143 12.17 12.207 12.24 12.265 12.282 12.295 12.272 12.217 12.163 12.138 12.215 12.327 12.408 12.505 12.615 12.687 12.705 12.705 12.708 12.713 12.72 12.728 12.733 12.758 12.818 12.895 12.955 12.99 13.012 13.03 13.047 13.06 13.073 13.09 13.11 13.143 13.185 13.23 13.28 13.338 13.41 13.477 13.502 13.493 13.475 13.45 13.418 13.445 13.51 13.595 13.79 14.045 14.285 14.512 14.727 14.8 14.677 14.462 14.228 14.13 14.175 14.225 14.25 14.252 14.24 14.223 14.205 14.193 14.19 14.18 14.165 14.135 14.09 13.837 12.915 11.968 11.645 11.54 11.485 11.442 11.382
8.895 8.815 8.727 8.632 8.537 8.395 8.225 8.15 8.203 8.32 8.455 8.59 8.705 8.8 8.895 8.993 9.12 9.28 9.38 9.373 9.365 9.377 9.36 9.348 9.363 9.417 9.475 9.472 9.415 9.373 9.385 9.422 9.455 9.495 9.565 9.663 9.775 9.882 9.96 10.01 10.113 10.272 10.385 10.472 10.537 10.545 10.54 10.552 10.567 10.502 10.41 10.385 10.405 10.442 10.502 10.587 10.662 10.72 10.76 10.797 10.842 10.887 10.917 10.91 10.875 10.835 10.84 10.882 10.915 10.945 10.975 11.013 11.06 11.11 11.16 11.215 11.27 11.325 11.382 11.437 11.485 11.525 11.55 11.558 11.59 11.663 11.735 11.795 11.84 11.867 11.867 11.825 11.788 11.803 11.847 11.892 11.935 11.975 11.995 11.977 11.945 11.918 11.898 11.882 11.87 11.865 11.87 11.882 11.9 11.938 11.968 11.983 12.025 12.085 12.132 12.167 12.187 12.185 12.188 12.213 12.247 12.277 12.3 12.32 12.317 12.272 12.213 12.168 12.205 12.338 12.47 12.553 12.62 12.712 12.772 12.777 12.775 12.767 12.75 12.738 12.74 12.748 12.778 12.84 12.91 12.975 13.017 13.035 13.05 13.07 13.08 13.083 13.095 13.115 13.15 13.195 13.24 13.298 13.37 13.45 13.53 13.585 13.592 13.572 13.535 13.485 13.485 13.525 13.583 13.733 13.98 14.25 14.505 14.742 14.8 14.632 14.405 14.213 14.168 14.215 14.235 14.242 14.245 14.24 14.225 14.2 14.178 14.163 14.143 14.118 14.097 13.965 13.172 12.12 11.665 11.553 11.495 11.465 11.427 11.37
8.93 8.86 8.785 8.705 8.62 8.517 8.368 8.258 8.29 8.41 8.545 8.662 8.76 8.85 8.945 9.04 9.163 9.292 9.322 9.273 9.235 9.22 9.21 9.225 9.28 9.35 9.425 9.482 9.48 9.445 9.453 9.495 9.533 9.578 9.66 9.77 9.882 9.992 10.078 10.183 10.343 10.52 10.655 10.727 10.752 10.747 10.735 10.715 10.662 10.578 10.518 10.48 10.463 10.483 10.53 10.595 10.665 10.732 10.775 10.8 10.838 10.882 10.907 10.91 10.895 10.863 10.87 10.915 10.952 10.985 11.018 11.053 11.093 11.14 11.193 11.248 11.303 11.357 11.407 11.462 11.535 11.597 11.625 11.635 11.66 11.71 11.755 11.782 11.807 11.832 11.822 11.79 11.803 11.85 11.9 11.95 11.997 12.04 12.062 12.05 12.025 12.005 11.982 11.957 11.932 11.908 11.898 11.908 11.943 12.002 12.035 12.035 12.048 12.09 12.137 12.172 12.202 12.217 12.23 12.255 12.285 12.315 12.34 12.352 12.327 12.267 12.208 12.205 12.308 12.465 12.617 12.715 12.765 12.817 12.845 12.842 12.84 12.827 12.8 12.773 12.76 12.765 12.803 12.867 12.932 12.992 13.032 13.052 13.07 13.09 13.1 13.1 13.108 13.125 13.16 13.208 13.263 13.333 13.41 13.49 13.57 13.645 13.682 13.662 13.605 13.545 13.543 13.57 13.575 13.61 13.738 13.968 14.24 14.497 14.605 14.535 14.365 14.218 14.205 14.225 14.225 14.228 14.23 14.232 14.23 14.212 14.185 14.158 14.138 14.122 14.097 13.455 12.293 11.678 11.56 11.505 11.475 11.445 11.41 11.357
8.96 8.89 8.82 8.75 8.675 8.592 8.495 8.435 8.445 8.513 8.62 8.72 8.81 8.9 8.995 9.09 9.197 9.26 9.23 9.175 9.123 9.088 9.095 9.143 9.21 9.283 9.358 9.435 9.492 9.502 9.52 9.565 9.607 9.668 9.763 9.877 9.99 10.103 10.223 10.377 10.56 10.742 10.885 10.932 10.917 10.895 10.867 10.82 10.745 10.68 10.64 10.597 10.558 10.535 10.545 10.595 10.665 10.735 10.792 10.818 10.838 10.872 10.89 10.895 10.895 10.883 10.9 10.945 10.987 11.027 11.062 11.095 11.13 11.173 11.225 11.282 11.337 11.387 11.428 11.473 11.552 11.63 11.665 11.685 11.705 11.725 11.74 11.755 11.775 11.795 11.79 11.795 11.843 11.895 11.945 11.995 12.045 12.092 12.125 12.12 12.092 12.067 12.035 12 11.972 11.948 11.93 11.948 12.007 12.072 12.1 12.1 12.097 12.108 12.137 12.17 12.2 12.23 12.257 12.285 12.315 12.345 12.372 12.372 12.327 12.263 12.225 12.288 12.435 12.595 12.755 12.86 12.895 12.905 12.9 12.893 12.89 12.875 12.847 12.82 12.798 12.793 12.828 12.89 12.95 13.002 13.04 13.065 13.085 13.107 13.12 13.12 13.123 13.135 13.17 13.228 13.3 13.377 13.452 13.527 13.602 13.677 13.717 13.707 13.662 13.605 13.595 13.607 13.605 13.603 13.635 13.753 13.92 14.13 14.268 14.288 14.255 14.21 14.21 14.215 14.215 14.215 14.218 14.223 14.225 14.22 14.192 14.16 14.143 14.127 13.704 12.57 11.728 11.565 11.51 11.483 11.455 11.425 11.392 11.345
8.99 8.917 8.845 8.775 8.703 8.645 8.635 8.647 8.632 8.613 8.64 8.72 8.817 8.912 9.01 9.11 9.197 9.212 9.165 9.118 9.073 9.035 9.048 9.105 9.163 9.225 9.298 9.373 9.45 9.507 9.55 9.592 9.648 9.743 9.86 9.98 10.097 10.215 10.342 10.502 10.687 10.872 11.007 11.045 11.02 10.98 10.945 10.888 10.82 10.778 10.74 10.7 10.663 10.633 10.618 10.633 10.678 10.74 10.807 10.842 10.853 10.868 10.878 10.885 10.893 10.898 10.923 10.967 11.015 11.06 11.095 11.127 11.162 11.205 11.26 11.317 11.37 11.412 11.445 11.48 11.548 11.62 11.655 11.675 11.695 11.715 11.73 11.74 11.75 11.768 11.793 11.835 11.893 11.945 11.995 12.048 12.1 12.145 12.175 12.17 12.137 12.102 12.068 12.035 12.01 11.99 11.978 12.003 12.067 12.125 12.132 12.117 12.112 12.107 12.118 12.145 12.175 12.207 12.24 12.27 12.3 12.332 12.367 12.382 12.345 12.275 12.288 12.415 12.575 12.735 12.892 12.972 12.97 12.96 12.95 12.94 12.932 12.918 12.895 12.875 12.855 12.843 12.855 12.9 12.957 13.01 13.047 13.072 13.095 13.12 13.145 13.153 13.145 13.148 13.185 13.252 13.327 13.402 13.475 13.542 13.61 13.662 13.675 13.675 13.667 13.645 13.637 13.637 13.632 13.625 13.65 13.718 13.793 13.918 14.043 14.118 14.18 14.207 14.213 14.218 14.22 14.22 14.223 14.228 14.23 14.225 14.197 14.165 14.147 13.842 12.813 11.841 11.583 11.543 11.505 11.475 11.443 11.41 11.378 11.338
9.015 8.943 8.87 8.8 8.745 8.74 8.795 8.842 8.785 8.698 8.658 8.67 8.753 8.855 8.955 9.047 9.115 9.14 9.135 9.11 9.072 9.038 9.045 9.097 9.14 9.18 9.245 9.322 9.395 9.457 9.513 9.575 9.673 9.802 9.932 10.057 10.182 10.307 10.43 10.568 10.738 10.92 11.042 11.09 11.092 11.06 11.022 10.965 10.908 10.875 10.84 10.8 10.765 10.753 10.748 10.733 10.735 10.773 10.825 10.862 10.875 10.878 10.885 10.893 10.9 10.91 10.938 10.985 11.035 11.08 11.118 11.153 11.188 11.23 11.29 11.35 11.395 11.432 11.465 11.495 11.55 11.61 11.64 11.66 11.68 11.7 11.717 11.728 11.738 11.773 11.83 11.89 11.95 12.007 12.06 12.11 12.155 12.19 12.21 12.2 12.17 12.137 12.103 12.073 12.053 12.043 12.045 12.065 12.113 12.162 12.15 12.103 12.08 12.078 12.09 12.113 12.138 12.165 12.195 12.225 12.258 12.295 12.338 12.377 12.372 12.325 12.385 12.555 12.725 12.89 13.02 13.052 13.023 13.005 12.997 12.99 12.982 12.975 12.96 12.945 12.93 12.915 12.908 12.92 12.963 13.017 13.055 13.08 13.108 13.138 13.182 13.205 13.193 13.19 13.218 13.268 13.33 13.4 13.47 13.537 13.597 13.61 13.593 13.595 13.61 13.632 13.652 13.66 13.655 13.648 13.675 13.745 13.828 13.925 14.04 14.145 14.2 14.217 14.227 14.232 14.235 14.237 14.24 14.242 14.242 14.23 14.2 14.17 13.972 13.157 12.078 11.585 11.565 11.57 11.533 11.49 11.453 11.418 11.383 11.353
9.04 8.97 8.9 8.843 8.838 8.89 8.942 8.942 8.842 8.762 8.735 8.68 8.683 8.763 8.855 8.925 8.98 9.025 9.06 9.075 9.067 9.04 9.045 9.087 9.115 9.143 9.198 9.27 9.34 9.413 9.493 9.593 9.725 9.862 9.988 10.115 10.245 10.375 10.507 10.643 10.793 10.955 11.06 11.11 11.145 11.137 11.097 11.048 11.005 10.972 10.938 10.905 10.888 10.895 10.892 10.865 10.843 10.848 10.875 10.897 10.9 10.898 10.903 10.908 10.915 10.925 10.953 11 11.052 11.102 11.142 11.178 11.215 11.255 11.313 11.377 11.42 11.45 11.48 11.513 11.558 11.6 11.625 11.645 11.665 11.685 11.703 11.718 11.748 11.805 11.872 11.937 12.002 12.067 12.12 12.157 12.19 12.222 12.24 12.227 12.2 12.17 12.14 12.118 12.11 12.113 12.12 12.138 12.17 12.205 12.185 12.117 12.063 12.048 12.065 12.085 12.105 12.13 12.157 12.188 12.225 12.268 12.313 12.357 12.385 12.4 12.5 12.68 12.862 13.032 13.12 13.115 13.08 13.053 13.043 13.035 13.03 13.032 13.03 13.022 13.01 12.995 12.987 12.983 12.99 13.028 13.065 13.093 13.125 13.16 13.215 13.257 13.26 13.26 13.278 13.305 13.345 13.398 13.46 13.53 13.565 13.537 13.513 13.525 13.553 13.593 13.635 13.665 13.675 13.673 13.703 13.783 13.885 14 14.112 14.182 14.207 14.222 14.237 14.247 14.25 14.253 14.257 14.257 14.247 14.227 14.2 14.102 13.64 12.69 11.858 11.568 11.565 11.595 11.572 11.52 11.478 11.44 11.408 11.385
9.07 9 8.943 8.935 8.987 9.022 8.997 8.93 8.835 8.77 8.792 8.775 8.685 8.678 8.735 8.793 8.845 8.89 8.93 8.97 9 9.013 9.035 9.065 9.088 9.113 9.168 9.25 9.338 9.435 9.54 9.655 9.785 9.917 10.045 10.175 10.308 10.443 10.577 10.715 10.857 10.987 11.07 11.12 11.167 11.195 11.177 11.138 11.105 11.07 11.038 11.023 11.028 11.045 11.037 11.005 10.975 10.953 10.95 10.942 10.925 10.918 10.923 10.933 10.938 10.945 10.97 11.015 11.067 11.12 11.165 11.205 11.245 11.285 11.34 11.407 11.455 11.483 11.508 11.538 11.57 11.598 11.62 11.638 11.655 11.675 11.693 11.725 11.78 11.845 11.913 11.98 12.05 12.117 12.167 12.2 12.23 12.26 12.27 12.255 12.232 12.205 12.185 12.18 12.182 12.182 12.185 12.202 12.225 12.227 12.185 12.11 12.028 11.995 12.015 12.035 12.055 12.08 12.108 12.163 12.225 12.265 12.305 12.348 12.39 12.458 12.592 12.767 12.945 13.09 13.15 13.147 13.13 13.107 13.087 13.077 13.075 13.075 13.072 13.065 13.057 13.057 13.06 13.055 13.048 13.058 13.08 13.108 13.143 13.18 13.235 13.297 13.325 13.333 13.355 13.38 13.402 13.433 13.473 13.507 13.497 13.453 13.443 13.475 13.515 13.56 13.605 13.645 13.677 13.693 13.74 13.842 13.957 14.067 14.15 14.19 14.21 14.227 14.242 14.257 14.267 14.27 14.272 14.267 14.25 14.225 14.2 14.03 13.602 12.885 12.115 11.675 11.573 11.61 11.61 11.562 11.51 11.465 11.435 11.415
9.1 9.043 9.033 9.072 9.095 9.047 8.967 8.89 8.815 8.74 8.725 8.7 8.608 8.58 8.64 8.708 8.755 8.803 8.848 8.895 8.943 8.983 9.03 9.075 9.103 9.135 9.2 9.295 9.4 9.505 9.608 9.72 9.845 9.975 10.107 10.242 10.377 10.512 10.64 10.762 10.887 10.987 11.05 11.1 11.147 11.197 11.237 11.235 11.205 11.173 11.155 11.16 11.175 11.192 11.182 11.148 11.115 11.067 11.008 10.965 10.943 10.94 10.978 11.01 11.013 11.005 10.995 11.013 11.055 11.107 11.162 11.217 11.272 11.328 11.39 11.452 11.495 11.52 11.54 11.56 11.585 11.618 11.643 11.658 11.673 11.69 11.708 11.753 11.822 11.89 11.96 12.03 12.097 12.162 12.212 12.247 12.28 12.307 12.312 12.293 12.267 12.24 12.222 12.22 12.217 12.21 12.21 12.217 12.21 12.175 12.12 12.05 11.965 11.925 11.942 11.965 11.985 12.01 12.053 12.15 12.247 12.293 12.33 12.37 12.41 12.493 12.64 12.81 12.972 13.075 13.115 13.135 13.14 13.13 13.115 13.105 13.095 13.085 13.072 13.055 13.04 13.06 13.095 13.102 13.1 13.098 13.108 13.133 13.163 13.2 13.255 13.327 13.38 13.402 13.42 13.435 13.447 13.465 13.49 13.49 13.443 13.393 13.395 13.438 13.483 13.53 13.575 13.615 13.655 13.7 13.78 13.892 14 14.072 14.11 14.142 14.172 14.2 14.225 14.25 14.272 14.285 14.285 14.27 14.25 14.225 14.155 13.915 13.587 13.202 12.727 12.27 11.915 11.713 11.638 11.608 11.568 11.55 11.535 11.518
9.143 9.133 9.152 9.145 9.09 9.01 8.935 8.865 8.795 8.722 8.643 8.558 8.485 8.453 8.557 8.687 8.735 8.788 8.84 8.892 8.935 8.965 9.025 9.105 9.16 9.213 9.285 9.368 9.463 9.567 9.672 9.783 9.907 10.037 10.162 10.287 10.41 10.53 10.645 10.755 10.865 10.952 11.007 11.055 11.105 11.16 11.235 11.295 11.3 11.283 11.29 11.31 11.325 11.337 11.325 11.292 11.237 11.157 11.06 10.983 10.95 10.968 11.062 11.132 11.132 11.095 11.043 11.023 11.028 11.068 11.135 11.21 11.29 11.37 11.447 11.497 11.52 11.537 11.555 11.573 11.6 11.645 11.682 11.705 11.72 11.735 11.743 11.783 11.865 11.94 12.01 12.077 12.143 12.207 12.257 12.295 12.33 12.36 12.365 12.337 12.297 12.255 12.228 12.215 12.205 12.197 12.185 12.16 12.123 12.075 12.025 11.97 11.9 11.855 11.865 11.892 11.915 11.94 12.008 12.135 12.26 12.33 12.37 12.41 12.453 12.533 12.673 12.84 12.977 13.045 13.075 13.102 13.117 13.115 13.107 13.095 13.077 13.062 13.045 13.025 13 13.018 13.08 13.125 13.137 13.133 13.145 13.17 13.19 13.22 13.278 13.347 13.397 13.42 13.43 13.437 13.448 13.468 13.5 13.492 13.43 13.378 13.375 13.408 13.45 13.5 13.545 13.585 13.63 13.703 13.807 13.912 13.982 14.005 14.02 14.055 14.092 14.127 14.162 14.198 14.24 14.282 14.29 14.27 14.247 14.122 13.825 13.473 13.22 13.095 12.992 12.805 12.542 12.255 11.973 11.758 11.683 11.7 11.705 11.685
9.225 9.232 9.2 9.13 9.055 8.985 8.915 8.848 8.78 8.707 8.627 8.542 8.458 8.378 8.448 8.595 8.7 8.792 8.845 8.887 8.91 8.938 9.008 9.105 9.2 9.287 9.372 9.45 9.53 9.625 9.733 9.847 9.95 10.053 10.165 10.275 10.385 10.495 10.605 10.715 10.825 10.917 10.97 11.01 11.06 11.118 11.195 11.285 11.352 11.377 11.405 11.447 11.475 11.482 11.46 11.41 11.335 11.245 11.14 11.03 10.958 10.988 11.147 11.257 11.237 11.17 11.11 11.083 11.073 11.1 11.16 11.24 11.33 11.42 11.495 11.53 11.538 11.548 11.563 11.585 11.623 11.67 11.717 11.75 11.767 11.78 11.775 11.808 11.895 11.98 12.055 12.122 12.19 12.252 12.3 12.34 12.377 12.41 12.412 12.375 12.32 12.263 12.22 12.2 12.193 12.185 12.153 12.098 12.045 11.993 11.938 11.883 11.823 11.78 11.785 11.815 11.843 11.875 11.965 12.112 12.26 12.357 12.405 12.448 12.495 12.573 12.705 12.86 12.96 13 13.03 13.06 13.085 13.095 13.087 13.07 13.052 13.035 13.015 12.995 12.97 12.973 13.03 13.105 13.155 13.17 13.182 13.202 13.215 13.243 13.297 13.347 13.372 13.387 13.4 13.418 13.445 13.48 13.515 13.497 13.433 13.378 13.368 13.395 13.43 13.47 13.513 13.555 13.618 13.718 13.825 13.895 13.915 13.918 13.935 13.968 14.005 14.043 14.088 14.153 14.235 14.287 14.285 14.265 14.23 13.82 13.233 12.963 12.88 12.85 12.825 12.822 12.807 12.697 12.445 12.167 12.015 11.937 11.877 11.822
9.295 9.252 9.178 9.105 9.035 8.968 8.9 8.832 8.765 8.692 8.612 8.528 8.443 8.365 8.4 8.528 8.665 8.785 8.84 8.862 8.875 8.91 8.99 9.09 9.202 9.325 9.432 9.52 9.602 9.69 9.793 9.912 10.015 10.063 10.125 10.235 10.345 10.455 10.565 10.675 10.785 10.882 10.932 10.963 11.01 11.073 11.155 11.245 11.34 11.417 11.477 11.542 11.597 11.617 11.585 11.518 11.447 11.357 11.238 11.11 10.998 11.018 11.228 11.367 11.325 11.24 11.19 11.188 11.205 11.238 11.28 11.338 11.408 11.49 11.545 11.558 11.563 11.568 11.573 11.598 11.645 11.695 11.745 11.787 11.815 11.82 11.805 11.835 11.918 12.005 12.087 12.165 12.24 12.3 12.342 12.38 12.417 12.445 12.435 12.385 12.327 12.272 12.22 12.195 12.198 12.195 12.16 12.1 12.04 11.98 11.92 11.86 11.8 11.755 11.75 11.775 11.803 11.835 11.93 12.085 12.242 12.37 12.44 12.485 12.538 12.61 12.737 12.865 12.925 12.955 12.985 13.015 13.045 13.07 13.07 13.047 13.02 12.997 12.982 12.962 12.938 12.928 12.97 13.05 13.127 13.18 13.205 13.22 13.23 13.255 13.292 13.32 13.338 13.355 13.375 13.408 13.45 13.49 13.517 13.497 13.437 13.378 13.365 13.395 13.425 13.453 13.485 13.538 13.625 13.74 13.812 13.825 13.828 13.833 13.85 13.883 13.93 13.998 14.083 14.188 14.277 14.3 14.28 14.265 14.05 13.335 12.778 12.72 12.71 12.7 12.7 12.722 12.7 12.617 12.52 12.392 12.25 12.115 12.005 11.92
9.297 9.225 9.158 9.09 9.02 8.952 8.885 8.815 8.745 8.675 8.597 8.512 8.428 8.37 8.435 8.572 8.688 8.792 8.84 8.84 8.843 8.883 8.973 9.075 9.19 9.322 9.45 9.562 9.657 9.748 9.855 9.978 10.102 10.16 10.155 10.205 10.31 10.42 10.53 10.64 10.75 10.85 10.9 10.923 10.965 11.03 11.115 11.205 11.303 11.41 11.502 11.575 11.642 11.672 11.657 11.63 11.57 11.468 11.353 11.24 11.113 11.168 11.387 11.457 11.387 11.298 11.288 11.337 11.37 11.403 11.44 11.48 11.528 11.572 11.592 11.595 11.598 11.603 11.593 11.598 11.645 11.702 11.757 11.815 11.857 11.86 11.84 11.865 11.943 12.028 12.112 12.197 12.28 12.34 12.372 12.4 12.425 12.437 12.415 12.362 12.307 12.255 12.208 12.2 12.22 12.227 12.2 12.14 12.08 12.02 11.96 11.9 11.837 11.783 11.765 11.78 11.8 11.825 11.9 12.043 12.207 12.365 12.47 12.525 12.58 12.648 12.755 12.845 12.88 12.91 12.94 12.967 12.992 13.015 13.015 12.987 12.952 12.927 12.922 12.92 12.905 12.885 12.913 12.99 13.07 13.14 13.18 13.2 13.22 13.242 13.265 13.285 13.308 13.335 13.36 13.393 13.435 13.475 13.497 13.485 13.44 13.38 13.365 13.395 13.422 13.447 13.463 13.525 13.642 13.757 13.8 13.778 13.763 13.75 13.775 13.843 13.928 14.033 14.147 14.252 14.305 14.297 14.28 14.187 13.632 12.863 12.565 12.58 12.585 12.575 12.58 12.582 12.535 12.46 12.395 12.342 12.272 12.18 12.09 12.003
9.278 9.21 9.142 9.075 9.005 8.935 8.865 8.795 8.725 8.655 8.58 8.497 8.413 8.385 8.483 8.62 8.732 8.822 8.852 8.845 8.838 8.87 8.958 9.063 9.178 9.308 9.445 9.58 9.695 9.803 9.923 10.045 10.17 10.282 10.297 10.26 10.293 10.385 10.495 10.605 10.715 10.817 10.87 10.885 10.92 10.988 11.075 11.17 11.275 11.39 11.492 11.57 11.622 11.632 11.635 11.655 11.667 11.627 11.53 11.41 11.288 11.367 11.52 11.505 11.427 11.343 11.338 11.44 11.532 11.57 11.605 11.645 11.652 11.632 11.635 11.645 11.648 11.652 11.625 11.585 11.608 11.672 11.735 11.797 11.852 11.88 11.875 11.893 11.965 12.052 12.132 12.197 12.292 12.365 12.373 12.385 12.402 12.405 12.375 12.325 12.272 12.22 12.188 12.205 12.24 12.255 12.235 12.18 12.12 12.06 11.997 11.932 11.865 11.805 11.785 11.795 11.81 11.83 11.873 11.99 12.157 12.325 12.457 12.54 12.61 12.68 12.75 12.797 12.822 12.847 12.872 12.895 12.912 12.922 12.915 12.89 12.858 12.83 12.83 12.847 12.855 12.845 12.86 12.928 13.01 13.08 13.122 13.15 13.182 13.212 13.237 13.262 13.293 13.325 13.347 13.373 13.41 13.442 13.455 13.452 13.432 13.383 13.365 13.392 13.412 13.42 13.425 13.505 13.647 13.767 13.805 13.775 13.743 13.73 13.778 13.878 13.993 14.107 14.22 14.297 14.312 14.295 14.3 13.955 13.143 12.593 12.473 12.453 12.458 12.455 12.457 12.437 12.378 12.325 12.3 12.3 12.29 12.25 12.18 12.09
9.262 9.195 9.125 9.055 8.985 8.915 8.845 8.775 8.708 8.64 8.565 8.482 8.398 8.398 8.528 8.67 8.78 8.85 8.865 8.862 8.858 8.878 8.948 9.048 9.163 9.295 9.435 9.585 9.738 9.872 9.995 10.115 10.24 10.367 10.457 10.435 10.37 10.378 10.455 10.565 10.675 10.782 10.84 10.85 10.875 10.943 11.04 11.145 11.258 11.372 11.48 11.562 11.587 11.57 11.57 11.61 11.7 11.752 11.695 11.562 11.463 11.49 11.535 11.522 11.462 11.385 11.345 11.445 11.627 11.725 11.77 11.767 11.695 11.653 11.675 11.695 11.702 11.707 11.667 11.573 11.553 11.618 11.682 11.742 11.8 11.852 11.882 11.917 11.975 12.035 12.085 12.158 12.312 12.405 12.383 12.368 12.375 12.372 12.335 12.285 12.235 12.185 12.168 12.203 12.25 12.277 12.265 12.215 12.155 12.095 12.03 11.96 11.89 11.828 11.805 11.815 11.83 11.845 11.868 11.953 12.098 12.253 12.385 12.49 12.585 12.665 12.71 12.727 12.745 12.765 12.785 12.802 12.81 12.81 12.802 12.785 12.76 12.733 12.73 12.75 12.77 12.783 12.803 12.865 12.952 13.022 13.065 13.097 13.12 13.14 13.18 13.23 13.28 13.315 13.332 13.355 13.387 13.407 13.407 13.405 13.402 13.377 13.365 13.375 13.37 13.348 13.368 13.483 13.64 13.772 13.81 13.795 13.798 13.82 13.878 13.965 14.07 14.18 14.28 14.322 14.31 14.31 14.17 13.472 12.723 12.48 12.415 12.37 12.343 12.33 12.322 12.295 12.253 12.228 12.213 12.203 12.212 12.232 12.225 12.17
9.245 9.175 9.105 9.035 8.965 8.895 8.828 8.76 8.692 8.625 8.55 8.467 8.383 8.41 8.57 8.717 8.825 8.877 8.878 8.875 8.88 8.91 8.96 9.035 9.15 9.285 9.448 9.635 9.81 9.95 10.07 10.19 10.313 10.435 10.56 10.62 10.565 10.483 10.46 10.525 10.635 10.747 10.81 10.82 10.838 10.903 11.013 11.128 11.243 11.358 11.47 11.542 11.542 11.51 11.508 11.57 11.665 11.712 11.675 11.582 11.535 11.54 11.54 11.537 11.497 11.433 11.38 11.428 11.617 11.81 11.867 11.785 11.688 11.675 11.71 11.74 11.757 11.762 11.71 11.568 11.508 11.565 11.627 11.685 11.74 11.798 11.87 11.922 11.928 11.94 12.005 12.158 12.37 12.462 12.425 12.385 12.36 12.335 12.293 12.245 12.195 12.148 12.148 12.198 12.252 12.295 12.295 12.25 12.19 12.127 12.06 11.99 11.92 11.853 11.825 11.835 11.85 11.875 11.91 11.978 12.095 12.208 12.303 12.408 12.51 12.6 12.645 12.655 12.665 12.678 12.69 12.697 12.697 12.695 12.69 12.675 12.655 12.635 12.64 12.668 12.695 12.725 12.738 12.778 12.875 12.96 12.995 13.007 13.007 13.01 13.057 13.13 13.197 13.25 13.292 13.332 13.357 13.365 13.36 13.352 13.347 13.335 13.325 13.315 13.29 13.27 13.323 13.46 13.625 13.777 13.85 13.878 13.922 13.965 14.017 14.09 14.172 14.26 14.32 14.325 14.323 14.282 13.785 12.948 12.51 12.42 12.358 12.313 12.268 12.23 12.203 12.178 12.155 12.14 12.128 12.113 12.108 12.13 12.167 12.177
9.228 9.155 9.085 9.015 8.948 8.88 8.812 8.745 8.675 8.605 8.532 8.452 8.368 8.423 8.612 8.762 8.857 8.895 8.892 8.888 8.923 8.998 9.043 9.063 9.145 9.315 9.525 9.727 9.895 10.03 10.15 10.267 10.385 10.505 10.63 10.742 10.767 10.69 10.59 10.545 10.6 10.712 10.777 10.79 10.825 10.903 11.008 11.125 11.24 11.353 11.467 11.515 11.488 11.45 11.455 11.522 11.59 11.587 11.533 11.5 11.508 11.527 11.537 11.54 11.522 11.48 11.43 11.425 11.56 11.785 11.837 11.72 11.665 11.695 11.74 11.777 11.805 11.815 11.75 11.585 11.483 11.51 11.57 11.63 11.705 11.795 11.892 11.927 11.89 11.88 11.993 12.212 12.432 12.522 12.498 12.457 12.38 12.323 12.295 12.253 12.205 12.168 12.18 12.218 12.255 12.303 12.322 12.29 12.227 12.16 12.09 12.02 11.95 11.88 11.848 11.863 11.893 11.935 11.985 12.053 12.15 12.207 12.255 12.35 12.45 12.535 12.575 12.585 12.59 12.625 12.623 12.585 12.585 12.585 12.58 12.565 12.545 12.553 12.59 12.628 12.663 12.69 12.673 12.663 12.747 12.847 12.877 12.87 12.86 12.86 12.903 12.975 13.042 13.105 13.175 13.25 13.285 13.277 13.265 13.252 13.24 13.227 13.215 13.202 13.188 13.203 13.298 13.453 13.62 13.785 13.897 13.957 14.01 14.057 14.107 14.167 14.235 14.305 14.332 14.333 14.367 14.087 13.275 12.635 12.45 12.36 12.3 12.255 12.21 12.173 12.143 12.115 12.088 12.065 12.048 12.03 12.013 12.018 12.058 12.12
9.218 9.143 9.07 9 8.932 8.865 8.795 8.725 8.655 8.585 8.515 8.437 8.353 8.438 8.66 8.81 8.885 8.905 8.905 8.933 9.02 9.117 9.177 9.185 9.233 9.42 9.64 9.82 9.977 10.11 10.23 10.345 10.46 10.58 10.703 10.825 10.92 10.91 10.81 10.7 10.648 10.69 10.743 10.788 10.87 10.96 11.048 11.15 11.26 11.37 11.472 11.495 11.447 11.395 11.39 11.44 11.475 11.46 11.433 11.445 11.472 11.497 11.52 11.535 11.535 11.51 11.465 11.433 11.51 11.702 11.747 11.65 11.638 11.692 11.752 11.802 11.842 11.865 11.795 11.618 11.47 11.46 11.54 11.633 11.74 11.86 11.945 11.95 11.92 11.92 12.033 12.255 12.482 12.617 12.615 12.53 12.393 12.305 12.31 12.305 12.265 12.243 12.263 12.29 12.313 12.338 12.355 12.327 12.257 12.185 12.115 12.045 11.975 11.903 11.875 11.912 11.965 12.015 12.065 12.128 12.195 12.215 12.233 12.31 12.41 12.472 12.492 12.505 12.513 12.605 12.635 12.538 12.488 12.475 12.47 12.455 12.458 12.51 12.57 12.61 12.647 12.65 12.602 12.553 12.598 12.687 12.717 12.717 12.71 12.708 12.748 12.817 12.877 12.935 13.008 13.105 13.17 13.162 13.133 13.11 13.095 13.083 13.07 13.06 13.07 13.145 13.29 13.457 13.625 13.79 13.917 13.99 14.04 14.087 14.132 14.178 14.235 14.3 14.33 14.367 14.28 13.61 12.798 12.485 12.39 12.303 12.243 12.198 12.16 12.138 12.122 12.095 12.058 12.028 12.003 11.98 11.955 11.938 11.975 12.07
9.212 9.135 9.06 8.988 8.915 8.845 8.775 8.705 8.635 8.565 8.497 8.423 8.35 8.465 8.707 8.857 8.915 8.92 8.943 9.03 9.145 9.232 9.305 9.35 9.403 9.55 9.74 9.91 10.062 10.19 10.31 10.425 10.54 10.66 10.78 10.9 11.022 11.09 11.04 10.933 10.828 10.76 10.763 10.84 10.95 11.04 11.12 11.208 11.303 11.402 11.477 11.467 11.392 11.3 11.255 11.3 11.355 11.37 11.383 11.41 11.438 11.463 11.488 11.512 11.532 11.525 11.493 11.468 11.485 11.615 11.665 11.605 11.623 11.678 11.74 11.8 11.855 11.902 11.84 11.653 11.485 11.47 11.58 11.7 11.82 11.94 11.997 11.98 11.973 11.995 12.085 12.28 12.512 12.69 12.687 12.54 12.378 12.255 12.255 12.31 12.317 12.322 12.35 12.382 12.407 12.4 12.37 12.32 12.25 12.182 12.117 12.05 11.98 11.908 11.885 11.937 12.007 12.072 12.137 12.2 12.232 12.228 12.223 12.273 12.365 12.405 12.41 12.425 12.458 12.602 12.692 12.59 12.463 12.388 12.36 12.365 12.413 12.49 12.55 12.59 12.617 12.595 12.53 12.465 12.468 12.52 12.545 12.553 12.555 12.555 12.59 12.655 12.71 12.765 12.848 12.96 13.05 13.06 13.023 12.99 12.963 12.94 12.923 12.913 12.968 13.12 13.297 13.46 13.625 13.79 13.932 14.02 14.067 14.11 14.15 14.19 14.238 14.288 14.353 14.385 13.942 13.063 12.543 12.425 12.33 12.245 12.185 12.145 12.123 12.11 12.1 12.077 12.043 12.013 11.987 11.955 11.902 11.873 11.925 12.035
9.205 9.128 9.052 8.975 8.9 8.828 8.755 8.688 8.62 8.55 8.482 8.408 8.365 8.508 8.752 8.895 8.935 8.955 9.033 9.157 9.267 9.347 9.415 9.465 9.523 9.65 9.825 9.995 10.145 10.27 10.39 10.505 10.62 10.74 10.86 10.98 11.097 11.207 11.237 11.165 11.055 10.945 10.89 10.935 11.032 11.12 11.2 11.285 11.367 11.445 11.465 11.387 11.27 11.153 11.098 11.163 11.275 11.337 11.363 11.388 11.413 11.438 11.463 11.488 11.515 11.53 11.525 11.517 11.508 11.56 11.595 11.578 11.61 11.665 11.725 11.785 11.842 11.897 11.855 11.685 11.535 11.543 11.66 11.78 11.9 12.007 12.042 12.033 12.05 12.08 12.14 12.298 12.512 12.685 12.675 12.515 12.358 12.218 12.198 12.285 12.342 12.37 12.397 12.422 12.442 12.415 12.34 12.265 12.197 12.135 12.077 12.017 11.952 11.89 11.873 11.925 12.005 12.087 12.17 12.24 12.26 12.243 12.225 12.25 12.31 12.325 12.328 12.345 12.425 12.62 12.74 12.66 12.5 12.355 12.285 12.315 12.39 12.467 12.527 12.57 12.572 12.525 12.46 12.395 12.353 12.353 12.375 12.393 12.41 12.425 12.445 12.485 12.543 12.62 12.713 12.82 12.93 12.962 12.927 12.89 12.85 12.818 12.79 12.785 12.893 13.1 13.295 13.46 13.625 13.79 13.945 14.042 14.087 14.13 14.167 14.208 14.253 14.31 14.412 14.215 13.403 12.683 12.46 12.365 12.27 12.185 12.133 12.108 12.095 12.085 12.075 12.055 12.025 11.997 11.96 11.9 11.825 11.81 11.89 12.003
9.198 9.122 9.045 8.968 8.892 8.815 8.74 8.672 8.605 8.535 8.465 8.39 8.38 8.55 8.795 8.925 8.963 9.03 9.155 9.287 9.387 9.455 9.505 9.543 9.593 9.718 9.902 10.08 10.227 10.35 10.47 10.585 10.7 10.82 10.94 11.06 11.175 11.287 11.38 11.37 11.265 11.167 11.1 11.075 11.118 11.19 11.26 11.332 11.402 11.465 11.44 11.31 11.165 11.048 11.023 11.095 11.23 11.33 11.355 11.378 11.403 11.428 11.452 11.475 11.495 11.52 11.537 11.54 11.537 11.548 11.558 11.563 11.598 11.655 11.712 11.765 11.812 11.855 11.842 11.715 11.598 11.63 11.743 11.86 11.98 12.062 12.088 12.105 12.135 12.16 12.195 12.308 12.49 12.657 12.65 12.49 12.34 12.218 12.21 12.297 12.35 12.372 12.395 12.415 12.425 12.385 12.298 12.21 12.133 12.065 12.01 11.955 11.895 11.855 11.868 11.925 12.003 12.088 12.17 12.242 12.277 12.267 12.243 12.24 12.25 12.243 12.245 12.275 12.395 12.597 12.697 12.61 12.442 12.315 12.278 12.315 12.378 12.445 12.507 12.54 12.515 12.458 12.408 12.365 12.308 12.278 12.3 12.325 12.35 12.373 12.38 12.393 12.433 12.52 12.61 12.69 12.8 12.855 12.83 12.79 12.753 12.718 12.703 12.76 12.92 13.102 13.275 13.452 13.62 13.785 13.935 14.027 14.075 14.12 14.178 14.248 14.308 14.39 14.36 13.745 12.878 12.495 12.4 12.305 12.21 12.13 12.093 12.08 12.07 12.063 12.055 12.037 12.007 11.975 11.92 11.843 11.793 11.805 11.878 11.98
9.192 9.115 9.038 8.962 8.885 8.808 8.733 8.658 8.585 8.515 8.445 8.373 8.393 8.593 8.84 8.965 9.033 9.15 9.29 9.412 9.495 9.547 9.585 9.618 9.655 9.77 9.962 10.145 10.287 10.405 10.522 10.635 10.747 10.862 10.98 11.097 11.212 11.327 11.447 11.515 11.462 11.362 11.277 11.22 11.218 11.238 11.275 11.338 11.4 11.46 11.425 11.283 11.13 11.01 11.008 11.083 11.193 11.302 11.345 11.37 11.395 11.42 11.442 11.455 11.47 11.5 11.53 11.54 11.543 11.55 11.553 11.55 11.577 11.632 11.682 11.725 11.765 11.805 11.81 11.725 11.658 11.718 11.83 11.942 12.057 12.125 12.147 12.17 12.192 12.212 12.243 12.325 12.473 12.632 12.625 12.475 12.348 12.25 12.258 12.327 12.355 12.368 12.385 12.405 12.405 12.355 12.265 12.17 12.08 12 11.94 11.885 11.838 11.838 11.885 11.945 12.015 12.093 12.17 12.24 12.285 12.297 12.28 12.253 12.228 12.21 12.208 12.228 12.33 12.5 12.562 12.458 12.323 12.28 12.313 12.355 12.398 12.445 12.498 12.522 12.5 12.46 12.43 12.41 12.343 12.288 12.308 12.335 12.357 12.372 12.38 12.39 12.408 12.46 12.528 12.585 12.668 12.735 12.73 12.693 12.66 12.663 12.723 12.835 12.975 13.085 13.228 13.427 13.61 13.775 13.907 13.982 14.038 14.11 14.21 14.315 14.395 14.462 14.08 13.18 12.588 12.435 12.348 12.265 12.185 12.12 12.088 12.073 12.06 12.05 12.04 12.02 11.985 11.942 11.883 11.828 11.825 11.855 11.898 11.978
9.188 9.11 9.032 8.955 8.878 8.802 8.725 8.648 8.573 8.498 8.425 8.355 8.405 8.635 8.885 9.035 9.15 9.29 9.427 9.532 9.59 9.628 9.66 9.693 9.725 9.815 9.98 10.152 10.295 10.415 10.53 10.64 10.753 10.868 10.985 11.103 11.22 11.34 11.465 11.57 11.562 11.46 11.375 11.35 11.355 11.34 11.335 11.355 11.395 11.455 11.41 11.263 11.12 10.995 10.988 11.077 11.168 11.27 11.337 11.363 11.387 11.407 11.42 11.428 11.448 11.483 11.517 11.54 11.553 11.562 11.557 11.527 11.533 11.587 11.635 11.675 11.715 11.755 11.76 11.713 11.708 11.787 11.89 11.99 12.09 12.16 12.192 12.21 12.225 12.245 12.285 12.368 12.485 12.612 12.605 12.483 12.383 12.295 12.293 12.34 12.355 12.365 12.38 12.392 12.38 12.322 12.232 12.137 12.043 11.95 11.873 11.823 11.815 11.855 11.917 11.98 12.042 12.107 12.177 12.242 12.285 12.313 12.317 12.29 12.253 12.225 12.215 12.215 12.25 12.37 12.42 12.333 12.283 12.31 12.357 12.402 12.445 12.477 12.512 12.54 12.54 12.527 12.51 12.472 12.37 12.293 12.31 12.342 12.362 12.375 12.387 12.402 12.417 12.438 12.47 12.508 12.558 12.62 12.632 12.618 12.635 12.693 12.777 12.857 12.935 13.015 13.163 13.38 13.585 13.762 13.88 13.95 14.035 14.147 14.27 14.38 14.475 14.347 13.558 12.74 12.498 12.418 12.345 12.275 12.213 12.16 12.118 12.093 12.078 12.06 12.04 12.005 11.958 11.91 11.865 11.853 11.88 11.915 11.945 11.998
9.182 9.105 9.028 8.95 8.872 8.795 8.718 8.642 8.565 8.488 8.413 8.34 8.415 8.652 8.907 9.117 9.272 9.417 9.552 9.64 9.683 9.72 9.758 9.79 9.815 9.865 9.983 10.135 10.278 10.405 10.523 10.638 10.755 10.875 10.995 11.115 11.235 11.357 11.48 11.567 11.557 11.485 11.46 11.487 11.512 11.51 11.487 11.46 11.453 11.462 11.392 11.252 11.118 10.985 10.965 11.06 11.152 11.25 11.325 11.355 11.375 11.385 11.388 11.403 11.432 11.465 11.495 11.532 11.567 11.555 11.475 11.423 11.455 11.515 11.567 11.615 11.665 11.707 11.715 11.705 11.738 11.812 11.9 11.99 12.08 12.155 12.205 12.237 12.257 12.275 12.328 12.422 12.525 12.61 12.595 12.502 12.417 12.338 12.315 12.338 12.353 12.365 12.377 12.375 12.35 12.29 12.2 12.105 12.01 11.912 11.82 11.78 11.803 11.85 11.91 11.977 12.042 12.107 12.172 12.247 12.31 12.348 12.357 12.33 12.29 12.253 12.23 12.225 12.225 12.275 12.305 12.285 12.308 12.352 12.392 12.432 12.47 12.5 12.53 12.55 12.557 12.562 12.555 12.5 12.382 12.298 12.305 12.34 12.362 12.377 12.39 12.402 12.417 12.438 12.455 12.47 12.495 12.533 12.558 12.585 12.645 12.707 12.762 12.815 12.873 12.948 13.1 13.32 13.537 13.735 13.86 13.94 14.037 14.145 14.265 14.392 14.515 14.132 13.138 12.563 12.51 12.45 12.385 12.318 12.26 12.21 12.16 12.123 12.098 12.073 12.04 11.995 11.945 11.898 11.88 11.903 11.94 11.975 12.005 12.04
9.175 9.098 9.022 8.945 8.868 8.79 8.713 8.637 8.56 8.485 8.417 8.345 8.388 8.598 8.877 9.152 9.357 9.515 9.657 9.752 9.8 9.837 9.87 9.895 9.912 9.935 10.013 10.14 10.275 10.408 10.53 10.65 10.77 10.89 11.01 11.13 11.25 11.372 11.485 11.557 11.55 11.515 11.528 11.57 11.617 11.635 11.61 11.57 11.522 11.452 11.352 11.237 11.115 10.98 10.95 11.038 11.133 11.23 11.307 11.34 11.347 11.352 11.358 11.38 11.41 11.425 11.453 11.51 11.52 11.425 11.298 11.288 11.365 11.422 11.477 11.535 11.598 11.665 11.7 11.718 11.76 11.818 11.893 11.98 12.07 12.145 12.2 12.247 12.282 12.31 12.372 12.46 12.54 12.59 12.56 12.48 12.41 12.358 12.34 12.35 12.363 12.375 12.382 12.362 12.322 12.26 12.165 12.06 11.952 11.853 11.778 11.753 11.775 11.813 11.86 11.925 11.995 12.065 12.14 12.252 12.355 12.41 12.417 12.372 12.32 12.27 12.233 12.222 12.225 12.235 12.255 12.287 12.327 12.365 12.402 12.44 12.467 12.492 12.52 12.535 12.545 12.542 12.515 12.455 12.365 12.298 12.293 12.32 12.35 12.37 12.38 12.39 12.408 12.44 12.46 12.463 12.475 12.495 12.535 12.595 12.648 12.695 12.745 12.795 12.845 12.91 13.04 13.24 13.457 13.66 13.8 13.885 13.978 14.09 14.223 14.372 14.457 14.06 13.14 12.52 12.435 12.455 12.422 12.363 12.313 12.268 12.223 12.18 12.143 12.105 12.058 12.01 11.968 11.923 11.918 11.955 11.995 12.03 12.058 12.09
9.168 9.092 9.015 8.937 8.862 8.785 8.712 8.632 8.525 8.423 8.383 8.36 8.408 8.6 8.848 9.123 9.392 9.59 9.742 9.86 9.915 9.937 9.955 9.972 9.987 10.002 10.045 10.133 10.267 10.417 10.545 10.665 10.785 10.905 11.025 11.145 11.265 11.38 11.482 11.55 11.563 11.563 11.578 11.603 11.652 11.68 11.65 11.585 11.497 11.39 11.278 11.178 11.075 10.963 10.94 11.028 11.133 11.24 11.312 11.323 11.315 11.318 11.33 11.347 11.355 11.363 11.402 11.452 11.375 11.095 11.028 11.192 11.272 11.33 11.385 11.475 11.583 11.667 11.71 11.74 11.79 11.84 11.898 11.97 12.055 12.135 12.192 12.24 12.287 12.33 12.385 12.45 12.51 12.537 12.503 12.445 12.403 12.375 12.368 12.375 12.387 12.395 12.392 12.36 12.297 12.207 12.09 11.97 11.865 11.793 11.75 11.73 11.745 11.78 11.815 11.87 11.938 12.005 12.108 12.26 12.385 12.447 12.447 12.392 12.327 12.265 12.218 12.205 12.212 12.22 12.243 12.282 12.322 12.36 12.4 12.44 12.462 12.478 12.5 12.512 12.505 12.47 12.413 12.353 12.303 12.27 12.268 12.29 12.325 12.352 12.365 12.378 12.413 12.452 12.465 12.463 12.468 12.485 12.538 12.617 12.677 12.725 12.77 12.815 12.863 12.93 13.038 13.185 13.358 13.545 13.688 13.79 13.92 14.068 14.22 14.375 14.34 14 13.405 12.77 12.408 12.31 12.37 12.407 12.367 12.33 12.29 12.252 12.212 12.165 12.11 12.055 12.01 11.965 11.96 12 12.04 12.075 12.108 12.15
9.162 9.085 9.01 8.92 8.805 8.685 8.575 8.488 8.425 8.393 8.39 8.418 8.54 8.735 8.93 9.15 9.398 9.632 9.817 9.922 9.957 9.97 9.985 10 10.013 10.028 10.045 10.103 10.245 10.417 10.555 10.675 10.795 10.915 11.035 11.155 11.272 11.38 11.48 11.56 11.6 11.617 11.633 11.65 11.68 11.687 11.635 11.537 11.425 11.313 11.205 11.138 11.095 11.043 11.025 11.08 11.18 11.292 11.345 11.325 11.303 11.288 11.285 11.282 11.275 11.295 11.33 11.342 11.03 10.513 10.62 11.04 11.18 11.24 11.35 11.515 11.637 11.7 11.728 11.765 11.82 11.87 11.92 11.975 12.045 12.125 12.187 12.232 12.272 12.312 12.36 12.415 12.475 12.502 12.483 12.455 12.432 12.41 12.398 12.4 12.41 12.41 12.397 12.36 12.262 12.117 11.975 11.868 11.803 11.765 11.738 11.713 11.718 11.75 11.78 11.823 11.883 11.963 12.095 12.267 12.402 12.452 12.432 12.382 12.322 12.26 12.208 12.188 12.195 12.21 12.233 12.27 12.315 12.357 12.4 12.437 12.455 12.462 12.477 12.467 12.425 12.378 12.33 12.288 12.255 12.235 12.238 12.26 12.295 12.33 12.35 12.378 12.435 12.47 12.47 12.468 12.468 12.48 12.535 12.622 12.7 12.76 12.807 12.852 12.898 12.983 13.1 13.215 13.34 13.495 13.63 13.755 13.915 14.075 14.232 14.312 14.152 13.823 13.507 13.12 12.655 12.345 12.363 12.445 12.407 12.37 12.332 12.297 12.26 12.22 12.17 12.11 12.058 12.01 12.005 12.043 12.08 12.117 12.157 12.202
9.085 8.967 8.855 8.722 8.565 8.458 8.408 8.395 8.43 8.465 8.463 8.525 8.7 8.895 9.09 9.285 9.48 9.698 9.872 9.945 9.967 9.985 10.005 10.023 10.04 10.058 10.073 10.11 10.233 10.412 10.562 10.685 10.807 10.93 11.05 11.167 11.28 11.385 11.487 11.575 11.632 11.667 11.69 11.705 11.707 11.677 11.595 11.485 11.375 11.265 11.193 11.193 11.22 11.23 11.222 11.22 11.268 11.352 11.38 11.35 11.323 11.295 11.25 11.205 11.193 11.205 11.212 11.207 10.675 10.078 10.2 10.707 11.1 11.258 11.45 11.605 11.672 11.715 11.75 11.795 11.85 11.9 11.95 12 12.055 12.12 12.175 12.212 12.242 12.278 12.328 12.385 12.442 12.48 12.487 12.477 12.462 12.445 12.428 12.422 12.425 12.42 12.405 12.345 12.2 12.013 11.875 11.813 11.78 11.75 11.723 11.695 11.693 11.72 11.75 11.783 11.833 11.938 12.098 12.272 12.405 12.435 12.4 12.36 12.312 12.255 12.198 12.17 12.178 12.2 12.228 12.26 12.303 12.348 12.393 12.43 12.443 12.44 12.435 12.405 12.358 12.32 12.29 12.26 12.233 12.215 12.215 12.235 12.27 12.308 12.343 12.398 12.457 12.477 12.475 12.475 12.472 12.48 12.533 12.617 12.705 12.785 12.842 12.888 12.943 13.043 13.168 13.288 13.425 13.58 13.705 13.805 13.935 14.09 14.225 14.167 13.945 13.728 13.49 13.215 12.902 12.597 12.478 12.472 12.43 12.393 12.358 12.325 12.295 12.265 12.225 12.173 12.118 12.063 12.058 12.098 12.125 12.142 12.17 12.21
8.827 8.673 8.53 8.44 8.393 8.398 8.458 8.512 8.535 8.52 8.533 8.66 8.857 9.052 9.247 9.443 9.637 9.8 9.89 9.935 9.97 10.005 10.04 10.07 10.1 10.13 10.155 10.175 10.248 10.395 10.545 10.672 10.797 10.922 11.047 11.175 11.295 11.4 11.502 11.585 11.645 11.692 11.71 11.705 11.687 11.647 11.565 11.458 11.353 11.273 11.255 11.288 11.327 11.352 11.365 11.365 11.38 11.412 11.412 11.388 11.363 11.337 11.278 11.2 11.148 11.115 11.095 10.867 10.33 10.01 10.01 10.308 10.933 11.39 11.57 11.642 11.685 11.727 11.773 11.823 11.875 11.927 11.98 12.03 12.093 12.142 12.165 12.185 12.208 12.243 12.293 12.347 12.402 12.447 12.47 12.477 12.475 12.462 12.447 12.438 12.435 12.43 12.407 12.302 12.13 11.96 11.863 11.838 11.808 11.773 11.738 11.703 11.683 11.698 11.733 11.765 11.82 11.945 12.12 12.295 12.42 12.432 12.38 12.333 12.288 12.24 12.185 12.155 12.165 12.19 12.22 12.25 12.303 12.375 12.443 12.493 12.495 12.448 12.395 12.36 12.328 12.295 12.265 12.235 12.21 12.2 12.21 12.238 12.275 12.31 12.358 12.427 12.472 12.477 12.472 12.467 12.46 12.463 12.505 12.59 12.695 12.792 12.867 12.925 12.998 13.11 13.248 13.398 13.563 13.735 13.86 13.933 14.018 14.127 14.18 14.057 13.868 13.727 13.512 13.217 12.922 12.662 12.535 12.497 12.455 12.423 12.395 12.373 12.353 12.33 12.298 12.248 12.19 12.133 12.128 12.165 12.17 12.155 12.16 12.19
8.495 8.425 8.393 8.415 8.48 8.545 8.595 8.61 8.585 8.565 8.643 8.82 9.015 9.21 9.405 9.6 9.762 9.845 9.875 9.905 9.945 9.987 10.032 10.075 10.115 10.157 10.195 10.225 10.27 10.368 10.5 10.63 10.757 10.885 11.018 11.165 11.307 11.42 11.517 11.595 11.645 11.672 11.67 11.65 11.63 11.605 11.54 11.435 11.353 11.33 11.348 11.38 11.407 11.417 11.43 11.45 11.47 11.475 11.458 11.433 11.408 11.385 11.345 11.272 11.185 11.108 11.05 10.555 10.048 10.01 10.01 10.338 10.995 11.44 11.577 11.622 11.673 11.732 11.795 11.85 11.9 11.953 12.015 12.095 12.17 12.182 12.17 12.18 12.19 12.213 12.255 12.305 12.358 12.407 12.437 12.452 12.462 12.465 12.46 12.452 12.447 12.44 12.4 12.28 12.125 11.99 11.923 11.912 11.89 11.855 11.815 11.775 11.74 11.725 11.74 11.775 11.855 11.993 12.16 12.337 12.462 12.467 12.403 12.34 12.283 12.228 12.173 12.145 12.158 12.182 12.208 12.273 12.39 12.5 12.582 12.627 12.59 12.485 12.393 12.338 12.3 12.27 12.24 12.213 12.195 12.203 12.23 12.265 12.302 12.338 12.39 12.442 12.462 12.46 12.45 12.44 12.415 12.415 12.465 12.538 12.637 12.745 12.847 12.945 13.055 13.195 13.365 13.55 13.725 13.897 14.025 14.1 14.167 14.167 14.072 13.932 13.785 13.642 13.422 13.125 12.825 12.61 12.535 12.507 12.472 12.447 12.445 12.45 12.44 12.425 12.392 12.332 12.27 12.215 12.213 12.23 12.205 12.178 12.17 12.18
