ncols         200
nrows         71
xllcorner     545000
yllcorner     253475
cellsize      5
NODATA_value  -9999.0
19.292 19.292 19.235 19.125 19.023 18.95 18.893 18.828 18.765 18.713 18.653 18.578 18.492 18.39 18.305 18.245 18.185 18.128 18.085 18.057 18.027 17.977 17.912 17.845 17.777 17.712 17.647 17.58 17.513 17.45 17.39 17.327 17.263 17.22 17.23 17.268 17.302 17.317 17.32 17.33 17.34 17.34 17.267 17.133 17.025 16.93 16.807 16.668 16.523 16.385 16.283 16.21 16.148 16.08 15.995 15.905 15.81 15.718 15.655 15.612 15.567 15.523 15.485 15.455 15.422 15.39 15.36 15.333 15.3 15.265 15.268 15.305 15.34 15.37 15.4 15.39 15.322 15.232 15.16 15.107 15.05 14.98 14.928 14.89 14.84 14.793 14.76 14.74 14.72 14.695 14.675 14.665 14.655 14.645 14.64 14.635 14.63 14.627 14.615 14.595 14.575 14.552 14.517 14.475 14.437 14.402 14.355 14.29 14.22 14.15 14.12 14.13 14.14 14.155 14.198 14.26 14.262 13.975 13.505 13.685 14.127 14.195 14.223 14.248 14.275 14.308 14.353 14.41 14.465 14.517 14.555 14.578 14.6 14.607 14.59 14.565 14.537 14.502 14.475 14.455 14.44 14.443 14.45 14.455 14.46 14.465 14.478 14.49 14.503 14.515 14.535 14.565 14.592 14.607 14.595 14.562 14.525 14.485 14.437 14.38 14.32 14.285 14.308 14.36 14.415 14.472 14.528 14.585 14.637 14.68 14.725 14.78 14.84 14.9 14.965 15.032 15.097 15.16 15.22 15.28 15.337 15.397 15.45 15.492 15.535 15.58 15.635 15.695 15.757 15.812 15.835 15.835 15.843 15.865 15.905 15.955 16.005 16.05 16.1 16.16
19.318 19.317 19.257 19.15 19.075 19.04 18.997 18.933 18.88 18.842 18.787 18.71 18.602 18.463 18.358 18.295 18.235 18.18 18.14 18.107 18.067 18.012 17.947 17.882 17.817 17.752 17.687 17.622 17.557 17.493 17.43 17.37 17.318 17.29 17.308 17.352 17.375 17.36 17.35 17.36 17.365 17.362 17.297 17.18 17.105 17.055 16.962 16.825 16.672 16.52 16.395 16.298 16.213 16.138 16.055 15.965 15.87 15.773 15.703 15.658 15.615 15.575 15.545 15.525 15.495 15.46 15.433 15.413 15.388 15.37 15.385 15.42 15.458 15.485 15.505 15.472 15.375 15.268 15.185 15.122 15.052 14.968 14.915 14.895 14.855 14.81 14.78 14.76 14.74 14.715 14.695 14.685 14.675 14.665 14.66 14.655 14.65 14.642 14.625 14.605 14.582 14.555 14.515 14.468 14.425 14.39 14.342 14.275 14.205 14.14 14.115 14.125 14.138 14.16 14.215 14.28 14.147 13.625 13.54 13.975 14.152 14.19 14.218 14.245 14.278 14.318 14.37 14.43 14.487 14.542 14.58 14.6 14.617 14.62 14.602 14.575 14.537 14.495 14.465 14.45 14.453 14.475 14.49 14.495 14.5 14.505 14.515 14.525 14.538 14.553 14.573 14.597 14.615 14.615 14.6 14.572 14.537 14.5 14.452 14.395 14.34 14.318 14.343 14.39 14.445 14.5 14.555 14.612 14.65 14.67 14.705 14.76 14.82 14.878 14.94 15.007 15.072 15.132 15.19 15.25 15.315 15.387 15.445 15.485 15.528 15.573 15.623 15.68 15.74 15.785 15.802 15.813 15.833 15.865 15.91 15.96 16.007 16.05 16.1 16.157
19.355 19.342 19.285 19.203 19.163 19.14 19.1 19.045 19.008 18.977 18.922 18.825 18.685 18.528 18.413 18.348 18.29 18.235 18.192 18.15 18.1 18.045 17.98 17.915 17.852 17.788 17.723 17.66 17.597 17.533 17.473 17.428 17.405 17.4 17.417 17.442 17.43 17.393 17.378 17.382 17.38 17.375 17.322 17.24 17.192 17.155 17.092 16.972 16.81 16.65 16.525 16.425 16.325 16.228 16.13 16.03 15.93 15.83 15.753 15.705 15.665 15.625 15.595 15.58 15.56 15.53 15.508 15.5 15.488 15.483 15.508 15.545 15.585 15.617 15.615 15.535 15.41 15.298 15.203 15.125 15.045 14.95 14.895 14.885 14.862 14.825 14.795 14.775 14.757 14.735 14.715 14.705 14.695 14.685 14.68 14.675 14.667 14.657 14.637 14.613 14.587 14.557 14.515 14.465 14.418 14.377 14.327 14.26 14.19 14.13 14.11 14.125 14.145 14.17 14.225 14.207 13.743 13.388 13.753 14.115 14.168 14.185 14.218 14.253 14.29 14.333 14.385 14.445 14.507 14.565 14.6 14.617 14.63 14.632 14.615 14.577 14.53 14.483 14.458 14.463 14.485 14.512 14.527 14.535 14.54 14.545 14.555 14.565 14.575 14.588 14.605 14.617 14.62 14.615 14.6 14.575 14.545 14.512 14.467 14.413 14.363 14.35 14.38 14.425 14.478 14.53 14.582 14.625 14.64 14.648 14.683 14.74 14.797 14.853 14.915 14.982 15.042 15.098 15.155 15.22 15.295 15.375 15.435 15.475 15.52 15.565 15.61 15.662 15.72 15.757 15.778 15.805 15.838 15.875 15.92 15.967 16.01 16.05 16.1 16.145
19.413 19.375 19.33 19.29 19.265 19.24 19.207 19.17 19.14 19.11 19.04 18.907 18.752 18.595 18.473 18.403 18.347 18.292 18.24 18.188 18.135 18.077 18.013 17.95 17.888 17.823 17.76 17.7 17.638 17.575 17.533 17.517 17.515 17.515 17.515 17.5 17.465 17.428 17.405 17.397 17.39 17.382 17.355 17.31 17.27 17.23 17.177 17.08 16.932 16.778 16.655 16.555 16.45 16.337 16.228 16.12 16.013 15.905 15.81 15.75 15.71 15.67 15.64 15.627 15.617 15.6 15.587 15.59 15.587 15.592 15.625 15.667 15.71 15.737 15.695 15.582 15.455 15.338 15.233 15.135 15.038 14.935 14.878 14.865 14.853 14.833 14.81 14.79 14.773 14.753 14.735 14.725 14.715 14.705 14.697 14.69 14.68 14.67 14.65 14.62 14.592 14.56 14.515 14.465 14.415 14.37 14.318 14.25 14.18 14.123 14.108 14.13 14.155 14.18 14.192 13.94 13.513 13.665 14.127 14.247 14.215 14.198 14.22 14.26 14.302 14.345 14.392 14.452 14.52 14.58 14.612 14.625 14.635 14.64 14.617 14.57 14.52 14.475 14.465 14.49 14.52 14.547 14.565 14.575 14.58 14.585 14.592 14.6 14.61 14.62 14.627 14.625 14.62 14.615 14.6 14.575 14.545 14.517 14.482 14.437 14.39 14.383 14.422 14.467 14.515 14.562 14.6 14.617 14.62 14.628 14.663 14.72 14.775 14.83 14.89 14.95 15.008 15.065 15.125 15.195 15.275 15.355 15.415 15.455 15.497 15.54 15.585 15.637 15.695 15.74 15.773 15.808 15.845 15.885 15.927 15.97 16.01 16.05 16.09 16.115
19.47 19.425 19.395 19.375 19.35 19.327 19.307 19.28 19.252 19.215 19.115 18.96 18.805 18.658 18.54 18.463 18.405 18.35 18.293 18.238 18.18 18.118 18.055 17.993 17.928 17.865 17.805 17.745 17.685 17.63 17.598 17.59 17.59 17.59 17.575 17.54 17.5 17.455 17.418 17.4 17.392 17.382 17.375 17.367 17.337 17.292 17.23 17.142 17.03 16.902 16.785 16.675 16.56 16.443 16.333 16.227 16.12 16.005 15.893 15.8 15.74 15.7 15.668 15.648 15.637 15.632 15.632 15.642 15.655 15.672 15.702 15.737 15.77 15.777 15.72 15.622 15.512 15.392 15.28 15.168 15.058 14.955 14.885 14.86 14.853 14.845 14.83 14.81 14.79 14.77 14.753 14.74 14.73 14.72 14.71 14.7 14.69 14.677 14.655 14.627 14.6 14.565 14.52 14.47 14.42 14.375 14.322 14.255 14.185 14.128 14.115 14.14 14.165 14.192 14.102 13.71 13.685 14.1 14.292 14.305 14.255 14.213 14.213 14.247 14.29 14.335 14.382 14.442 14.51 14.57 14.6 14.607 14.617 14.63 14.61 14.56 14.515 14.485 14.49 14.52 14.55 14.577 14.587 14.587 14.592 14.597 14.6 14.605 14.615 14.622 14.622 14.615 14.607 14.605 14.595 14.572 14.545 14.52 14.49 14.45 14.41 14.41 14.452 14.495 14.54 14.58 14.597 14.603 14.608 14.623 14.663 14.718 14.77 14.823 14.88 14.94 15 15.06 15.11 15.165 15.238 15.315 15.377 15.42 15.46 15.5 15.545 15.6 15.67 15.735 15.777 15.815 15.852 15.89 15.927 15.962 16 16.04 16.08 16.105
19.52 19.488 19.465 19.442 19.42 19.405 19.39 19.365 19.332 19.275 19.157 19 18.85 18.725 18.625 18.538 18.468 18.41 18.355 18.297 18.227 18.158 18.097 18.037 17.975 17.915 17.855 17.795 17.738 17.69 17.655 17.638 17.633 17.63 17.612 17.572 17.522 17.462 17.415 17.395 17.387 17.375 17.37 17.382 17.382 17.35 17.28 17.193 17.105 17.01 16.9 16.78 16.66 16.548 16.44 16.333 16.227 16.115 16 15.885 15.785 15.725 15.69 15.66 15.638 15.63 15.633 15.643 15.67 15.7 15.725 15.75 15.757 15.74 15.687 15.612 15.527 15.432 15.335 15.23 15.125 15.025 14.943 14.893 14.87 14.863 14.85 14.83 14.81 14.787 14.765 14.75 14.74 14.73 14.72 14.71 14.697 14.68 14.658 14.632 14.605 14.572 14.53 14.48 14.433 14.387 14.335 14.272 14.205 14.143 14.125 14.15 14.185 14.217 14.017 13.695 13.813 14.2 14.35 14.32 14.272 14.218 14.203 14.23 14.263 14.303 14.355 14.415 14.477 14.535 14.565 14.573 14.588 14.612 14.602 14.555 14.523 14.51 14.52 14.55 14.575 14.592 14.592 14.58 14.578 14.582 14.585 14.588 14.592 14.597 14.597 14.593 14.588 14.59 14.585 14.565 14.542 14.517 14.485 14.448 14.42 14.425 14.46 14.502 14.542 14.57 14.582 14.59 14.605 14.633 14.678 14.73 14.78 14.83 14.89 14.957 15.02 15.08 15.117 15.145 15.198 15.27 15.332 15.375 15.415 15.458 15.505 15.568 15.655 15.735 15.782 15.82 15.855 15.887 15.92 15.948 15.98 16.02 16.07 16.115
19.58 19.555 19.532 19.51 19.495 19.485 19.47 19.44 19.387 19.31 19.19 19.045 18.918 18.815 18.722 18.628 18.543 18.475 18.415 18.347 18.27 18.195 18.135 18.08 18.022 17.965 17.903 17.845 17.798 17.753 17.715 17.693 17.68 17.67 17.64 17.585 17.522 17.458 17.41 17.39 17.377 17.363 17.363 17.378 17.392 17.387 17.34 17.267 17.19 17.11 17.007 16.883 16.763 16.652 16.547 16.44 16.332 16.222 16.11 15.995 15.875 15.775 15.72 15.69 15.663 15.648 15.645 15.645 15.665 15.697 15.722 15.735 15.72 15.69 15.64 15.568 15.51 15.472 15.41 15.315 15.215 15.118 15.033 14.965 14.915 14.888 14.87 14.85 14.827 14.8 14.775 14.76 14.75 14.74 14.73 14.717 14.7 14.682 14.662 14.635 14.605 14.577 14.54 14.49 14.445 14.4 14.345 14.285 14.222 14.158 14.135 14.173 14.24 14.247 13.963 13.705 13.858 14.17 14.315 14.295 14.265 14.22 14.203 14.222 14.247 14.278 14.323 14.38 14.44 14.495 14.525 14.54 14.565 14.597 14.595 14.56 14.545 14.54 14.548 14.572 14.59 14.6 14.597 14.58 14.568 14.568 14.57 14.57 14.57 14.575 14.575 14.573 14.575 14.58 14.575 14.555 14.535 14.512 14.483 14.453 14.435 14.435 14.463 14.502 14.532 14.555 14.57 14.588 14.615 14.648 14.69 14.74 14.79 14.838 14.898 14.97 15.035 15.095 15.13 15.145 15.173 15.228 15.287 15.33 15.37 15.413 15.468 15.548 15.647 15.735 15.787 15.822 15.855 15.885 15.912 15.938 15.965 16 16.05 16.11
19.648 19.623 19.6 19.585 19.575 19.565 19.547 19.5 19.423 19.337 19.23 19.11 19.008 18.915 18.82 18.725 18.632 18.545 18.47 18.395 18.315 18.238 18.173 18.118 18.065 18.01 17.953 17.903 17.86 17.817 17.775 17.745 17.727 17.71 17.665 17.593 17.52 17.453 17.403 17.38 17.365 17.35 17.355 17.37 17.385 17.397 17.382 17.332 17.265 17.197 17.11 16.99 16.865 16.752 16.647 16.542 16.435 16.327 16.212 16.087 15.96 15.835 15.76 15.728 15.7 15.685 15.678 15.673 15.678 15.698 15.71 15.698 15.67 15.64 15.605 15.565 15.54 15.53 15.485 15.4 15.307 15.212 15.128 15.058 14.995 14.943 14.9 14.868 14.84 14.81 14.788 14.775 14.765 14.755 14.743 14.725 14.705 14.688 14.667 14.64 14.61 14.585 14.55 14.503 14.458 14.41 14.355 14.295 14.235 14.173 14.163 14.23 14.322 14.27 13.918 13.67 13.83 14.13 14.265 14.245 14.225 14.202 14.195 14.207 14.227 14.25 14.288 14.345 14.405 14.46 14.495 14.52 14.55 14.582 14.592 14.58 14.575 14.57 14.573 14.587 14.6 14.61 14.605 14.585 14.568 14.558 14.555 14.555 14.555 14.558 14.557 14.557 14.562 14.57 14.565 14.545 14.527 14.51 14.487 14.467 14.455 14.448 14.465 14.495 14.517 14.542 14.568 14.597 14.63 14.663 14.702 14.747 14.795 14.84 14.897 14.972 15.042 15.105 15.14 15.155 15.17 15.198 15.243 15.288 15.33 15.373 15.438 15.533 15.642 15.735 15.787 15.82 15.85 15.877 15.905 15.933 15.958 15.985 16.03 16.095
19.722 19.69 19.657 19.642 19.637 19.63 19.61 19.552 19.465 19.38 19.29 19.19 19.095 19.01 18.913 18.807 18.71 18.61 18.523 18.445 18.365 18.288 18.215 18.155 18.105 18.05 18.002 17.962 17.917 17.875 17.833 17.798 17.773 17.75 17.702 17.625 17.545 17.463 17.395 17.368 17.355 17.343 17.348 17.363 17.378 17.39 17.395 17.367 17.31 17.25 17.185 17.087 16.96 16.843 16.737 16.632 16.527 16.412 16.282 16.147 16.013 15.888 15.813 15.78 15.755 15.74 15.73 15.723 15.718 15.715 15.705 15.683 15.66 15.638 15.62 15.61 15.595 15.572 15.512 15.43 15.365 15.297 15.222 15.15 15.08 15.007 14.943 14.903 14.875 14.845 14.82 14.803 14.79 14.78 14.765 14.745 14.725 14.698 14.678 14.662 14.635 14.61 14.575 14.525 14.475 14.425 14.37 14.31 14.25 14.193 14.198 14.28 14.37 14.292 13.895 13.605 13.763 14.077 14.215 14.198 14.18 14.168 14.17 14.18 14.195 14.215 14.255 14.312 14.37 14.425 14.47 14.505 14.535 14.565 14.595 14.61 14.607 14.602 14.593 14.588 14.595 14.605 14.6 14.582 14.565 14.548 14.54 14.54 14.542 14.545 14.538 14.53 14.535 14.542 14.537 14.52 14.502 14.487 14.472 14.46 14.45 14.44 14.45 14.475 14.495 14.52 14.562 14.605 14.637 14.672 14.707 14.745 14.79 14.835 14.878 14.94 15.015 15.08 15.115 15.13 15.147 15.17 15.208 15.255 15.3 15.345 15.415 15.513 15.622 15.72 15.775 15.802 15.827 15.847 15.887 15.932 15.96 15.985 16.025 16.088
19.797 19.747 19.7 19.68 19.677 19.66 19.635 19.6 19.532 19.448 19.36 19.268 19.18 19.11 19.012 18.883 18.768 18.665 18.575 18.498 18.42 18.345 18.27 18.2 18.145 18.09 18.045 18.012 17.972 17.928 17.885 17.85 17.82 17.792 17.747 17.667 17.57 17.462 17.375 17.343 17.335 17.333 17.34 17.355 17.37 17.382 17.397 17.392 17.35 17.29 17.232 17.16 17.047 16.928 16.823 16.717 16.605 16.467 16.323 16.19 16.058 15.938 15.868 15.843 15.825 15.807 15.795 15.785 15.772 15.755 15.735 15.715 15.698 15.683 15.668 15.65 15.627 15.595 15.515 15.408 15.342 15.305 15.26 15.207 15.14 15.058 14.988 14.953 14.93 14.9 14.87 14.843 14.823 14.813 14.8 14.777 14.747 14.705 14.685 14.69 14.677 14.652 14.615 14.56 14.505 14.453 14.395 14.333 14.273 14.218 14.22 14.297 14.375 14.322 13.95 13.49 13.6 14.03 14.17 14.155 14.143 14.135 14.14 14.15 14.163 14.18 14.22 14.277 14.332 14.385 14.435 14.482 14.52 14.55 14.587 14.625 14.64 14.637 14.618 14.59 14.583 14.59 14.585 14.568 14.55 14.533 14.525 14.525 14.53 14.535 14.523 14.5 14.493 14.497 14.492 14.475 14.458 14.445 14.435 14.425 14.415 14.408 14.42 14.445 14.465 14.49 14.54 14.6 14.642 14.675 14.705 14.738 14.778 14.82 14.853 14.893 14.955 15.02 15.055 15.07 15.095 15.13 15.178 15.232 15.28 15.325 15.395 15.49 15.593 15.69 15.75 15.772 15.787 15.798 15.835 15.91 15.965 15.993 16.035 16.095
19.852 19.795 19.743 19.717 19.7 19.66 19.63 19.62 19.59 19.522 19.433 19.35 19.283 19.222 19.13 18.988 18.843 18.723 18.63 18.555 18.48 18.405 18.33 18.253 18.188 18.13 18.085 18.055 18.022 17.982 17.938 17.9 17.87 17.84 17.782 17.677 17.555 17.435 17.343 17.308 17.308 17.318 17.33 17.345 17.36 17.375 17.39 17.397 17.377 17.325 17.268 17.212 17.127 17.015 16.907 16.797 16.662 16.505 16.358 16.228 16.1 15.988 15.928 15.908 15.89 15.87 15.855 15.845 15.827 15.805 15.785 15.768 15.768 15.773 15.738 15.683 15.65 15.612 15.525 15.4 15.295 15.24 15.217 15.197 15.162 15.1 15.03 14.995 14.98 14.955 14.925 14.893 14.863 14.848 14.832 14.8 14.755 14.705 14.685 14.7 14.707 14.692 14.652 14.597 14.542 14.485 14.425 14.36 14.298 14.24 14.24 14.305 14.367 14.357 14.07 13.395 13.4 13.992 14.14 14.12 14.11 14.108 14.115 14.123 14.13 14.145 14.185 14.242 14.295 14.345 14.395 14.447 14.497 14.535 14.57 14.617 14.66 14.672 14.652 14.615 14.585 14.578 14.57 14.553 14.535 14.52 14.515 14.518 14.523 14.527 14.52 14.49 14.46 14.453 14.445 14.428 14.415 14.405 14.395 14.388 14.38 14.375 14.388 14.412 14.435 14.46 14.51 14.58 14.64 14.68 14.708 14.735 14.768 14.805 14.84 14.868 14.905 14.96 14.997 15.02 15.055 15.095 15.145 15.205 15.26 15.308 15.375 15.47 15.57 15.665 15.72 15.732 15.737 15.74 15.758 15.84 15.942 15.997 16.045 16.105
19.897 19.84 19.783 19.745 19.715 19.673 19.643 19.633 19.62 19.582 19.517 19.452 19.397 19.34 19.25 19.11 18.95 18.805 18.7 18.623 18.543 18.465 18.39 18.31 18.237 18.173 18.125 18.095 18.065 18.03 17.99 17.953 17.92 17.89 17.815 17.683 17.545 17.415 17.315 17.283 17.293 17.307 17.32 17.333 17.347 17.365 17.38 17.392 17.395 17.36 17.305 17.255 17.195 17.102 16.99 16.86 16.702 16.54 16.393 16.263 16.138 16.038 15.99 15.97 15.952 15.935 15.918 15.903 15.88 15.863 15.868 15.885 15.923 15.94 15.878 15.783 15.71 15.638 15.533 15.408 15.285 15.193 15.155 15.143 15.13 15.102 15.058 15.03 15.02 15.002 14.975 14.942 14.91 14.885 14.857 14.815 14.763 14.71 14.693 14.71 14.728 14.722 14.685 14.632 14.575 14.518 14.457 14.393 14.328 14.265 14.255 14.3 14.352 14.382 14.182 13.615 13.468 13.862 14.087 14.117 14.088 14.08 14.093 14.105 14.118 14.128 14.155 14.205 14.255 14.305 14.355 14.405 14.46 14.51 14.553 14.603 14.655 14.692 14.685 14.645 14.605 14.575 14.555 14.54 14.525 14.51 14.508 14.513 14.515 14.52 14.515 14.488 14.453 14.425 14.408 14.395 14.385 14.373 14.36 14.353 14.348 14.345 14.355 14.38 14.405 14.43 14.48 14.55 14.62 14.677 14.712 14.737 14.765 14.797 14.827 14.853 14.88 14.915 14.95 14.985 15.025 15.065 15.115 15.173 15.23 15.285 15.355 15.45 15.547 15.64 15.692 15.695 15.688 15.683 15.688 15.753 15.872 15.98 16.055 16.115
19.937 19.877 19.815 19.78 19.757 19.72 19.693 19.678 19.658 19.63 19.59 19.537 19.482 19.425 19.345 19.22 19.065 18.91 18.793 18.71 18.622 18.522 18.43 18.352 18.28 18.213 18.17 18.145 18.115 18.08 18.045 18.008 17.97 17.94 17.857 17.713 17.565 17.425 17.318 17.278 17.285 17.3 17.31 17.32 17.333 17.35 17.367 17.382 17.397 17.387 17.345 17.292 17.24 17.172 17.057 16.902 16.74 16.578 16.428 16.298 16.185 16.105 16.055 16.025 16.007 15.99 15.982 15.975 15.95 15.958 16.018 16.082 16.137 16.14 16.062 15.958 15.855 15.72 15.563 15.43 15.308 15.195 15.138 15.123 15.108 15.095 15.075 15.053 15.04 15.025 14.997 14.965 14.935 14.91 14.89 14.86 14.813 14.763 14.75 14.77 14.772 14.745 14.702 14.655 14.605 14.552 14.493 14.433 14.375 14.318 14.28 14.288 14.33 14.372 14.252 13.922 13.43 13.478 14.012 14.165 14.118 14.14 14.183 14.2 14.215 14.19 14.165 14.195 14.245 14.293 14.34 14.39 14.443 14.498 14.55 14.6 14.65 14.692 14.69 14.65 14.61 14.573 14.548 14.532 14.515 14.503 14.505 14.513 14.515 14.52 14.515 14.493 14.462 14.428 14.405 14.393 14.38 14.363 14.345 14.335 14.328 14.325 14.338 14.363 14.388 14.415 14.465 14.535 14.605 14.667 14.707 14.732 14.76 14.79 14.818 14.843 14.87 14.9 14.933 14.97 15.008 15.045 15.095 15.153 15.21 15.268 15.338 15.427 15.52 15.61 15.672 15.685 15.675 15.663 15.655 15.698 15.81 15.95 16.052 16.115
19.97 19.905 19.843 19.818 19.81 19.782 19.757 19.737 19.71 19.677 19.637 19.59 19.535 19.477 19.407 19.305 19.17 19.018 18.898 18.81 18.697 18.557 18.445 18.37 18.303 18.245 18.215 18.2 18.175 18.142 18.11 18.068 18.023 17.987 17.897 17.747 17.598 17.455 17.348 17.29 17.278 17.29 17.3 17.31 17.32 17.335 17.353 17.368 17.382 17.385 17.355 17.302 17.25 17.205 17.102 16.94 16.777 16.613 16.465 16.345 16.258 16.193 16.13 16.08 16.053 16.035 16.042 16.057 16.045 16.08 16.175 16.265 16.342 16.342 16.252 16.15 16.047 15.86 15.638 15.478 15.343 15.225 15.163 15.15 15.135 15.117 15.097 15.068 15.045 15.03 15.002 14.968 14.94 14.925 14.92 14.912 14.89 14.857 14.842 14.837 14.805 14.755 14.708 14.662 14.62 14.572 14.535 14.5 14.45 14.4 14.348 14.308 14.31 14.335 14.262 14.025 13.5 13.375 13.85 14.122 14.172 14.257 14.365 14.4 14.377 14.295 14.215 14.215 14.262 14.305 14.35 14.4 14.453 14.508 14.562 14.612 14.652 14.677 14.667 14.63 14.593 14.56 14.54 14.525 14.508 14.5 14.505 14.517 14.525 14.527 14.522 14.505 14.477 14.445 14.423 14.407 14.39 14.365 14.343 14.333 14.325 14.32 14.333 14.358 14.385 14.413 14.463 14.535 14.6 14.655 14.692 14.72 14.75 14.783 14.812 14.838 14.868 14.903 14.935 14.97 15.005 15.04 15.09 15.147 15.202 15.258 15.323 15.403 15.49 15.582 15.652 15.685 15.692 15.68 15.67 15.705 15.8 15.932 16.042 16.11
19.997 19.925 19.868 19.845 19.847 19.84 19.817 19.79 19.757 19.72 19.68 19.635 19.585 19.532 19.46 19.365 19.255 19.12 19 18.887 18.735 18.57 18.453 18.383 18.32 18.275 18.253 18.24 18.225 18.205 18.18 18.135 18.08 18.032 17.935 17.783 17.63 17.488 17.388 17.325 17.285 17.28 17.29 17.3 17.31 17.323 17.337 17.352 17.36 17.355 17.33 17.288 17.25 17.227 17.14 16.978 16.813 16.648 16.505 16.408 16.34 16.278 16.215 16.155 16.108 16.08 16.095 16.132 16.15 16.205 16.305 16.402 16.495 16.52 16.45 16.35 16.227 15.995 15.74 15.555 15.39 15.255 15.19 15.177 15.16 15.14 15.12 15.085 15.05 15.03 15.005 14.975 14.955 14.945 14.94 14.94 14.94 14.925 14.895 14.855 14.805 14.757 14.712 14.665 14.617 14.568 14.552 14.56 14.537 14.495 14.442 14.38 14.333 14.307 14.2 14.005 13.772 13.46 13.493 13.855 14.077 14.242 14.417 14.522 14.487 14.373 14.268 14.24 14.28 14.32 14.363 14.41 14.465 14.522 14.577 14.617 14.64 14.655 14.645 14.613 14.58 14.553 14.533 14.517 14.503 14.495 14.503 14.517 14.53 14.535 14.527 14.51 14.487 14.46 14.438 14.42 14.395 14.368 14.345 14.33 14.32 14.315 14.328 14.355 14.385 14.41 14.458 14.527 14.587 14.64 14.68 14.71 14.743 14.777 14.807 14.835 14.87 14.907 14.94 14.972 15.005 15.04 15.087 15.14 15.19 15.245 15.31 15.385 15.465 15.555 15.625 15.667 15.7 15.702 15.705 15.75 15.825 15.928 16.032 16.1
20.02 19.945 19.89 19.873 19.877 19.88 19.862 19.83 19.797 19.762 19.722 19.677 19.632 19.582 19.51 19.415 19.315 19.207 19.087 18.943 18.778 18.613 18.49 18.413 18.343 18.303 18.285 18.27 18.257 18.242 18.222 18.187 18.14 18.082 17.975 17.82 17.665 17.528 17.435 17.375 17.318 17.283 17.28 17.29 17.3 17.31 17.323 17.332 17.328 17.318 17.305 17.285 17.273 17.265 17.18 17.015 16.85 16.69 16.563 16.483 16.42 16.36 16.3 16.24 16.18 16.135 16.153 16.21 16.258 16.328 16.422 16.515 16.597 16.655 16.637 16.55 16.392 16.115 15.85 15.66 15.473 15.305 15.22 15.2 15.18 15.16 15.14 15.105 15.063 15.033 15.01 14.99 14.975 14.965 14.96 14.957 14.952 14.935 14.897 14.85 14.802 14.757 14.71 14.66 14.607 14.553 14.54 14.567 14.582 14.575 14.535 14.465 14.387 14.315 14.213 14.098 13.977 13.685 13.335 13.418 13.752 13.982 14.207 14.465 14.57 14.473 14.35 14.278 14.288 14.33 14.372 14.42 14.475 14.532 14.577 14.602 14.617 14.632 14.627 14.6 14.57 14.545 14.525 14.507 14.492 14.488 14.497 14.512 14.527 14.54 14.535 14.515 14.495 14.472 14.45 14.425 14.398 14.372 14.35 14.33 14.315 14.31 14.325 14.355 14.382 14.408 14.452 14.515 14.572 14.627 14.67 14.703 14.738 14.77 14.803 14.838 14.873 14.91 14.945 14.975 15.005 15.038 15.08 15.13 15.18 15.235 15.3 15.375 15.45 15.53 15.597 15.643 15.685 15.712 15.743 15.8 15.87 15.947 16.025 16.077
20.075 19.998 19.93 19.9 19.903 19.907 19.89 19.852 19.82 19.79 19.75 19.705 19.66 19.61 19.547 19.46 19.362 19.267 19.167 19.037 18.88 18.723 18.6 18.51 18.408 18.32 18.28 18.265 18.25 18.23 18.21 18.187 18.157 18.11 18.012 17.865 17.71 17.578 17.49 17.43 17.37 17.318 17.3 17.31 17.32 17.322 17.318 17.315 17.308 17.298 17.295 17.3 17.305 17.3 17.215 17.053 16.895 16.768 16.66 16.568 16.5 16.44 16.38 16.32 16.26 16.218 16.235 16.295 16.36 16.438 16.525 16.612 16.69 16.76 16.797 16.75 16.557 16.235 15.96 15.77 15.583 15.398 15.288 15.26 15.238 15.215 15.18 15.125 15.075 15.04 15.02 15.007 14.995 14.985 14.975 14.96 14.94 14.915 14.88 14.835 14.79 14.75 14.705 14.653 14.598 14.545 14.533 14.558 14.585 14.592 14.567 14.505 14.415 14.33 14.272 14.24 14.185 14.072 13.625 13.243 13.308 13.555 13.857 14.222 14.562 14.602 14.47 14.343 14.288 14.31 14.355 14.41 14.467 14.522 14.56 14.578 14.593 14.612 14.612 14.587 14.557 14.52 14.49 14.47 14.46 14.467 14.48 14.495 14.512 14.527 14.532 14.52 14.497 14.475 14.452 14.427 14.402 14.375 14.35 14.33 14.315 14.31 14.325 14.352 14.377 14.395 14.427 14.485 14.542 14.608 14.675 14.723 14.758 14.79 14.825 14.863 14.898 14.927 14.948 14.97 15 15.03 15.07 15.12 15.17 15.225 15.29 15.365 15.44 15.51 15.572 15.622 15.665 15.708 15.76 15.822 15.89 15.96 16.017 16.055
20.165 20.09 20.01 19.948 19.928 19.932 19.912 19.868 19.83 19.8 19.76 19.713 19.667 19.62 19.565 19.495 19.407 19.313 19.235 19.152 19.022 18.87 18.75 18.645 18.502 18.358 18.263 18.225 18.21 18.19 18.17 18.15 18.127 18.095 18.032 17.915 17.763 17.635 17.555 17.495 17.435 17.378 17.355 17.357 17.35 17.332 17.313 17.307 17.305 17.295 17.298 17.315 17.33 17.33 17.247 17.098 16.975 16.898 16.797 16.668 16.58 16.52 16.46 16.4 16.345 16.315 16.335 16.393 16.463 16.54 16.625 16.707 16.78 16.85 16.917 16.92 16.717 16.36 16.075 15.88 15.695 15.51 15.393 15.36 15.332 15.29 15.225 15.15 15.09 15.053 15.035 15.025 15.012 14.995 14.972 14.945 14.92 14.897 14.862 14.818 14.778 14.745 14.702 14.648 14.592 14.54 14.528 14.555 14.565 14.532 14.502 14.477 14.412 14.328 14.268 14.235 14.21 14.1 13.802 13.44 13.255 13.138 13.35 13.897 14.362 14.63 14.595 14.443 14.318 14.28 14.318 14.378 14.44 14.497 14.537 14.555 14.573 14.6 14.6 14.572 14.53 14.47 14.43 14.415 14.418 14.435 14.452 14.467 14.482 14.497 14.51 14.51 14.492 14.47 14.45 14.43 14.405 14.378 14.353 14.33 14.313 14.308 14.323 14.345 14.36 14.36 14.38 14.435 14.503 14.588 14.68 14.755 14.805 14.84 14.875 14.912 14.94 14.952 14.958 14.968 14.99 15.02 15.06 15.11 15.16 15.215 15.283 15.357 15.427 15.49 15.55 15.607 15.657 15.703 15.755 15.815 15.88 15.95 16.005 16.038
20.235 20.182 20.11 20.03 19.973 19.958 19.937 19.89 19.845 19.808 19.767 19.72 19.673 19.625 19.573 19.515 19.445 19.358 19.28 19.22 19.137 19.015 18.887 18.752 18.59 18.433 18.3 18.21 18.17 18.15 18.13 18.11 18.09 18.062 18.02 17.945 17.817 17.695 17.623 17.565 17.505 17.443 17.4 17.375 17.345 17.315 17.295 17.297 17.3 17.295 17.305 17.325 17.345 17.357 17.295 17.183 17.108 17.052 16.95 16.8 16.675 16.595 16.535 16.483 16.443 16.418 16.438 16.503 16.575 16.648 16.725 16.8 16.867 16.935 17.002 17.022 16.832 16.47 16.175 15.982 15.807 15.623 15.5 15.455 15.407 15.335 15.255 15.178 15.108 15.068 15.052 15.035 15.015 14.99 14.96 14.93 14.903 14.88 14.847 14.805 14.773 14.745 14.7 14.643 14.585 14.533 14.522 14.527 14.49 14.428 14.393 14.392 14.377 14.32 14.263 14.24 14.222 14.06 13.813 13.653 13.525 13.233 12.988 13.378 14.022 14.455 14.642 14.555 14.4 14.288 14.28 14.343 14.407 14.47 14.512 14.535 14.56 14.59 14.587 14.542 14.477 14.408 14.37 14.37 14.385 14.405 14.425 14.44 14.45 14.462 14.475 14.482 14.482 14.47 14.45 14.43 14.407 14.382 14.357 14.333 14.31 14.303 14.312 14.322 14.32 14.31 14.33 14.395 14.483 14.58 14.672 14.76 14.837 14.887 14.925 14.955 14.967 14.97 14.975 14.98 14.99 15.015 15.053 15.1 15.153 15.208 15.275 15.347 15.407 15.465 15.525 15.585 15.642 15.692 15.745 15.805 15.87 15.937 15.99 16.028
20.28 20.255 20.202 20.127 20.052 20 19.962 19.917 19.87 19.82 19.773 19.727 19.68 19.633 19.582 19.523 19.46 19.392 19.323 19.26 19.197 19.115 18.992 18.84 18.677 18.515 18.37 18.248 18.155 18.11 18.09 18.07 18.05 18.027 17.99 17.94 17.855 17.755 17.687 17.625 17.557 17.49 17.428 17.378 17.335 17.298 17.278 17.283 17.29 17.298 17.315 17.335 17.352 17.367 17.345 17.287 17.232 17.175 17.087 16.952 16.803 16.685 16.615 16.575 16.545 16.523 16.548 16.618 16.692 16.755 16.807 16.867 16.93 16.995 17.06 17.052 16.875 16.547 16.228 16.028 15.88 15.722 15.6 15.525 15.45 15.365 15.285 15.205 15.128 15.08 15.058 15.033 15.008 14.983 14.955 14.923 14.89 14.863 14.833 14.8 14.773 14.745 14.7 14.64 14.58 14.525 14.49 14.45 14.385 14.32 14.29 14.295 14.303 14.29 14.268 14.268 14.262 14.168 14.04 13.953 13.865 13.792 13.403 13.053 13.475 14.137 14.555 14.652 14.507 14.338 14.26 14.31 14.375 14.44 14.49 14.52 14.547 14.575 14.567 14.505 14.428 14.353 14.32 14.335 14.355 14.375 14.392 14.405 14.415 14.427 14.44 14.45 14.46 14.46 14.445 14.425 14.405 14.382 14.357 14.332 14.31 14.297 14.295 14.29 14.28 14.27 14.298 14.38 14.478 14.575 14.667 14.755 14.842 14.917 14.962 14.977 14.982 14.987 14.992 14.997 15.003 15.015 15.048 15.095 15.148 15.2 15.26 15.325 15.383 15.44 15.5 15.56 15.62 15.678 15.735 15.798 15.865 15.932 15.985 16.028
20.337 20.307 20.255 20.185 20.112 20.042 19.988 19.943 19.895 19.837 19.78 19.733 19.688 19.647 19.6 19.538 19.478 19.428 19.36 19.28 19.212 19.145 19.037 18.887 18.732 18.572 18.422 18.292 18.17 18.088 18.058 18.04 18.02 17.985 17.937 17.895 17.852 17.8 17.737 17.667 17.595 17.523 17.458 17.403 17.35 17.303 17.27 17.268 17.28 17.295 17.312 17.33 17.347 17.355 17.367 17.355 17.3 17.242 17.192 17.107 16.965 16.815 16.728 16.698 16.673 16.648 16.668 16.735 16.8 16.837 16.863 16.91 16.97 17.035 17.1 17.05 16.86 16.587 16.258 16.025 15.895 15.757 15.642 15.56 15.475 15.39 15.31 15.228 15.158 15.11 15.075 15.048 15.023 14.993 14.958 14.923 14.89 14.86 14.83 14.805 14.78 14.75 14.705 14.645 14.585 14.528 14.478 14.423 14.358 14.295 14.278 14.295 14.303 14.31 14.32 14.33 14.335 14.335 14.335 14.335 14.335 14.325 14.115 13.508 13.156 13.618 14.295 14.627 14.592 14.37 14.248 14.283 14.345 14.41 14.465 14.5 14.527 14.555 14.555 14.507 14.435 14.355 14.303 14.298 14.315 14.335 14.352 14.365 14.375 14.387 14.4 14.41 14.42 14.425 14.417 14.4 14.38 14.36 14.335 14.31 14.29 14.28 14.285 14.285 14.275 14.265 14.303 14.395 14.49 14.583 14.668 14.75 14.838 14.925 14.975 14.985 14.99 14.995 15 15.005 15.01 15.015 15.045 15.095 15.145 15.193 15.245 15.305 15.363 15.428 15.495 15.558 15.623 15.688 15.748 15.805 15.87 15.94 15.992 16.03
20.392 20.342 20.28 20.208 20.138 20.07 20.015 19.97 19.915 19.853 19.793 19.74 19.698 19.667 19.622 19.565 19.52 19.48 19.405 19.3 19.215 19.147 19.042 18.895 18.74 18.577 18.427 18.295 18.175 18.083 18.038 18.02 17.985 17.92 17.86 17.828 17.83 17.825 17.77 17.7 17.63 17.558 17.493 17.435 17.383 17.338 17.295 17.273 17.27 17.28 17.297 17.313 17.327 17.33 17.357 17.38 17.342 17.288 17.255 17.227 17.135 16.985 16.893 16.868 16.84 16.805 16.803 16.847 16.885 16.892 16.905 16.95 17.013 17.077 17.125 17.035 16.817 16.582 16.29 16.038 15.89 15.738 15.623 15.565 15.492 15.41 15.328 15.25 15.203 15.163 15.12 15.09 15.062 15.017 14.965 14.93 14.9 14.87 14.84 14.813 14.787 14.76 14.715 14.655 14.595 14.54 14.5 14.46 14.405 14.345 14.335 14.367 14.385 14.392 14.4 14.407 14.413 14.437 14.485 14.535 14.582 14.617 14.455 14.027 13.458 13.383 13.907 14.415 14.567 14.355 14.223 14.258 14.315 14.38 14.435 14.472 14.505 14.535 14.545 14.525 14.477 14.405 14.33 14.28 14.273 14.29 14.307 14.32 14.332 14.345 14.355 14.365 14.372 14.377 14.372 14.357 14.34 14.32 14.295 14.27 14.253 14.248 14.267 14.292 14.297 14.288 14.328 14.422 14.515 14.602 14.678 14.75 14.835 14.922 14.97 14.982 14.99 14.993 14.998 15.005 15.01 15.015 15.045 15.095 15.142 15.185 15.235 15.295 15.363 15.448 15.525 15.588 15.655 15.725 15.782 15.828 15.885 15.952 16.002 16.038
20.422 20.367 20.305 20.233 20.165 20.1 20.045 19.995 19.932 19.867 19.805 19.75 19.713 19.69 19.652 19.607 19.572 19.537 19.465 19.35 19.24 19.155 19.045 18.89 18.725 18.555 18.405 18.283 18.173 18.075 18.023 17.987 17.917 17.835 17.785 17.788 17.827 17.845 17.8 17.73 17.66 17.59 17.525 17.47 17.425 17.385 17.348 17.313 17.283 17.27 17.28 17.295 17.302 17.3 17.33 17.382 17.38 17.33 17.295 17.29 17.265 17.167 17.085 17.055 17.015 16.97 16.932 16.93 16.94 16.938 16.95 16.995 17.057 17.12 17.127 16.995 16.772 16.55 16.307 16.063 15.868 15.703 15.595 15.55 15.497 15.425 15.348 15.293 15.262 15.225 15.178 15.14 15.095 15.03 14.978 14.943 14.91 14.88 14.85 14.82 14.795 14.767 14.722 14.665 14.608 14.553 14.513 14.485 14.447 14.395 14.385 14.41 14.42 14.44 14.465 14.48 14.487 14.503 14.54 14.59 14.63 14.657 14.527 14.157 13.857 13.468 13.48 14.08 14.392 14.31 14.198 14.235 14.288 14.35 14.405 14.445 14.482 14.515 14.525 14.515 14.497 14.452 14.382 14.31 14.26 14.25 14.263 14.275 14.288 14.3 14.31 14.32 14.325 14.33 14.325 14.31 14.297 14.277 14.253 14.235 14.225 14.218 14.235 14.272 14.3 14.308 14.353 14.445 14.535 14.62 14.695 14.765 14.84 14.92 14.965 14.977 14.987 14.99 14.995 15.005 15.01 15.015 15.045 15.092 15.135 15.175 15.225 15.295 15.39 15.497 15.577 15.635 15.698 15.762 15.815 15.855 15.905 15.967 16.017 16.05
20.45 20.39 20.328 20.26 20.195 20.13 20.07 20.013 19.948 19.88 19.815 19.763 19.73 19.705 19.667 19.635 19.61 19.585 19.517 19.397 19.275 19.162 19.032 18.87 18.7 18.533 18.39 18.28 18.178 18.075 18 17.93 17.843 17.763 17.74 17.785 17.842 17.867 17.83 17.76 17.69 17.62 17.558 17.513 17.477 17.44 17.402 17.365 17.325 17.29 17.273 17.273 17.275 17.273 17.303 17.367 17.4 17.372 17.335 17.328 17.332 17.3 17.242 17.187 17.125 17.06 17.002 16.98 16.983 16.983 16.995 17.04 17.1 17.155 17.12 16.95 16.73 16.51 16.287 16.055 15.82 15.65 15.573 15.53 15.488 15.433 15.38 15.35 15.325 15.292 15.24 15.18 15.105 15.033 14.993 14.958 14.923 14.89 14.86 14.83 14.802 14.772 14.73 14.675 14.62 14.568 14.528 14.5 14.47 14.432 14.412 14.402 14.388 14.412 14.462 14.5 14.53 14.557 14.59 14.63 14.662 14.667 14.525 14.215 14.09 13.738 13.256 13.573 14.107 14.2 14.173 14.215 14.265 14.322 14.375 14.415 14.455 14.49 14.502 14.495 14.49 14.472 14.42 14.35 14.28 14.23 14.223 14.235 14.245 14.255 14.263 14.27 14.275 14.28 14.275 14.26 14.25 14.235 14.22 14.213 14.205 14.195 14.21 14.248 14.285 14.318 14.375 14.462 14.55 14.635 14.71 14.78 14.85 14.92 14.96 14.97 14.98 14.987 14.995 15.005 15.01 15.015 15.043 15.085 15.125 15.165 15.228 15.325 15.44 15.552 15.63 15.685 15.742 15.797 15.845 15.885 15.93 15.985 16.03 16.06
20.493 20.425 20.36 20.298 20.235 20.17 20.105 20.045 19.98 19.913 19.848 19.783 19.74 19.71 19.66 19.618 19.595 19.577 19.515 19.397 19.272 19.145 19 18.835 18.668 18.52 18.403 18.3 18.2 18.1 18.005 17.915 17.828 17.748 17.74 17.8 17.852 17.875 17.855 17.8 17.73 17.66 17.603 17.565 17.525 17.477 17.435 17.395 17.355 17.312 17.27 17.248 17.243 17.243 17.275 17.34 17.397 17.405 17.375 17.365 17.367 17.352 17.305 17.23 17.152 17.075 17.028 17.02 17.025 17.027 17.032 17.052 17.077 17.097 17.047 16.895 16.69 16.47 16.245 16.013 15.783 15.638 15.585 15.545 15.505 15.473 15.448 15.422 15.395 15.362 15.297 15.207 15.12 15.058 15.02 14.985 14.953 14.923 14.883 14.838 14.805 14.775 14.735 14.68 14.625 14.58 14.545 14.515 14.485 14.442 14.395 14.36 14.333 14.343 14.392 14.445 14.497 14.537 14.572 14.625 14.68 14.672 14.512 14.295 14.297 14.225 13.57 13.335 13.77 14 14.1 14.175 14.223 14.288 14.35 14.39 14.43 14.467 14.485 14.48 14.475 14.465 14.425 14.362 14.295 14.23 14.205 14.215 14.223 14.228 14.23 14.233 14.235 14.235 14.232 14.225 14.215 14.205 14.205 14.207 14.2 14.19 14.205 14.245 14.285 14.325 14.39 14.477 14.562 14.642 14.715 14.785 14.852 14.917 14.955 14.965 14.975 14.985 14.992 15 15.008 15.018 15.055 15.105 15.145 15.188 15.255 15.36 15.48 15.59 15.667 15.722 15.777 15.827 15.872 15.915 15.957 16 16.037 16.07
20.542 20.47 20.4 20.343 20.285 20.222 20.16 20.1 20.035 19.97 19.902 19.818 19.75 19.71 19.655 19.59 19.55 19.525 19.46 19.352 19.232 19.105 18.957 18.795 18.65 18.535 18.435 18.337 18.24 18.14 18.045 17.955 17.862 17.773 17.76 17.815 17.84 17.84 17.85 17.84 17.785 17.715 17.66 17.617 17.555 17.49 17.445 17.405 17.36 17.305 17.255 17.225 17.21 17.21 17.248 17.313 17.375 17.417 17.415 17.402 17.392 17.357 17.305 17.235 17.158 17.09 17.06 17.06 17.062 17.055 17.025 16.978 16.945 16.935 16.895 16.792 16.632 16.43 16.207 15.97 15.78 15.688 15.64 15.6 15.568 15.555 15.537 15.497 15.452 15.405 15.325 15.228 15.16 15.108 15.063 15.03 15 14.975 14.932 14.863 14.808 14.775 14.732 14.678 14.63 14.595 14.565 14.535 14.492 14.427 14.363 14.315 14.28 14.28 14.32 14.37 14.41 14.425 14.458 14.535 14.617 14.65 14.535 14.418 14.47 14.477 14.067 13.383 13.355 13.757 13.972 14.11 14.168 14.255 14.33 14.37 14.413 14.455 14.475 14.47 14.465 14.452 14.412 14.355 14.29 14.225 14.2 14.21 14.212 14.208 14.207 14.207 14.2 14.188 14.188 14.197 14.195 14.185 14.19 14.205 14.207 14.2 14.215 14.255 14.295 14.338 14.403 14.49 14.572 14.645 14.715 14.782 14.848 14.915 14.955 14.965 14.975 14.982 14.988 14.995 15.008 15.028 15.08 15.147 15.195 15.24 15.303 15.39 15.5 15.61 15.69 15.747 15.802 15.852 15.897 15.942 15.977 16 16.032 16.075
20.582 20.508 20.44 20.385 20.33 20.272 20.215 20.157 20.097 20.032 19.96 19.87 19.78 19.715 19.655 19.58 19.518 19.472 19.397 19.293 19.185 19.065 18.923 18.783 18.668 18.565 18.468 18.372 18.277 18.18 18.085 17.992 17.895 17.8 17.78 17.807 17.795 17.778 17.8 17.835 17.825 17.772 17.715 17.655 17.575 17.5 17.45 17.405 17.347 17.283 17.235 17.208 17.188 17.183 17.22 17.285 17.347 17.41 17.44 17.43 17.397 17.353 17.302 17.24 17.165 17.113 17.097 17.087 17.072 17.047 16.99 16.893 16.8 16.758 16.722 16.64 16.522 16.37 16.17 15.953 15.815 15.755 15.703 15.665 15.637 15.602 15.565 15.525 15.47 15.407 15.322 15.233 15.19 15.157 15.113 15.08 15.053 15.03 14.997 14.92 14.83 14.778 14.733 14.685 14.648 14.615 14.585 14.545 14.48 14.405 14.335 14.278 14.235 14.218 14.243 14.277 14.287 14.28 14.315 14.395 14.473 14.545 14.535 14.5 14.512 14.495 14.332 13.675 13.161 13.413 13.807 14.012 14.127 14.235 14.31 14.353 14.398 14.442 14.465 14.46 14.452 14.435 14.395 14.34 14.28 14.22 14.193 14.197 14.195 14.185 14.18 14.172 14.155 14.135 14.135 14.155 14.167 14.165 14.17 14.19 14.205 14.208 14.225 14.265 14.308 14.353 14.415 14.495 14.572 14.645 14.712 14.778 14.845 14.915 14.955 14.965 14.972 14.977 14.983 14.995 15.018 15.045 15.1 15.177 15.24 15.293 15.36 15.44 15.53 15.63 15.71 15.77 15.827 15.877 15.92 15.952 15.97 15.983 16.015 16.065
20.612 20.542 20.48 20.425 20.372 20.318 20.262 20.207 20.152 20.092 20.015 19.917 19.815 19.728 19.652 19.577 19.503 19.432 19.348 19.245 19.145 19.035 18.915 18.805 18.7 18.595 18.5 18.407 18.313 18.217 18.122 18.025 17.925 17.83 17.78 17.76 17.73 17.713 17.735 17.785 17.82 17.812 17.757 17.68 17.595 17.513 17.448 17.39 17.325 17.26 17.218 17.193 17.17 17.158 17.19 17.255 17.32 17.385 17.435 17.435 17.392 17.35 17.3 17.24 17.175 17.13 17.11 17.085 17.057 17.03 16.962 16.847 16.725 16.628 16.558 16.473 16.368 16.255 16.108 15.963 15.877 15.82 15.76 15.702 15.645 15.575 15.523 15.495 15.457 15.402 15.32 15.23 15.195 15.192 15.165 15.13 15.105 15.087 15.065 14.995 14.888 14.798 14.74 14.705 14.67 14.635 14.595 14.532 14.458 14.383 14.308 14.245 14.198 14.165 14.16 14.16 14.15 14.138 14.175 14.258 14.333 14.408 14.467 14.482 14.46 14.425 14.382 14.087 13.393 13.228 13.627 13.88 14.072 14.212 14.29 14.335 14.382 14.43 14.455 14.45 14.44 14.417 14.375 14.323 14.268 14.213 14.183 14.178 14.173 14.163 14.148 14.13 14.108 14.085 14.085 14.108 14.13 14.14 14.15 14.17 14.19 14.208 14.235 14.275 14.32 14.365 14.423 14.495 14.568 14.64 14.707 14.775 14.842 14.91 14.95 14.96 14.967 14.972 14.983 15.005 15.032 15.06 15.115 15.197 15.275 15.345 15.42 15.497 15.575 15.657 15.73 15.79 15.85 15.897 15.927 15.943 15.948 15.955 15.985 16.037
20.627 20.565 20.512 20.465 20.415 20.362 20.307 20.253 20.197 20.127 20.035 19.93 19.825 19.73 19.645 19.57 19.487 19.397 19.32 19.237 19.14 19.035 18.93 18.83 18.728 18.628 18.533 18.44 18.347 18.252 18.155 18.055 17.955 17.858 17.783 17.735 17.698 17.673 17.693 17.745 17.797 17.822 17.782 17.702 17.618 17.535 17.458 17.388 17.32 17.255 17.213 17.188 17.163 17.145 17.165 17.22 17.285 17.35 17.407 17.422 17.39 17.347 17.297 17.237 17.175 17.13 17.1 17.07 17.042 16.995 16.895 16.77 16.652 16.535 16.445 16.373 16.278 16.175 16.065 15.963 15.887 15.825 15.76 15.675 15.585 15.513 15.468 15.442 15.417 15.385 15.317 15.228 15.19 15.202 15.202 15.182 15.16 15.143 15.127 15.065 14.95 14.83 14.755 14.725 14.69 14.65 14.592 14.515 14.438 14.363 14.288 14.218 14.17 14.143 14.12 14.1 14.085 14.078 14.093 14.15 14.23 14.31 14.382 14.41 14.39 14.355 14.315 14.207 13.767 13.185 13.283 13.727 13.95 14.157 14.277 14.318 14.365 14.415 14.44 14.435 14.427 14.412 14.373 14.32 14.265 14.208 14.175 14.165 14.158 14.148 14.128 14.105 14.083 14.068 14.075 14.098 14.118 14.125 14.135 14.155 14.178 14.2 14.232 14.275 14.32 14.365 14.423 14.495 14.565 14.635 14.69 14.745 14.812 14.877 14.915 14.925 14.935 14.95 14.977 15.01 15.037 15.065 15.12 15.205 15.285 15.362 15.45 15.532 15.61 15.685 15.75 15.81 15.87 15.915 15.935 15.945 15.95 15.945 15.935 15.96
20.632 20.57 20.528 20.497 20.455 20.405 20.352 20.297 20.227 20.132 20.028 19.92 19.815 19.72 19.635 19.555 19.457 19.353 19.285 19.232 19.152 19.052 18.95 18.85 18.753 18.66 18.567 18.473 18.38 18.287 18.187 18.083 17.98 17.883 17.81 17.76 17.715 17.68 17.69 17.74 17.795 17.82 17.785 17.72 17.642 17.56 17.48 17.405 17.335 17.273 17.228 17.195 17.168 17.153 17.163 17.198 17.25 17.31 17.37 17.397 17.382 17.345 17.292 17.233 17.17 17.123 17.09 17.06 17.015 16.922 16.795 16.67 16.55 16.453 16.395 16.35 16.277 16.18 16.073 15.955 15.85 15.775 15.71 15.615 15.515 15.45 15.413 15.387 15.36 15.332 15.287 15.215 15.183 15.195 15.205 15.217 15.217 15.2 15.177 15.11 14.99 14.86 14.778 14.742 14.7 14.65 14.587 14.51 14.43 14.353 14.278 14.21 14.165 14.14 14.12 14.103 14.095 14.1 14.095 14.1 14.153 14.232 14.3 14.325 14.315 14.285 14.245 14.205 14.01 13.39 13.195 13.562 13.84 14.14 14.287 14.308 14.343 14.39 14.415 14.413 14.415 14.417 14.385 14.33 14.272 14.208 14.17 14.16 14.15 14.14 14.122 14.1 14.088 14.088 14.1 14.12 14.13 14.125 14.128 14.148 14.17 14.185 14.215 14.262 14.31 14.355 14.415 14.492 14.565 14.632 14.672 14.7 14.755 14.82 14.855 14.865 14.885 14.92 14.962 15.002 15.032 15.063 15.12 15.2 15.267 15.338 15.432 15.535 15.625 15.702 15.77 15.827 15.885 15.932 15.955 15.962 15.962 15.95 15.888 15.853
20.638 20.575 20.535 20.512 20.482 20.442 20.395 20.33 20.235 20.127 20.022 19.915 19.808 19.71 19.622 19.527 19.417 19.308 19.233 19.19 19.137 19.062 18.972 18.875 18.78 18.69 18.6 18.507 18.413 18.32 18.22 18.113 18.008 17.908 17.838 17.79 17.745 17.71 17.713 17.753 17.802 17.817 17.775 17.72 17.657 17.583 17.505 17.428 17.355 17.295 17.25 17.213 17.18 17.165 17.175 17.2 17.235 17.28 17.335 17.362 17.357 17.337 17.29 17.23 17.17 17.115 17.075 17.035 16.955 16.83 16.695 16.57 16.473 16.418 16.375 16.33 16.28 16.2 16.087 15.96 15.835 15.735 15.66 15.56 15.45 15.388 15.355 15.325 15.29 15.265 15.25 15.208 15.175 15.178 15.185 15.212 15.247 15.252 15.215 15.127 15.007 14.885 14.798 14.747 14.697 14.645 14.587 14.512 14.43 14.35 14.28 14.225 14.178 14.143 14.12 14.113 14.123 14.132 14.125 14.105 14.105 14.158 14.217 14.235 14.23 14.21 14.175 14.135 14.06 13.757 13.208 13.293 13.895 14.212 14.315 14.318 14.33 14.363 14.387 14.395 14.41 14.422 14.397 14.34 14.275 14.205 14.165 14.155 14.145 14.132 14.118 14.105 14.105 14.113 14.122 14.132 14.13 14.12 14.123 14.14 14.155 14.168 14.198 14.245 14.295 14.345 14.408 14.485 14.56 14.625 14.665 14.68 14.708 14.76 14.797 14.818 14.855 14.9 14.945 14.99 15.025 15.06 15.117 15.182 15.235 15.298 15.393 15.51 15.62 15.712 15.785 15.842 15.9 15.95 15.972 15.972 15.962 15.947 15.877 15.783
20.648 20.585 20.545 20.52 20.495 20.47 20.42 20.332 20.225 20.115 20.01 19.907 19.802 19.7 19.6 19.49 19.373 19.258 19.178 19.138 19.1 19.052 18.982 18.895 18.805 18.717 18.63 18.54 18.448 18.355 18.255 18.148 18.043 17.938 17.865 17.82 17.775 17.74 17.74 17.773 17.812 17.817 17.773 17.72 17.668 17.608 17.535 17.455 17.38 17.32 17.278 17.243 17.205 17.185 17.198 17.223 17.25 17.283 17.318 17.333 17.328 17.32 17.29 17.233 17.17 17.11 17.057 16.985 16.868 16.733 16.598 16.49 16.44 16.415 16.373 16.318 16.27 16.21 16.105 15.973 15.84 15.715 15.615 15.513 15.403 15.35 15.338 15.323 15.305 15.3 15.285 15.233 15.18 15.16 15.165 15.19 15.24 15.277 15.237 15.132 15.015 14.898 14.803 14.74 14.69 14.64 14.587 14.517 14.433 14.355 14.295 14.245 14.195 14.15 14.13 14.138 14.155 14.165 14.155 14.135 14.11 14.11 14.135 14.145 14.14 14.13 14.13 14.133 14.128 13.952 13.253 13.191 13.962 14.31 14.347 14.345 14.345 14.355 14.37 14.385 14.407 14.427 14.405 14.34 14.272 14.205 14.163 14.15 14.14 14.128 14.12 14.123 14.13 14.137 14.14 14.135 14.125 14.113 14.113 14.125 14.138 14.153 14.183 14.23 14.28 14.335 14.4 14.475 14.55 14.615 14.652 14.667 14.685 14.715 14.753 14.79 14.835 14.88 14.925 14.97 15.01 15.052 15.102 15.153 15.2 15.258 15.35 15.467 15.585 15.692 15.775 15.842 15.907 15.965 15.985 15.972 15.958 15.942 15.89 15.763
20.675 20.608 20.563 20.538 20.512 20.475 20.405 20.307 20.2 20.09 19.985 19.885 19.785 19.69 19.588 19.473 19.355 19.235 19.145 19.1 19.065 19.025 18.965 18.882 18.798 18.725 18.657 18.577 18.49 18.397 18.298 18.19 18.083 17.975 17.898 17.853 17.807 17.763 17.758 17.79 17.82 17.822 17.792 17.75 17.7 17.645 17.578 17.5 17.423 17.36 17.318 17.283 17.25 17.238 17.255 17.28 17.305 17.325 17.325 17.32 17.315 17.307 17.287 17.242 17.183 17.12 17.05 16.948 16.818 16.69 16.575 16.5 16.465 16.433 16.395 16.35 16.303 16.24 16.152 16.03 15.885 15.743 15.608 15.503 15.435 15.413 15.415 15.42 15.422 15.405 15.35 15.273 15.203 15.158 15.148 15.168 15.215 15.252 15.227 15.137 15.02 14.9 14.803 14.735 14.68 14.63 14.58 14.517 14.438 14.363 14.313 14.272 14.225 14.175 14.16 14.175 14.185 14.185 14.172 14.155 14.13 14.108 14.113 14.125 14.125 14.125 14.185 14.297 14.372 14.22 13.668 13.398 13.847 14.272 14.35 14.345 14.345 14.342 14.35 14.37 14.395 14.415 14.39 14.327 14.262 14.198 14.163 14.155 14.145 14.135 14.135 14.145 14.152 14.157 14.155 14.145 14.133 14.115 14.11 14.12 14.135 14.15 14.18 14.23 14.278 14.325 14.385 14.457 14.532 14.597 14.632 14.65 14.667 14.685 14.718 14.762 14.81 14.857 14.902 14.945 14.988 15.032 15.078 15.125 15.175 15.225 15.305 15.417 15.532 15.642 15.732 15.805 15.88 15.962 15.992 15.973 15.958 15.94 15.865 15.71
20.71 20.638 20.588 20.56 20.517 20.447 20.36 20.267 20.167 20.06 19.953 19.853 19.763 19.685 19.592 19.478 19.36 19.24 19.143 19.08 19.035 18.995 18.932 18.85 18.78 18.73 18.68 18.615 18.535 18.442 18.345 18.24 18.125 18.01 17.93 17.882 17.832 17.775 17.765 17.797 17.817 17.822 17.81 17.782 17.745 17.695 17.63 17.555 17.478 17.413 17.365 17.335 17.32 17.318 17.333 17.357 17.37 17.357 17.332 17.32 17.315 17.302 17.277 17.242 17.2 17.145 17.067 16.958 16.84 16.738 16.653 16.595 16.553 16.508 16.47 16.435 16.377 16.29 16.212 16.127 15.992 15.84 15.693 15.593 15.555 15.545 15.547 15.547 15.522 15.462 15.385 15.308 15.233 15.175 15.143 15.143 15.17 15.18 15.165 15.117 15.022 14.905 14.808 14.735 14.673 14.62 14.567 14.51 14.442 14.37 14.323 14.292 14.255 14.213 14.198 14.205 14.2 14.185 14.172 14.16 14.138 14.128 14.153 14.18 14.188 14.195 14.29 14.472 14.615 14.48 14.01 13.448 13.545 14.122 14.32 14.315 14.312 14.305 14.318 14.347 14.372 14.385 14.36 14.307 14.247 14.183 14.158 14.165 14.162 14.155 14.155 14.162 14.168 14.175 14.175 14.162 14.145 14.123 14.118 14.13 14.145 14.16 14.19 14.237 14.277 14.315 14.368 14.435 14.507 14.572 14.61 14.627 14.64 14.653 14.683 14.73 14.78 14.83 14.875 14.918 14.962 15.008 15.055 15.105 15.15 15.19 15.258 15.363 15.475 15.585 15.675 15.75 15.845 15.957 16 15.978 15.96 15.942 15.827 15.648
20.74 20.665 20.607 20.56 20.487 20.403 20.315 20.222 20.127 20.025 19.92 19.83 19.755 19.687 19.6 19.485 19.365 19.245 19.148 19.075 19.013 18.965 18.903 18.833 18.788 18.75 18.7 18.64 18.572 18.49 18.392 18.282 18.16 18.04 17.96 17.907 17.847 17.785 17.773 17.797 17.812 17.82 17.81 17.79 17.767 17.735 17.68 17.608 17.535 17.468 17.42 17.403 17.4 17.4 17.405 17.407 17.39 17.355 17.328 17.32 17.312 17.292 17.263 17.23 17.2 17.16 17.097 17.008 16.915 16.835 16.76 16.705 16.665 16.622 16.58 16.522 16.432 16.33 16.255 16.2 16.11 15.972 15.84 15.755 15.705 15.68 15.67 15.64 15.575 15.497 15.42 15.342 15.265 15.203 15.158 15.128 15.11 15.093 15.075 15.055 15.007 14.91 14.813 14.738 14.668 14.608 14.553 14.497 14.44 14.375 14.325 14.298 14.27 14.24 14.222 14.212 14.197 14.18 14.168 14.16 14.145 14.153 14.195 14.237 14.255 14.268 14.373 14.555 14.68 14.63 14.27 13.413 13.298 14.015 14.275 14.282 14.275 14.265 14.28 14.317 14.347 14.357 14.33 14.28 14.227 14.17 14.148 14.162 14.172 14.172 14.173 14.177 14.185 14.192 14.19 14.175 14.152 14.128 14.123 14.137 14.155 14.17 14.2 14.24 14.27 14.303 14.353 14.418 14.485 14.547 14.585 14.6 14.61 14.623 14.653 14.7 14.75 14.803 14.85 14.893 14.938 14.985 15.032 15.077 15.117 15.155 15.215 15.31 15.42 15.527 15.62 15.718 15.84 15.965 16.01 15.985 15.965 15.947 15.82 15.645
20.762 20.685 20.61 20.532 20.445 20.358 20.27 20.178 20.085 19.99 19.9 19.828 19.76 19.695 19.61 19.492 19.37 19.25 19.153 19.08 19.01 18.945 18.888 18.84 18.802 18.765 18.715 18.655 18.595 18.527 18.432 18.315 18.193 18.073 17.988 17.927 17.863 17.798 17.775 17.793 17.808 17.817 17.81 17.793 17.775 17.757 17.735 17.682 17.608 17.535 17.495 17.49 17.49 17.487 17.46 17.418 17.382 17.348 17.325 17.315 17.3 17.278 17.25 17.22 17.188 17.155 17.122 17.077 17.015 16.94 16.87 16.817 16.775 16.73 16.667 16.575 16.47 16.368 16.293 16.245 16.187 16.092 15.995 15.927 15.862 15.805 15.752 15.685 15.605 15.53 15.455 15.375 15.295 15.228 15.18 15.135 15.09 15.053 15.02 14.99 14.958 14.897 14.818 14.743 14.668 14.598 14.54 14.485 14.43 14.373 14.328 14.305 14.283 14.257 14.233 14.21 14.193 14.175 14.16 14.155 14.158 14.185 14.235 14.285 14.317 14.343 14.455 14.597 14.645 14.64 14.44 13.695 13.408 13.907 14.2 14.25 14.24 14.23 14.245 14.285 14.322 14.332 14.3 14.25 14.2 14.16 14.15 14.163 14.175 14.182 14.185 14.19 14.2 14.207 14.202 14.185 14.16 14.133 14.128 14.143 14.16 14.178 14.205 14.237 14.265 14.293 14.338 14.402 14.467 14.525 14.557 14.57 14.583 14.598 14.625 14.67 14.723 14.78 14.83 14.87 14.915 14.963 15.005 15.045 15.085 15.123 15.173 15.26 15.37 15.478 15.588 15.712 15.847 15.975 16.02 15.995 15.975 15.955 15.832 15.67
20.77 20.69 20.605 20.515 20.428 20.348 20.265 20.175 20.085 19.993 19.908 19.838 19.773 19.707 19.62 19.503 19.38 19.263 19.168 19.095 19.025 18.948 18.885 18.845 18.805 18.765 18.715 18.655 18.598 18.55 18.47 18.35 18.23 18.118 18.02 17.943 17.88 17.82 17.793 17.803 17.815 17.825 17.82 17.805 17.79 17.775 17.775 17.762 17.705 17.63 17.595 17.595 17.595 17.587 17.52 17.428 17.375 17.343 17.323 17.305 17.285 17.265 17.24 17.207 17.173 17.153 17.145 17.125 17.082 17.027 16.972 16.917 16.865 16.807 16.725 16.62 16.515 16.408 16.328 16.28 16.23 16.17 16.102 16.032 15.96 15.887 15.795 15.7 15.622 15.547 15.47 15.39 15.315 15.255 15.205 15.155 15.11 15.065 15.02 14.975 14.933 14.89 14.825 14.75 14.678 14.608 14.553 14.5 14.445 14.393 14.348 14.32 14.297 14.273 14.245 14.218 14.195 14.175 14.163 14.163 14.175 14.213 14.267 14.322 14.37 14.418 14.507 14.572 14.575 14.57 14.507 14.082 13.59 13.743 14.122 14.225 14.217 14.205 14.22 14.26 14.3 14.31 14.275 14.228 14.185 14.168 14.175 14.185 14.192 14.182 14.172 14.18 14.187 14.195 14.197 14.185 14.162 14.135 14.13 14.147 14.163 14.18 14.205 14.235 14.265 14.29 14.323 14.378 14.44 14.497 14.53 14.54 14.555 14.575 14.608 14.658 14.715 14.775 14.825 14.865 14.908 14.95 14.99 15.03 15.07 15.105 15.148 15.223 15.325 15.435 15.555 15.687 15.825 15.955 16.015 16.005 15.985 15.965 15.857 15.708
20.765 20.685 20.6 20.513 20.438 20.377 20.305 20.215 20.122 20.025 19.935 19.858 19.788 19.722 19.632 19.515 19.398 19.285 19.19 19.115 19.04 18.955 18.885 18.838 18.795 18.755 18.705 18.648 18.603 18.575 18.507 18.39 18.283 18.19 18.075 17.968 17.898 17.85 17.833 17.83 17.835 17.845 17.84 17.823 17.808 17.793 17.793 17.807 17.795 17.74 17.705 17.705 17.705 17.692 17.612 17.485 17.388 17.338 17.315 17.295 17.275 17.255 17.227 17.193 17.17 17.17 17.167 17.145 17.118 17.095 17.052 16.987 16.925 16.862 16.777 16.67 16.56 16.448 16.365 16.315 16.265 16.212 16.145 16.07 16.005 15.94 15.837 15.718 15.628 15.55 15.473 15.398 15.338 15.295 15.242 15.18 15.13 15.085 15.04 14.995 14.947 14.9 14.837 14.763 14.693 14.63 14.58 14.537 14.487 14.435 14.385 14.345 14.315 14.29 14.265 14.233 14.205 14.185 14.178 14.187 14.2 14.23 14.285 14.347 14.407 14.465 14.512 14.533 14.538 14.543 14.547 14.337 13.55 13.45 14.057 14.197 14.2 14.19 14.205 14.242 14.277 14.29 14.26 14.218 14.195 14.2 14.215 14.225 14.21 14.16 14.135 14.145 14.152 14.158 14.167 14.172 14.16 14.135 14.13 14.15 14.167 14.185 14.208 14.235 14.265 14.29 14.315 14.353 14.405 14.465 14.5 14.51 14.53 14.563 14.608 14.665 14.725 14.785 14.835 14.875 14.912 14.948 14.988 15.03 15.07 15.108 15.15 15.208 15.29 15.395 15.51 15.638 15.775 15.902 15.977 16 15.995 15.975 15.88 15.743
20.75 20.675 20.595 20.523 20.465 20.415 20.345 20.252 20.155 20.055 19.965 19.885 19.808 19.74 19.65 19.533 19.42 19.308 19.213 19.132 19.045 18.955 18.885 18.835 18.788 18.745 18.698 18.653 18.625 18.605 18.542 18.443 18.358 18.277 18.152 18.01 17.918 17.883 17.875 17.865 17.863 17.867 17.862 17.845 17.828 17.81 17.81 17.827 17.84 17.83 17.807 17.792 17.775 17.747 17.667 17.54 17.418 17.34 17.308 17.285 17.265 17.245 17.215 17.188 17.185 17.195 17.195 17.183 17.17 17.162 17.125 17.052 16.983 16.917 16.83 16.717 16.6 16.485 16.403 16.35 16.3 16.247 16.183 16.115 16.057 15.995 15.895 15.765 15.648 15.555 15.48 15.418 15.375 15.34 15.285 15.218 15.158 15.105 15.057 15.01 14.96 14.91 14.85 14.78 14.715 14.655 14.605 14.567 14.525 14.475 14.427 14.382 14.34 14.31 14.282 14.248 14.218 14.198 14.195 14.21 14.227 14.248 14.293 14.357 14.422 14.477 14.51 14.535 14.555 14.57 14.585 14.522 13.713 13.403 13.99 14.157 14.175 14.175 14.19 14.222 14.25 14.267 14.25 14.225 14.225 14.24 14.255 14.245 14.19 14.12 14.095 14.105 14.115 14.122 14.132 14.145 14.147 14.133 14.13 14.15 14.17 14.19 14.212 14.238 14.265 14.29 14.315 14.345 14.383 14.435 14.47 14.488 14.52 14.56 14.61 14.67 14.732 14.795 14.845 14.882 14.915 14.945 14.985 15.03 15.072 15.113 15.155 15.208 15.27 15.358 15.47 15.595 15.725 15.845 15.92 15.962 15.99 15.985 15.902 15.78
20.73 20.665 20.6 20.547 20.5 20.45 20.38 20.285 20.185 20.083 19.993 19.915 19.835 19.76 19.667 19.555 19.445 19.333 19.233 19.142 19.05 18.96 18.888 18.835 18.785 18.74 18.703 18.675 18.655 18.635 18.585 18.51 18.44 18.362 18.235 18.07 17.955 17.918 17.91 17.902 17.897 17.892 17.885 17.87 17.85 17.83 17.827 17.837 17.847 17.857 17.847 17.82 17.785 17.745 17.665 17.545 17.435 17.36 17.318 17.283 17.255 17.233 17.208 17.198 17.205 17.215 17.222 17.227 17.227 17.225 17.19 17.117 17.045 16.972 16.877 16.76 16.638 16.52 16.438 16.385 16.338 16.29 16.233 16.17 16.115 16.055 15.955 15.825 15.693 15.573 15.495 15.45 15.415 15.382 15.33 15.262 15.195 15.13 15.075 15.025 14.975 14.925 14.868 14.805 14.745 14.683 14.63 14.59 14.547 14.5 14.455 14.412 14.367 14.332 14.303 14.27 14.238 14.218 14.22 14.233 14.25 14.268 14.303 14.363 14.427 14.48 14.515 14.547 14.577 14.602 14.622 14.627 14.102 13.66 13.915 14.107 14.135 14.15 14.17 14.198 14.223 14.245 14.25 14.252 14.265 14.277 14.275 14.23 14.155 14.085 14.06 14.07 14.078 14.085 14.095 14.108 14.12 14.122 14.13 14.15 14.17 14.19 14.215 14.24 14.263 14.288 14.315 14.345 14.375 14.413 14.448 14.48 14.52 14.563 14.613 14.673 14.738 14.8 14.85 14.885 14.915 14.948 14.988 15.03 15.073 15.115 15.16 15.213 15.268 15.333 15.43 15.555 15.677 15.787 15.86 15.902 15.945 15.975 15.927 15.82
20.715 20.658 20.605 20.557 20.51 20.46 20.395 20.305 20.205 20.103 20.013 19.937 19.86 19.777 19.68 19.57 19.46 19.353 19.25 19.155 19.065 18.968 18.885 18.83 18.783 18.74 18.708 18.685 18.667 18.65 18.61 18.545 18.477 18.405 18.28 18.113 17.983 17.933 17.925 17.917 17.912 17.905 17.895 17.877 17.857 17.84 17.825 17.823 17.83 17.832 17.822 17.802 17.772 17.735 17.655 17.543 17.455 17.393 17.345 17.303 17.263 17.23 17.213 17.215 17.222 17.23 17.24 17.255 17.267 17.27 17.235 17.163 17.095 17.03 16.94 16.82 16.69 16.568 16.488 16.445 16.405 16.36 16.3 16.235 16.177 16.112 16.007 15.872 15.735 15.6 15.518 15.485 15.455 15.425 15.375 15.305 15.235 15.163 15.103 15.055 15.005 14.955 14.9 14.84 14.778 14.723 14.655 14.59 14.545 14.495 14.45 14.41 14.37 14.348 14.335 14.31 14.275 14.258 14.265 14.278 14.293 14.308 14.328 14.373 14.432 14.477 14.512 14.545 14.578 14.612 14.642 14.667 14.37 13.72 13.705 14.055 14.093 14.13 14.16 14.178 14.203 14.227 14.245 14.257 14.272 14.285 14.27 14.215 14.14 14.07 14.045 14.053 14.058 14.063 14.07 14.083 14.095 14.108 14.125 14.145 14.165 14.188 14.212 14.237 14.26 14.285 14.318 14.35 14.38 14.41 14.448 14.493 14.535 14.578 14.625 14.683 14.748 14.81 14.857 14.893 14.925 14.96 15.003 15.045 15.085 15.123 15.165 15.218 15.272 15.323 15.388 15.49 15.607 15.715 15.785 15.828 15.875 15.935 15.94 15.86
20.71 20.653 20.6 20.55 20.5 20.45 20.387 20.307 20.217 20.12 20.03 19.953 19.875 19.792 19.695 19.585 19.475 19.37 19.273 19.177 19.08 18.968 18.875 18.823 18.78 18.743 18.71 18.683 18.663 18.645 18.605 18.54 18.47 18.402 18.285 18.128 18 17.935 17.923 17.915 17.91 17.907 17.895 17.873 17.853 17.835 17.813 17.798 17.798 17.797 17.79 17.775 17.752 17.722 17.647 17.553 17.485 17.428 17.378 17.335 17.29 17.25 17.235 17.238 17.24 17.243 17.25 17.27 17.295 17.305 17.27 17.205 17.15 17.097 17.02 16.907 16.778 16.655 16.575 16.535 16.5 16.452 16.385 16.31 16.245 16.17 16.052 15.908 15.765 15.628 15.543 15.512 15.485 15.457 15.412 15.343 15.27 15.195 15.135 15.092 15.045 14.995 14.94 14.88 14.828 14.795 14.717 14.603 14.528 14.475 14.43 14.39 14.365 14.368 14.372 14.357 14.325 14.31 14.322 14.34 14.357 14.37 14.378 14.398 14.435 14.473 14.51 14.545 14.575 14.608 14.642 14.667 14.512 13.713 13.52 14.002 14.07 14.13 14.16 14.168 14.188 14.212 14.227 14.235 14.248 14.262 14.252 14.207 14.142 14.07 14.04 14.047 14.05 14.05 14.055 14.065 14.078 14.092 14.11 14.13 14.155 14.185 14.21 14.235 14.263 14.29 14.325 14.36 14.392 14.425 14.463 14.512 14.56 14.6 14.648 14.703 14.763 14.827 14.875 14.908 14.945 14.985 15.027 15.07 15.105 15.13 15.168 15.222 15.272 15.312 15.358 15.428 15.523 15.627 15.7 15.75 15.815 15.89 15.935 15.895
20.702 20.647 20.593 20.54 20.49 20.437 20.372 20.3 20.225 20.137 20.05 19.97 19.888 19.805 19.71 19.603 19.497 19.393 19.295 19.195 19.082 18.96 18.868 18.82 18.783 18.75 18.72 18.69 18.663 18.64 18.597 18.532 18.465 18.4 18.29 18.15 18.035 17.95 17.92 17.915 17.91 17.91 17.895 17.87 17.85 17.83 17.807 17.785 17.77 17.765 17.758 17.743 17.725 17.705 17.653 17.58 17.52 17.463 17.41 17.365 17.313 17.273 17.265 17.263 17.26 17.26 17.265 17.28 17.305 17.332 17.315 17.263 17.215 17.167 17.095 16.995 16.88 16.768 16.688 16.638 16.6 16.547 16.475 16.395 16.317 16.227 16.1 15.948 15.798 15.655 15.568 15.538 15.513 15.49 15.455 15.387 15.305 15.225 15.165 15.125 15.08 15.033 14.983 14.935 14.905 14.885 14.812 14.675 14.545 14.46 14.41 14.383 14.385 14.4 14.405 14.397 14.373 14.36 14.375 14.395 14.417 14.437 14.445 14.45 14.463 14.48 14.508 14.543 14.575 14.605 14.64 14.622 14.475 13.9 13.663 13.952 14.065 14.14 14.165 14.168 14.178 14.197 14.21 14.215 14.225 14.237 14.225 14.185 14.137 14.073 14.038 14.04 14.035 14.03 14.035 14.048 14.062 14.075 14.09 14.115 14.15 14.185 14.212 14.24 14.27 14.3 14.333 14.367 14.405 14.44 14.478 14.527 14.577 14.622 14.672 14.725 14.78 14.842 14.892 14.928 14.968 15.01 15.05 15.087 15.115 15.135 15.173 15.222 15.262 15.298 15.343 15.4 15.468 15.55 15.625 15.693 15.77 15.852 15.917 15.912
20.685 20.637 20.587 20.535 20.483 20.425 20.36 20.29 20.22 20.145 20.065 19.985 19.902 19.817 19.722 19.62 19.52 19.415 19.31 19.2 19.078 18.953 18.865 18.823 18.79 18.757 18.725 18.695 18.665 18.637 18.592 18.528 18.463 18.397 18.302 18.185 18.072 17.968 17.92 17.918 17.915 17.913 17.895 17.87 17.85 17.828 17.803 17.78 17.758 17.745 17.738 17.728 17.72 17.708 17.675 17.62 17.56 17.5 17.445 17.39 17.328 17.293 17.29 17.288 17.285 17.285 17.288 17.298 17.328 17.375 17.38 17.333 17.28 17.232 17.165 17.072 16.973 16.88 16.805 16.743 16.697 16.642 16.565 16.485 16.392 16.287 16.16 16.005 15.848 15.695 15.598 15.565 15.545 15.525 15.502 15.445 15.355 15.268 15.205 15.163 15.118 15.075 15.03 15 14.987 14.972 14.907 14.772 14.615 14.478 14.408 14.403 14.418 14.43 14.435 14.435 14.42 14.413 14.43 14.45 14.475 14.497 14.51 14.517 14.522 14.523 14.528 14.545 14.573 14.605 14.62 14.527 14.327 14.04 13.767 13.83 14.052 14.147 14.175 14.175 14.177 14.185 14.193 14.198 14.205 14.21 14.19 14.15 14.11 14.063 14.033 14.025 14.018 14.013 14.018 14.032 14.045 14.058 14.078 14.107 14.145 14.18 14.212 14.245 14.275 14.305 14.337 14.372 14.41 14.445 14.485 14.535 14.585 14.637 14.69 14.742 14.8 14.857 14.907 14.95 14.99 15.032 15.07 15.097 15.12 15.14 15.173 15.212 15.248 15.285 15.33 15.388 15.45 15.513 15.58 15.658 15.74 15.822 15.89 15.912
20.66 20.625 20.582 20.53 20.478 20.423 20.36 20.29 20.22 20.145 20.065 19.985 19.905 19.82 19.727 19.63 19.53 19.427 19.322 19.212 19.09 18.965 18.873 18.825 18.792 18.757 18.72 18.685 18.652 18.62 18.582 18.527 18.465 18.4 18.312 18.205 18.093 17.993 17.953 17.955 17.955 17.945 17.913 17.878 17.855 17.833 17.81 17.788 17.763 17.753 17.755 17.755 17.753 17.74 17.71 17.665 17.608 17.545 17.488 17.425 17.373 17.335 17.315 17.315 17.315 17.315 17.318 17.335 17.378 17.432 17.447 17.407 17.355 17.305 17.24 17.153 17.06 16.98 16.915 16.852 16.8 16.74 16.647 16.537 16.43 16.335 16.225 16.082 15.925 15.765 15.65 15.6 15.575 15.555 15.537 15.497 15.42 15.33 15.265 15.223 15.18 15.138 15.085 15.038 15.012 15 14.935 14.795 14.647 14.515 14.448 14.453 14.458 14.463 14.468 14.47 14.465 14.468 14.49 14.51 14.53 14.542 14.555 14.567 14.575 14.58 14.58 14.58 14.59 14.61 14.567 14.42 14.233 14.045 13.575 13.585 14.045 14.142 14.165 14.165 14.165 14.17 14.18 14.188 14.193 14.192 14.17 14.13 14.09 14.053 14.03 14.02 14.013 14.005 14.005 14.018 14.03 14.043 14.063 14.09 14.125 14.16 14.192 14.227 14.26 14.295 14.33 14.36 14.395 14.43 14.47 14.52 14.57 14.627 14.685 14.74 14.8 14.86 14.915 14.962 15.005 15.045 15.077 15.1 15.12 15.14 15.168 15.203 15.238 15.275 15.325 15.39 15.455 15.515 15.57 15.638 15.72 15.8 15.862 15.897
20.638 20.615 20.577 20.525 20.478 20.43 20.37 20.3 20.227 20.145 20.06 19.98 19.897 19.81 19.72 19.627 19.53 19.43 19.33 19.227 19.115 18.995 18.895 18.833 18.79 18.755 18.712 18.665 18.625 18.59 18.56 18.525 18.475 18.41 18.32 18.21 18.115 18.045 18.018 18.022 18.025 18.007 17.96 17.905 17.868 17.845 17.825 17.802 17.78 17.773 17.79 17.805 17.8 17.78 17.745 17.705 17.657 17.6 17.54 17.488 17.457 17.41 17.358 17.343 17.34 17.34 17.355 17.393 17.44 17.492 17.512 17.48 17.43 17.38 17.317 17.237 17.15 17.068 17.005 16.952 16.89 16.797 16.672 16.545 16.443 16.36 16.272 16.157 16.012 15.855 15.73 15.655 15.608 15.58 15.562 15.54 15.487 15.405 15.34 15.297 15.255 15.21 15.15 15.08 15.023 14.985 14.907 14.778 14.658 14.56 14.518 14.517 14.5 14.498 14.517 14.525 14.52 14.525 14.545 14.562 14.567 14.568 14.583 14.602 14.615 14.625 14.63 14.63 14.627 14.625 14.562 14.425 14.273 14.115 13.658 13.638 14.045 14.115 14.135 14.135 14.14 14.153 14.167 14.18 14.187 14.187 14.165 14.125 14.088 14.055 14.035 14.025 14.015 14.005 14 14.005 14.015 14.028 14.043 14.063 14.093 14.127 14.16 14.193 14.23 14.275 14.312 14.338 14.368 14.4 14.44 14.49 14.543 14.605 14.665 14.72 14.785 14.857 14.92 14.967 15.007 15.042 15.072 15.097 15.12 15.14 15.165 15.198 15.23 15.265 15.32 15.392 15.462 15.525 15.575 15.628 15.7 15.78 15.837 15.87
20.628 20.61 20.575 20.525 20.48 20.437 20.38 20.307 20.227 20.142 20.06 19.977 19.89 19.8 19.71 19.62 19.527 19.43 19.33 19.232 19.132 19.02 18.923 18.853 18.795 18.753 18.707 18.653 18.603 18.563 18.533 18.507 18.475 18.42 18.333 18.238 18.168 18.11 18.078 18.083 18.092 18.072 18.02 17.955 17.895 17.858 17.835 17.815 17.795 17.783 17.81 17.845 17.842 17.815 17.775 17.735 17.695 17.65 17.6 17.565 17.552 17.505 17.425 17.378 17.365 17.375 17.408 17.455 17.505 17.555 17.577 17.552 17.505 17.455 17.395 17.32 17.237 17.153 17.085 17.025 16.927 16.79 16.655 16.553 16.468 16.385 16.302 16.21 16.09 15.943 15.823 15.74 15.665 15.613 15.588 15.57 15.54 15.48 15.418 15.373 15.328 15.28 15.22 15.15 15.072 14.995 14.907 14.805 14.705 14.62 14.582 14.565 14.53 14.528 14.565 14.59 14.59 14.585 14.59 14.595 14.587 14.588 14.608 14.632 14.652 14.665 14.667 14.662 14.655 14.645 14.6 14.502 14.382 14.24 14.002 13.862 13.965 14.075 14.1 14.105 14.12 14.137 14.153 14.167 14.18 14.182 14.16 14.123 14.088 14.055 14.035 14.025 14.015 14.005 14 14 14.003 14.013 14.028 14.043 14.063 14.093 14.128 14.165 14.21 14.26 14.297 14.32 14.343 14.37 14.408 14.46 14.52 14.585 14.648 14.708 14.78 14.86 14.925 14.97 15.005 15.037 15.067 15.092 15.117 15.14 15.165 15.195 15.225 15.258 15.313 15.39 15.467 15.535 15.585 15.63 15.688 15.757 15.81 15.837
20.617 20.605 20.572 20.527 20.485 20.445 20.387 20.31 20.225 20.14 20.057 19.97 19.877 19.785 19.697 19.61 19.52 19.427 19.33 19.235 19.14 19.037 18.948 18.877 18.812 18.753 18.7 18.645 18.59 18.543 18.508 18.483 18.457 18.42 18.355 18.285 18.225 18.165 18.133 18.137 18.15 18.127 18.07 18.005 17.935 17.878 17.845 17.825 17.805 17.79 17.818 17.872 17.88 17.845 17.805 17.765 17.722 17.68 17.653 17.647 17.647 17.602 17.515 17.435 17.403 17.425 17.467 17.512 17.557 17.597 17.612 17.597 17.57 17.532 17.472 17.395 17.317 17.235 17.155 17.057 16.918 16.775 16.663 16.575 16.493 16.41 16.328 16.243 16.147 16.025 15.915 15.835 15.75 15.67 15.62 15.595 15.575 15.54 15.493 15.447 15.402 15.35 15.277 15.195 15.105 15.007 14.918 14.832 14.743 14.668 14.625 14.592 14.555 14.553 14.59 14.617 14.622 14.617 14.612 14.605 14.6 14.61 14.63 14.652 14.677 14.69 14.687 14.68 14.67 14.66 14.62 14.543 14.457 14.34 14.167 13.768 13.74 14.04 14.07 14.083 14.1 14.12 14.138 14.153 14.165 14.172 14.157 14.125 14.092 14.058 14.035 14.025 14.015 14.005 14 14 14 14.003 14.013 14.028 14.045 14.068 14.103 14.15 14.2 14.247 14.28 14.3 14.32 14.343 14.378 14.433 14.497 14.565 14.635 14.707 14.785 14.865 14.927 14.967 15 15.03 15.06 15.087 15.112 15.137 15.165 15.195 15.225 15.255 15.308 15.385 15.467 15.54 15.592 15.637 15.685 15.737 15.78 15.805
20.567 20.565 20.545 20.507 20.465 20.422 20.367 20.295 20.21 20.125 20.042 19.955 19.863 19.77 19.68 19.59 19.5 19.41 19.315 19.22 19.125 19.032 18.955 18.887 18.82 18.753 18.693 18.638 18.583 18.533 18.498 18.473 18.445 18.417 18.375 18.315 18.255 18.203 18.178 18.18 18.185 18.155 18.092 18.027 17.962 17.9 17.855 17.83 17.81 17.795 17.82 17.877 17.895 17.865 17.825 17.785 17.743 17.703 17.693 17.712 17.727 17.697 17.622 17.533 17.468 17.468 17.507 17.55 17.582 17.6 17.602 17.595 17.585 17.565 17.512 17.437 17.365 17.297 17.217 17.095 16.948 16.818 16.715 16.628 16.54 16.455 16.373 16.285 16.198 16.097 15.995 15.905 15.812 15.72 15.66 15.635 15.615 15.595 15.565 15.52 15.475 15.415 15.32 15.213 15.113 15.015 14.925 14.845 14.77 14.71 14.663 14.62 14.58 14.575 14.6 14.61 14.61 14.612 14.61 14.6 14.603 14.62 14.642 14.665 14.68 14.677 14.67 14.665 14.655 14.647 14.645 14.617 14.552 14.432 14.25 13.875 13.685 13.903 14.045 14.062 14.08 14.108 14.13 14.14 14.15 14.16 14.15 14.12 14.09 14.055 14.03 14.02 14.01 14.003 14 14 14 14 14.008 14.025 14.043 14.06 14.095 14.145 14.195 14.232 14.255 14.275 14.295 14.318 14.353 14.405 14.47 14.54 14.615 14.695 14.775 14.857 14.92 14.957 14.99 15.02 15.047 15.075 15.1 15.125 15.155 15.185 15.215 15.245 15.295 15.372 15.455 15.522 15.575 15.62 15.665 15.717 15.757 15.78
20.48 20.485 20.475 20.447 20.407 20.362 20.315 20.257 20.18 20.095 20.015 19.935 19.85 19.76 19.665 19.565 19.468 19.375 19.282 19.19 19.1 19.018 18.948 18.882 18.815 18.748 18.688 18.633 18.58 18.533 18.5 18.475 18.448 18.425 18.385 18.325 18.27 18.23 18.21 18.21 18.202 18.162 18.1 18.035 17.978 17.923 17.873 17.835 17.81 17.795 17.82 17.865 17.885 17.875 17.84 17.8 17.763 17.73 17.728 17.752 17.772 17.757 17.702 17.635 17.565 17.523 17.53 17.557 17.572 17.575 17.575 17.57 17.562 17.55 17.505 17.445 17.393 17.347 17.28 17.167 17.037 16.908 16.8 16.71 16.62 16.533 16.445 16.355 16.265 16.165 16.055 15.948 15.845 15.755 15.703 15.685 15.675 15.665 15.637 15.59 15.545 15.477 15.367 15.245 15.13 15.025 14.94 14.873 14.813 14.76 14.71 14.66 14.61 14.59 14.595 14.595 14.595 14.597 14.595 14.593 14.605 14.625 14.647 14.662 14.655 14.635 14.625 14.625 14.62 14.613 14.642 14.687 14.66 14.53 14.348 14.167 13.893 13.853 14.012 14.038 14.068 14.11 14.135 14.135 14.14 14.152 14.142 14.11 14.08 14.045 14.02 14.01 14.003 14 14 14 14 14 14.01 14.03 14.047 14.065 14.1 14.15 14.187 14.205 14.22 14.24 14.263 14.29 14.328 14.38 14.443 14.51 14.585 14.665 14.748 14.837 14.905 14.943 14.977 15.01 15.035 15.055 15.078 15.105 15.135 15.162 15.19 15.22 15.273 15.352 15.425 15.48 15.527 15.573 15.63 15.702 15.747 15.765
20.39 20.395 20.385 20.362 20.332 20.297 20.255 20.205 20.142 20.065 19.988 19.912 19.835 19.75 19.655 19.55 19.445 19.345 19.253 19.168 19.085 19.01 18.94 18.875 18.81 18.743 18.683 18.63 18.583 18.538 18.503 18.477 18.452 18.43 18.39 18.338 18.298 18.265 18.245 18.237 18.215 18.17 18.112 18.05 17.995 17.945 17.895 17.85 17.815 17.795 17.813 17.847 17.875 17.885 17.86 17.823 17.788 17.76 17.76 17.78 17.795 17.78 17.735 17.685 17.632 17.58 17.548 17.545 17.55 17.55 17.548 17.543 17.543 17.543 17.515 17.475 17.44 17.405 17.337 17.232 17.12 16.998 16.89 16.797 16.705 16.615 16.525 16.435 16.34 16.23 16.11 15.99 15.878 15.793 15.753 15.748 15.75 15.745 15.712 15.66 15.612 15.537 15.422 15.298 15.173 15.065 14.985 14.923 14.868 14.813 14.76 14.707 14.648 14.6 14.585 14.585 14.585 14.585 14.583 14.59 14.61 14.63 14.645 14.64 14.612 14.585 14.578 14.582 14.582 14.575 14.608 14.67 14.672 14.607 14.477 14.297 14.092 13.808 13.82 14.025 14.073 14.125 14.147 14.14 14.138 14.147 14.137 14.103 14.07 14.035 14.01 14.003 14 14 14 14 14 14 14.01 14.03 14.05 14.07 14.105 14.145 14.162 14.17 14.183 14.203 14.23 14.263 14.305 14.36 14.418 14.48 14.555 14.64 14.73 14.825 14.897 14.932 14.963 14.995 15.02 15.038 15.058 15.085 15.113 15.138 15.165 15.195 15.25 15.322 15.38 15.43 15.475 15.53 15.61 15.697 15.745 15.758
20.303 20.305 20.295 20.273 20.25 20.23 20.195 20.145 20.092 20.03 19.96 19.885 19.81 19.735 19.645 19.54 19.432 19.325 19.23 19.152 19.075 19 18.93 18.865 18.802 18.737 18.678 18.63 18.585 18.54 18.505 18.48 18.457 18.432 18.4 18.365 18.335 18.305 18.28 18.255 18.22 18.18 18.13 18.073 18.018 17.965 17.915 17.87 17.83 17.798 17.803 17.838 17.875 17.897 17.88 17.845 17.81 17.785 17.785 17.798 17.81 17.8 17.757 17.705 17.658 17.62 17.58 17.543 17.528 17.53 17.538 17.545 17.558 17.562 17.547 17.52 17.487 17.457 17.392 17.29 17.185 17.078 16.978 16.883 16.79 16.7 16.61 16.515 16.407 16.293 16.175 16.05 15.928 15.845 15.82 15.825 15.83 15.822 15.787 15.735 15.682 15.597 15.48 15.358 15.24 15.148 15.073 15 14.935 14.873 14.81 14.747 14.68 14.615 14.585 14.585 14.583 14.578 14.575 14.585 14.605 14.622 14.622 14.6 14.568 14.54 14.533 14.535 14.538 14.538 14.553 14.575 14.575 14.567 14.52 14.425 14.28 13.938 13.618 13.79 14.072 14.137 14.16 14.15 14.145 14.145 14.13 14.095 14.06 14.028 14.008 14.003 14 14 14 14 14 14 14.01 14.03 14.05 14.073 14.1 14.118 14.125 14.135 14.148 14.173 14.205 14.24 14.285 14.34 14.395 14.453 14.53 14.625 14.72 14.815 14.89 14.925 14.95 14.98 15.005 15.025 15.043 15.065 15.093 15.118 15.145 15.175 15.223 15.28 15.33 15.38 15.433 15.505 15.597 15.69 15.74 15.752
20.222 20.223 20.22 20.21 20.19 20.175 20.145 20.093 20.04 19.987 19.925 19.85 19.775 19.707 19.625 19.522 19.415 19.305 19.21 19.132 19.057 18.985 18.92 18.857 18.795 18.73 18.673 18.63 18.585 18.54 18.508 18.483 18.46 18.432 18.407 18.385 18.357 18.33 18.307 18.283 18.248 18.215 18.17 18.113 18.058 18.008 17.958 17.91 17.87 17.83 17.82 17.85 17.89 17.915 17.9 17.865 17.838 17.82 17.813 17.815 17.825 17.82 17.782 17.73 17.69 17.665 17.627 17.573 17.54 17.545 17.568 17.59 17.602 17.595 17.575 17.55 17.52 17.502 17.45 17.348 17.25 17.165 17.07 16.968 16.875 16.785 16.692 16.59 16.475 16.36 16.247 16.13 16.013 15.928 15.9 15.903 15.907 15.9 15.862 15.807 15.745 15.657 15.542 15.423 15.323 15.248 15.177 15.103 15.027 14.94 14.85 14.775 14.705 14.635 14.6 14.6 14.595 14.58 14.565 14.565 14.577 14.592 14.585 14.555 14.525 14.513 14.518 14.523 14.528 14.525 14.51 14.495 14.48 14.46 14.445 14.43 14.365 14.252 13.883 13.643 13.895 14.11 14.152 14.155 14.15 14.145 14.125 14.09 14.055 14.033 14.025 14.023 14.018 14.01 14.008 14.01 14.01 14.01 14.02 14.04 14.06 14.08 14.095 14.103 14.11 14.12 14.133 14.158 14.19 14.225 14.27 14.325 14.38 14.428 14.498 14.595 14.692 14.79 14.867 14.907 14.935 14.962 14.985 15.005 15.025 15.055 15.09 15.118 15.145 15.17 15.203 15.248 15.295 15.345 15.405 15.488 15.582 15.675 15.725 15.737
20.147 20.145 20.15 20.16 20.15 20.132 20.1 20.048 19.995 19.945 19.885 19.81 19.738 19.672 19.592 19.495 19.392 19.285 19.188 19.108 19.035 18.968 18.907 18.847 18.785 18.723 18.67 18.63 18.587 18.543 18.51 18.485 18.455 18.423 18.398 18.38 18.36 18.335 18.323 18.32 18.302 18.272 18.227 18.17 18.12 18.083 18.033 17.975 17.93 17.893 17.873 17.88 17.91 17.935 17.92 17.89 17.878 17.867 17.85 17.84 17.845 17.84 17.805 17.763 17.735 17.715 17.675 17.628 17.603 17.603 17.622 17.642 17.642 17.625 17.605 17.58 17.558 17.552 17.507 17.418 17.34 17.267 17.17 17.055 16.955 16.865 16.77 16.662 16.548 16.433 16.323 16.222 16.12 16.023 15.98 15.98 15.985 15.977 15.932 15.865 15.79 15.707 15.605 15.498 15.418 15.352 15.282 15.207 15.117 14.992 14.873 14.793 14.725 14.658 14.623 14.617 14.605 14.582 14.56 14.545 14.54 14.55 14.547 14.518 14.503 14.52 14.54 14.55 14.547 14.53 14.508 14.483 14.458 14.43 14.405 14.38 14.355 14.33 14.235 13.93 13.798 13.987 14.112 14.145 14.15 14.145 14.122 14.09 14.068 14.06 14.058 14.055 14.047 14.028 14.02 14.027 14.03 14.03 14.04 14.06 14.077 14.09 14.1 14.11 14.12 14.13 14.14 14.155 14.18 14.215 14.26 14.312 14.36 14.395 14.455 14.55 14.647 14.742 14.822 14.877 14.912 14.938 14.96 14.98 15.01 15.057 15.1 15.13 15.155 15.17 15.195 15.235 15.28 15.33 15.39 15.473 15.567 15.655 15.702 15.718
20.072 20.065 20.07 20.09 20.097 20.087 20.055 20.005 19.952 19.9 19.84 19.77 19.705 19.64 19.56 19.465 19.365 19.262 19.165 19.085 19.015 18.95 18.892 18.835 18.775 18.715 18.665 18.625 18.585 18.543 18.508 18.48 18.445 18.408 18.383 18.37 18.357 18.338 18.33 18.342 18.347 18.327 18.285 18.238 18.2 18.167 18.117 18.053 17.995 17.955 17.935 17.928 17.938 17.955 17.945 17.928 17.923 17.913 17.895 17.878 17.87 17.86 17.83 17.803 17.785 17.762 17.728 17.698 17.68 17.67 17.677 17.685 17.675 17.655 17.638 17.618 17.605 17.597 17.565 17.51 17.445 17.372 17.275 17.155 17.043 16.945 16.847 16.737 16.625 16.51 16.403 16.312 16.222 16.123 16.065 16.06 16.065 16.047 15.987 15.91 15.827 15.745 15.66 15.585 15.525 15.46 15.39 15.297 15.167 15.015 14.883 14.803 14.742 14.68 14.643 14.627 14.605 14.58 14.56 14.54 14.52 14.513 14.508 14.498 14.515 14.55 14.565 14.567 14.56 14.538 14.515 14.493 14.468 14.443 14.418 14.393 14.368 14.35 14.327 14.21 13.945 13.898 14.055 14.112 14.137 14.142 14.125 14.103 14.095 14.095 14.092 14.085 14.067 14.04 14.03 14.04 14.045 14.048 14.057 14.072 14.085 14.095 14.105 14.115 14.125 14.135 14.147 14.16 14.175 14.205 14.25 14.295 14.33 14.358 14.413 14.505 14.6 14.69 14.767 14.83 14.88 14.915 14.94 14.968 15.01 15.065 15.112 15.14 15.155 15.163 15.185 15.228 15.273 15.32 15.383 15.463 15.552 15.635 15.68 15.7
19.995 19.985 19.99 20.007 20.02 20.025 20 19.95 19.897 19.845 19.792 19.732 19.67 19.607 19.527 19.43 19.332 19.235 19.143 19.065 18.997 18.932 18.875 18.82 18.762 18.705 18.655 18.618 18.58 18.54 18.503 18.47 18.435 18.395 18.37 18.36 18.35 18.338 18.338 18.355 18.37 18.372 18.35 18.315 18.285 18.252 18.202 18.137 18.073 18.02 17.995 17.988 17.985 17.985 17.98 17.975 17.973 17.963 17.945 17.928 17.913 17.893 17.87 17.853 17.835 17.813 17.79 17.772 17.757 17.743 17.733 17.725 17.71 17.69 17.673 17.65 17.627 17.605 17.585 17.56 17.52 17.472 17.385 17.265 17.145 17.032 16.925 16.813 16.7 16.588 16.485 16.398 16.313 16.22 16.155 16.14 16.127 16.085 16.017 15.94 15.857 15.773 15.698 15.647 15.615 15.567 15.477 15.342 15.185 15.025 14.893 14.813 14.755 14.698 14.655 14.63 14.605 14.58 14.56 14.537 14.513 14.493 14.485 14.503 14.54 14.567 14.57 14.567 14.567 14.552 14.53 14.507 14.483 14.457 14.432 14.408 14.383 14.37 14.372 14.32 14.13 13.865 13.885 14.062 14.105 14.127 14.135 14.132 14.127 14.125 14.12 14.105 14.08 14.05 14.04 14.047 14.052 14.06 14.07 14.08 14.09 14.1 14.11 14.12 14.13 14.14 14.153 14.167 14.18 14.2 14.233 14.265 14.295 14.323 14.373 14.458 14.55 14.64 14.715 14.775 14.835 14.885 14.923 14.968 15.02 15.072 15.12 15.142 15.15 15.158 15.18 15.223 15.265 15.31 15.375 15.455 15.54 15.617 15.663 15.685
19.928 19.918 19.903 19.9 19.91 19.92 19.9 19.852 19.805 19.773 19.74 19.682 19.617 19.555 19.482 19.39 19.292 19.198 19.11 19.037 18.972 18.907 18.847 18.792 18.74 18.698 18.658 18.615 18.577 18.54 18.5 18.463 18.428 18.393 18.37 18.36 18.35 18.343 18.35 18.37 18.388 18.402 18.4 18.377 18.35 18.317 18.267 18.202 18.138 18.085 18.063 18.058 18.05 18.043 18.04 18.038 18.035 18.028 18.013 17.998 17.978 17.95 17.928 17.91 17.893 17.878 17.863 17.847 17.833 17.818 17.8 17.78 17.76 17.74 17.717 17.668 17.615 17.585 17.563 17.547 17.535 17.52 17.452 17.332 17.21 17.103 17.002 16.89 16.775 16.685 16.605 16.515 16.42 16.323 16.243 16.195 16.15 16.09 16.03 15.96 15.88 15.798 15.728 15.68 15.655 15.617 15.51 15.355 15.192 15.03 14.905 14.83 14.77 14.715 14.673 14.643 14.615 14.585 14.558 14.533 14.51 14.49 14.485 14.51 14.55 14.567 14.563 14.563 14.567 14.562 14.545 14.522 14.497 14.472 14.448 14.422 14.398 14.39 14.4 14.382 14.29 14.013 13.695 13.813 14.06 14.097 14.135 14.157 14.157 14.155 14.14 14.112 14.085 14.055 14.045 14.05 14.055 14.065 14.075 14.085 14.095 14.105 14.115 14.125 14.135 14.145 14.155 14.167 14.182 14.2 14.223 14.25 14.28 14.315 14.363 14.43 14.515 14.605 14.68 14.74 14.8 14.858 14.915 14.972 15.025 15.077 15.122 15.142 15.15 15.163 15.19 15.23 15.27 15.313 15.375 15.455 15.54 15.617 15.665 15.693
19.872 19.862 19.828 19.788 19.783 19.795 19.775 19.728 19.698 19.702 19.685 19.62 19.553 19.487 19.42 19.342 19.25 19.155 19.073 19.003 18.935 18.87 18.813 18.76 18.72 18.7 18.67 18.618 18.573 18.535 18.497 18.46 18.428 18.4 18.38 18.37 18.36 18.355 18.368 18.392 18.412 18.427 18.43 18.417 18.395 18.362 18.312 18.248 18.193 18.155 18.138 18.13 18.122 18.118 18.115 18.11 18.105 18.102 18.095 18.08 18.05 18.015 17.99 17.973 17.96 17.95 17.937 17.923 17.908 17.892 17.875 17.85 17.825 17.805 17.77 17.69 17.608 17.565 17.54 17.525 17.52 17.52 17.467 17.355 17.248 17.168 17.082 16.973 16.885 16.848 16.795 16.698 16.593 16.467 16.318 16.21 16.15 16.09 16.035 15.977 15.902 15.82 15.758 15.712 15.672 15.612 15.497 15.347 15.19 15.03 14.915 14.85 14.793 14.74 14.7 14.67 14.637 14.6 14.563 14.533 14.51 14.49 14.488 14.513 14.547 14.56 14.558 14.56 14.565 14.567 14.557 14.537 14.512 14.488 14.462 14.438 14.415 14.413 14.425 14.432 14.377 14.245 13.895 13.593 13.803 14.06 14.112 14.162 14.182 14.182 14.157 14.118 14.085 14.058 14.048 14.05 14.055 14.065 14.075 14.085 14.095 14.105 14.115 14.122 14.13 14.14 14.15 14.163 14.18 14.203 14.23 14.258 14.293 14.345 14.393 14.435 14.5 14.585 14.66 14.72 14.783 14.845 14.91 14.972 15.027 15.082 15.125 15.145 15.158 15.178 15.21 15.25 15.287 15.325 15.385 15.468 15.552 15.632 15.685 15.712
19.815 19.81 19.775 19.715 19.678 19.673 19.65 19.62 19.625 19.65 19.635 19.565 19.49 19.423 19.355 19.285 19.205 19.115 19.035 18.968 18.9 18.835 18.783 18.745 18.725 18.715 18.685 18.63 18.575 18.53 18.495 18.463 18.435 18.41 18.39 18.38 18.372 18.368 18.38 18.41 18.435 18.452 18.455 18.445 18.43 18.405 18.358 18.303 18.263 18.23 18.21 18.2 18.195 18.19 18.185 18.18 18.175 18.175 18.17 18.152 18.115 18.075 18.053 18.043 18.035 18.025 18.012 17.998 17.983 17.967 17.947 17.92 17.895 17.872 17.82 17.725 17.62 17.548 17.52 17.513 17.515 17.522 17.482 17.395 17.317 17.252 17.17 17.093 17.06 17.055 17.01 16.912 16.78 16.595 16.378 16.223 16.15 16.09 16.035 15.985 15.922 15.845 15.785 15.74 15.682 15.595 15.465 15.315 15.165 15.018 14.92 14.87 14.817 14.765 14.725 14.692 14.655 14.615 14.575 14.538 14.508 14.488 14.49 14.513 14.54 14.552 14.555 14.56 14.565 14.57 14.567 14.552 14.528 14.503 14.477 14.453 14.438 14.44 14.45 14.462 14.442 14.342 14.195 13.848 13.653 13.888 14.077 14.142 14.192 14.205 14.175 14.128 14.088 14.06 14.05 14.053 14.058 14.065 14.075 14.085 14.097 14.107 14.115 14.12 14.125 14.135 14.145 14.16 14.183 14.208 14.235 14.27 14.323 14.387 14.435 14.465 14.505 14.57 14.64 14.703 14.77 14.835 14.9 14.965 15.027 15.087 15.127 15.15 15.17 15.193 15.225 15.265 15.3 15.335 15.395 15.48 15.567 15.65 15.702 15.717
19.752 19.752 19.722 19.665 19.608 19.568 19.543 19.545 19.57 19.592 19.575 19.505 19.427 19.355 19.285 19.217 19.147 19.07 18.998 18.932 18.865 18.8 18.758 18.74 18.732 18.725 18.697 18.645 18.585 18.53 18.495 18.47 18.445 18.42 18.4 18.39 18.385 18.38 18.39 18.42 18.45 18.475 18.48 18.47 18.46 18.445 18.413 18.373 18.338 18.303 18.28 18.27 18.262 18.255 18.25 18.245 18.24 18.24 18.24 18.23 18.195 18.153 18.13 18.12 18.11 18.1 18.087 18.073 18.058 18.042 18.023 17.995 17.968 17.943 17.88 17.775 17.663 17.555 17.505 17.505 17.51 17.517 17.49 17.43 17.37 17.312 17.272 17.267 17.27 17.265 17.22 17.09 16.892 16.665 16.435 16.253 16.153 16.09 16.033 15.98 15.93 15.867 15.8 15.735 15.66 15.557 15.422 15.275 15.128 14.995 14.915 14.875 14.83 14.785 14.747 14.708 14.665 14.625 14.588 14.55 14.513 14.49 14.495 14.515 14.535 14.547 14.552 14.558 14.563 14.567 14.57 14.562 14.542 14.517 14.493 14.468 14.458 14.465 14.477 14.485 14.472 14.41 14.285 14.14 13.893 13.85 14.03 14.11 14.175 14.21 14.19 14.142 14.098 14.063 14.053 14.058 14.063 14.068 14.075 14.085 14.1 14.11 14.115 14.12 14.125 14.133 14.145 14.165 14.19 14.215 14.245 14.295 14.36 14.422 14.465 14.495 14.525 14.568 14.628 14.693 14.76 14.825 14.89 14.955 15.017 15.082 15.13 15.157 15.182 15.205 15.235 15.272 15.307 15.343 15.403 15.487 15.572 15.657 15.705 15.705
19.645 19.655 19.65 19.607 19.55 19.495 19.455 19.448 19.465 19.487 19.48 19.422 19.347 19.27 19.197 19.132 19.07 19.015 18.957 18.89 18.823 18.765 18.728 18.707 18.7 18.695 18.677 18.637 18.58 18.523 18.487 18.467 18.445 18.428 18.418 18.41 18.405 18.398 18.41 18.448 18.48 18.507 18.517 18.51 18.503 18.505 18.5 18.473 18.438 18.4 18.36 18.335 18.325 18.315 18.31 18.305 18.3 18.305 18.315 18.317 18.295 18.255 18.228 18.213 18.198 18.18 18.163 18.148 18.133 18.12 18.113 18.1 18.08 18.057 17.99 17.88 17.763 17.62 17.515 17.49 17.495 17.497 17.467 17.412 17.362 17.32 17.32 17.357 17.385 17.405 17.347 17.162 16.93 16.7 16.473 16.285 16.178 16.118 16.045 15.973 15.922 15.865 15.785 15.698 15.615 15.512 15.377 15.233 15.095 14.978 14.905 14.865 14.828 14.8 14.772 14.733 14.69 14.65 14.618 14.585 14.548 14.523 14.525 14.542 14.545 14.545 14.55 14.555 14.56 14.565 14.57 14.57 14.557 14.533 14.507 14.483 14.478 14.49 14.502 14.502 14.477 14.432 14.345 14.215 14.082 13.883 13.898 14.082 14.145 14.197 14.195 14.147 14.105 14.078 14.075 14.08 14.085 14.085 14.085 14.098 14.11 14.115 14.118 14.123 14.127 14.13 14.145 14.17 14.195 14.22 14.255 14.31 14.375 14.435 14.475 14.505 14.535 14.57 14.623 14.688 14.753 14.82 14.883 14.94 15.003 15.067 15.117 15.147 15.175 15.202 15.235 15.27 15.302 15.335 15.393 15.477 15.56 15.642 15.685 15.68
19.505 19.532 19.547 19.53 19.487 19.435 19.38 19.335 19.325 19.342 19.345 19.31 19.25 19.175 19.103 19.04 18.993 18.96 18.91 18.843 18.783 18.735 18.695 18.66 18.643 18.635 18.625 18.605 18.562 18.508 18.47 18.45 18.44 18.445 18.45 18.445 18.432 18.418 18.435 18.485 18.525 18.552 18.562 18.56 18.57 18.592 18.602 18.59 18.562 18.522 18.465 18.41 18.385 18.375 18.37 18.368 18.368 18.38 18.395 18.4 18.392 18.362 18.333 18.317 18.297 18.267 18.24 18.225 18.213 18.208 18.225 18.24 18.235 18.215 18.145 18.027 17.882 17.708 17.555 17.483 17.475 17.467 17.427 17.375 17.335 17.303 17.303 17.34 17.385 17.42 17.335 17.125 16.895 16.68 16.498 16.355 16.26 16.198 16.108 15.99 15.908 15.847 15.76 15.658 15.57 15.47 15.335 15.195 15.07 14.96 14.89 14.855 14.83 14.818 14.802 14.77 14.728 14.69 14.665 14.637 14.605 14.58 14.578 14.582 14.56 14.543 14.547 14.552 14.558 14.563 14.568 14.572 14.567 14.547 14.523 14.503 14.503 14.515 14.525 14.515 14.477 14.432 14.375 14.275 14.145 13.943 13.675 13.815 14.117 14.18 14.187 14.145 14.12 14.115 14.118 14.122 14.122 14.11 14.105 14.117 14.125 14.125 14.125 14.128 14.13 14.133 14.148 14.173 14.198 14.223 14.258 14.313 14.375 14.43 14.47 14.503 14.535 14.57 14.62 14.685 14.755 14.83 14.887 14.93 14.988 15.05 15.095 15.125 15.155 15.188 15.225 15.26 15.288 15.315 15.37 15.453 15.537 15.62 15.657 15.65
19.38 19.415 19.43 19.427 19.41 19.37 19.317 19.26 19.215 19.205 19.2 19.175 19.137 19.077 19.01 18.963 18.935 18.91 18.862 18.803 18.75 18.705 18.665 18.625 18.593 18.575 18.565 18.555 18.532 18.487 18.45 18.443 18.458 18.48 18.49 18.48 18.455 18.433 18.453 18.51 18.56 18.597 18.615 18.625 18.655 18.687 18.697 18.692 18.68 18.647 18.587 18.513 18.458 18.435 18.43 18.435 18.448 18.465 18.477 18.48 18.48 18.462 18.437 18.417 18.385 18.345 18.318 18.305 18.3 18.308 18.33 18.367 18.392 18.375 18.292 18.147 17.972 17.785 17.613 17.5 17.46 17.435 17.393 17.353 17.32 17.288 17.283 17.317 17.352 17.365 17.262 17.05 16.858 16.705 16.583 16.478 16.38 16.305 16.202 16.053 15.923 15.838 15.745 15.633 15.533 15.427 15.3 15.17 15.05 14.943 14.88 14.858 14.845 14.84 14.832 14.805 14.765 14.735 14.715 14.692 14.665 14.638 14.63 14.615 14.568 14.54 14.543 14.548 14.555 14.56 14.565 14.57 14.572 14.562 14.538 14.523 14.528 14.54 14.542 14.52 14.475 14.427 14.38 14.312 14.207 14.117 13.825 13.69 13.973 14.157 14.18 14.163 14.158 14.162 14.165 14.162 14.15 14.13 14.125 14.132 14.135 14.132 14.132 14.135 14.135 14.138 14.153 14.177 14.202 14.228 14.26 14.313 14.372 14.425 14.465 14.5 14.535 14.57 14.62 14.688 14.768 14.847 14.9 14.935 14.978 15.03 15.075 15.108 15.14 15.175 15.212 15.245 15.272 15.298 15.348 15.428 15.512 15.595 15.63 15.615
19.26 19.295 19.31 19.31 19.305 19.287 19.25 19.195 19.135 19.09 19.063 19.035 19.005 18.967 18.927 18.9 18.88 18.857 18.82 18.77 18.72 18.672 18.63 18.592 18.555 18.523 18.505 18.495 18.48 18.458 18.448 18.463 18.49 18.515 18.52 18.5 18.47 18.445 18.463 18.52 18.575 18.622 18.66 18.692 18.73 18.772 18.792 18.79 18.787 18.767 18.71 18.633 18.56 18.51 18.5 18.515 18.532 18.55 18.56 18.56 18.56 18.555 18.535 18.502 18.462 18.42 18.395 18.393 18.4 18.412 18.425 18.462 18.52 18.517 18.41 18.235 18.05 17.865 17.683 17.558 17.478 17.413 17.373 17.34 17.307 17.273 17.263 17.285 17.298 17.295 17.215 17.058 16.928 16.823 16.717 16.612 16.508 16.415 16.295 16.14 15.988 15.855 15.74 15.625 15.513 15.395 15.273 15.15 15.03 14.933 14.887 14.875 14.867 14.862 14.855 14.837 14.81 14.785 14.765 14.742 14.717 14.692 14.672 14.635 14.575 14.54 14.538 14.545 14.552 14.558 14.563 14.568 14.572 14.57 14.553 14.543 14.552 14.565 14.555 14.518 14.47 14.42 14.373 14.325 14.255 14.18 14.125 13.953 13.95 14.13 14.175 14.187 14.195 14.205 14.205 14.19 14.17 14.15 14.142 14.142 14.14 14.137 14.137 14.14 14.14 14.14 14.155 14.18 14.205 14.23 14.26 14.307 14.365 14.42 14.462 14.5 14.535 14.57 14.623 14.698 14.782 14.86 14.912 14.947 14.98 15.018 15.058 15.095 15.13 15.165 15.2 15.228 15.255 15.28 15.323 15.4 15.487 15.567 15.595 15.573
19.12 19.16 19.185 19.19 19.185 19.18 19.16 19.112 19.052 18.99 18.943 18.913 18.885 18.858 18.835 18.817 18.8 18.782 18.76 18.72 18.67 18.62 18.58 18.55 18.515 18.475 18.45 18.44 18.428 18.43 18.457 18.485 18.507 18.532 18.532 18.508 18.485 18.483 18.485 18.505 18.555 18.605 18.655 18.7 18.747 18.812 18.87 18.892 18.895 18.882 18.832 18.758 18.685 18.625 18.595 18.6 18.618 18.635 18.645 18.645 18.642 18.632 18.607 18.57 18.53 18.492 18.472 18.477 18.487 18.495 18.502 18.512 18.55 18.572 18.51 18.36 18.175 17.993 17.828 17.7 17.563 17.428 17.358 17.325 17.292 17.258 17.243 17.253 17.26 17.265 17.227 17.137 17.04 16.942 16.845 16.745 16.632 16.512 16.375 16.22 16.065 15.913 15.78 15.665 15.547 15.4 15.255 15.135 15.013 14.905 14.855 14.847 14.842 14.845 14.863 14.865 14.842 14.82 14.8 14.777 14.755 14.725 14.68 14.622 14.568 14.54 14.538 14.545 14.55 14.555 14.56 14.565 14.57 14.572 14.567 14.565 14.57 14.572 14.567 14.535 14.485 14.438 14.393 14.345 14.3 14.253 14.193 14.122 13.948 13.973 14.157 14.187 14.205 14.225 14.225 14.205 14.185 14.155 14.137 14.14 14.14 14.137 14.135 14.135 14.135 14.133 14.145 14.17 14.195 14.217 14.242 14.285 14.34 14.397 14.445 14.482 14.517 14.563 14.628 14.707 14.79 14.865 14.92 14.957 14.99 15.02 15.055 15.093 15.128 15.16 15.19 15.217 15.243 15.268 15.298 15.355 15.44 15.52 15.555 15.545
18.953 19.005 19.045 19.06 19.062 19.057 19.04 19.007 18.957 18.895 18.845 18.81 18.78 18.753 18.73 18.713 18.698 18.685 18.67 18.642 18.6 18.553 18.52 18.497 18.465 18.425 18.4 18.39 18.393 18.42 18.457 18.49 18.515 18.54 18.54 18.518 18.523 18.56 18.552 18.513 18.523 18.565 18.613 18.665 18.738 18.825 18.91 18.97 19 19.002 18.957 18.885 18.823 18.77 18.725 18.7 18.703 18.72 18.73 18.725 18.71 18.685 18.655 18.62 18.58 18.543 18.523 18.522 18.527 18.532 18.535 18.517 18.503 18.522 18.525 18.46 18.335 18.175 18.02 17.86 17.672 17.488 17.363 17.308 17.275 17.25 17.243 17.253 17.265 17.28 17.26 17.192 17.112 17.025 16.932 16.835 16.72 16.587 16.442 16.29 16.14 15.993 15.86 15.742 15.605 15.415 15.245 15.122 14.99 14.85 14.775 14.783 14.808 14.843 14.89 14.892 14.858 14.832 14.81 14.79 14.76 14.707 14.642 14.585 14.553 14.545 14.545 14.547 14.55 14.552 14.555 14.56 14.565 14.565 14.562 14.565 14.567 14.563 14.567 14.565 14.53 14.483 14.435 14.39 14.365 14.347 14.292 14.21 14.005 13.75 13.91 14.172 14.2 14.232 14.24 14.22 14.187 14.135 14.11 14.122 14.132 14.132 14.13 14.13 14.125 14.115 14.125 14.15 14.17 14.185 14.205 14.248 14.303 14.36 14.41 14.448 14.493 14.555 14.63 14.71 14.787 14.86 14.917 14.96 14.997 15.03 15.063 15.097 15.13 15.155 15.18 15.21 15.237 15.262 15.283 15.31 15.37 15.447 15.502 15.522
18.788 18.85 18.895 18.915 18.93 18.93 18.912 18.887 18.852 18.8 18.75 18.713 18.678 18.648 18.625 18.608 18.595 18.585 18.57 18.552 18.527 18.487 18.455 18.435 18.412 18.38 18.353 18.353 18.38 18.42 18.455 18.49 18.522 18.547 18.55 18.553 18.593 18.647 18.645 18.583 18.538 18.538 18.58 18.655 18.75 18.845 18.93 19.005 19.07 19.11 19.085 19.022 18.972 18.925 18.878 18.835 18.808 18.803 18.8 18.785 18.76 18.73 18.697 18.66 18.62 18.58 18.555 18.545 18.543 18.547 18.542 18.51 18.465 18.453 18.45 18.435 18.397 18.307 18.157 17.965 17.767 17.573 17.398 17.298 17.263 17.258 17.27 17.28 17.288 17.297 17.277 17.22 17.155 17.077 16.985 16.882 16.772 16.65 16.51 16.363 16.22 16.075 15.94 15.812 15.642 15.425 15.24 15.1 14.963 14.843 14.788 14.8 14.848 14.91 14.945 14.922 14.875 14.84 14.812 14.777 14.722 14.655 14.595 14.56 14.542 14.53 14.525 14.53 14.535 14.535 14.535 14.537 14.535 14.517 14.507 14.52 14.537 14.545 14.55 14.567 14.567 14.53 14.48 14.448 14.44 14.44 14.41 14.33 14.237 13.935 13.823 14.075 14.2 14.24 14.252 14.225 14.17 14.105 14.078 14.092 14.112 14.122 14.125 14.122 14.112 14.1 14.108 14.127 14.14 14.148 14.165 14.21 14.268 14.325 14.375 14.423 14.485 14.555 14.63 14.707 14.78 14.847 14.907 14.957 15 15.037 15.07 15.1 15.122 15.14 15.165 15.198 15.232 15.26 15.277 15.293 15.32 15.378 15.435 15.47
18.635 18.7 18.745 18.762 18.777 18.79 18.785 18.76 18.73 18.692 18.65 18.615 18.58 18.545 18.523 18.508 18.495 18.485 18.47 18.455 18.44 18.412 18.387 18.37 18.352 18.33 18.318 18.34 18.38 18.417 18.452 18.49 18.525 18.555 18.583 18.622 18.677 18.732 18.735 18.677 18.61 18.56 18.588 18.675 18.77 18.865 18.95 19.025 19.097 19.165 19.182 19.15 19.11 19.067 19.025 18.98 18.93 18.893 18.865 18.838 18.81 18.777 18.74 18.7 18.66 18.62 18.593 18.578 18.565 18.56 18.54 18.498 18.45 18.413 18.393 18.383 18.377 18.345 18.235 18.057 17.862 17.667 17.47 17.315 17.265 17.28 17.295 17.308 17.32 17.317 17.285 17.232 17.175 17.112 17.03 16.922 16.81 16.718 16.6 16.445 16.3 16.158 16.022 15.87 15.668 15.44 15.255 15.135 15.043 14.978 14.945 14.94 14.962 14.992 14.987 14.945 14.895 14.842 14.79 14.727 14.652 14.58 14.535 14.517 14.497 14.478 14.473 14.485 14.497 14.502 14.5 14.487 14.465 14.433 14.423 14.445 14.478 14.505 14.523 14.548 14.575 14.57 14.54 14.523 14.52 14.517 14.507 14.455 14.357 14.252 14.008 13.99 14.187 14.235 14.252 14.21 14.14 14.073 14.04 14.055 14.082 14.105 14.112 14.105 14.095 14.085 14.085 14.095 14.105 14.113 14.13 14.175 14.235 14.295 14.353 14.415 14.488 14.56 14.63 14.7 14.768 14.833 14.892 14.945 14.995 15.04 15.07 15.09 15.108 15.125 15.15 15.182 15.217 15.247 15.267 15.282 15.298 15.325 15.365 15.4
18.465 18.535 18.577 18.59 18.605 18.635 18.65 18.63 18.6 18.573 18.552 18.53 18.498 18.463 18.438 18.423 18.41 18.392 18.37 18.352 18.335 18.317 18.302 18.285 18.267 18.25 18.267 18.315 18.355 18.392 18.44 18.49 18.528 18.565 18.612 18.667 18.725 18.777 18.797 18.762 18.695 18.628 18.64 18.728 18.815 18.9 18.97 19.035 19.105 19.175 19.22 19.222 19.195 19.157 19.122 19.085 19.037 18.988 18.948 18.91 18.87 18.825 18.778 18.735 18.695 18.655 18.628 18.613 18.603 18.595 18.56 18.51 18.468 18.423 18.383 18.363 18.36 18.337 18.257 18.125 17.952 17.76 17.565 17.383 17.305 17.318 17.333 17.353 17.362 17.335 17.282 17.23 17.177 17.127 17.06 16.955 16.853 16.813 16.735 16.565 16.398 16.245 16.095 15.928 15.738 15.543 15.375 15.275 15.22 15.17 15.12 15.082 15.062 15.037 14.995 14.945 14.89 14.815 14.72 14.63 14.55 14.478 14.438 14.422 14.408 14.415 14.438 14.453 14.465 14.472 14.465 14.443 14.413 14.383 14.38 14.405 14.438 14.47 14.5 14.53 14.565 14.592 14.597 14.59 14.582 14.577 14.572 14.54 14.457 14.35 14.16 13.848 13.928 14.215 14.247 14.217 14.15 14.078 14.028 14.028 14.055 14.085 14.095 14.085 14.075 14.07 14.068 14.07 14.078 14.085 14.11 14.16 14.22 14.28 14.348 14.42 14.495 14.57 14.635 14.7 14.765 14.825 14.883 14.935 14.985 15.03 15.057 15.075 15.095 15.115 15.133 15.153 15.182 15.215 15.237 15.252 15.267 15.277 15.298 15.333
18.28 18.35 18.39 18.405 18.435 18.48 18.505 18.495 18.472 18.45 18.445 18.445 18.427 18.395 18.365 18.35 18.332 18.295 18.263 18.245 18.228 18.212 18.195 18.177 18.162 18.145 18.175 18.245 18.295 18.338 18.402 18.477 18.53 18.57 18.618 18.672 18.727 18.772 18.805 18.81 18.77 18.708 18.715 18.8 18.887 18.962 19.008 19.045 19.108 19.18 19.227 19.247 19.242 19.212 19.177 19.147 19.117 19.077 19.035 18.99 18.94 18.888 18.83 18.775 18.73 18.69 18.67 18.668 18.668 18.662 18.62 18.56 18.513 18.465 18.413 18.368 18.348 18.327 18.252 18.14 18.01 17.845 17.655 17.488 17.393 17.375 17.395 17.41 17.39 17.335 17.278 17.225 17.178 17.135 17.08 16.99 16.93 16.942 16.892 16.725 16.533 16.355 16.193 16.038 15.883 15.727 15.572 15.443 15.36 15.297 15.235 15.167 15.098 15.033 14.975 14.92 14.852 14.767 14.65 14.525 14.43 14.363 14.325 14.318 14.335 14.383 14.427 14.442 14.45 14.455 14.445 14.425 14.403 14.383 14.385 14.405 14.43 14.46 14.49 14.52 14.558 14.6 14.627 14.635 14.63 14.622 14.615 14.59 14.532 14.44 14.32 13.965 13.915 14.185 14.23 14.237 14.195 14.123 14.06 14.03 14.038 14.065 14.075 14.065 14.06 14.063 14.063 14.06 14.063 14.07 14.1 14.157 14.22 14.28 14.35 14.427 14.505 14.58 14.645 14.71 14.772 14.825 14.877 14.93 14.972 15.01 15.04 15.062 15.085 15.105 15.115 15.12 15.14 15.17 15.192 15.207 15.217 15.22 15.235 15.27
18.108 18.163 18.203 18.23 18.275 18.327 18.355 18.352 18.342 18.328 18.325 18.335 18.337 18.32 18.295 18.272 18.237 18.188 18.153 18.135 18.12 18.105 18.085 18.07 18.055 18.035 18.065 18.145 18.217 18.275 18.345 18.435 18.515 18.572 18.622 18.672 18.717 18.757 18.788 18.812 18.817 18.785 18.793 18.87 18.96 19.037 19.075 19.09 19.125 19.185 19.23 19.255 19.272 19.26 19.23 19.203 19.18 19.155 19.112 19.06 19.01 18.96 18.902 18.838 18.78 18.733 18.723 18.742 18.752 18.742 18.695 18.628 18.565 18.51 18.46 18.403 18.353 18.32 18.247 18.133 18.02 17.895 17.74 17.605 17.51 17.458 17.457 17.445 17.39 17.328 17.275 17.228 17.185 17.145 17.098 17.05 17.05 17.085 17.05 16.897 16.695 16.498 16.325 16.177 16.032 15.885 15.732 15.575 15.453 15.377 15.312 15.23 15.13 15.038 14.955 14.88 14.807 14.725 14.605 14.458 14.328 14.245 14.225 14.253 14.31 14.377 14.422 14.437 14.445 14.45 14.44 14.42 14.4 14.388 14.393 14.408 14.425 14.45 14.48 14.515 14.558 14.602 14.637 14.66 14.67 14.665 14.655 14.63 14.587 14.52 14.41 14.267 13.943 13.94 14.197 14.222 14.22 14.17 14.11 14.065 14.038 14.045 14.055 14.05 14.053 14.058 14.06 14.055 14.053 14.058 14.088 14.15 14.217 14.28 14.35 14.43 14.512 14.59 14.655 14.715 14.77 14.82 14.87 14.917 14.955 14.99 15.02 15.045 15.072 15.092 15.1 15.1 15.105 15.125 15.15 15.16 15.16 15.16 15.175 15.215
