ncols         200
nrows         71
xllcorner     545000
yllcorner     257350
cellsize      5
NODATA_value  -9999.0
9.835 9.915 9.995 10.075 10.172 10.19 10.145 10.218 10.39 10.575 10.722 10.795 10.802 10.772 10.702 10.628 10.61 10.708 10.882 11.05 11.19 11.29 11.33 11.33 11.343 11.368 11.395 11.42 11.442 11.452 11.442 11.427 11.413 11.398 11.383 11.383 11.4 11.422 11.445 11.47 11.508 11.55 11.592 11.602 11.575 11.555 11.553 11.582 11.62 11.615 11.61 11.633 11.668 11.715 11.715 11.68 11.695 11.747 11.722 11.452 11.113 11.115 11.217 11.173 11.128 11.08 11.093 11.243 11.47 11.7 11.905 12.08 12.227 12.332 12.405 12.45 12.455 12.435 12.418 12.41 12.398 12.403 12.435 12.435 12.395 12.335 12.253 12.233 12.3 12.37 12.407 12.405 12.385 12.373 12.368 12.368 12.388 12.42 12.452 12.48 12.475 12.44 12.495 12.622 12.685 12.692 12.685 12.672 12.64 12.588 12.578 12.612 12.642 12.655 12.652 12.65 12.635 12.582 12.51 12.44 12.4 12.412 12.445 12.477 12.512 12.545 12.59 12.64 12.67 12.67 12.652 12.632 12.602 12.565 12.54 12.533 12.527 12.52 12.513 12.523 12.548 12.575 12.59 12.582 12.568 12.573 12.615 12.682 12.755 12.828 12.907 12.985 13.042 13.08 13.108 13.13 13.15 13.167 13.177 13.178 13.183 13.205 13.248 13.313 13.403 13.497 13.505 13.468 13.475 13.495 13.515 13.538 13.563 13.588 13.625 13.665 13.695 13.745 13.825 13.91 13.987 14.067 14.18 14.325 14.475 14.61 14.747 14.842 14.84 14.815 14.833 14.88 14.922 14.94 14.955 14.998 15.052 15.108 15.165 15.22
9.75 9.83 9.91 9.995 10.102 10.13 10.04 9.99 10.085 10.265 10.407 10.475 10.505 10.527 10.533 10.515 10.57 10.722 10.887 11.05 11.205 11.325 11.37 11.365 11.365 11.378 11.398 11.42 11.445 11.465 11.465 11.452 11.437 11.42 11.403 11.39 11.39 11.408 11.433 11.463 11.503 11.55 11.597 11.625 11.632 11.632 11.638 11.675 11.735 11.77 11.78 11.787 11.792 11.795 11.77 11.718 11.693 11.722 11.632 11.238 11.015 11.222 11.357 11.317 11.272 11.21 11.193 11.323 11.543 11.77 11.967 12.11 12.21 12.295 12.38 12.46 12.52 12.547 12.545 12.53 12.51 12.508 12.527 12.51 12.447 12.36 12.27 12.265 12.34 12.41 12.455 12.467 12.457 12.447 12.442 12.44 12.448 12.47 12.497 12.5 12.467 12.423 12.475 12.625 12.75 12.797 12.787 12.757 12.7 12.633 12.615 12.647 12.672 12.682 12.685 12.672 12.62 12.538 12.453 12.378 12.338 12.345 12.383 12.427 12.477 12.527 12.562 12.587 12.597 12.587 12.572 12.557 12.538 12.513 12.495 12.488 12.48 12.47 12.46 12.468 12.49 12.515 12.543 12.57 12.592 12.615 12.65 12.703 12.77 12.843 12.923 13.007 13.087 13.152 13.192 13.22 13.245 13.26 13.268 13.278 13.303 13.337 13.372 13.41 13.465 13.54 13.545 13.483 13.455 13.465 13.488 13.512 13.538 13.565 13.6 13.632 13.658 13.69 13.75 13.84 13.945 14.062 14.205 14.362 14.52 14.677 14.83 14.91 14.905 14.877 14.863 14.887 14.912 14.92 14.948 15 15.057 15.112 15.17 15.227
9.67 9.75 9.828 9.92 10.037 10.07 9.985 9.878 9.845 9.955 10.092 10.155 10.188 10.26 10.383 10.453 10.545 10.72 10.885 11.045 11.207 11.35 11.41 11.405 11.4 11.405 11.418 11.43 11.448 11.47 11.48 11.475 11.46 11.44 11.425 11.41 11.398 11.398 11.418 11.46 11.508 11.558 11.61 11.647 11.67 11.682 11.695 11.732 11.785 11.83 11.857 11.86 11.85 11.837 11.807 11.762 11.72 11.71 11.495 11.048 10.985 11.31 11.48 11.462 11.405 11.32 11.288 11.413 11.628 11.835 11.992 12.09 12.172 12.257 12.34 12.422 12.507 12.582 12.632 12.645 12.625 12.615 12.607 12.557 12.47 12.368 12.29 12.303 12.375 12.432 12.475 12.502 12.51 12.507 12.507 12.512 12.517 12.527 12.527 12.495 12.45 12.405 12.455 12.605 12.76 12.87 12.877 12.82 12.75 12.683 12.66 12.68 12.692 12.7 12.69 12.645 12.583 12.515 12.448 12.393 12.353 12.333 12.338 12.36 12.405 12.46 12.497 12.52 12.52 12.503 12.488 12.483 12.49 12.49 12.478 12.46 12.44 12.423 12.41 12.413 12.433 12.458 12.5 12.563 12.612 12.65 12.69 12.733 12.788 12.86 12.94 13.023 13.108 13.197 13.25 13.275 13.315 13.347 13.37 13.392 13.422 13.455 13.487 13.515 13.54 13.577 13.572 13.515 13.463 13.443 13.46 13.488 13.512 13.535 13.56 13.59 13.617 13.645 13.685 13.765 13.883 14.013 14.155 14.31 14.47 14.632 14.787 14.892 14.922 14.912 14.895 14.892 14.895 14.905 14.945 15 15.057 15.112 15.167 15.225
9.585 9.665 9.745 9.848 9.975 10.012 9.93 9.823 9.723 9.705 9.778 9.868 9.973 10.125 10.315 10.425 10.533 10.717 10.895 11.057 11.215 11.37 11.447 11.447 11.443 11.445 11.455 11.46 11.468 11.483 11.495 11.497 11.49 11.463 11.433 11.417 11.405 11.395 11.408 11.46 11.527 11.59 11.642 11.67 11.682 11.692 11.708 11.742 11.785 11.825 11.862 11.885 11.882 11.87 11.842 11.797 11.755 11.675 11.283 10.918 11.053 11.385 11.59 11.597 11.518 11.423 11.435 11.633 11.81 11.897 11.977 12.045 12.123 12.207 12.29 12.372 12.457 12.54 12.625 12.687 12.707 12.705 12.662 12.575 12.473 12.37 12.31 12.338 12.4 12.447 12.475 12.482 12.49 12.497 12.505 12.512 12.52 12.53 12.52 12.48 12.433 12.385 12.433 12.59 12.763 12.892 12.895 12.825 12.765 12.707 12.675 12.67 12.67 12.68 12.682 12.64 12.595 12.567 12.528 12.485 12.445 12.413 12.388 12.37 12.373 12.398 12.433 12.448 12.443 12.448 12.463 12.485 12.52 12.52 12.49 12.468 12.44 12.413 12.393 12.393 12.42 12.455 12.51 12.59 12.64 12.673 12.717 12.762 12.813 12.878 12.963 13.06 13.163 13.272 13.32 13.288 13.293 13.342 13.38 13.405 13.43 13.472 13.512 13.532 13.55 13.572 13.572 13.535 13.477 13.433 13.435 13.465 13.487 13.497 13.508 13.533 13.565 13.595 13.63 13.71 13.835 13.968 14.105 14.255 14.415 14.592 14.745 14.845 14.897 14.902 14.897 14.887 14.883 14.903 14.943 14.995 15.05 15.105 15.16 15.215
9.497 9.58 9.668 9.78 9.91 9.952 9.877 9.77 9.663 9.575 9.583 9.71 9.89 10.08 10.27 10.392 10.515 10.705 10.892 11.067 11.23 11.387 11.475 11.487 11.487 11.488 11.495 11.5 11.505 11.512 11.52 11.528 11.532 11.497 11.44 11.413 11.4 11.39 11.39 11.428 11.5 11.577 11.622 11.632 11.662 11.69 11.705 11.738 11.775 11.815 11.855 11.892 11.91 11.902 11.875 11.83 11.775 11.612 11.16 10.915 11.153 11.477 11.707 11.762 11.732 11.698 11.74 11.87 11.92 11.915 11.958 12.015 12.08 12.15 12.228 12.31 12.395 12.48 12.563 12.645 12.705 12.722 12.675 12.58 12.477 12.373 12.33 12.37 12.415 12.435 12.43 12.418 12.42 12.43 12.44 12.448 12.458 12.475 12.487 12.467 12.42 12.383 12.453 12.63 12.822 12.915 12.862 12.78 12.72 12.667 12.627 12.61 12.613 12.635 12.665 12.657 12.63 12.627 12.615 12.577 12.538 12.507 12.48 12.45 12.42 12.4 12.403 12.42 12.443 12.478 12.523 12.565 12.585 12.552 12.505 12.487 12.472 12.448 12.43 12.438 12.47 12.513 12.575 12.642 12.67 12.688 12.733 12.785 12.835 12.915 13.03 13.15 13.27 13.392 13.432 13.33 13.238 13.25 13.29 13.315 13.353 13.42 13.47 13.49 13.513 13.54 13.557 13.535 13.48 13.425 13.415 13.442 13.457 13.46 13.46 13.473 13.5 13.53 13.585 13.683 13.803 13.928 14.058 14.203 14.37 14.56 14.7 14.785 14.86 14.887 14.882 14.878 14.888 14.915 14.945 14.988 15.04 15.095 15.15 15.205
9.41 9.495 9.593 9.715 9.845 9.892 9.822 9.713 9.613 9.545 9.558 9.673 9.845 10.035 10.225 10.36 10.495 10.685 10.875 11.062 11.24 11.402 11.497 11.52 11.527 11.53 11.535 11.54 11.54 11.543 11.553 11.567 11.577 11.545 11.468 11.413 11.393 11.38 11.373 11.38 11.425 11.5 11.525 11.528 11.605 11.677 11.705 11.735 11.77 11.81 11.85 11.887 11.92 11.932 11.905 11.847 11.775 11.557 11.233 11.148 11.34 11.597 11.775 11.84 11.872 11.905 11.927 11.91 11.878 11.893 11.945 12.005 12.063 12.118 12.183 12.255 12.333 12.418 12.5 12.585 12.655 12.685 12.652 12.57 12.477 12.378 12.348 12.38 12.39 12.375 12.35 12.343 12.353 12.365 12.375 12.388 12.405 12.425 12.442 12.442 12.41 12.418 12.545 12.73 12.902 12.94 12.843 12.743 12.66 12.595 12.555 12.548 12.568 12.6 12.632 12.652 12.647 12.652 12.667 12.66 12.632 12.6 12.57 12.53 12.482 12.437 12.415 12.453 12.515 12.562 12.607 12.642 12.627 12.57 12.518 12.5 12.505 12.498 12.495 12.515 12.545 12.583 12.637 12.68 12.69 12.705 12.748 12.798 12.85 12.963 13.122 13.267 13.395 13.517 13.545 13.422 13.265 13.19 13.2 13.24 13.305 13.382 13.43 13.453 13.48 13.51 13.537 13.53 13.48 13.418 13.398 13.415 13.42 13.42 13.42 13.423 13.435 13.47 13.553 13.668 13.783 13.9 14.023 14.155 14.34 14.525 14.637 14.722 14.807 14.86 14.868 14.875 14.9 14.93 14.958 14.99 15.033 15.085 15.14 15.2
9.322 9.415 9.525 9.655 9.785 9.835 9.757 9.66 9.605 9.573 9.588 9.673 9.813 9.99 10.18 10.328 10.475 10.665 10.855 11.045 11.232 11.41 11.517 11.547 11.56 11.567 11.57 11.57 11.568 11.573 11.59 11.61 11.622 11.597 11.515 11.428 11.388 11.373 11.365 11.36 11.37 11.422 11.428 11.428 11.528 11.64 11.7 11.732 11.77 11.807 11.845 11.87 11.88 11.917 11.917 11.845 11.765 11.555 11.43 11.52 11.605 11.695 11.762 11.798 11.835 11.875 11.89 11.865 11.848 11.878 11.935 11.995 12.05 12.105 12.165 12.223 12.285 12.36 12.44 12.523 12.602 12.647 12.617 12.542 12.462 12.378 12.343 12.34 12.32 12.295 12.27 12.268 12.288 12.305 12.318 12.335 12.352 12.37 12.387 12.402 12.41 12.48 12.637 12.805 12.947 12.982 12.893 12.773 12.658 12.553 12.493 12.49 12.512 12.537 12.56 12.595 12.635 12.657 12.677 12.7 12.705 12.67 12.615 12.56 12.505 12.455 12.438 12.49 12.572 12.64 12.69 12.7 12.655 12.59 12.538 12.52 12.535 12.548 12.563 12.59 12.622 12.657 12.69 12.707 12.71 12.723 12.763 12.823 12.898 13.015 13.18 13.355 13.51 13.64 13.657 13.527 13.35 13.195 13.145 13.198 13.273 13.345 13.392 13.42 13.45 13.48 13.507 13.515 13.477 13.408 13.375 13.383 13.385 13.385 13.388 13.39 13.393 13.438 13.54 13.66 13.778 13.893 14.01 14.145 14.33 14.487 14.578 14.66 14.745 14.82 14.86 14.885 14.915 14.942 14.97 15 15.033 15.078 15.133 15.203
9.235 9.343 9.46 9.59 9.717 9.755 9.703 9.663 9.64 9.618 9.628 9.7 9.808 9.953 10.135 10.295 10.455 10.645 10.835 11.025 11.21 11.377 11.51 11.572 11.585 11.595 11.597 11.592 11.59 11.605 11.63 11.65 11.667 11.652 11.577 11.473 11.398 11.368 11.358 11.352 11.348 11.363 11.36 11.36 11.44 11.567 11.617 11.61 11.63 11.645 11.655 11.652 11.69 11.82 11.895 11.842 11.757 11.65 11.657 11.745 11.735 11.712 11.73 11.765 11.805 11.845 11.85 11.825 11.825 11.865 11.925 11.982 12.038 12.095 12.155 12.21 12.265 12.328 12.393 12.463 12.542 12.602 12.58 12.505 12.433 12.385 12.378 12.35 12.29 12.23 12.19 12.195 12.233 12.255 12.265 12.285 12.3 12.315 12.335 12.353 12.388 12.507 12.68 12.835 12.97 13.032 12.99 12.88 12.745 12.603 12.478 12.418 12.418 12.432 12.455 12.505 12.605 12.657 12.64 12.65 12.675 12.665 12.617 12.565 12.517 12.47 12.46 12.52 12.61 12.692 12.75 12.745 12.687 12.625 12.583 12.575 12.588 12.605 12.628 12.653 12.685 12.72 12.737 12.74 12.737 12.738 12.798 12.9 12.993 13.095 13.23 13.393 13.567 13.742 13.77 13.617 13.425 13.235 13.165 13.223 13.283 13.335 13.373 13.398 13.425 13.453 13.478 13.5 13.475 13.41 13.373 13.368 13.373 13.375 13.378 13.383 13.383 13.428 13.54 13.665 13.785 13.903 14.02 14.175 14.35 14.467 14.543 14.62 14.705 14.79 14.852 14.89 14.92 14.95 14.98 15.01 15.04 15.075 15.128 15.205
9.218 9.3 9.393 9.515 9.632 9.665 9.663 9.682 9.68 9.663 9.67 9.74 9.835 9.945 10.098 10.262 10.435 10.62 10.78 10.922 11.072 11.24 11.432 11.567 11.607 11.62 11.62 11.61 11.603 11.623 11.662 11.69 11.71 11.705 11.64 11.535 11.435 11.373 11.35 11.345 11.343 11.34 11.34 11.34 11.37 11.467 11.462 11.34 11.288 11.28 11.28 11.335 11.49 11.702 11.85 11.847 11.763 11.713 11.732 11.742 11.708 11.69 11.703 11.735 11.775 11.81 11.807 11.79 11.808 11.855 11.912 11.968 12.025 12.085 12.142 12.198 12.255 12.315 12.37 12.428 12.495 12.557 12.545 12.473 12.405 12.4 12.46 12.467 12.398 12.305 12.228 12.18 12.198 12.23 12.23 12.238 12.25 12.265 12.285 12.3 12.325 12.455 12.657 12.84 12.99 13.055 13.052 12.992 12.865 12.705 12.53 12.383 12.318 12.32 12.358 12.45 12.612 12.68 12.62 12.583 12.578 12.593 12.605 12.58 12.53 12.48 12.48 12.55 12.637 12.715 12.762 12.757 12.72 12.675 12.65 12.655 12.665 12.677 12.695 12.715 12.74 12.77 12.782 12.772 12.752 12.73 12.808 12.96 13.085 13.192 13.303 13.435 13.595 13.772 13.795 13.647 13.462 13.278 13.228 13.28 13.317 13.347 13.37 13.388 13.41 13.438 13.463 13.487 13.475 13.433 13.403 13.385 13.38 13.382 13.385 13.385 13.38 13.415 13.53 13.67 13.795 13.915 14.045 14.207 14.37 14.477 14.545 14.608 14.685 14.77 14.837 14.88 14.913 14.947 14.98 15.01 15.04 15.068 15.113 15.187
9.29 9.343 9.388 9.455 9.535 9.583 9.61 9.65 9.68 9.692 9.713 9.778 9.873 9.97 10.095 10.213 10.328 10.465 10.577 10.69 10.85 11.068 11.32 11.527 11.627 11.647 11.637 11.625 11.613 11.623 11.667 11.712 11.745 11.755 11.7 11.595 11.49 11.395 11.345 11.34 11.343 11.345 11.343 11.34 11.343 11.365 11.29 11.095 10.945 10.915 11 11.175 11.393 11.608 11.802 11.852 11.78 11.72 11.698 11.69 11.675 11.67 11.678 11.705 11.745 11.77 11.768 11.765 11.793 11.845 11.9 11.955 12.015 12.072 12.128 12.185 12.245 12.302 12.357 12.415 12.473 12.527 12.517 12.448 12.398 12.425 12.515 12.582 12.575 12.5 12.395 12.278 12.21 12.215 12.22 12.208 12.205 12.215 12.235 12.245 12.25 12.365 12.58 12.79 12.967 13.055 13.075 13.06 12.957 12.785 12.605 12.425 12.283 12.233 12.288 12.443 12.647 12.72 12.655 12.58 12.545 12.55 12.558 12.562 12.54 12.495 12.503 12.577 12.655 12.72 12.747 12.735 12.717 12.7 12.697 12.712 12.727 12.74 12.755 12.775 12.795 12.812 12.807 12.777 12.74 12.703 12.77 12.942 13.112 13.262 13.387 13.512 13.642 13.732 13.705 13.585 13.435 13.3 13.27 13.302 13.327 13.352 13.375 13.39 13.405 13.43 13.455 13.472 13.475 13.457 13.435 13.415 13.398 13.39 13.39 13.385 13.375 13.4 13.508 13.66 13.802 13.93 14.07 14.225 14.37 14.492 14.57 14.62 14.68 14.753 14.82 14.867 14.905 14.94 14.97 15 15.027 15.05 15.088 15.153
9.357 9.427 9.457 9.465 9.49 9.525 9.56 9.6 9.64 9.68 9.81 9.98 10.103 10.228 10.343 10.398 10.343 10.25 10.29 10.473 10.71 10.975 11.25 11.485 11.617 11.652 11.645 11.637 11.627 11.623 11.653 11.707 11.757 11.795 11.755 11.637 11.517 11.415 11.358 11.345 11.348 11.352 11.35 11.345 11.345 11.332 11.245 11.073 10.88 10.795 10.905 11.113 11.323 11.533 11.745 11.837 11.795 11.74 11.692 11.663 11.655 11.655 11.655 11.675 11.715 11.732 11.733 11.743 11.778 11.833 11.888 11.945 12.005 12.06 12.115 12.175 12.232 12.287 12.342 12.4 12.46 12.512 12.497 12.425 12.405 12.465 12.555 12.645 12.707 12.682 12.575 12.442 12.315 12.238 12.218 12.205 12.188 12.18 12.185 12.188 12.19 12.288 12.483 12.69 12.88 12.995 13.045 13.072 13.007 12.845 12.675 12.515 12.363 12.25 12.278 12.457 12.677 12.757 12.682 12.585 12.563 12.58 12.558 12.548 12.535 12.503 12.52 12.59 12.658 12.712 12.727 12.71 12.695 12.695 12.71 12.727 12.747 12.767 12.785 12.805 12.825 12.83 12.8 12.755 12.715 12.675 12.73 12.895 13.075 13.255 13.42 13.552 13.625 13.625 13.582 13.49 13.358 13.278 13.29 13.318 13.333 13.358 13.382 13.4 13.41 13.425 13.442 13.452 13.46 13.46 13.445 13.427 13.412 13.4 13.393 13.385 13.373 13.385 13.483 13.64 13.795 13.94 14.085 14.23 14.37 14.505 14.597 14.65 14.7 14.753 14.805 14.85 14.892 14.93 14.96 14.987 15.01 15.028 15.058 15.115
9.377 9.465 9.505 9.502 9.505 9.52 9.545 9.573 9.605 9.645 9.835 10.247 10.565 10.697 10.787 10.84 10.755 10.51 10.335 10.408 10.655 10.933 11.21 11.445 11.582 11.632 11.637 11.632 11.627 11.623 11.643 11.693 11.745 11.797 11.762 11.63 11.51 11.435 11.39 11.363 11.355 11.358 11.357 11.355 11.355 11.355 11.325 11.217 11.043 10.91 10.935 11.098 11.3 11.505 11.702 11.792 11.762 11.707 11.66 11.65 11.66 11.66 11.658 11.66 11.688 11.705 11.705 11.723 11.765 11.82 11.875 11.935 11.992 12.048 12.105 12.165 12.217 12.268 12.325 12.388 12.455 12.505 12.477 12.408 12.42 12.505 12.595 12.675 12.742 12.755 12.677 12.555 12.427 12.305 12.233 12.212 12.195 12.178 12.17 12.173 12.185 12.235 12.375 12.58 12.772 12.895 12.965 13.025 13.015 12.91 12.775 12.642 12.507 12.373 12.3 12.42 12.67 12.765 12.672 12.578 12.588 12.64 12.63 12.595 12.563 12.55 12.598 12.677 12.72 12.72 12.708 12.69 12.68 12.69 12.708 12.725 12.75 12.777 12.8 12.817 12.832 12.83 12.797 12.743 12.69 12.65 12.695 12.85 13.028 13.205 13.38 13.505 13.522 13.478 13.442 13.39 13.28 13.228 13.29 13.347 13.36 13.368 13.388 13.407 13.423 13.435 13.435 13.43 13.433 13.437 13.43 13.415 13.405 13.4 13.4 13.395 13.38 13.383 13.473 13.63 13.78 13.912 14.065 14.227 14.37 14.51 14.617 14.677 14.725 14.765 14.793 14.825 14.872 14.917 14.947 14.97 14.993 15.013 15.043 15.095
9.37 9.46 9.512 9.52 9.523 9.535 9.555 9.573 9.595 9.625 9.715 10.39 11.05 11.147 11.215 11.28 11.307 11.17 10.87 10.655 10.685 10.898 11.175 11.407 11.547 11.607 11.62 11.615 11.613 11.62 11.64 11.678 11.725 11.77 11.725 11.6 11.513 11.468 11.43 11.393 11.37 11.365 11.365 11.365 11.365 11.365 11.36 11.322 11.205 11.063 11.035 11.133 11.3 11.505 11.672 11.722 11.685 11.63 11.603 11.633 11.672 11.685 11.682 11.67 11.67 11.68 11.685 11.708 11.753 11.808 11.865 11.925 11.98 12.035 12.09 12.142 12.195 12.25 12.315 12.385 12.455 12.495 12.455 12.405 12.435 12.5 12.562 12.615 12.65 12.675 12.64 12.542 12.43 12.31 12.223 12.197 12.202 12.197 12.19 12.2 12.22 12.233 12.303 12.473 12.667 12.792 12.86 12.93 12.94 12.87 12.775 12.672 12.565 12.452 12.333 12.34 12.547 12.692 12.635 12.573 12.62 12.695 12.707 12.675 12.648 12.68 12.757 12.797 12.78 12.73 12.693 12.673 12.67 12.688 12.708 12.73 12.76 12.79 12.815 12.83 12.835 12.825 12.8 12.747 12.68 12.63 12.663 12.805 12.982 13.155 13.317 13.417 13.415 13.36 13.31 13.265 13.19 13.18 13.267 13.357 13.41 13.413 13.405 13.415 13.44 13.462 13.45 13.423 13.413 13.413 13.407 13.395 13.388 13.39 13.4 13.405 13.397 13.395 13.478 13.632 13.75 13.833 13.988 14.197 14.365 14.507 14.627 14.697 14.742 14.772 14.783 14.798 14.84 14.897 14.937 14.963 14.988 15.013 15.05 15.1
9.355 9.445 9.515 9.537 9.538 9.55 9.57 9.59 9.61 9.63 9.681 10.545 11.387 11.437 11.502 11.567 11.632 11.632 11.51 11.25 11.003 10.963 11.14 11.372 11.512 11.58 11.6 11.603 11.61 11.625 11.645 11.67 11.708 11.74 11.69 11.595 11.54 11.503 11.467 11.43 11.395 11.378 11.375 11.375 11.375 11.375 11.37 11.36 11.317 11.208 11.165 11.228 11.33 11.505 11.625 11.632 11.602 11.565 11.573 11.62 11.672 11.705 11.705 11.685 11.658 11.65 11.66 11.688 11.738 11.795 11.855 11.912 11.965 12.015 12.063 12.115 12.178 12.243 12.31 12.38 12.45 12.485 12.44 12.388 12.383 12.4 12.435 12.47 12.5 12.535 12.525 12.455 12.365 12.255 12.168 12.153 12.18 12.197 12.21 12.232 12.255 12.265 12.283 12.385 12.562 12.687 12.757 12.81 12.785 12.705 12.625 12.545 12.465 12.38 12.288 12.275 12.39 12.565 12.602 12.575 12.65 12.737 12.775 12.755 12.768 12.83 12.865 12.83 12.77 12.72 12.678 12.658 12.665 12.69 12.717 12.743 12.77 12.8 12.825 12.84 12.837 12.817 12.792 12.757 12.69 12.618 12.63 12.758 12.93 13.092 13.245 13.33 13.315 13.26 13.203 13.148 13.103 13.133 13.23 13.332 13.427 13.475 13.467 13.458 13.48 13.515 13.505 13.458 13.42 13.395 13.383 13.378 13.378 13.385 13.395 13.405 13.41 13.408 13.483 13.61 13.675 13.728 13.88 14.115 14.327 14.497 14.627 14.707 14.752 14.775 14.78 14.785 14.81 14.862 14.917 14.96 14.992 15.023 15.065 15.115
9.338 9.43 9.515 9.552 9.553 9.565 9.585 9.605 9.625 9.648 9.983 10.895 11.45 11.397 11.415 11.48 11.545 11.612 11.642 11.555 11.387 11.27 11.238 11.335 11.477 11.555 11.587 11.6 11.615 11.63 11.65 11.67 11.695 11.71 11.675 11.62 11.58 11.54 11.505 11.47 11.43 11.398 11.385 11.385 11.385 11.387 11.382 11.37 11.36 11.315 11.3 11.355 11.417 11.51 11.56 11.543 11.523 11.523 11.56 11.61 11.665 11.712 11.722 11.692 11.65 11.63 11.638 11.67 11.725 11.785 11.84 11.887 11.935 11.985 12.038 12.1 12.17 12.238 12.305 12.375 12.445 12.475 12.43 12.368 12.328 12.305 12.303 12.32 12.35 12.385 12.395 12.35 12.275 12.185 12.11 12.103 12.14 12.18 12.22 12.257 12.287 12.297 12.295 12.33 12.458 12.585 12.66 12.677 12.615 12.535 12.455 12.375 12.315 12.308 12.333 12.408 12.493 12.553 12.573 12.598 12.682 12.77 12.832 12.85 12.877 12.902 12.89 12.85 12.788 12.723 12.665 12.648 12.67 12.7 12.73 12.755 12.78 12.81 12.835 12.845 12.835 12.81 12.785 12.76 12.705 12.623 12.603 12.708 12.867 13.02 13.17 13.242 13.212 13.158 13.103 13.055 13.035 13.073 13.165 13.275 13.382 13.477 13.527 13.542 13.565 13.595 13.585 13.53 13.472 13.417 13.375 13.365 13.375 13.385 13.395 13.405 13.415 13.42 13.47 13.54 13.575 13.623 13.77 14.005 14.24 14.455 14.612 14.705 14.752 14.767 14.77 14.772 14.78 14.82 14.885 14.94 14.987 15.032 15.08 15.13
9.322 9.415 9.505 9.56 9.57 9.58 9.6 9.62 9.64 9.67 10.32 11.19 11.4 11.29 11.178 11.168 11.225 11.295 11.34 11.35 11.35 11.347 11.292 11.318 11.445 11.53 11.565 11.572 11.587 11.605 11.63 11.657 11.68 11.695 11.69 11.66 11.62 11.58 11.543 11.507 11.47 11.43 11.403 11.395 11.398 11.402 11.397 11.385 11.375 11.367 11.375 11.412 11.465 11.507 11.513 11.49 11.49 11.525 11.575 11.625 11.678 11.727 11.735 11.695 11.648 11.615 11.618 11.658 11.71 11.762 11.81 11.85 11.9 11.963 12.028 12.095 12.165 12.235 12.305 12.375 12.445 12.465 12.42 12.37 12.33 12.288 12.248 12.225 12.218 12.235 12.262 12.237 12.165 12.1 12.068 12.078 12.118 12.165 12.21 12.255 12.297 12.315 12.317 12.323 12.385 12.487 12.547 12.525 12.445 12.365 12.325 12.338 12.383 12.478 12.59 12.682 12.745 12.69 12.593 12.603 12.677 12.765 12.847 12.9 12.912 12.905 12.895 12.877 12.83 12.755 12.688 12.665 12.683 12.71 12.74 12.767 12.793 12.82 12.845 12.847 12.827 12.802 12.777 12.75 12.715 12.645 12.593 12.655 12.795 12.945 13.095 13.155 13.11 13.058 13.015 12.983 12.975 13.003 13.08 13.19 13.303 13.417 13.505 13.552 13.585 13.62 13.61 13.547 13.482 13.415 13.358 13.35 13.372 13.385 13.395 13.405 13.415 13.422 13.438 13.455 13.475 13.518 13.66 13.895 14.138 14.387 14.572 14.667 14.72 14.735 14.735 14.735 14.735 14.78 14.857 14.918 14.972 15.022 15.067 15.12
9.305 9.398 9.49 9.562 9.59 9.598 9.615 9.635 9.663 9.853 10.527 11.19 11.382 11.317 11.123 10.983 10.94 10.975 11.027 11.048 11.05 11.1 11.205 11.315 11.417 11.505 11.53 11.52 11.533 11.553 11.585 11.62 11.647 11.677 11.702 11.695 11.66 11.62 11.58 11.545 11.51 11.47 11.435 11.415 11.415 11.42 11.415 11.408 11.4 11.393 11.393 11.408 11.445 11.49 11.497 11.485 11.513 11.567 11.62 11.67 11.715 11.752 11.747 11.698 11.643 11.603 11.6 11.635 11.68 11.725 11.773 11.823 11.885 11.955 12.025 12.095 12.165 12.235 12.305 12.375 12.445 12.46 12.418 12.373 12.33 12.29 12.25 12.208 12.165 12.143 12.138 12.115 12.078 12.058 12.06 12.078 12.11 12.15 12.19 12.235 12.28 12.307 12.32 12.33 12.345 12.4 12.422 12.368 12.345 12.365 12.408 12.482 12.567 12.652 12.722 12.772 12.815 12.777 12.663 12.6 12.63 12.71 12.795 12.847 12.867 12.877 12.885 12.885 12.862 12.807 12.748 12.718 12.715 12.728 12.75 12.78 12.807 12.832 12.85 12.845 12.82 12.795 12.77 12.742 12.717 12.673 12.638 12.665 12.745 12.87 13.015 13.06 13.013 12.973 12.943 12.923 12.92 12.94 13.005 13.11 13.225 13.342 13.43 13.477 13.518 13.57 13.567 13.5 13.43 13.36 13.315 13.33 13.365 13.38 13.392 13.405 13.412 13.415 13.413 13.408 13.413 13.435 13.57 13.815 14.073 14.337 14.517 14.595 14.65 14.68 14.685 14.685 14.685 14.728 14.822 14.902 14.955 15 15.04 15.085
9.29 9.382 9.475 9.56 9.602 9.613 9.63 9.655 9.693 10.093 10.71 11.11 11.365 11.362 11.167 10.967 10.778 10.695 10.72 10.775 10.865 11.018 11.18 11.295 11.392 11.487 11.512 11.48 11.478 11.5 11.533 11.568 11.61 11.655 11.69 11.71 11.697 11.66 11.62 11.585 11.55 11.513 11.483 11.458 11.443 11.44 11.438 11.432 11.425 11.418 11.42 11.425 11.438 11.472 11.49 11.503 11.55 11.61 11.665 11.71 11.745 11.772 11.76 11.705 11.648 11.608 11.593 11.605 11.64 11.69 11.75 11.815 11.885 11.955 12.025 12.095 12.165 12.235 12.305 12.375 12.445 12.46 12.42 12.377 12.335 12.292 12.25 12.21 12.167 12.123 12.08 12.058 12.055 12.06 12.07 12.085 12.113 12.145 12.178 12.218 12.26 12.292 12.31 12.315 12.308 12.325 12.34 12.328 12.368 12.45 12.512 12.555 12.597 12.642 12.685 12.725 12.767 12.787 12.73 12.648 12.618 12.648 12.712 12.755 12.78 12.805 12.827 12.845 12.852 12.842 12.812 12.785 12.77 12.768 12.778 12.795 12.82 12.845 12.852 12.837 12.81 12.785 12.76 12.732 12.708 12.695 12.71 12.737 12.773 12.838 12.935 12.967 12.93 12.903 12.878 12.865 12.875 12.908 12.97 13.053 13.153 13.267 13.352 13.403 13.455 13.512 13.51 13.445 13.375 13.305 13.273 13.305 13.35 13.37 13.385 13.4 13.405 13.405 13.4 13.395 13.395 13.41 13.548 13.793 14.043 14.297 14.457 14.515 14.567 14.612 14.632 14.635 14.635 14.663 14.765 14.877 14.937 14.98 15.02 15.058
9.275 9.365 9.458 9.55 9.607 9.63 9.653 9.688 9.75 10.175 10.715 11.03 11.33 11.38 11.16 10.897 10.658 10.533 10.55 10.668 10.86 11.042 11.165 11.265 11.365 11.465 11.497 11.458 11.435 11.46 11.508 11.558 11.62 11.667 11.688 11.705 11.717 11.7 11.66 11.625 11.593 11.563 11.537 11.51 11.483 11.465 11.463 11.46 11.45 11.445 11.448 11.452 11.455 11.468 11.493 11.533 11.59 11.65 11.702 11.737 11.765 11.787 11.772 11.725 11.68 11.643 11.613 11.598 11.62 11.678 11.745 11.815 11.885 11.955 12.025 12.095 12.165 12.235 12.305 12.375 12.442 12.457 12.417 12.375 12.332 12.288 12.245 12.205 12.163 12.12 12.08 12.08 12.087 12.075 12.08 12.093 12.115 12.145 12.178 12.213 12.248 12.28 12.295 12.287 12.273 12.27 12.295 12.337 12.382 12.425 12.468 12.51 12.553 12.597 12.638 12.678 12.723 12.77 12.767 12.715 12.663 12.63 12.643 12.675 12.705 12.735 12.763 12.793 12.823 12.847 12.855 12.847 12.832 12.823 12.825 12.83 12.842 12.855 12.852 12.83 12.8 12.772 12.745 12.718 12.708 12.725 12.76 12.797 12.832 12.862 12.9 12.9 12.863 12.838 12.815 12.818 12.855 12.92 12.99 13.045 13.11 13.203 13.283 13.338 13.4 13.457 13.45 13.385 13.315 13.245 13.228 13.275 13.33 13.36 13.372 13.385 13.392 13.395 13.392 13.388 13.393 13.43 13.578 13.81 14.042 14.255 14.375 14.425 14.475 14.527 14.57 14.585 14.583 14.593 14.688 14.837 14.925 14.962 14.997 15.032
9.26 9.35 9.443 9.535 9.607 9.647 9.68 9.723 9.865 10.233 10.64 10.983 11.307 11.35 11.09 10.773 10.558 10.523 10.595 10.727 10.9 11.04 11.137 11.232 11.33 11.437 11.477 11.438 11.425 11.47 11.535 11.6 11.665 11.7 11.708 11.713 11.725 11.727 11.7 11.668 11.64 11.615 11.59 11.56 11.53 11.503 11.49 11.485 11.478 11.475 11.475 11.478 11.482 11.488 11.51 11.557 11.615 11.675 11.725 11.755 11.78 11.802 11.797 11.765 11.73 11.695 11.663 11.643 11.665 11.725 11.78 11.833 11.895 11.965 12.035 12.105 12.175 12.245 12.315 12.38 12.43 12.44 12.407 12.365 12.323 12.28 12.24 12.2 12.16 12.12 12.08 12.105 12.135 12.108 12.095 12.1 12.12 12.15 12.182 12.215 12.248 12.277 12.277 12.255 12.238 12.228 12.248 12.292 12.337 12.38 12.423 12.467 12.51 12.552 12.592 12.633 12.68 12.732 12.76 12.742 12.7 12.648 12.623 12.643 12.675 12.71 12.745 12.78 12.818 12.85 12.867 12.875 12.875 12.87 12.865 12.857 12.85 12.84 12.827 12.81 12.785 12.755 12.725 12.715 12.735 12.768 12.802 12.84 12.867 12.88 12.892 12.892 12.858 12.8 12.778 12.82 12.895 12.985 13.057 13.103 13.145 13.188 13.24 13.3 13.363 13.415 13.4 13.328 13.255 13.19 13.188 13.245 13.305 13.345 13.36 13.37 13.38 13.385 13.385 13.383 13.405 13.463 13.61 13.84 14.05 14.195 14.27 14.32 14.375 14.44 14.502 14.532 14.533 14.53 14.615 14.777 14.872 14.905 14.935 14.965
9.255 9.345 9.433 9.52 9.605 9.657 9.695 9.753 9.963 10.323 10.693 11.085 11.34 11.29 11.035 10.755 10.543 10.51 10.625 10.752 10.887 11.002 11.095 11.193 11.303 11.42 11.457 11.43 11.455 11.52 11.587 11.652 11.702 11.727 11.735 11.738 11.74 11.745 11.74 11.717 11.692 11.668 11.642 11.615 11.585 11.553 11.525 11.51 11.503 11.502 11.505 11.505 11.507 11.518 11.54 11.575 11.625 11.685 11.735 11.765 11.79 11.812 11.822 11.812 11.782 11.75 11.73 11.723 11.75 11.812 11.87 11.913 11.955 12.005 12.06 12.123 12.19 12.26 12.327 12.375 12.4 12.41 12.392 12.357 12.32 12.28 12.24 12.2 12.16 12.12 12.088 12.13 12.18 12.157 12.128 12.118 12.13 12.155 12.185 12.218 12.265 12.295 12.272 12.233 12.205 12.188 12.2 12.243 12.29 12.335 12.378 12.422 12.465 12.503 12.543 12.59 12.648 12.707 12.735 12.73 12.705 12.66 12.635 12.648 12.678 12.712 12.745 12.78 12.82 12.855 12.872 12.88 12.885 12.877 12.852 12.825 12.802 12.782 12.77 12.76 12.745 12.727 12.723 12.742 12.775 12.81 12.842 12.862 12.867 12.86 12.865 12.897 12.905 12.845 12.823 12.89 12.98 13.072 13.14 13.175 13.197 13.205 13.233 13.293 13.358 13.405 13.385 13.318 13.243 13.168 13.165 13.223 13.28 13.327 13.35 13.36 13.37 13.375 13.375 13.388 13.433 13.495 13.64 13.855 14.01 14.1 14.16 14.215 14.285 14.365 14.435 14.475 14.485 14.48 14.558 14.7 14.782 14.812 14.833 14.86
9.255 9.343 9.428 9.522 9.565 9.59 9.728 9.925 10.17 10.5 10.887 11.222 11.32 11.217 11.012 10.785 10.575 10.458 10.528 10.67 10.807 10.932 11.045 11.163 11.29 11.407 11.445 11.455 11.51 11.573 11.64 11.7 11.735 11.752 11.762 11.762 11.757 11.755 11.757 11.755 11.742 11.722 11.697 11.67 11.64 11.607 11.572 11.542 11.525 11.522 11.525 11.525 11.525 11.54 11.572 11.605 11.643 11.693 11.742 11.775 11.797 11.817 11.835 11.845 11.835 11.82 11.812 11.808 11.833 11.895 11.965 12.025 12.067 12.1 12.135 12.178 12.228 12.277 12.315 12.342 12.365 12.362 12.355 12.35 12.32 12.28 12.24 12.2 12.16 12.12 12.103 12.16 12.222 12.215 12.18 12.15 12.143 12.16 12.19 12.235 12.302 12.322 12.28 12.23 12.188 12.158 12.155 12.19 12.24 12.287 12.333 12.377 12.417 12.453 12.5 12.563 12.63 12.682 12.7 12.7 12.695 12.667 12.645 12.653 12.68 12.715 12.748 12.785 12.822 12.855 12.875 12.88 12.875 12.85 12.805 12.763 12.73 12.708 12.698 12.69 12.685 12.69 12.717 12.757 12.795 12.837 12.857 12.85 12.84 12.83 12.838 12.875 12.917 12.917 12.933 13.002 13.08 13.155 13.202 13.217 13.223 13.225 13.248 13.305 13.375 13.412 13.387 13.335 13.272 13.198 13.185 13.23 13.273 13.31 13.332 13.345 13.355 13.363 13.373 13.408 13.465 13.525 13.658 13.822 13.922 13.995 14.058 14.125 14.21 14.295 14.365 14.41 14.43 14.43 14.505 14.622 14.69 14.727 14.74 14.758
9.255 9.355 9.45 9.495 9.465 9.503 9.755 10.097 10.415 10.737 11.072 11.247 11.222 11.145 11 10.805 10.615 10.443 10.425 10.563 10.715 10.863 11.005 11.142 11.277 11.395 11.457 11.502 11.565 11.625 11.69 11.74 11.765 11.777 11.78 11.775 11.765 11.755 11.755 11.765 11.772 11.77 11.747 11.712 11.675 11.637 11.597 11.557 11.535 11.53 11.53 11.53 11.533 11.553 11.59 11.627 11.662 11.702 11.745 11.772 11.79 11.81 11.83 11.847 11.86 11.867 11.87 11.87 11.895 11.96 12.037 12.112 12.177 12.225 12.26 12.285 12.287 12.27 12.257 12.27 12.292 12.275 12.275 12.307 12.307 12.28 12.24 12.2 12.16 12.12 12.118 12.188 12.265 12.272 12.237 12.2 12.17 12.17 12.208 12.275 12.34 12.34 12.29 12.24 12.19 12.145 12.12 12.14 12.19 12.24 12.288 12.333 12.37 12.413 12.475 12.545 12.612 12.65 12.657 12.662 12.667 12.66 12.652 12.66 12.683 12.715 12.75 12.79 12.827 12.857 12.87 12.865 12.852 12.815 12.76 12.71 12.668 12.638 12.625 12.628 12.638 12.655 12.688 12.732 12.777 12.832 12.862 12.85 12.83 12.81 12.818 12.865 12.92 12.965 13.022 13.095 13.165 13.215 13.24 13.252 13.258 13.26 13.275 13.325 13.395 13.42 13.385 13.335 13.283 13.235 13.228 13.253 13.278 13.298 13.313 13.328 13.34 13.353 13.383 13.438 13.5 13.56 13.653 13.75 13.823 13.895 13.968 14.05 14.14 14.225 14.295 14.34 14.367 14.378 14.443 14.537 14.592 14.642 14.667 14.673
9.293 9.395 9.452 9.46 9.42 9.475 9.745 10.107 10.472 10.832 11.117 11.197 11.135 11.075 10.995 10.845 10.655 10.465 10.393 10.498 10.663 10.812 10.955 11.102 11.245 11.372 11.462 11.527 11.59 11.65 11.705 11.74 11.76 11.777 11.78 11.77 11.762 11.755 11.752 11.76 11.772 11.775 11.757 11.725 11.682 11.637 11.593 11.555 11.535 11.53 11.53 11.533 11.54 11.56 11.595 11.635 11.675 11.71 11.737 11.757 11.775 11.795 11.815 11.835 11.855 11.875 11.89 11.895 11.923 11.992 12.077 12.16 12.24 12.307 12.34 12.332 12.287 12.225 12.178 12.165 12.175 12.165 12.173 12.217 12.252 12.262 12.24 12.2 12.16 12.123 12.133 12.213 12.307 12.33 12.29 12.242 12.187 12.18 12.243 12.325 12.37 12.347 12.295 12.245 12.195 12.145 12.108 12.113 12.155 12.205 12.255 12.298 12.328 12.375 12.445 12.512 12.565 12.587 12.592 12.6 12.605 12.618 12.642 12.662 12.677 12.7 12.735 12.775 12.815 12.847 12.855 12.845 12.825 12.775 12.715 12.665 12.618 12.585 12.575 12.585 12.605 12.625 12.653 12.695 12.743 12.807 12.87 12.88 12.855 12.828 12.84 12.898 12.963 13.025 13.09 13.16 13.22 13.247 13.267 13.292 13.302 13.305 13.315 13.353 13.412 13.425 13.38 13.335 13.298 13.273 13.27 13.285 13.303 13.315 13.325 13.34 13.355 13.373 13.415 13.478 13.54 13.6 13.665 13.733 13.798 13.86 13.92 13.988 14.07 14.155 14.225 14.27 14.3 14.323 14.37 14.44 14.495 14.55 14.592 14.608
9.347 9.408 9.453 9.49 9.435 9.458 9.738 10.102 10.46 10.81 11.057 11.11 11.055 11.005 10.985 10.897 10.72 10.528 10.415 10.473 10.627 10.767 10.898 11.045 11.19 11.325 11.435 11.512 11.572 11.625 11.665 11.69 11.718 11.755 11.77 11.76 11.752 11.742 11.735 11.74 11.742 11.73 11.715 11.7 11.672 11.632 11.588 11.553 11.535 11.53 11.533 11.54 11.55 11.568 11.6 11.64 11.675 11.7 11.72 11.74 11.76 11.78 11.802 11.822 11.84 11.865 11.89 11.903 11.938 12.01 12.09 12.155 12.215 12.277 12.312 12.29 12.23 12.17 12.11 12.07 12.063 12.058 12.07 12.115 12.16 12.197 12.215 12.197 12.16 12.125 12.148 12.24 12.32 12.32 12.265 12.2 12.155 12.178 12.272 12.372 12.395 12.352 12.3 12.247 12.193 12.148 12.128 12.13 12.15 12.19 12.24 12.277 12.298 12.335 12.4 12.457 12.487 12.5 12.505 12.51 12.53 12.57 12.617 12.65 12.655 12.663 12.695 12.735 12.77 12.8 12.817 12.817 12.792 12.735 12.675 12.628 12.593 12.575 12.565 12.563 12.575 12.595 12.62 12.658 12.71 12.785 12.86 12.902 12.9 12.883 12.908 12.965 13.028 13.09 13.155 13.222 13.262 13.27 13.29 13.325 13.345 13.352 13.363 13.385 13.425 13.425 13.383 13.355 13.34 13.325 13.32 13.335 13.347 13.355 13.365 13.38 13.395 13.42 13.468 13.523 13.583 13.645 13.708 13.775 13.842 13.895 13.93 13.968 14.02 14.088 14.155 14.2 14.24 14.29 14.328 14.363 14.41 14.465 14.52 14.57
9.38 9.44 9.52 9.535 9.423 9.443 9.73 10.087 10.435 10.78 11 11.027 10.975 10.935 10.945 10.92 10.785 10.593 10.46 10.468 10.593 10.722 10.843 10.987 11.127 11.26 11.388 11.48 11.532 11.575 11.61 11.64 11.68 11.732 11.755 11.747 11.737 11.72 11.708 11.703 11.693 11.678 11.663 11.653 11.64 11.617 11.58 11.548 11.535 11.533 11.54 11.55 11.56 11.573 11.6 11.635 11.66 11.683 11.705 11.725 11.745 11.765 11.788 11.807 11.825 11.848 11.875 11.9 11.945 12.017 12.08 12.107 12.13 12.175 12.222 12.222 12.172 12.115 12.055 12.003 11.97 11.955 11.97 12.013 12.058 12.1 12.14 12.165 12.157 12.13 12.165 12.237 12.255 12.222 12.16 12.115 12.123 12.168 12.275 12.395 12.407 12.352 12.297 12.24 12.193 12.17 12.17 12.175 12.18 12.198 12.233 12.262 12.275 12.3 12.35 12.387 12.4 12.41 12.42 12.44 12.483 12.537 12.59 12.63 12.627 12.615 12.64 12.677 12.705 12.73 12.755 12.77 12.75 12.693 12.645 12.618 12.605 12.6 12.583 12.563 12.555 12.565 12.588 12.623 12.683 12.765 12.84 12.902 12.932 12.943 12.982 13.037 13.095 13.155 13.217 13.27 13.29 13.293 13.315 13.352 13.382 13.397 13.408 13.425 13.445 13.44 13.415 13.4 13.39 13.378 13.373 13.38 13.387 13.392 13.4 13.415 13.435 13.47 13.52 13.57 13.628 13.69 13.753 13.818 13.885 13.935 13.963 13.99 14.02 14.06 14.115 14.17 14.23 14.302 14.342 14.348 14.363 14.403 14.465 14.545
9.445 9.532 9.597 9.552 9.395 9.423 9.712 10.06 10.405 10.75 10.942 10.93 10.88 10.865 10.885 10.902 10.827 10.658 10.525 10.488 10.565 10.677 10.788 10.928 11.065 11.21 11.375 11.475 11.495 11.525 11.56 11.6 11.653 11.707 11.735 11.732 11.72 11.708 11.703 11.695 11.685 11.673 11.648 11.62 11.603 11.587 11.563 11.54 11.535 11.54 11.55 11.56 11.57 11.58 11.6 11.625 11.645 11.668 11.69 11.71 11.733 11.755 11.775 11.795 11.812 11.83 11.855 11.885 11.935 12.002 12.047 12.058 12.055 12.078 12.125 12.145 12.112 12.057 12 11.948 11.908 11.883 11.895 11.933 11.973 12.013 12.05 12.09 12.117 12.123 12.142 12.155 12.135 12.105 12.075 12.083 12.12 12.16 12.23 12.325 12.37 12.34 12.28 12.233 12.215 12.215 12.22 12.225 12.227 12.23 12.24 12.255 12.263 12.273 12.293 12.305 12.31 12.325 12.353 12.398 12.45 12.505 12.562 12.6 12.592 12.568 12.578 12.61 12.635 12.658 12.68 12.7 12.695 12.663 12.643 12.635 12.63 12.625 12.607 12.583 12.558 12.545 12.555 12.59 12.658 12.745 12.823 12.89 12.947 12.99 13.04 13.097 13.155 13.215 13.272 13.305 13.31 13.315 13.34 13.377 13.415 13.44 13.45 13.462 13.477 13.48 13.468 13.455 13.443 13.432 13.42 13.413 13.42 13.427 13.435 13.45 13.48 13.525 13.575 13.625 13.678 13.735 13.798 13.862 13.925 13.97 13.997 14.025 14.053 14.08 14.125 14.193 14.265 14.337 14.382 14.38 14.368 14.378 14.433 14.52
9.507 9.585 9.612 9.517 9.363 9.373 9.645 10.022 10.375 10.72 10.887 10.813 10.763 10.793 10.823 10.855 10.842 10.727 10.598 10.535 10.55 10.623 10.735 10.885 11.04 11.205 11.405 11.51 11.495 11.5 11.53 11.578 11.63 11.682 11.717 11.725 11.723 11.725 11.733 11.733 11.725 11.705 11.665 11.623 11.59 11.565 11.545 11.533 11.543 11.56 11.57 11.58 11.59 11.595 11.603 11.62 11.64 11.658 11.673 11.693 11.72 11.745 11.765 11.782 11.797 11.813 11.835 11.868 11.92 11.977 12.01 12.02 12.005 11.995 12.025 12.065 12.05 11.995 11.94 11.905 11.893 11.873 11.878 11.91 11.945 11.98 12.015 12.05 12.083 12.105 12.1 12.078 12.055 12.04 12.05 12.085 12.125 12.163 12.198 12.243 12.29 12.302 12.278 12.258 12.255 12.255 12.257 12.26 12.26 12.26 12.26 12.265 12.27 12.273 12.268 12.255 12.25 12.27 12.318 12.375 12.433 12.487 12.527 12.537 12.525 12.518 12.533 12.56 12.585 12.608 12.63 12.65 12.66 12.658 12.655 12.65 12.645 12.642 12.63 12.605 12.578 12.553 12.54 12.57 12.655 12.765 12.843 12.9 12.97 13.02 13.055 13.105 13.165 13.227 13.282 13.307 13.315 13.327 13.355 13.395 13.432 13.46 13.472 13.485 13.512 13.53 13.522 13.51 13.498 13.487 13.463 13.435 13.435 13.445 13.462 13.495 13.538 13.585 13.633 13.68 13.73 13.783 13.84 13.905 13.965 14.002 14.03 14.06 14.087 14.113 14.158 14.228 14.302 14.375 14.422 14.425 14.41 14.418 14.465 14.54
9.507 9.565 9.557 9.443 9.338 9.34 9.53 9.905 10.307 10.685 10.832 10.71 10.665 10.725 10.76 10.795 10.822 10.775 10.657 10.573 10.55 10.598 10.72 10.883 11.05 11.24 11.45 11.545 11.525 11.51 11.533 11.582 11.625 11.667 11.705 11.732 11.752 11.765 11.775 11.777 11.762 11.73 11.685 11.64 11.6 11.565 11.54 11.535 11.56 11.587 11.6 11.612 11.617 11.607 11.605 11.62 11.64 11.657 11.663 11.675 11.705 11.73 11.75 11.765 11.78 11.795 11.813 11.85 11.905 11.945 11.965 11.98 11.97 11.943 11.94 11.975 11.98 11.932 11.878 11.868 11.895 11.892 11.893 11.923 11.958 11.992 12.025 12.052 12.08 12.095 12.082 12.058 12.043 12.045 12.06 12.093 12.135 12.175 12.212 12.24 12.26 12.278 12.285 12.285 12.282 12.28 12.28 12.28 12.28 12.277 12.275 12.283 12.292 12.297 12.287 12.263 12.245 12.26 12.31 12.37 12.422 12.455 12.463 12.468 12.48 12.505 12.535 12.558 12.58 12.605 12.63 12.648 12.66 12.665 12.665 12.662 12.658 12.655 12.645 12.62 12.595 12.575 12.565 12.603 12.705 12.835 12.907 12.943 13.005 13.047 13.063 13.09 13.14 13.202 13.252 13.277 13.292 13.31 13.342 13.387 13.43 13.462 13.485 13.51 13.545 13.575 13.577 13.565 13.56 13.547 13.51 13.465 13.443 13.445 13.478 13.545 13.605 13.648 13.693 13.74 13.787 13.835 13.882 13.915 13.975 14.035 14.06 14.09 14.12 14.145 14.19 14.263 14.337 14.41 14.462 14.472 14.47 14.5 14.55 14.608
9.475 9.507 9.482 9.395 9.35 9.365 9.435 9.713 10.147 10.57 10.792 10.78 10.745 10.72 10.713 10.745 10.772 10.757 10.67 10.603 10.605 10.66 10.77 10.908 11.07 11.295 11.507 11.575 11.555 11.535 11.55 11.59 11.622 11.655 11.687 11.727 11.765 11.792 11.812 11.815 11.79 11.75 11.705 11.66 11.62 11.58 11.548 11.548 11.583 11.615 11.632 11.642 11.635 11.613 11.608 11.625 11.642 11.652 11.647 11.653 11.68 11.705 11.727 11.745 11.76 11.775 11.79 11.83 11.877 11.902 11.92 11.937 11.932 11.905 11.88 11.883 11.897 11.87 11.823 11.83 11.875 11.897 11.91 11.937 11.97 12 12.025 12.045 12.07 12.082 12.07 12.055 12.055 12.065 12.075 12.098 12.138 12.182 12.227 12.257 12.27 12.28 12.29 12.297 12.3 12.3 12.3 12.3 12.297 12.293 12.29 12.298 12.31 12.317 12.31 12.29 12.273 12.273 12.31 12.36 12.39 12.408 12.425 12.453 12.49 12.53 12.565 12.585 12.6 12.625 12.65 12.662 12.667 12.67 12.67 12.672 12.672 12.67 12.658 12.635 12.625 12.628 12.643 12.693 12.793 12.92 12.987 12.998 13.04 13.08 13.09 13.103 13.128 13.175 13.22 13.242 13.255 13.268 13.303 13.355 13.405 13.452 13.495 13.535 13.575 13.61 13.625 13.625 13.627 13.607 13.56 13.51 13.468 13.453 13.495 13.592 13.67 13.712 13.757 13.8 13.837 13.877 13.897 13.845 13.9 14.04 14.09 14.12 14.15 14.178 14.225 14.298 14.373 14.445 14.502 14.528 14.55 14.595 14.645 14.695
9.422 9.44 9.42 9.388 9.387 9.402 9.418 9.555 9.843 10.205 10.612 10.835 10.825 10.737 10.685 10.698 10.71 10.71 10.695 10.705 10.743 10.785 10.845 10.943 11.115 11.37 11.565 11.605 11.572 11.53 11.527 11.555 11.58 11.61 11.652 11.705 11.75 11.79 11.825 11.837 11.815 11.775 11.733 11.688 11.645 11.605 11.58 11.585 11.613 11.645 11.662 11.657 11.64 11.618 11.613 11.63 11.642 11.632 11.62 11.63 11.65 11.672 11.697 11.72 11.74 11.755 11.77 11.805 11.84 11.858 11.875 11.892 11.892 11.87 11.838 11.813 11.818 11.805 11.778 11.798 11.843 11.885 11.917 11.942 11.97 11.995 12.015 12.037 12.062 12.072 12.07 12.073 12.078 12.085 12.095 12.108 12.138 12.185 12.235 12.265 12.27 12.28 12.3 12.312 12.315 12.317 12.32 12.317 12.313 12.31 12.31 12.315 12.325 12.338 12.338 12.323 12.305 12.29 12.308 12.345 12.37 12.4 12.44 12.477 12.515 12.555 12.595 12.617 12.625 12.645 12.665 12.67 12.67 12.67 12.67 12.672 12.677 12.682 12.682 12.685 12.7 12.72 12.748 12.803 12.893 13.01 13.072 13.068 13.085 13.112 13.125 13.132 13.14 13.163 13.19 13.205 13.215 13.225 13.258 13.313 13.368 13.422 13.475 13.525 13.572 13.615 13.647 13.667 13.677 13.655 13.605 13.557 13.51 13.473 13.51 13.625 13.712 13.757 13.797 13.83 13.86 13.892 13.877 13.763 13.823 14.037 14.127 14.16 14.193 14.228 14.275 14.34 14.413 14.485 14.547 14.595 14.64 14.69 14.74 14.79
9.365 9.383 9.39 9.398 9.412 9.427 9.44 9.515 9.678 9.893 10.258 10.622 10.747 10.7 10.66 10.68 10.693 10.705 10.763 10.85 10.912 10.94 10.96 11 11.202 11.485 11.605 11.602 11.55 11.485 11.428 11.393 11.423 11.503 11.605 11.69 11.735 11.775 11.815 11.842 11.837 11.805 11.765 11.722 11.68 11.648 11.64 11.653 11.668 11.685 11.685 11.665 11.643 11.62 11.618 11.632 11.63 11.603 11.593 11.607 11.61 11.62 11.647 11.677 11.707 11.73 11.75 11.775 11.797 11.813 11.83 11.847 11.852 11.835 11.802 11.77 11.753 11.735 11.733 11.768 11.818 11.87 11.907 11.93 11.952 11.977 12 12.025 12.05 12.065 12.077 12.092 12.1 12.105 12.115 12.125 12.143 12.18 12.227 12.257 12.265 12.278 12.305 12.322 12.325 12.33 12.335 12.333 12.33 12.328 12.325 12.333 12.35 12.37 12.38 12.37 12.35 12.33 12.325 12.35 12.388 12.423 12.46 12.5 12.54 12.582 12.625 12.652 12.66 12.665 12.67 12.67 12.67 12.67 12.67 12.67 12.675 12.688 12.705 12.727 12.752 12.785 12.838 12.913 12.998 13.1 13.157 13.152 13.145 13.142 13.145 13.142 13.142 13.147 13.16 13.173 13.178 13.185 13.218 13.273 13.33 13.385 13.438 13.49 13.54 13.595 13.647 13.662 13.662 13.662 13.632 13.59 13.545 13.495 13.528 13.64 13.72 13.765 13.802 13.835 13.865 13.897 13.855 13.795 13.91 14.09 14.182 14.225 14.26 14.3 14.343 14.395 14.46 14.53 14.592 14.647 14.7 14.75 14.8 14.85
9.33 9.35 9.375 9.402 9.422 9.438 9.46 9.563 9.74 9.883 10.038 10.328 10.595 10.632 10.618 10.677 10.717 10.735 10.81 10.937 11.045 11.085 11.055 11.013 11.162 11.397 11.472 11.457 11.412 11.385 11.335 11.248 11.27 11.418 11.577 11.68 11.725 11.765 11.802 11.83 11.845 11.832 11.795 11.755 11.72 11.703 11.708 11.727 11.745 11.742 11.713 11.675 11.648 11.623 11.62 11.625 11.602 11.573 11.57 11.572 11.553 11.555 11.585 11.618 11.653 11.698 11.727 11.737 11.752 11.77 11.787 11.802 11.812 11.8 11.768 11.735 11.705 11.685 11.703 11.753 11.808 11.862 11.897 11.913 11.93 11.953 11.978 12.005 12.032 12.055 12.072 12.09 12.105 12.117 12.132 12.145 12.155 12.18 12.215 12.24 12.258 12.28 12.31 12.33 12.337 12.343 12.348 12.353 12.355 12.353 12.353 12.363 12.383 12.407 12.425 12.425 12.41 12.39 12.37 12.375 12.41 12.447 12.485 12.525 12.565 12.607 12.65 12.68 12.687 12.68 12.673 12.67 12.67 12.667 12.665 12.668 12.675 12.69 12.713 12.738 12.778 12.843 12.925 13.015 13.102 13.195 13.235 13.207 13.165 13.132 13.12 13.112 13.107 13.108 13.132 13.155 13.155 13.16 13.188 13.238 13.295 13.35 13.403 13.455 13.513 13.585 13.647 13.628 13.595 13.615 13.62 13.602 13.565 13.515 13.55 13.645 13.705 13.75 13.792 13.832 13.867 13.902 13.878 13.913 14.052 14.157 14.24 14.3 14.34 14.38 14.42 14.463 14.518 14.582 14.637 14.685 14.735 14.785 14.835 14.88
9.31 9.33 9.358 9.392 9.422 9.443 9.493 9.623 9.8 9.947 10.04 10.168 10.4 10.535 10.563 10.64 10.717 10.762 10.84 10.955 11.037 11.062 11.012 10.945 10.983 11.11 11.21 11.248 11.258 11.29 11.312 11.235 11.235 11.405 11.572 11.67 11.715 11.755 11.787 11.813 11.837 11.85 11.827 11.79 11.77 11.765 11.778 11.802 11.817 11.8 11.752 11.703 11.663 11.63 11.615 11.6 11.568 11.545 11.537 11.515 11.485 11.49 11.525 11.573 11.63 11.687 11.705 11.693 11.7 11.72 11.738 11.758 11.775 11.765 11.738 11.718 11.703 11.695 11.718 11.765 11.813 11.862 11.892 11.898 11.91 11.93 11.955 11.985 12.015 12.04 12.057 12.073 12.09 12.11 12.13 12.147 12.162 12.185 12.213 12.238 12.263 12.29 12.32 12.34 12.35 12.358 12.365 12.377 12.387 12.39 12.395 12.408 12.423 12.443 12.462 12.472 12.467 12.45 12.423 12.41 12.433 12.47 12.51 12.55 12.59 12.63 12.67 12.697 12.7 12.687 12.678 12.673 12.67 12.665 12.66 12.665 12.678 12.695 12.728 12.778 12.847 12.93 13.01 13.087 13.165 13.242 13.255 13.197 13.135 13.093 13.075 13.068 13.063 13.068 13.107 13.142 13.145 13.15 13.17 13.208 13.26 13.315 13.368 13.428 13.503 13.587 13.647 13.607 13.543 13.545 13.565 13.577 13.57 13.535 13.56 13.635 13.685 13.73 13.775 13.82 13.863 13.905 13.938 14.01 14.115 14.202 14.29 14.367 14.42 14.46 14.5 14.54 14.582 14.632 14.68 14.725 14.772 14.82 14.862 14.887
9.29 9.312 9.343 9.378 9.413 9.443 9.528 9.688 9.862 10.012 10.11 10.183 10.305 10.43 10.507 10.592 10.687 10.762 10.837 10.912 10.95 10.95 10.915 10.868 10.858 10.938 11.08 11.178 11.22 11.263 11.3 11.268 11.275 11.415 11.567 11.66 11.705 11.742 11.77 11.795 11.823 11.847 11.852 11.837 11.83 11.832 11.847 11.86 11.852 11.82 11.772 11.725 11.678 11.643 11.613 11.575 11.535 11.508 11.485 11.453 11.428 11.45 11.513 11.585 11.66 11.695 11.682 11.658 11.65 11.668 11.693 11.72 11.742 11.743 11.735 11.735 11.735 11.735 11.752 11.79 11.827 11.867 11.89 11.888 11.89 11.908 11.935 11.965 11.995 12.023 12.043 12.055 12.07 12.09 12.11 12.13 12.155 12.188 12.22 12.25 12.277 12.303 12.33 12.352 12.365 12.377 12.39 12.405 12.42 12.43 12.44 12.452 12.467 12.482 12.5 12.515 12.52 12.507 12.477 12.453 12.46 12.495 12.533 12.57 12.61 12.65 12.69 12.712 12.707 12.693 12.685 12.68 12.673 12.667 12.663 12.665 12.677 12.698 12.737 12.802 12.88 12.952 13.02 13.087 13.152 13.212 13.212 13.153 13.098 13.06 13.035 13.023 13.018 13.028 13.077 13.125 13.135 13.143 13.165 13.195 13.233 13.283 13.348 13.425 13.507 13.59 13.645 13.605 13.508 13.475 13.495 13.515 13.532 13.535 13.565 13.628 13.68 13.73 13.78 13.83 13.88 13.925 13.973 14.045 14.135 14.225 14.315 14.4 14.457 14.492 14.53 14.567 14.605 14.652 14.702 14.75 14.8 14.84 14.86 14.865
9.253 9.288 9.342 9.395 9.43 9.465 9.63 9.808 9.928 10.083 10.185 10.257 10.315 10.365 10.438 10.527 10.617 10.692 10.752 10.81 10.877 10.887 10.838 10.8 10.788 10.878 11.07 11.202 11.245 11.275 11.323 11.37 11.41 11.495 11.59 11.647 11.69 11.73 11.762 11.79 11.818 11.843 11.862 11.872 11.88 11.885 11.885 11.872 11.845 11.807 11.762 11.718 11.683 11.665 11.635 11.585 11.538 11.503 11.475 11.45 11.44 11.475 11.55 11.632 11.685 11.68 11.658 11.64 11.63 11.643 11.67 11.7 11.727 11.74 11.742 11.745 11.745 11.745 11.762 11.8 11.835 11.87 11.89 11.885 11.885 11.905 11.933 11.96 11.99 12.018 12.038 12.048 12.055 12.07 12.09 12.115 12.153 12.197 12.235 12.265 12.292 12.317 12.342 12.365 12.38 12.392 12.405 12.417 12.43 12.447 12.465 12.475 12.49 12.505 12.515 12.522 12.53 12.53 12.51 12.48 12.473 12.51 12.557 12.592 12.63 12.67 12.71 12.725 12.71 12.692 12.685 12.682 12.675 12.67 12.665 12.655 12.658 12.683 12.723 12.775 12.84 12.907 12.973 13.04 13.107 13.16 13.16 13.11 13.063 13.03 13 12.98 12.973 12.988 13.043 13.102 13.125 13.135 13.16 13.19 13.228 13.278 13.348 13.43 13.51 13.59 13.645 13.602 13.488 13.423 13.425 13.455 13.503 13.538 13.59 13.663 13.718 13.773 13.828 13.883 13.932 13.965 13.995 14.053 14.135 14.225 14.312 14.39 14.44 14.472 14.507 14.54 14.585 14.647 14.705 14.755 14.807 14.84 14.84 14.833
9.2 9.248 9.34 9.43 9.482 9.523 9.75 10.045 10.282 10.318 10.225 10.265 10.29 10.303 10.355 10.44 10.512 10.572 10.625 10.68 10.75 10.815 10.833 10.81 10.8 10.883 11.067 11.222 11.285 11.32 11.403 11.52 11.59 11.602 11.582 11.6 11.66 11.707 11.757 11.797 11.823 11.847 11.865 11.88 11.897 11.9 11.882 11.855 11.827 11.792 11.748 11.713 11.7 11.702 11.68 11.63 11.58 11.543 11.518 11.505 11.513 11.538 11.595 11.662 11.677 11.658 11.645 11.635 11.628 11.638 11.665 11.693 11.72 11.735 11.735 11.735 11.735 11.735 11.753 11.792 11.832 11.87 11.89 11.888 11.898 11.922 11.948 11.975 12.002 12.025 12.045 12.06 12.068 12.075 12.09 12.12 12.165 12.212 12.252 12.282 12.305 12.33 12.352 12.37 12.38 12.385 12.395 12.402 12.413 12.432 12.455 12.472 12.487 12.502 12.502 12.498 12.505 12.517 12.512 12.485 12.46 12.488 12.555 12.612 12.657 12.692 12.717 12.717 12.7 12.68 12.668 12.67 12.675 12.672 12.665 12.638 12.628 12.66 12.7 12.74 12.793 12.86 12.927 12.993 13.06 13.107 13.107 13.068 13.025 12.995 12.967 12.943 12.928 12.948 13.008 13.077 13.112 13.128 13.155 13.195 13.25 13.308 13.365 13.433 13.513 13.592 13.642 13.597 13.485 13.405 13.405 13.468 13.535 13.563 13.615 13.712 13.785 13.84 13.895 13.947 13.982 14 14.025 14.07 14.135 14.22 14.307 14.372 14.412 14.448 14.483 14.518 14.573 14.645 14.705 14.755 14.8 14.827 14.825 14.81
9.158 9.203 9.315 9.43 9.522 9.588 9.82 10.23 10.625 10.72 10.557 10.34 10.195 10.213 10.265 10.335 10.393 10.448 10.5 10.565 10.648 10.763 10.882 10.915 10.91 10.96 11.083 11.24 11.33 11.385 11.5 11.637 11.68 11.607 11.508 11.505 11.59 11.662 11.73 11.79 11.827 11.85 11.868 11.885 11.902 11.902 11.878 11.843 11.813 11.778 11.743 11.73 11.735 11.745 11.725 11.675 11.625 11.588 11.573 11.575 11.59 11.608 11.642 11.672 11.665 11.653 11.645 11.635 11.625 11.633 11.66 11.687 11.715 11.727 11.725 11.725 11.725 11.725 11.74 11.78 11.827 11.867 11.887 11.895 11.915 11.94 11.965 11.995 12.017 12.035 12.055 12.075 12.092 12.105 12.12 12.148 12.185 12.228 12.267 12.295 12.315 12.335 12.352 12.367 12.367 12.363 12.37 12.378 12.39 12.41 12.435 12.462 12.48 12.495 12.487 12.473 12.48 12.495 12.502 12.485 12.45 12.45 12.51 12.592 12.665 12.7 12.697 12.685 12.672 12.657 12.643 12.645 12.665 12.672 12.66 12.623 12.608 12.64 12.68 12.718 12.758 12.813 12.88 12.947 13.01 13.05 13.055 13.027 12.99 12.96 12.933 12.905 12.883 12.903 12.97 13.047 13.095 13.125 13.17 13.228 13.29 13.352 13.405 13.453 13.52 13.592 13.637 13.595 13.51 13.465 13.478 13.542 13.585 13.583 13.623 13.73 13.835 13.907 13.962 14.002 14.022 14.035 14.06 14.1 14.145 14.215 14.297 14.352 14.387 14.423 14.458 14.503 14.568 14.642 14.705 14.752 14.79 14.815 14.815 14.803
9.138 9.17 9.285 9.405 9.525 9.638 9.878 10.252 10.612 10.922 10.922 10.562 10.27 10.185 10.21 10.293 10.378 10.46 10.54 10.635 10.75 10.868 10.998 11.067 11.075 11.103 11.158 11.275 11.38 11.463 11.582 11.68 11.657 11.543 11.43 11.405 11.485 11.582 11.67 11.762 11.83 11.855 11.875 11.895 11.915 11.917 11.887 11.845 11.805 11.768 11.748 11.747 11.75 11.752 11.74 11.707 11.667 11.64 11.642 11.652 11.657 11.662 11.68 11.687 11.675 11.665 11.655 11.643 11.63 11.632 11.652 11.68 11.71 11.72 11.715 11.715 11.715 11.715 11.73 11.768 11.815 11.86 11.89 11.91 11.935 11.96 11.985 12.012 12.032 12.05 12.07 12.09 12.11 12.13 12.152 12.18 12.21 12.245 12.277 12.3 12.317 12.332 12.347 12.357 12.35 12.34 12.345 12.355 12.37 12.39 12.415 12.445 12.47 12.487 12.475 12.45 12.453 12.47 12.487 12.482 12.45 12.423 12.455 12.543 12.637 12.68 12.668 12.655 12.643 12.63 12.618 12.62 12.643 12.66 12.658 12.635 12.625 12.643 12.67 12.703 12.735 12.775 12.833 12.9 12.955 12.987 13.005 12.992 12.96 12.93 12.9 12.87 12.843 12.858 12.922 12.995 13.072 13.145 13.207 13.27 13.333 13.397 13.452 13.495 13.543 13.595 13.64 13.63 13.595 13.587 13.59 13.607 13.612 13.598 13.63 13.73 13.852 13.96 14.022 14.048 14.065 14.083 14.108 14.143 14.175 14.223 14.283 14.328 14.363 14.398 14.435 14.49 14.563 14.638 14.703 14.745 14.775 14.802 14.81 14.805
9.168 9.193 9.263 9.36 9.483 9.64 9.893 10.21 10.54 10.88 10.952 10.713 10.49 10.403 10.438 10.53 10.628 10.723 10.818 10.91 11.005 11.107 11.2 11.247 11.267 11.287 11.305 11.355 11.427 11.515 11.622 11.672 11.605 11.48 11.363 11.313 11.37 11.47 11.593 11.727 11.827 11.872 11.888 11.905 11.925 11.93 11.9 11.853 11.808 11.768 11.743 11.732 11.727 11.722 11.717 11.705 11.687 11.68 11.685 11.69 11.687 11.685 11.7 11.717 11.712 11.7 11.69 11.675 11.647 11.615 11.622 11.667 11.705 11.712 11.705 11.705 11.705 11.705 11.718 11.753 11.803 11.855 11.895 11.922 11.947 11.973 12.005 12.032 12.048 12.065 12.085 12.105 12.125 12.145 12.168 12.197 12.23 12.26 12.282 12.298 12.313 12.327 12.342 12.345 12.33 12.32 12.323 12.333 12.35 12.37 12.395 12.425 12.455 12.477 12.465 12.433 12.428 12.448 12.47 12.475 12.45 12.413 12.425 12.505 12.605 12.652 12.645 12.632 12.618 12.618 12.633 12.643 12.653 12.67 12.683 12.68 12.673 12.675 12.69 12.71 12.733 12.758 12.795 12.853 12.897 12.925 12.955 12.97 12.955 12.925 12.898 12.87 12.83 12.798 12.823 12.908 13.047 13.17 13.24 13.307 13.375 13.44 13.497 13.545 13.585 13.625 13.665 13.682 13.675 13.67 13.662 13.647 13.63 13.615 13.65 13.75 13.873 13.992 14.067 14.1 14.127 14.148 14.17 14.2 14.23 14.263 14.298 14.328 14.353 14.378 14.428 14.508 14.595 14.673 14.723 14.753 14.78 14.807 14.815 14.81
9.253 9.28 9.31 9.36 9.445 9.625 9.9 10.193 10.495 10.812 10.947 10.855 10.8 10.84 10.91 10.99 11.067 11.145 11.21 11.245 11.265 11.29 11.322 11.347 11.365 11.38 11.39 11.405 11.453 11.545 11.647 11.652 11.548 11.423 11.3 11.22 11.258 11.39 11.56 11.717 11.825 11.887 11.91 11.923 11.937 11.94 11.91 11.86 11.813 11.77 11.735 11.71 11.695 11.688 11.682 11.673 11.675 11.69 11.695 11.695 11.695 11.695 11.71 11.742 11.757 11.75 11.74 11.722 11.66 11.56 11.548 11.617 11.675 11.7 11.702 11.715 11.737 11.75 11.75 11.763 11.803 11.857 11.9 11.928 11.955 11.99 12.032 12.057 12.065 12.078 12.095 12.115 12.135 12.155 12.178 12.205 12.235 12.267 12.287 12.295 12.308 12.322 12.335 12.33 12.31 12.298 12.298 12.31 12.33 12.35 12.375 12.405 12.435 12.463 12.458 12.42 12.405 12.425 12.45 12.465 12.45 12.423 12.433 12.485 12.57 12.625 12.622 12.608 12.618 12.668 12.707 12.71 12.705 12.715 12.732 12.732 12.72 12.72 12.733 12.748 12.763 12.778 12.798 12.825 12.85 12.875 12.91 12.947 12.965 12.95 12.922 12.892 12.835 12.755 12.723 12.828 13.035 13.182 13.257 13.332 13.405 13.475 13.542 13.595 13.632 13.667 13.697 13.715 13.715 13.71 13.697 13.673 13.653 13.638 13.678 13.785 13.905 14.017 14.095 14.142 14.182 14.212 14.242 14.272 14.3 14.327 14.35 14.37 14.388 14.418 14.495 14.6 14.685 14.737 14.762 14.78 14.805 14.83 14.83 14.818
9.36 9.39 9.42 9.448 9.503 9.688 9.973 10.258 10.54 10.827 11.012 11.097 11.202 11.302 11.362 11.39 11.41 11.43 11.435 11.415 11.38 11.335 11.325 11.35 11.365 11.375 11.385 11.405 11.47 11.577 11.657 11.63 11.52 11.395 11.268 11.175 11.213 11.378 11.572 11.737 11.837 11.902 11.94 11.95 11.957 11.95 11.917 11.87 11.82 11.775 11.738 11.705 11.678 11.66 11.65 11.645 11.66 11.687 11.7 11.7 11.7 11.7 11.718 11.755 11.787 11.797 11.79 11.747 11.637 11.498 11.46 11.525 11.592 11.632 11.657 11.7 11.767 11.825 11.835 11.823 11.825 11.865 11.91 11.94 11.975 12.02 12.065 12.085 12.088 12.095 12.108 12.125 12.145 12.165 12.19 12.215 12.24 12.272 12.292 12.298 12.305 12.317 12.322 12.31 12.29 12.275 12.275 12.29 12.31 12.33 12.355 12.385 12.428 12.485 12.49 12.435 12.403 12.41 12.43 12.452 12.448 12.438 12.46 12.49 12.545 12.595 12.605 12.628 12.695 12.767 12.79 12.78 12.77 12.77 12.782 12.785 12.773 12.768 12.775 12.79 12.805 12.817 12.83 12.833 12.825 12.835 12.87 12.91 12.945 12.96 12.945 12.902 12.835 12.765 12.718 12.805 13.027 13.19 13.27 13.345 13.42 13.495 13.57 13.627 13.665 13.695 13.722 13.742 13.75 13.745 13.727 13.7 13.678 13.66 13.705 13.82 13.935 14.04 14.115 14.165 14.21 14.252 14.3 14.34 14.367 14.392 14.415 14.435 14.458 14.518 14.625 14.72 14.767 14.785 14.798 14.813 14.833 14.85 14.848 14.835
9.475 9.503 9.53 9.558 9.623 9.815 10.095 10.375 10.655 10.917 11.115 11.24 11.372 11.522 11.575 11.54 11.505 11.47 11.43 11.395 11.36 11.305 11.293 11.335 11.362 11.375 11.385 11.42 11.505 11.605 11.642 11.605 11.532 11.428 11.328 11.268 11.283 11.405 11.588 11.757 11.86 11.922 11.957 11.952 11.942 11.937 11.917 11.877 11.83 11.783 11.743 11.71 11.678 11.648 11.625 11.625 11.65 11.68 11.7 11.705 11.705 11.705 11.725 11.765 11.805 11.835 11.82 11.73 11.592 11.448 11.38 11.418 11.48 11.52 11.558 11.633 11.75 11.857 11.895 11.887 11.878 11.89 11.923 11.962 12.007 12.055 12.095 12.11 12.113 12.118 12.125 12.138 12.155 12.175 12.2 12.227 12.253 12.277 12.295 12.303 12.31 12.317 12.31 12.29 12.268 12.253 12.255 12.27 12.29 12.31 12.338 12.385 12.452 12.527 12.532 12.465 12.42 12.415 12.428 12.445 12.45 12.46 12.49 12.515 12.548 12.593 12.645 12.728 12.82 12.862 12.86 12.85 12.84 12.835 12.835 12.835 12.825 12.813 12.815 12.827 12.84 12.847 12.855 12.855 12.83 12.825 12.858 12.89 12.92 12.95 12.96 12.925 12.865 12.813 12.773 12.825 13.015 13.19 13.28 13.355 13.43 13.505 13.58 13.64 13.68 13.71 13.74 13.765 13.777 13.772 13.752 13.727 13.703 13.683 13.735 13.85 13.957 14.06 14.137 14.187 14.233 14.283 14.34 14.395 14.432 14.457 14.48 14.5 14.543 14.632 14.732 14.792 14.817 14.83 14.84 14.853 14.87 14.883 14.883 14.88
9.59 9.617 9.642 9.665 9.74 9.945 10.225 10.502 10.765 10.995 11.185 11.278 11.353 11.5 11.562 11.525 11.488 11.45 11.413 11.377 11.335 11.27 11.258 11.315 11.355 11.372 11.385 11.438 11.54 11.61 11.605 11.573 11.545 11.5 11.462 11.435 11.418 11.48 11.62 11.777 11.885 11.922 11.922 11.897 11.883 11.895 11.902 11.88 11.837 11.79 11.75 11.717 11.683 11.65 11.63 11.635 11.655 11.68 11.702 11.71 11.713 11.718 11.735 11.77 11.81 11.847 11.815 11.692 11.548 11.403 11.3 11.303 11.357 11.403 11.473 11.59 11.74 11.875 11.93 11.927 11.925 11.928 11.943 11.98 12.035 12.09 12.125 12.135 12.138 12.142 12.148 12.153 12.165 12.185 12.21 12.24 12.265 12.282 12.298 12.31 12.32 12.325 12.31 12.283 12.255 12.238 12.243 12.26 12.28 12.3 12.33 12.39 12.465 12.53 12.542 12.487 12.438 12.43 12.44 12.453 12.48 12.547 12.62 12.658 12.688 12.708 12.758 12.86 12.93 12.94 12.93 12.92 12.91 12.9 12.89 12.885 12.877 12.865 12.86 12.86 12.865 12.873 12.88 12.88 12.86 12.863 12.895 12.923 12.95 12.98 12.995 12.975 12.93 12.88 12.843 12.873 13.02 13.19 13.292 13.368 13.443 13.517 13.59 13.652 13.695 13.725 13.752 13.762 13.76 13.757 13.75 13.742 13.727 13.713 13.765 13.87 13.973 14.077 14.16 14.213 14.263 14.32 14.38 14.44 14.49 14.522 14.545 14.575 14.645 14.735 14.8 14.84 14.865 14.882 14.895 14.905 14.92 14.943 14.96 14.967
9.677 9.73 9.752 9.77 9.858 10.075 10.352 10.61 10.84 11.057 11.257 11.347 11.368 11.468 11.542 11.515 11.47 11.43 11.395 11.36 11.305 11.23 11.223 11.29 11.342 11.368 11.393 11.465 11.575 11.63 11.62 11.6 11.568 11.553 11.572 11.57 11.555 11.602 11.702 11.81 11.872 11.865 11.835 11.815 11.82 11.84 11.86 11.867 11.842 11.795 11.755 11.723 11.69 11.673 11.675 11.682 11.688 11.7 11.715 11.723 11.733 11.745 11.758 11.78 11.81 11.835 11.79 11.657 11.505 11.358 11.225 11.193 11.24 11.31 11.435 11.585 11.74 11.892 11.965 11.962 11.96 11.963 11.973 11.995 12.033 12.09 12.142 12.16 12.163 12.167 12.17 12.173 12.183 12.2 12.223 12.247 12.27 12.287 12.302 12.317 12.33 12.332 12.315 12.288 12.263 12.243 12.245 12.265 12.285 12.305 12.335 12.383 12.448 12.512 12.537 12.502 12.455 12.445 12.458 12.48 12.523 12.622 12.752 12.857 12.937 12.942 12.935 13.012 13.057 13.027 12.995 12.975 12.965 12.952 12.94 12.938 12.935 12.925 12.915 12.903 12.895 12.9 12.91 12.907 12.9 12.918 12.952 12.985 13.015 13.045 13.052 13.032 12.995 12.948 12.915 12.938 13.043 13.19 13.305 13.38 13.455 13.53 13.602 13.667 13.71 13.737 13.752 13.727 13.7 13.705 13.718 13.733 13.74 13.748 13.8 13.895 13.995 14.098 14.182 14.242 14.3 14.36 14.42 14.48 14.537 14.582 14.613 14.663 14.737 14.8 14.85 14.887 14.912 14.935 14.952 14.965 14.98 15.01 15.04 15.047
9.722 9.82 9.857 9.873 9.973 10.2 10.457 10.687 10.903 11.12 11.33 11.43 11.425 11.465 11.522 11.507 11.455 11.41 11.375 11.335 11.27 11.193 11.19 11.26 11.322 11.363 11.415 11.51 11.617 11.69 11.7 11.662 11.598 11.583 11.635 11.667 11.66 11.665 11.702 11.76 11.782 11.755 11.738 11.743 11.76 11.78 11.803 11.827 11.832 11.8 11.76 11.73 11.715 11.72 11.73 11.732 11.727 11.722 11.725 11.735 11.75 11.765 11.775 11.785 11.797 11.812 11.762 11.625 11.47 11.32 11.17 11.098 11.15 11.275 11.43 11.585 11.74 11.9 11.99 11.997 11.998 12 12.01 12.025 12.038 12.073 12.128 12.17 12.187 12.19 12.193 12.198 12.205 12.218 12.235 12.255 12.273 12.29 12.307 12.325 12.34 12.34 12.32 12.295 12.275 12.255 12.255 12.275 12.295 12.318 12.348 12.383 12.435 12.497 12.522 12.505 12.475 12.465 12.485 12.52 12.56 12.635 12.77 12.925 13.057 13.127 13.137 13.155 13.155 13.115 13.075 13.047 13.03 13.005 12.987 12.99 12.992 12.985 12.972 12.957 12.943 12.935 12.938 12.935 12.943 12.973 13.01 13.045 13.077 13.105 13.105 13.082 13.052 13.015 12.985 13 13.083 13.207 13.315 13.39 13.465 13.54 13.615 13.682 13.72 13.732 13.722 13.688 13.675 13.7 13.728 13.755 13.783 13.813 13.86 13.938 14.035 14.135 14.215 14.263 14.313 14.377 14.442 14.507 14.572 14.632 14.68 14.735 14.795 14.845 14.895 14.932 14.957 14.982 15.007 15.025 15.042 15.062 15.067 15.06
9.705 9.827 9.915 9.968 10.085 10.302 10.53 10.75 10.965 11.18 11.395 11.505 11.505 11.508 11.522 11.502 11.447 11.397 11.357 11.305 11.23 11.158 11.16 11.227 11.292 11.355 11.437 11.542 11.647 11.742 11.755 11.687 11.62 11.618 11.672 11.715 11.712 11.68 11.66 11.668 11.668 11.653 11.663 11.685 11.708 11.735 11.76 11.778 11.795 11.795 11.77 11.755 11.765 11.772 11.767 11.757 11.742 11.725 11.723 11.735 11.748 11.762 11.77 11.767 11.768 11.782 11.735 11.59 11.422 11.257 11.108 11.048 11.143 11.298 11.438 11.585 11.74 11.9 12.007 12.032 12.035 12.04 12.05 12.07 12.088 12.1 12.123 12.163 12.197 12.212 12.217 12.222 12.227 12.233 12.245 12.263 12.278 12.293 12.31 12.333 12.352 12.352 12.332 12.31 12.29 12.27 12.268 12.285 12.305 12.33 12.36 12.393 12.433 12.482 12.505 12.497 12.488 12.493 12.522 12.56 12.6 12.643 12.735 12.872 13.007 13.115 13.162 13.152 13.12 13.092 13.067 13.045 13.02 12.992 12.987 13.005 13.025 13.035 13.027 13.012 12.997 12.982 12.973 12.973 12.992 13.027 13.065 13.1 13.135 13.16 13.155 13.133 13.11 13.082 13.055 13.06 13.133 13.237 13.322 13.395 13.47 13.547 13.622 13.687 13.715 13.712 13.688 13.66 13.68 13.722 13.757 13.792 13.827 13.865 13.902 13.97 14.075 14.182 14.257 14.288 14.318 14.368 14.43 14.5 14.57 14.637 14.687 14.73 14.78 14.827 14.872 14.915 14.952 14.992 15.035 15.072 15.09 15.077 15.05 15.03
9.72 9.838 9.953 10.045 10.163 10.357 10.585 10.81 11.025 11.24 11.457 11.577 11.587 11.55 11.472 11.412 11.387 11.372 11.34 11.275 11.195 11.128 11.13 11.193 11.258 11.333 11.427 11.532 11.642 11.752 11.767 11.693 11.643 11.65 11.695 11.735 11.735 11.707 11.68 11.65 11.62 11.608 11.62 11.65 11.688 11.72 11.743 11.755 11.768 11.78 11.783 11.79 11.8 11.792 11.775 11.755 11.735 11.718 11.718 11.732 11.745 11.752 11.75 11.74 11.733 11.745 11.677 11.505 11.325 11.163 11.043 11.043 11.193 11.367 11.503 11.63 11.765 11.908 12.022 12.067 12.078 12.09 12.108 12.133 12.155 12.16 12.158 12.175 12.21 12.235 12.24 12.242 12.245 12.248 12.263 12.283 12.298 12.313 12.33 12.353 12.367 12.362 12.345 12.325 12.305 12.285 12.28 12.295 12.318 12.343 12.37 12.405 12.44 12.475 12.493 12.493 12.495 12.513 12.547 12.582 12.612 12.615 12.655 12.77 12.892 12.965 12.997 13.02 13.007 12.978 12.955 12.932 12.91 12.903 12.92 12.95 12.997 13.042 13.055 13.047 13.032 13.017 13.005 13.005 13.027 13.062 13.097 13.132 13.172 13.205 13.21 13.193 13.17 13.145 13.118 13.11 13.17 13.26 13.325 13.39 13.465 13.545 13.62 13.675 13.69 13.682 13.658 13.643 13.68 13.727 13.762 13.798 13.835 13.872 13.905 13.978 14.095 14.212 14.297 14.335 14.355 14.38 14.418 14.473 14.54 14.6 14.63 14.66 14.707 14.74 14.778 14.83 14.882 14.937 14.99 15.045 15.072 15.05 15.018 15
9.84 9.95 10.047 10.125 10.21 10.358 10.575 10.81 11.04 11.27 11.5 11.612 11.575 11.47 11.317 11.193 11.16 11.2 11.257 11.255 11.185 11.125 11.12 11.163 11.223 11.298 11.393 11.503 11.623 11.742 11.762 11.698 11.673 11.685 11.718 11.752 11.752 11.725 11.693 11.66 11.63 11.61 11.615 11.65 11.69 11.715 11.735 11.752 11.765 11.775 11.79 11.8 11.795 11.782 11.765 11.745 11.725 11.713 11.715 11.727 11.735 11.73 11.72 11.71 11.7 11.697 11.582 11.375 11.21 11.085 11.003 11.05 11.235 11.435 11.605 11.735 11.85 11.97 12.07 12.12 12.14 12.16 12.182 12.205 12.22 12.217 12.205 12.215 12.248 12.27 12.268 12.258 12.258 12.263 12.28 12.31 12.33 12.345 12.365 12.382 12.382 12.37 12.355 12.335 12.315 12.298 12.293 12.305 12.33 12.355 12.383 12.417 12.452 12.482 12.497 12.502 12.505 12.52 12.552 12.577 12.58 12.558 12.565 12.655 12.757 12.79 12.805 12.852 12.88 12.865 12.84 12.82 12.81 12.813 12.83 12.87 12.948 13.022 13.047 13.047 13.04 13.03 13.025 13.03 13.048 13.078 13.113 13.15 13.198 13.242 13.265 13.257 13.235 13.208 13.175 13.155 13.203 13.28 13.328 13.385 13.458 13.535 13.612 13.657 13.66 13.65 13.625 13.628 13.68 13.73 13.768 13.805 13.842 13.875 13.905 13.98 14.1 14.222 14.322 14.372 14.397 14.42 14.44 14.47 14.42 14.462 14.567 14.585 14.632 14.652 14.682 14.74 14.795 14.85 14.9 14.955 15.002 15.005 14.983 14.97
9.985 10.077 10.15 10.212 10.28 10.368 10.52 10.743 10.987 11.215 11.407 11.477 11.41 11.29 11.133 10.958 10.88 10.96 11.115 11.217 11.195 11.143 11.138 11.158 11.195 11.263 11.363 11.483 11.61 11.735 11.76 11.72 11.72 11.73 11.748 11.77 11.767 11.74 11.708 11.675 11.648 11.625 11.63 11.66 11.685 11.705 11.725 11.745 11.762 11.775 11.787 11.79 11.78 11.767 11.753 11.737 11.72 11.708 11.71 11.715 11.71 11.7 11.69 11.68 11.67 11.64 11.478 11.263 11.133 11.035 10.983 11.073 11.275 11.48 11.677 11.842 11.97 12.08 12.152 12.187 12.21 12.232 12.255 12.275 12.282 12.272 12.255 12.26 12.297 12.325 12.315 12.288 12.275 12.275 12.293 12.327 12.357 12.377 12.395 12.402 12.392 12.38 12.365 12.345 12.328 12.313 12.308 12.32 12.343 12.368 12.398 12.43 12.465 12.492 12.505 12.512 12.518 12.53 12.547 12.545 12.52 12.49 12.475 12.535 12.602 12.6 12.613 12.665 12.722 12.742 12.725 12.715 12.72 12.725 12.745 12.813 12.917 13.002 13.032 13.035 13.04 13.048 13.053 13.063 13.078 13.098 13.13 13.175 13.227 13.277 13.307 13.315 13.305 13.275 13.238 13.208 13.235 13.295 13.338 13.388 13.45 13.525 13.605 13.642 13.632 13.62 13.603 13.62 13.68 13.732 13.775 13.812 13.847 13.877 13.905 13.98 14.1 14.232 14.342 14.395 14.425 14.452 14.475 14.505 13.723 13.021 13.825 14.549 13.893 13.753 14.465 14.665 14.715 14.765 14.813 14.865 14.92 14.95 14.958 14.965
10.102 10.17 10.23 10.295 10.365 10.433 10.523 10.673 10.868 11.055 11.17 11.185 11.15 11.085 10.975 10.848 10.808 10.883 10.998 11.13 11.185 11.16 11.16 11.175 11.193 11.248 11.348 11.47 11.598 11.722 11.767 11.755 11.765 11.775 11.787 11.797 11.785 11.755 11.725 11.695 11.667 11.64 11.635 11.655 11.677 11.697 11.715 11.735 11.755 11.772 11.78 11.775 11.765 11.752 11.74 11.727 11.712 11.7 11.695 11.69 11.683 11.675 11.668 11.66 11.65 11.607 11.423 11.23 11.115 10.998 10.98 11.11 11.315 11.52 11.725 11.92 12.08 12.182 12.227 12.25 12.272 12.297 12.32 12.335 12.33 12.31 12.287 12.292 12.335 12.365 12.357 12.33 12.305 12.293 12.31 12.345 12.38 12.41 12.42 12.412 12.4 12.387 12.372 12.355 12.34 12.325 12.32 12.335 12.355 12.38 12.41 12.443 12.475 12.495 12.505 12.515 12.525 12.532 12.527 12.5 12.463 12.425 12.393 12.408 12.425 12.403 12.418 12.475 12.543 12.605 12.633 12.638 12.645 12.65 12.688 12.785 12.903 12.995 13.04 13.058 13.078 13.093 13.09 13.093 13.105 13.12 13.153 13.205 13.26 13.31 13.342 13.357 13.355 13.327 13.292 13.26 13.265 13.308 13.352 13.395 13.448 13.518 13.59 13.62 13.605 13.59 13.588 13.62 13.677 13.732 13.78 13.817 13.852 13.88 13.908 13.985 14.108 14.252 14.365 14.412 14.445 14.478 14.518 14.574 13.173 11.734 13.148 14.579 13.221 13.096 14.477 14.635 14.68 14.725 14.77 14.818 14.868 14.913 14.95 14.982
10.19 10.25 10.31 10.375 10.445 10.515 10.58 10.655 10.77 10.915 10.99 10.98 10.968 10.963 10.933 10.88 10.898 10.958 11.003 11.083 11.16 11.18 11.185 11.203 11.225 11.278 11.373 11.493 11.613 11.73 11.78 11.775 11.782 11.79 11.802 11.807 11.792 11.765 11.735 11.705 11.675 11.645 11.625 11.633 11.657 11.68 11.7 11.722 11.745 11.765 11.77 11.758 11.745 11.735 11.725 11.713 11.7 11.693 11.685 11.675 11.67 11.665 11.658 11.65 11.637 11.597 11.435 11.288 11.197 11.053 11.023 11.175 11.39 11.595 11.798 12.003 12.172 12.252 12.275 12.295 12.317 12.34 12.352 12.35 12.33 12.305 12.283 12.293 12.34 12.367 12.36 12.34 12.317 12.3 12.315 12.35 12.385 12.417 12.427 12.417 12.405 12.392 12.378 12.362 12.347 12.335 12.333 12.348 12.37 12.395 12.425 12.457 12.48 12.49 12.5 12.51 12.517 12.52 12.505 12.475 12.44 12.398 12.358 12.338 12.325 12.295 12.315 12.395 12.465 12.53 12.597 12.638 12.65 12.655 12.708 12.82 12.935 13.027 13.085 13.12 13.147 13.155 13.138 13.123 13.128 13.148 13.185 13.237 13.29 13.337 13.37 13.38 13.367 13.34 13.31 13.285 13.288 13.323 13.365 13.405 13.453 13.513 13.572 13.592 13.575 13.573 13.593 13.625 13.673 13.73 13.782 13.822 13.855 13.88 13.91 13.99 14.123 14.277 14.385 14.43 14.465 14.505 14.57 14.649 13.235 11.795 13.208 14.624 13.283 13.363 14.749 14.68 14.68 14.725 14.77 14.815 14.86 14.905 14.947 14.985
10.27 10.33 10.39 10.455 10.522 10.585 10.64 10.695 10.768 10.873 10.932 10.935 10.95 10.975 10.982 10.965 11.005 11.08 11.12 11.155 11.19 11.208 11.223 11.248 11.283 11.338 11.43 11.547 11.657 11.762 11.8 11.78 11.773 11.775 11.782 11.787 11.782 11.76 11.733 11.705 11.675 11.645 11.615 11.605 11.623 11.647 11.672 11.698 11.725 11.752 11.76 11.747 11.733 11.72 11.71 11.702 11.695 11.688 11.682 11.675 11.67 11.662 11.65 11.637 11.622 11.587 11.47 11.368 11.325 11.205 11.12 11.245 11.477 11.7 11.922 12.14 12.267 12.292 12.305 12.325 12.34 12.345 12.337 12.32 12.298 12.275 12.26 12.28 12.33 12.352 12.34 12.32 12.3 12.288 12.303 12.335 12.367 12.395 12.415 12.42 12.408 12.395 12.382 12.367 12.353 12.345 12.348 12.363 12.385 12.41 12.442 12.47 12.48 12.483 12.488 12.495 12.502 12.502 12.485 12.46 12.435 12.4 12.365 12.345 12.335 12.315 12.338 12.41 12.465 12.51 12.587 12.675 12.717 12.725 12.783 12.895 12.995 13.075 13.142 13.19 13.21 13.21 13.192 13.168 13.158 13.178 13.22 13.267 13.312 13.355 13.382 13.382 13.36 13.333 13.31 13.295 13.303 13.335 13.378 13.42 13.463 13.512 13.557 13.573 13.578 13.608 13.645 13.67 13.7 13.74 13.785 13.825 13.855 13.88 13.91 13.993 14.138 14.302 14.407 14.45 14.493 14.545 14.615 14.705 14.025 13.293 13.977 14.529 13.204 13.486 14.924 14.78 14.685 14.725 14.77 14.815 14.86 14.905 14.947 14.98
10.355 10.41 10.472 10.535 10.592 10.642 10.693 10.75 10.81 10.872 10.917 10.95 10.985 11.015 11.037 11.055 11.115 11.2 11.245 11.262 11.26 11.253 11.27 11.303 11.345 11.398 11.485 11.597 11.697 11.795 11.83 11.8 11.775 11.763 11.76 11.765 11.767 11.753 11.73 11.705 11.675 11.645 11.618 11.595 11.593 11.613 11.64 11.67 11.705 11.742 11.752 11.74 11.725 11.708 11.695 11.692 11.692 11.685 11.68 11.675 11.665 11.652 11.638 11.623 11.607 11.577 11.505 11.44 11.41 11.34 11.23 11.295 11.535 11.775 12.012 12.225 12.325 12.325 12.33 12.342 12.34 12.325 12.305 12.285 12.265 12.245 12.24 12.27 12.32 12.337 12.32 12.3 12.28 12.27 12.285 12.315 12.342 12.368 12.392 12.412 12.412 12.398 12.385 12.37 12.358 12.355 12.36 12.375 12.398 12.425 12.455 12.472 12.475 12.475 12.475 12.48 12.487 12.485 12.465 12.44 12.423 12.408 12.39 12.378 12.375 12.37 12.373 12.398 12.435 12.48 12.56 12.67 12.76 12.8 12.86 12.957 13.04 13.117 13.192 13.25 13.27 13.265 13.247 13.22 13.195 13.203 13.242 13.285 13.325 13.365 13.387 13.377 13.355 13.338 13.325 13.315 13.318 13.345 13.39 13.435 13.475 13.518 13.56 13.598 13.64 13.69 13.727 13.75 13.77 13.785 13.792 13.817 13.855 13.88 13.913 14.005 14.16 14.33 14.432 14.475 14.53 14.592 14.658 14.74 14.81 14.827 14.84 14.737 14.09 14.363 15.13 14.94 14.743 14.725 14.77 14.815 14.86 14.905 14.95 14.98
10.455 10.497 10.55 10.602 10.65 10.695 10.737 10.782 10.827 10.862 10.897 10.945 10.987 11.025 11.067 11.115 11.185 11.27 11.312 11.315 11.31 11.305 11.323 11.362 11.407 11.45 11.525 11.63 11.727 11.822 11.855 11.822 11.79 11.755 11.745 11.76 11.768 11.763 11.743 11.715 11.685 11.655 11.628 11.598 11.575 11.585 11.618 11.655 11.695 11.735 11.745 11.728 11.71 11.69 11.675 11.675 11.68 11.68 11.677 11.67 11.658 11.643 11.628 11.613 11.598 11.578 11.538 11.493 11.455 11.412 11.318 11.355 11.585 11.81 12.012 12.195 12.32 12.35 12.337 12.327 12.31 12.29 12.27 12.25 12.23 12.213 12.223 12.265 12.312 12.325 12.305 12.285 12.263 12.25 12.263 12.29 12.315 12.34 12.365 12.39 12.407 12.402 12.388 12.375 12.37 12.37 12.373 12.385 12.41 12.442 12.465 12.47 12.468 12.465 12.465 12.468 12.475 12.48 12.478 12.475 12.475 12.473 12.45 12.43 12.43 12.425 12.41 12.4 12.413 12.448 12.528 12.64 12.755 12.845 12.915 12.987 13.055 13.13 13.21 13.277 13.312 13.317 13.297 13.265 13.233 13.228 13.26 13.298 13.335 13.375 13.392 13.38 13.365 13.355 13.345 13.335 13.333 13.355 13.4 13.447 13.49 13.53 13.58 13.64 13.7 13.757 13.79 13.802 13.815 13.81 13.762 13.748 13.802 13.862 13.918 14.025 14.19 14.357 14.462 14.515 14.575 14.638 14.7 14.765 14.837 14.91 14.992 15.077 15.122 15.217 15.252 15.067 14.833 14.74 14.77 14.815 14.86 14.905 14.95 14.982
10.525 10.557 10.582 10.617 10.662 10.707 10.74 10.765 10.795 10.825 10.86 10.905 10.95 11 11.06 11.115 11.175 11.25 11.292 11.297 11.308 11.333 11.37 11.415 11.457 11.467 11.523 11.637 11.74 11.835 11.865 11.83 11.79 11.73 11.72 11.765 11.785 11.787 11.77 11.74 11.71 11.68 11.65 11.62 11.6 11.608 11.64 11.68 11.718 11.742 11.74 11.718 11.695 11.675 11.66 11.66 11.667 11.67 11.675 11.68 11.673 11.658 11.643 11.628 11.615 11.605 11.587 11.55 11.503 11.455 11.388 11.42 11.6 11.792 11.965 12.135 12.292 12.36 12.328 12.29 12.27 12.25 12.23 12.21 12.195 12.19 12.213 12.26 12.307 12.32 12.3 12.28 12.263 12.26 12.263 12.268 12.288 12.313 12.338 12.363 12.387 12.4 12.392 12.385 12.385 12.385 12.388 12.4 12.425 12.452 12.465 12.465 12.463 12.468 12.503 12.543 12.563 12.565 12.568 12.585 12.6 12.587 12.54 12.5 12.49 12.485 12.467 12.443 12.428 12.43 12.493 12.605 12.717 12.825 12.905 12.967 13.038 13.118 13.205 13.282 13.33 13.345 13.33 13.3 13.265 13.255 13.283 13.318 13.353 13.387 13.402 13.395 13.385 13.375 13.365 13.355 13.348 13.365 13.41 13.46 13.505 13.548 13.6 13.66 13.722 13.782 13.812 13.817 13.807 13.76 13.673 13.628 13.683 13.777 13.88 14.015 14.18 14.37 14.505 14.565 14.625 14.685 14.745 14.8 14.865 14.947 15.035 15.097 15.14 15.23 15.232 15.06 14.855 14.748 14.758 14.807 14.857 14.905 14.952 14.988
10.552 10.58 10.59 10.603 10.638 10.682 10.712 10.73 10.755 10.785 10.82 10.865 10.915 10.978 11.045 11.093 11.135 11.197 11.238 11.255 11.295 11.355 11.41 11.452 11.467 11.43 11.475 11.617 11.737 11.835 11.865 11.825 11.762 11.685 11.683 11.75 11.795 11.812 11.8 11.77 11.74 11.71 11.685 11.67 11.665 11.675 11.705 11.74 11.757 11.755 11.74 11.717 11.693 11.67 11.655 11.655 11.66 11.655 11.665 11.692 11.702 11.695 11.68 11.665 11.655 11.645 11.642 11.627 11.582 11.528 11.478 11.49 11.605 11.765 11.923 12.08 12.245 12.347 12.325 12.263 12.23 12.21 12.193 12.18 12.178 12.183 12.208 12.253 12.3 12.32 12.305 12.288 12.29 12.312 12.308 12.283 12.275 12.288 12.313 12.337 12.363 12.385 12.397 12.4 12.398 12.395 12.4 12.415 12.44 12.455 12.455 12.46 12.493 12.555 12.648 12.727 12.745 12.723 12.708 12.717 12.722 12.692 12.637 12.585 12.555 12.542 12.522 12.5 12.478 12.455 12.49 12.585 12.683 12.778 12.863 12.94 13.025 13.118 13.21 13.287 13.335 13.352 13.347 13.327 13.295 13.283 13.308 13.342 13.375 13.402 13.41 13.402 13.4 13.395 13.385 13.375 13.365 13.378 13.42 13.47 13.515 13.56 13.615 13.675 13.732 13.785 13.815 13.807 13.757 13.667 13.565 13.508 13.545 13.655 13.805 13.968 14.155 14.395 14.552 14.61 14.67 14.732 14.792 14.843 14.9 14.975 15.055 15.1 15.115 15.185 15.177 15 14.835 14.758 14.745 14.785 14.84 14.893 14.96 15.008
10.572 10.597 10.61 10.61 10.623 10.655 10.685 10.703 10.72 10.745 10.78 10.83 10.895 10.97 11.035 11.077 11.115 11.157 11.205 11.26 11.325 11.392 11.447 11.465 11.43 11.37 11.413 11.567 11.72 11.835 11.86 11.8 11.71 11.635 11.645 11.715 11.78 11.825 11.827 11.8 11.773 11.753 11.743 11.738 11.735 11.742 11.762 11.777 11.77 11.755 11.74 11.72 11.697 11.675 11.658 11.652 11.647 11.635 11.645 11.68 11.712 11.725 11.717 11.705 11.695 11.688 11.687 11.69 11.67 11.625 11.59 11.59 11.665 11.805 11.95 12.093 12.237 12.33 12.317 12.252 12.2 12.175 12.168 12.168 12.175 12.18 12.203 12.248 12.292 12.32 12.315 12.313 12.34 12.375 12.372 12.338 12.305 12.288 12.29 12.313 12.345 12.372 12.395 12.41 12.412 12.41 12.413 12.427 12.447 12.453 12.478 12.538 12.628 12.74 12.852 12.92 12.912 12.875 12.855 12.855 12.835 12.787 12.732 12.675 12.627 12.6 12.578 12.555 12.533 12.513 12.543 12.623 12.708 12.795 12.878 12.953 13.033 13.123 13.215 13.292 13.34 13.36 13.36 13.347 13.323 13.31 13.333 13.365 13.392 13.415 13.417 13.403 13.4 13.402 13.4 13.395 13.385 13.393 13.43 13.48 13.528 13.578 13.633 13.685 13.735 13.785 13.802 13.757 13.667 13.563 13.458 13.383 13.413 13.56 13.743 13.938 14.18 14.445 14.6 14.655 14.715 14.778 14.837 14.888 14.938 15.005 15.07 15.097 15.103 15.152 15.122 14.96 14.848 14.795 14.755 14.76 14.823 14.943 15.047 15.07
10.59 10.615 10.63 10.63 10.63 10.64 10.66 10.678 10.693 10.713 10.75 10.813 10.89 10.967 11.022 11.055 11.082 11.105 11.165 11.255 11.337 11.42 11.46 11.43 11.37 11.31 11.35 11.505 11.672 11.812 11.835 11.747 11.645 11.583 11.605 11.677 11.75 11.815 11.845 11.837 11.822 11.815 11.812 11.802 11.792 11.787 11.787 11.785 11.772 11.757 11.74 11.72 11.7 11.68 11.66 11.645 11.633 11.618 11.625 11.66 11.7 11.732 11.747 11.745 11.735 11.727 11.725 11.732 11.737 11.727 11.717 11.715 11.763 11.883 12.027 12.152 12.242 12.285 12.265 12.212 12.168 12.153 12.157 12.165 12.172 12.178 12.2 12.242 12.285 12.32 12.337 12.36 12.397 12.43 12.43 12.392 12.35 12.307 12.28 12.295 12.332 12.362 12.385 12.402 12.415 12.422 12.425 12.435 12.468 12.52 12.605 12.717 12.832 12.937 13.027 13.075 13.065 13.03 12.995 12.947 12.882 12.827 12.777 12.722 12.68 12.66 12.645 12.623 12.6 12.585 12.62 12.703 12.79 12.88 12.955 13.015 13.08 13.153 13.227 13.3 13.347 13.365 13.365 13.355 13.34 13.335 13.353 13.38 13.405 13.425 13.435 13.417 13.395 13.393 13.397 13.4 13.4 13.408 13.443 13.5 13.558 13.618 13.678 13.723 13.763 13.792 13.772 13.69 13.58 13.47 13.358 13.26 13.305 13.5 13.718 13.96 14.227 14.492 14.65 14.705 14.765 14.825 14.882 14.932 14.98 15.037 15.077 15.09 15.095 15.125 15.075 14.953 14.885 14.835 14.788 14.79 14.92 15.11 15.187 15.165
10.607 10.632 10.647 10.65 10.65 10.648 10.65 10.66 10.675 10.695 10.738 10.81 10.887 10.947 10.982 11.005 11.02 11.035 11.095 11.195 11.295 11.392 11.43 11.387 11.32 11.253 11.28 11.41 11.547 11.68 11.71 11.632 11.552 11.523 11.565 11.637 11.71 11.78 11.832 11.852 11.85 11.842 11.835 11.82 11.805 11.782 11.765 11.76 11.752 11.742 11.735 11.725 11.705 11.683 11.66 11.64 11.623 11.608 11.61 11.64 11.68 11.72 11.757 11.772 11.765 11.755 11.75 11.76 11.767 11.78 11.81 11.837 11.87 11.957 12.07 12.142 12.185 12.205 12.185 12.14 12.125 12.135 12.145 12.155 12.165 12.175 12.198 12.235 12.275 12.312 12.335 12.357 12.387 12.415 12.425 12.4 12.355 12.305 12.27 12.283 12.32 12.35 12.372 12.388 12.405 12.42 12.433 12.453 12.505 12.592 12.685 12.777 12.87 12.952 13.02 13.065 13.077 13.065 13.04 12.965 12.868 12.81 12.765 12.725 12.718 12.727 12.722 12.705 12.685 12.668 12.703 12.79 12.88 12.972 13.05 13.11 13.167 13.215 13.24 13.27 13.312 13.345 13.36 13.355 13.348 13.35 13.365 13.388 13.412 13.435 13.45 13.437 13.403 13.383 13.383 13.388 13.395 13.413 13.47 13.547 13.613 13.678 13.74 13.787 13.82 13.797 13.737 13.662 13.553 13.438 13.32 13.21 13.238 13.425 13.692 13.995 14.272 14.54 14.7 14.755 14.813 14.87 14.927 14.977 15.025 15.062 15.075 15.077 15.082 15.095 15.055 14.983 14.937 14.892 14.853 14.878 15.045 15.215 15.247 15.22
10.617 10.64 10.655 10.662 10.665 10.662 10.658 10.658 10.668 10.685 10.73 10.805 10.867 10.902 10.92 10.935 10.95 10.965 11.025 11.125 11.222 11.315 11.37 11.357 11.295 11.218 11.183 11.23 11.332 11.447 11.485 11.437 11.408 11.448 11.525 11.595 11.66 11.72 11.777 11.82 11.832 11.825 11.815 11.8 11.777 11.743 11.718 11.713 11.71 11.713 11.725 11.727 11.71 11.688 11.665 11.645 11.625 11.608 11.6 11.62 11.66 11.71 11.76 11.782 11.782 11.775 11.77 11.775 11.768 11.775 11.827 11.887 11.93 11.982 12.035 12.07 12.105 12.125 12.105 12.08 12.095 12.117 12.13 12.14 12.152 12.165 12.185 12.22 12.26 12.295 12.293 12.288 12.31 12.335 12.355 12.355 12.33 12.288 12.255 12.268 12.307 12.34 12.36 12.375 12.405 12.448 12.49 12.497 12.483 12.515 12.585 12.655 12.725 12.795 12.86 12.912 12.945 12.955 12.965 12.935 12.855 12.793 12.758 12.75 12.773 12.8 12.8 12.783 12.767 12.75 12.788 12.88 12.972 13.067 13.137 13.167 13.18 13.182 13.17 13.183 13.233 13.287 13.332 13.35 13.355 13.368 13.383 13.398 13.42 13.445 13.46 13.455 13.425 13.388 13.373 13.375 13.38 13.405 13.487 13.595 13.675 13.742 13.802 13.85 13.85 13.765 13.683 13.647 13.57 13.453 13.338 13.233 13.195 13.313 13.608 13.965 14.292 14.585 14.75 14.807 14.86 14.915 14.972 15.022 15.055 15.065 15.065 15.063 15.06 15.062 15.042 15.002 14.967 14.932 14.903 14.92 15.042 15.197 15.25 15.227
10.625 10.645 10.66 10.667 10.672 10.675 10.67 10.665 10.665 10.675 10.72 10.782 10.82 10.845 10.862 10.87 10.88 10.895 10.955 11.052 11.145 11.235 11.295 11.31 11.277 11.202 11.115 11.063 11.1 11.202 11.247 11.218 11.253 11.375 11.477 11.54 11.597 11.65 11.705 11.76 11.797 11.805 11.795 11.777 11.742 11.698 11.673 11.673 11.68 11.698 11.717 11.722 11.712 11.695 11.672 11.65 11.63 11.61 11.593 11.603 11.645 11.715 11.77 11.785 11.792 11.792 11.79 11.782 11.76 11.763 11.81 11.865 11.912 11.95 11.975 12 12.028 12.045 12.04 12.045 12.075 12.1 12.115 12.125 12.135 12.15 12.175 12.208 12.243 12.275 12.262 12.228 12.23 12.255 12.275 12.285 12.285 12.265 12.24 12.25 12.29 12.325 12.357 12.395 12.442 12.5 12.557 12.562 12.5 12.455 12.455 12.495 12.565 12.635 12.7 12.755 12.8 12.822 12.845 12.867 12.835 12.788 12.783 12.808 12.84 12.87 12.877 12.86 12.837 12.807 12.835 12.925 13.015 13.105 13.147 13.122 13.08 13.045 13.045 13.09 13.155 13.223 13.288 13.337 13.367 13.39 13.405 13.415 13.433 13.455 13.47 13.472 13.45 13.405 13.373 13.365 13.37 13.395 13.478 13.602 13.715 13.802 13.867 13.89 13.827 13.705 13.61 13.59 13.565 13.47 13.36 13.265 13.183 13.225 13.495 13.87 14.24 14.587 14.792 14.86 14.91 14.965 15.017 15.05 15.057 15.055 15.055 15.05 15.04 15.035 15.02 14.99 14.96 14.93 14.92 14.943 15.01 15.147 15.237 15.23
10.632 10.65 10.665 10.672 10.677 10.682 10.683 10.678 10.673 10.675 10.703 10.74 10.768 10.793 10.81 10.815 10.82 10.83 10.883 10.975 11.065 11.155 11.215 11.24 11.242 11.187 11.092 10.998 10.94 10.973 11.01 11.033 11.173 11.35 11.44 11.488 11.535 11.583 11.633 11.688 11.74 11.772 11.772 11.745 11.7 11.653 11.635 11.648 11.668 11.692 11.71 11.717 11.715 11.7 11.678 11.655 11.635 11.615 11.593 11.593 11.643 11.725 11.775 11.782 11.79 11.8 11.802 11.785 11.755 11.75 11.785 11.83 11.87 11.91 11.937 11.952 11.965 11.978 11.998 12.025 12.055 12.08 12.095 12.105 12.12 12.145 12.172 12.2 12.23 12.257 12.245 12.193 12.165 12.175 12.193 12.205 12.215 12.218 12.215 12.238 12.283 12.315 12.348 12.397 12.447 12.492 12.542 12.587 12.587 12.527 12.453 12.418 12.428 12.475 12.538 12.59 12.64 12.68 12.715 12.763 12.803 12.823 12.848 12.883 12.918 12.945 12.932 12.892 12.852 12.803 12.813 12.895 12.98 13.065 13.09 13.04 12.985 12.96 12.985 13.043 13.115 13.19 13.263 13.33 13.377 13.407 13.425 13.435 13.45 13.467 13.475 13.47 13.452 13.42 13.383 13.36 13.36 13.385 13.465 13.59 13.72 13.837 13.91 13.885 13.775 13.645 13.54 13.51 13.517 13.475 13.39 13.3 13.208 13.178 13.385 13.768 14.153 14.53 14.762 14.847 14.92 14.992 15.042 15.05 15.045 15.045 15.045 15.04 15.03 15.018 15.003 14.98 14.95 14.938 14.958 14.995 15.033 15.108 15.197 15.222
10.637 10.653 10.665 10.675 10.683 10.693 10.702 10.7 10.695 10.693 10.703 10.73 10.758 10.78 10.793 10.798 10.803 10.805 10.845 10.93 11.02 11.11 11.17 11.195 11.21 11.165 11.068 10.973 10.878 10.818 10.84 10.995 11.237 11.387 11.435 11.475 11.515 11.555 11.598 11.645 11.693 11.732 11.74 11.707 11.663 11.625 11.618 11.638 11.662 11.685 11.702 11.712 11.712 11.702 11.685 11.665 11.645 11.625 11.603 11.598 11.65 11.727 11.765 11.773 11.783 11.802 11.815 11.8 11.77 11.765 11.795 11.835 11.872 11.885 11.88 11.895 11.91 11.918 11.952 12 12.035 12.062 12.08 12.09 12.11 12.14 12.168 12.195 12.228 12.252 12.232 12.175 12.125 12.118 12.145 12.17 12.193 12.215 12.228 12.25 12.295 12.322 12.325 12.348 12.392 12.438 12.488 12.55 12.605 12.61 12.555 12.475 12.408 12.378 12.403 12.455 12.505 12.558 12.633 12.735 12.842 12.912 12.952 12.99 13.022 13.015 12.942 12.865 12.81 12.758 12.763 12.838 12.92 13.005 13.03 12.983 12.948 12.96 12.988 13.03 13.105 13.18 13.255 13.325 13.375 13.412 13.437 13.45 13.462 13.47 13.465 13.45 13.435 13.42 13.395 13.365 13.353 13.373 13.453 13.58 13.71 13.82 13.862 13.812 13.707 13.585 13.47 13.43 13.48 13.523 13.478 13.383 13.29 13.218 13.343 13.693 14.087 14.45 14.66 14.755 14.852 14.947 15.005 15.015 15.015 15.015 15.017 15.02 15.037 15.04 15.013 14.983 14.963 14.978 15.013 15.048 15.085 15.125 15.18 15.207
10.642 10.657 10.667 10.675 10.69 10.71 10.725 10.727 10.725 10.72 10.73 10.76 10.782 10.8 10.81 10.815 10.815 10.81 10.848 10.925 11.01 11.1 11.16 11.187 11.192 11.135 11.04 10.95 10.888 10.853 10.915 11.158 11.37 11.42 11.44 11.48 11.52 11.56 11.6 11.637 11.662 11.68 11.692 11.677 11.643 11.618 11.618 11.635 11.655 11.677 11.697 11.705 11.705 11.705 11.695 11.675 11.655 11.635 11.62 11.62 11.665 11.725 11.75 11.763 11.783 11.807 11.83 11.827 11.805 11.808 11.84 11.88 11.887 11.825 11.765 11.795 11.842 11.855 11.893 11.955 12.007 12.045 12.065 12.08 12.105 12.135 12.165 12.198 12.232 12.255 12.23 12.17 12.123 12.128 12.178 12.223 12.26 12.295 12.305 12.295 12.315 12.34 12.325 12.313 12.338 12.383 12.435 12.5 12.57 12.625 12.625 12.555 12.455 12.368 12.353 12.403 12.455 12.51 12.62 12.79 12.915 12.977 13.035 13.09 13.107 13.047 12.94 12.84 12.768 12.715 12.718 12.785 12.865 12.947 12.97 12.938 12.95 12.997 13.01 13.028 13.093 13.168 13.247 13.32 13.37 13.405 13.432 13.455 13.465 13.46 13.448 13.433 13.42 13.41 13.397 13.375 13.353 13.36 13.44 13.57 13.67 13.717 13.717 13.67 13.59 13.495 13.395 13.388 13.533 13.657 13.63 13.538 13.455 13.38 13.42 13.665 14.033 14.367 14.552 14.65 14.75 14.85 14.927 14.955 14.957 14.96 14.965 14.98 15.02 15.08 15.112 15.095 15.078 15.095 15.128 15.16 15.192 15.212 15.217 15.185
10.648 10.662 10.673 10.683 10.705 10.73 10.745 10.75 10.75 10.748 10.76 10.785 10.802 10.817 10.827 10.827 10.817 10.813 10.853 10.928 11.005 11.09 11.15 11.182 11.178 11.133 11.095 11.065 11.063 11.09 11.185 11.347 11.427 11.425 11.445 11.485 11.525 11.56 11.582 11.595 11.595 11.603 11.63 11.645 11.632 11.618 11.623 11.638 11.653 11.673 11.69 11.695 11.698 11.702 11.702 11.69 11.67 11.653 11.648 11.653 11.683 11.722 11.743 11.763 11.79 11.815 11.84 11.85 11.845 11.855 11.885 11.89 11.817 11.69 11.615 11.663 11.747 11.787 11.828 11.895 11.96 12.015 12.048 12.073 12.105 12.135 12.168 12.202 12.235 12.255 12.232 12.175 12.15 12.178 12.235 12.3 12.355 12.397 12.41 12.375 12.353 12.357 12.34 12.31 12.298 12.325 12.383 12.45 12.523 12.595 12.635 12.582 12.473 12.39 12.365 12.4 12.455 12.508 12.628 12.807 12.885 12.905 12.97 13.04 13.067 13.025 12.94 12.837 12.743 12.673 12.67 12.735 12.813 12.89 12.918 12.925 12.985 13.045 13.05 13.04 13.083 13.16 13.242 13.315 13.362 13.393 13.425 13.467 13.475 13.45 13.433 13.42 13.408 13.395 13.385 13.372 13.355 13.355 13.425 13.517 13.55 13.55 13.542 13.497 13.422 13.35 13.32 13.43 13.667 13.825 13.807 13.73 13.66 13.593 13.56 13.7 14.008 14.287 14.45 14.55 14.65 14.75 14.845 14.892 14.898 14.9 14.91 14.935 14.968 15.045 15.157 15.237 15.262 15.272 15.3 15.312 15.307 15.287 15.255 15.173
10.652 10.665 10.678 10.697 10.722 10.747 10.765 10.77 10.77 10.77 10.782 10.802 10.817 10.832 10.84 10.83 10.815 10.815 10.858 10.933 11.008 11.087 11.147 11.185 11.21 11.235 11.272 11.302 11.33 11.36 11.412 11.442 11.435 11.433 11.45 11.485 11.507 11.517 11.512 11.5 11.5 11.523 11.555 11.587 11.607 11.615 11.628 11.643 11.658 11.675 11.688 11.69 11.695 11.7 11.703 11.702 11.69 11.68 11.682 11.685 11.695 11.718 11.742 11.767 11.795 11.822 11.847 11.867 11.882 11.902 11.895 11.812 11.677 11.533 11.465 11.52 11.62 11.7 11.763 11.833 11.908 11.983 12.037 12.073 12.108 12.14 12.173 12.207 12.237 12.255 12.235 12.193 12.19 12.225 12.278 12.35 12.422 12.485 12.512 12.475 12.418 12.383 12.355 12.325 12.295 12.29 12.34 12.418 12.498 12.58 12.63 12.585 12.49 12.423 12.383 12.398 12.453 12.51 12.64 12.787 12.795 12.76 12.8 12.87 12.92 12.93 12.9 12.827 12.73 12.64 12.623 12.685 12.763 12.84 12.892 12.945 13.027 13.087 13.09 13.06 13.08 13.155 13.237 13.307 13.355 13.398 13.448 13.505 13.527 13.48 13.425 13.405 13.395 13.385 13.375 13.365 13.355 13.345 13.36 13.38 13.377 13.372 13.365 13.322 13.25 13.198 13.29 13.535 13.772 13.895 13.9 13.87 13.837 13.797 13.74 13.81 14.04 14.247 14.378 14.47 14.56 14.653 14.75 14.822 14.843 14.843 14.86 14.893 14.925 14.968 15.065 15.212 15.327 15.39 15.412 15.39 15.35 15.31 15.272 15.185
10.655 10.665 10.678 10.7 10.725 10.75 10.775 10.785 10.785 10.785 10.795 10.815 10.83 10.847 10.855 10.84 10.825 10.828 10.875 10.95 11.025 11.102 11.16 11.2 11.255 11.335 11.415 11.48 11.525 11.555 11.575 11.55 11.505 11.46 11.433 11.437 11.432 11.42 11.408 11.4 11.418 11.45 11.48 11.525 11.58 11.623 11.65 11.665 11.68 11.698 11.705 11.705 11.71 11.715 11.715 11.715 11.708 11.702 11.705 11.705 11.705 11.715 11.738 11.762 11.79 11.817 11.842 11.867 11.887 11.91 11.847 11.688 11.528 11.378 11.315 11.375 11.483 11.595 11.705 11.803 11.888 11.972 12.037 12.077 12.112 12.145 12.178 12.212 12.24 12.255 12.238 12.22 12.243 12.278 12.323 12.387 12.46 12.53 12.567 12.535 12.465 12.423 12.41 12.39 12.36 12.338 12.373 12.458 12.535 12.595 12.632 12.592 12.513 12.458 12.408 12.403 12.45 12.518 12.655 12.75 12.705 12.635 12.635 12.7 12.75 12.775 12.787 12.77 12.705 12.613 12.603 12.683 12.765 12.837 12.863 12.895 12.98 13.067 13.092 13.058 13.075 13.153 13.237 13.312 13.373 13.43 13.49 13.55 13.6 13.567 13.483 13.443 13.433 13.425 13.415 13.405 13.395 13.38 13.323 13.238 13.2 13.195 13.187 13.15 13.08 13.12 13.358 13.632 13.787 13.84 13.852 13.86 13.867 13.865 13.85 13.905 14.077 14.255 14.368 14.45 14.53 14.615 14.705 14.78 14.82 14.828 14.833 14.853 14.88 14.91 14.968 15.088 15.24 15.355 15.405 15.397 15.362 15.327 15.29 15.207
10.655 10.667 10.678 10.688 10.708 10.735 10.765 10.787 10.795 10.795 10.805 10.825 10.843 10.865 10.872 10.858 10.848 10.855 10.903 10.977 11.052 11.125 11.18 11.223 11.273 11.35 11.452 11.555 11.637 11.7 11.732 11.692 11.595 11.478 11.425 11.385 11.328 11.315 11.308 11.315 11.348 11.395 11.448 11.515 11.59 11.65 11.685 11.702 11.72 11.732 11.735 11.735 11.738 11.742 11.742 11.735 11.725 11.718 11.715 11.715 11.715 11.72 11.733 11.753 11.778 11.802 11.827 11.85 11.865 11.875 11.787 11.603 11.423 11.255 11.185 11.253 11.373 11.498 11.64 11.787 11.895 11.977 12.04 12.08 12.115 12.148 12.182 12.215 12.237 12.252 12.253 12.26 12.295 12.33 12.365 12.415 12.477 12.54 12.58 12.555 12.493 12.468 12.48 12.487 12.47 12.443 12.47 12.547 12.6 12.623 12.64 12.61 12.545 12.493 12.44 12.418 12.448 12.523 12.647 12.69 12.615 12.53 12.49 12.53 12.58 12.605 12.625 12.642 12.635 12.59 12.623 12.727 12.81 12.87 12.84 12.8 12.853 12.972 13.047 13.04 13.075 13.157 13.242 13.325 13.4 13.467 13.53 13.59 13.65 13.662 13.605 13.545 13.518 13.505 13.495 13.485 13.475 13.465 13.415 13.263 13.088 13.018 13.013 12.978 12.975 13.168 13.475 13.67 13.732 13.755 13.768 13.78 13.8 13.823 13.853 13.93 14.09 14.27 14.39 14.473 14.555 14.635 14.695 14.742 14.82 14.865 14.845 14.835 14.85 14.873 14.903 14.98 15.105 15.21 15.29 15.345 15.35 15.325 15.292 15.225
10.655 10.672 10.68 10.68 10.69 10.713 10.74 10.772 10.797 10.805 10.815 10.838 10.86 10.882 10.887 10.878 10.875 10.883 10.928 11.002 11.075 11.142 11.197 11.248 11.3 11.363 11.455 11.565 11.672 11.772 11.82 11.745 11.587 11.445 11.43 11.417 11.31 11.233 11.223 11.265 11.323 11.39 11.465 11.543 11.618 11.682 11.72 11.74 11.757 11.767 11.77 11.77 11.768 11.77 11.77 11.757 11.743 11.733 11.728 11.725 11.723 11.725 11.737 11.753 11.768 11.788 11.81 11.827 11.842 11.837 11.735 11.555 11.375 11.195 11.125 11.198 11.3 11.413 11.558 11.727 11.877 11.982 12.045 12.083 12.118 12.153 12.188 12.218 12.238 12.258 12.28 12.308 12.342 12.377 12.407 12.435 12.48 12.54 12.59 12.572 12.523 12.508 12.52 12.547 12.56 12.548 12.57 12.622 12.645 12.655 12.66 12.632 12.58 12.528 12.475 12.435 12.445 12.53 12.617 12.605 12.522 12.438 12.368 12.368 12.407 12.433 12.455 12.475 12.518 12.57 12.66 12.772 12.847 12.897 12.857 12.755 12.74 12.86 12.982 13.028 13.08 13.16 13.248 13.335 13.417 13.495 13.562 13.625 13.687 13.74 13.727 13.665 13.615 13.588 13.575 13.565 13.555 13.545 13.532 13.417 13.175 12.97 12.865 12.843 12.988 13.27 13.51 13.61 13.63 13.668 13.71 13.743 13.778 13.815 13.853 13.94 14.103 14.282 14.412 14.497 14.575 14.627 14.642 14.678 14.792 14.892 14.885 14.85 14.85 14.863 14.878 14.913 14.978 15.055 15.135 15.218 15.277 15.292 15.272 15.22
10.653 10.672 10.68 10.68 10.685 10.695 10.718 10.753 10.785 10.807 10.828 10.852 10.877 10.9 10.907 10.905 10.905 10.91 10.953 11.025 11.093 11.158 11.218 11.273 11.328 11.383 11.463 11.568 11.675 11.78 11.85 11.742 11.528 11.4 11.413 11.482 11.415 11.265 11.233 11.298 11.368 11.44 11.513 11.585 11.658 11.717 11.75 11.77 11.787 11.8 11.802 11.8 11.797 11.797 11.792 11.775 11.758 11.747 11.74 11.735 11.733 11.73 11.74 11.755 11.765 11.777 11.792 11.802 11.812 11.797 11.687 11.515 11.343 11.173 11.123 11.198 11.285 11.385 11.518 11.675 11.838 11.978 12.055 12.09 12.125 12.163 12.2 12.233 12.26 12.285 12.313 12.35 12.387 12.422 12.45 12.463 12.488 12.54 12.597 12.592 12.555 12.545 12.555 12.583 12.61 12.627 12.65 12.675 12.685 12.695 12.692 12.66 12.612 12.562 12.51 12.46 12.453 12.532 12.575 12.515 12.43 12.345 12.265 12.225 12.235 12.273 12.335 12.403 12.485 12.59 12.708 12.812 12.877 12.92 12.885 12.76 12.678 12.755 12.915 13.012 13.08 13.165 13.255 13.343 13.43 13.512 13.585 13.65 13.715 13.76 13.757 13.727 13.695 13.672 13.657 13.645 13.635 13.625 13.615 13.567 13.39 13.118 12.88 12.793 12.953 13.225 13.4 13.46 13.48 13.578 13.702 13.755 13.785 13.82 13.858 13.953 14.12 14.302 14.437 14.51 14.555 14.57 14.568 14.615 14.745 14.887 14.93 14.885 14.863 14.87 14.883 14.908 14.948 15 15.06 15.12 15.18 15.223 15.232 15.197
