ncols         200
nrows         71
xllcorner     545000
yllcorner     255215
cellsize      5
NODATA_value  -9999.0
16.765 16.757 16.737 16.71 16.675 16.65 16.642 16.585 16.483 16.388 16.293 16.188 16.07 15.95 15.875 15.832 15.78 15.727 15.675 15.622 15.567 15.512 15.457 15.405 15.352 15.295 15.172 14.99 14.81 14.67 14.613 14.592 14.565 14.527 14.485 14.442 14.395 14.338 14.288 14.265 14.255 14.25 14.25 14.255 14.25 14.19 14.092 14.007 13.922 13.815 13.698 13.585 13.48 13.388 13.343 13.36 13.4 13.44 13.493 13.555 13.615 13.637 13.55 13.39 13.228 13.103 13.1 13.177 13.252 13.325 13.39 13.42 13.405 13.38 13.36 13.335 13.292 13.237 13.182 13.13 13.075 13.01 12.902 12.75 12.74 12.907 13.062 13.115 13.085 13.03 12.963 12.9 12.85 12.805 12.81 12.91 13.07 13.245 13.335 13.3 13.227 13.153 13.135 13.18 13.23 13.257 13.252 13.232 13.207 13.18 13.122 13.027 12.922 12.812 12.7 12.555 12.06 11.188 10.695 10.67 10.67 10.67 10.67 10.67 10.67 10.67 10.67 11.545 12.745 13.117 13.197 13.262 13.33 13.367 13.345 13.285 13.227 13.19 13.2 13.24 13.25 13.235 13.225 13.22 13.207 13.19 13.167 13.15 13.118 13.07 13.1 13.182 13.245 13.308 13.372 13.387 13.34 13.288 13.24 13.188 13.135 13.088 13.075 13.105 13.145 13.18 13.215 13.253 13.295 13.353 13.445 13.57 13.687 13.707 13.615 13.513 13.5 13.577 13.64 13.672 13.662 13.532 13.328 13.38 13.68 13.902 14.063 14.235 14.397 14.525 14.617 14.677 14.71 14.735 14.763 14.82 14.907 14.993 15.08 15.157
16.722 16.7 16.67 16.638 16.618 16.625 16.63 16.56 16.448 16.353 16.26 16.167 16.065 15.95 15.875 15.84 15.802 15.767 15.725 15.67 15.612 15.555 15.495 15.437 15.382 15.317 15.17 14.97 14.79 14.68 14.655 14.642 14.62 14.582 14.537 14.487 14.425 14.352 14.285 14.24 14.218 14.21 14.21 14.207 14.172 14.11 14.08 14.042 13.947 13.83 13.713 13.603 13.5 13.435 13.428 13.45 13.48 13.508 13.535 13.572 13.615 13.64 13.57 13.415 13.273 13.19 13.148 13.163 13.235 13.305 13.372 13.425 13.437 13.42 13.397 13.362 13.315 13.26 13.205 13.155 13.102 13.047 12.98 12.865 12.803 12.905 13.06 13.162 13.18 13.13 13.06 12.985 12.923 12.873 12.848 12.878 12.99 13.157 13.257 13.26 13.212 13.14 13.125 13.17 13.215 13.245 13.25 13.235 13.21 13.175 13.115 13.027 12.927 12.82 12.715 12.645 12.525 11.815 10.938 10.67 10.67 10.67 10.67 10.67 10.67 10.67 10.713 11.75 12.912 13.125 13.202 13.27 13.307 13.275 13.197 13.123 13.065 13.023 13.033 13.11 13.187 13.23 13.237 13.215 13.185 13.15 13.113 13.097 13.085 13.048 13.095 13.215 13.297 13.36 13.42 13.445 13.417 13.377 13.34 13.292 13.24 13.188 13.158 13.175 13.215 13.25 13.285 13.32 13.355 13.4 13.465 13.565 13.667 13.725 13.682 13.58 13.518 13.54 13.64 13.76 13.825 13.722 13.49 13.448 13.733 14.08 14.28 14.385 14.487 14.592 14.66 14.682 14.703 14.73 14.765 14.83 14.92 15.007 15.093 15.18
16.658 16.63 16.605 16.59 16.6 16.63 16.627 16.537 16.415 16.318 16.225 16.135 16.042 15.943 15.878 15.847 15.815 15.785 15.742 15.688 15.632 15.577 15.522 15.465 15.407 15.33 15.165 14.955 14.785 14.705 14.698 14.69 14.67 14.635 14.582 14.512 14.435 14.36 14.295 14.238 14.193 14.173 14.17 14.15 14.113 14.095 14.102 14.065 13.962 13.845 13.728 13.64 13.595 13.598 13.625 13.632 13.617 13.592 13.565 13.563 13.59 13.62 13.58 13.485 13.433 13.427 13.345 13.22 13.218 13.285 13.35 13.41 13.452 13.455 13.43 13.387 13.335 13.282 13.228 13.175 13.125 13.07 13.015 12.947 12.863 12.903 13.05 13.177 13.25 13.23 13.16 13.078 13 12.94 12.915 12.915 12.953 13.07 13.16 13.177 13.172 13.128 13.115 13.152 13.18 13.197 13.205 13.202 13.192 13.167 13.107 13.02 12.927 12.828 12.738 12.69 12.632 12.262 11.34 10.705 10.67 10.67 10.67 10.67 10.67 10.67 10.858 12.047 13.075 13.138 13.21 13.242 13.202 13.12 13.033 12.963 12.908 12.858 12.855 12.925 13.02 13.107 13.142 13.125 13.102 13.068 13.038 13.035 13.037 13.018 13.07 13.21 13.332 13.417 13.47 13.49 13.485 13.462 13.427 13.39 13.345 13.293 13.245 13.245 13.282 13.318 13.355 13.39 13.425 13.447 13.468 13.54 13.635 13.712 13.722 13.647 13.568 13.53 13.583 13.7 13.765 13.685 13.5 13.513 13.805 14.177 14.412 14.475 14.535 14.622 14.675 14.683 14.693 14.715 14.763 14.84 14.93 15.017 15.102 15.19
16.6 16.578 16.57 16.588 16.613 16.64 16.625 16.52 16.388 16.283 16.19 16.1 16.01 15.93 15.875 15.845 15.827 15.805 15.76 15.705 15.65 15.595 15.542 15.487 15.43 15.335 15.16 14.945 14.795 14.745 14.74 14.735 14.717 14.675 14.605 14.525 14.445 14.37 14.305 14.245 14.19 14.148 14.13 14.12 14.115 14.128 14.14 14.09 13.975 13.857 13.738 13.68 13.715 13.76 13.785 13.772 13.72 13.66 13.603 13.583 13.6 13.623 13.613 13.612 13.675 13.727 13.652 13.458 13.31 13.285 13.33 13.388 13.442 13.475 13.46 13.412 13.357 13.305 13.252 13.197 13.145 13.092 13.037 12.985 12.915 12.923 13.04 13.17 13.283 13.315 13.263 13.183 13.103 13.025 12.983 12.98 12.98 13.02 13.068 13.08 13.095 13.093 13.093 13.115 13.13 13.145 13.155 13.155 13.158 13.152 13.1 13.013 12.928 12.84 12.775 12.755 12.682 12.482 11.712 10.87 10.67 10.67 10.67 10.67 10.67 10.67 11.06 12.262 13.097 13.155 13.19 13.145 13.053 12.96 12.878 12.813 12.758 12.703 12.688 12.753 12.858 12.958 13.005 13.008 13.008 12.993 12.98 12.983 12.985 12.983 13.05 13.193 13.338 13.457 13.512 13.522 13.527 13.522 13.505 13.477 13.44 13.395 13.343 13.325 13.35 13.385 13.425 13.46 13.477 13.465 13.455 13.51 13.6 13.675 13.727 13.705 13.633 13.568 13.558 13.627 13.632 13.523 13.458 13.623 13.947 14.28 14.472 14.513 14.563 14.645 14.697 14.698 14.695 14.713 14.77 14.853 14.938 15.023 15.11 15.2
16.588 16.565 16.57 16.6 16.625 16.65 16.622 16.505 16.363 16.248 16.155 16.065 15.985 15.93 15.86 15.805 15.797 15.787 15.765 15.722 15.667 15.612 15.557 15.502 15.44 15.322 15.135 14.93 14.805 14.775 14.77 14.765 14.75 14.715 14.643 14.545 14.453 14.375 14.313 14.263 14.22 14.175 14.14 14.14 14.155 14.17 14.172 14.107 13.99 13.867 13.735 13.683 13.735 13.762 13.78 13.805 13.78 13.725 13.668 13.645 13.658 13.667 13.665 13.677 13.745 13.835 13.835 13.69 13.48 13.345 13.338 13.388 13.448 13.5 13.49 13.428 13.368 13.315 13.262 13.207 13.155 13.102 13.047 12.995 12.945 13.04 13.24 13.4 13.54 13.562 13.49 13.392 13.255 13.105 13.028 13.025 13.025 13.03 13.045 13.06 13.073 13.088 13.098 13.108 13.12 13.133 13.14 13.14 13.145 13.15 13.115 13.04 12.96 12.88 12.833 12.822 12.742 12.59 12.022 11.1 10.67 10.67 10.67 10.67 10.67 10.67 11.338 12.552 13.12 13.17 13.16 13.07 12.97 12.873 12.795 12.74 12.688 12.633 12.613 12.673 12.783 12.897 12.96 12.965 12.965 12.963 12.96 12.96 12.963 13.003 13.11 13.255 13.405 13.51 13.54 13.542 13.545 13.547 13.55 13.542 13.522 13.49 13.445 13.413 13.42 13.455 13.492 13.51 13.495 13.465 13.443 13.478 13.56 13.635 13.705 13.735 13.698 13.635 13.588 13.588 13.58 13.538 13.585 13.783 14.075 14.395 14.555 14.56 14.585 14.662 14.72 14.72 14.73 14.758 14.815 14.895 14.975 15.045 15.12 15.212
16.603 16.58 16.583 16.61 16.637 16.662 16.62 16.49 16.343 16.218 16.12 16.035 15.975 15.94 15.858 15.765 15.735 15.73 15.732 15.72 15.68 15.627 15.573 15.517 15.435 15.287 15.09 14.923 14.833 14.795 14.783 14.775 14.762 14.745 14.702 14.622 14.523 14.428 14.36 14.32 14.29 14.255 14.215 14.193 14.198 14.212 14.2 14.122 14.002 13.867 13.723 13.663 13.672 13.655 13.683 13.76 13.805 13.79 13.735 13.71 13.72 13.717 13.705 13.69 13.695 13.753 13.827 13.757 13.558 13.43 13.403 13.43 13.49 13.542 13.525 13.45 13.38 13.318 13.258 13.203 13.15 13.097 13.042 12.99 12.98 13.258 13.632 13.792 13.807 13.767 13.715 13.572 13.362 13.153 13.055 13.055 13.058 13.063 13.08 13.102 13.117 13.132 13.142 13.148 13.155 13.165 13.17 13.17 13.173 13.175 13.15 13.092 13.02 12.94 12.895 12.882 12.805 12.672 12.27 11.3 10.67 10.67 10.67 10.67 10.67 10.67 11.705 12.932 13.142 13.175 13.145 13.05 12.95 12.85 12.775 12.735 12.692 12.64 12.623 12.678 12.775 12.882 12.957 12.975 12.972 12.962 12.955 12.963 13.005 13.11 13.25 13.395 13.517 13.562 13.558 13.555 13.555 13.56 13.565 13.57 13.57 13.56 13.537 13.503 13.495 13.525 13.545 13.528 13.495 13.473 13.465 13.503 13.585 13.673 13.755 13.823 13.845 13.813 13.76 13.738 13.763 13.823 13.905 14.025 14.223 14.505 14.657 14.64 14.635 14.692 14.752 14.773 14.803 14.838 14.89 14.965 15.035 15.078 15.135 15.227
16.62 16.598 16.595 16.62 16.65 16.675 16.617 16.475 16.325 16.19 16.09 16.025 15.985 15.955 15.877 15.753 15.68 15.673 15.677 15.682 15.672 15.637 15.587 15.52 15.407 15.243 15.068 14.953 14.885 14.825 14.793 14.78 14.767 14.75 14.732 14.702 14.642 14.552 14.473 14.42 14.38 14.347 14.307 14.268 14.25 14.255 14.227 14.132 14 13.855 13.708 13.63 13.57 13.52 13.568 13.652 13.737 13.792 13.79 13.775 13.772 13.76 13.745 13.73 13.715 13.715 13.757 13.73 13.6 13.53 13.515 13.51 13.545 13.59 13.567 13.49 13.415 13.34 13.27 13.205 13.143 13.09 13.035 12.98 13.075 13.48 13.857 13.895 13.705 13.598 13.6 13.522 13.377 13.185 13.085 13.088 13.092 13.095 13.11 13.137 13.16 13.175 13.185 13.192 13.198 13.205 13.21 13.207 13.205 13.205 13.18 13.13 13.07 12.998 12.955 12.94 12.87 12.76 12.52 11.553 10.723 10.67 10.67 10.67 10.67 10.718 11.947 13.142 13.167 13.175 13.122 13.027 12.93 12.83 12.758 12.722 12.69 12.645 12.633 12.69 12.78 12.875 12.952 12.98 12.972 12.958 12.958 13.008 13.115 13.25 13.39 13.515 13.577 13.582 13.575 13.57 13.57 13.573 13.577 13.583 13.587 13.592 13.592 13.58 13.572 13.58 13.585 13.583 13.58 13.588 13.613 13.663 13.735 13.825 13.917 13.992 14.05 14.072 14.05 14.053 14.115 14.2 14.29 14.38 14.487 14.662 14.76 14.727 14.695 14.718 14.78 14.83 14.877 14.92 14.97 15.027 15.072 15.103 15.155 15.237
16.635 16.613 16.61 16.632 16.66 16.677 16.605 16.458 16.31 16.165 16.07 16.03 16 15.97 15.9 15.765 15.648 15.615 15.62 15.625 15.63 15.622 15.592 15.505 15.365 15.213 15.088 15.007 14.942 14.875 14.818 14.787 14.77 14.75 14.732 14.717 14.697 14.652 14.592 14.537 14.487 14.445 14.4 14.355 14.32 14.305 14.252 14.13 13.987 13.84 13.693 13.568 13.438 13.385 13.453 13.538 13.623 13.713 13.785 13.81 13.805 13.79 13.775 13.762 13.747 13.732 13.728 13.713 13.677 13.657 13.645 13.625 13.623 13.64 13.61 13.532 13.457 13.38 13.305 13.23 13.158 13.093 13.03 12.975 13.168 13.62 13.902 13.83 13.553 13.363 13.328 13.32 13.27 13.17 13.118 13.122 13.125 13.128 13.143 13.17 13.195 13.215 13.227 13.235 13.242 13.247 13.25 13.245 13.24 13.237 13.21 13.16 13.107 13.05 13.013 12.995 12.937 12.842 12.71 11.83 10.853 10.67 10.67 10.67 10.67 10.968 12.21 13.167 13.19 13.175 13.1 13.003 12.908 12.81 12.74 12.705 12.675 12.64 12.638 12.7 12.79 12.88 12.952 12.977 12.967 12.958 13.003 13.12 13.255 13.39 13.517 13.592 13.605 13.6 13.595 13.59 13.588 13.585 13.59 13.595 13.6 13.605 13.61 13.615 13.622 13.64 13.673 13.717 13.762 13.805 13.85 13.902 13.957 14.022 14.095 14.16 14.22 14.272 14.29 14.317 14.387 14.462 14.535 14.607 14.68 14.76 14.8 14.77 14.72 14.723 14.782 14.845 14.905 14.96 15.012 15.055 15.087 15.122 15.172 15.245
16.635 16.617 16.617 16.632 16.65 16.655 16.59 16.457 16.31 16.16 16.065 16.032 16.005 15.977 15.915 15.777 15.635 15.58 15.583 15.588 15.593 15.597 15.57 15.467 15.32 15.19 15.097 15.025 14.955 14.885 14.817 14.775 14.755 14.735 14.715 14.7 14.685 14.67 14.64 14.595 14.547 14.487 14.435 14.397 14.362 14.327 14.247 14.107 13.957 13.81 13.66 13.513 13.343 13.283 13.368 13.463 13.558 13.655 13.757 13.81 13.805 13.79 13.775 13.765 13.75 13.738 13.745 13.748 13.74 13.737 13.727 13.715 13.702 13.687 13.64 13.565 13.49 13.412 13.337 13.26 13.185 13.11 13.037 12.998 13.22 13.667 13.917 13.81 13.518 13.295 13.213 13.185 13.158 13.145 13.147 13.15 13.153 13.16 13.175 13.2 13.225 13.247 13.262 13.267 13.275 13.285 13.29 13.285 13.28 13.275 13.245 13.195 13.143 13.093 13.06 13.035 12.972 12.872 12.772 11.997 10.97 10.67 10.67 10.67 10.67 11.398 12.655 13.195 13.205 13.17 13.085 12.985 12.888 12.79 12.733 12.713 12.685 12.655 12.658 12.718 12.805 12.895 12.957 12.967 12.955 12.948 13.028 13.187 13.34 13.492 13.612 13.657 13.658 13.658 13.66 13.66 13.66 13.65 13.63 13.613 13.61 13.615 13.62 13.625 13.645 13.692 13.75 13.81 13.87 13.932 13.995 14.05 14.1 14.147 14.212 14.287 14.35 14.407 14.415 14.402 14.437 14.495 14.552 14.607 14.665 14.72 14.762 14.77 14.735 14.728 14.775 14.835 14.895 14.955 15.007 15.042 15.075 15.112 15.165 15.237
16.592 16.587 16.592 16.6 16.61 16.607 16.555 16.45 16.317 16.17 16.063 16.02 15.997 15.965 15.892 15.748 15.62 15.578 15.573 15.578 15.582 15.572 15.517 15.407 15.265 15.148 15.067 14.995 14.92 14.845 14.783 14.745 14.725 14.705 14.685 14.668 14.658 14.655 14.63 14.585 14.53 14.453 14.395 14.365 14.33 14.27 14.177 14.055 13.91 13.76 13.615 13.502 13.355 13.28 13.35 13.443 13.545 13.648 13.747 13.79 13.78 13.767 13.755 13.743 13.743 13.763 13.79 13.792 13.778 13.77 13.76 13.752 13.747 13.72 13.652 13.572 13.497 13.422 13.345 13.267 13.192 13.105 13.008 12.983 13.22 13.66 13.897 13.787 13.53 13.303 13.195 13.168 13.153 13.16 13.17 13.17 13.178 13.19 13.205 13.23 13.252 13.27 13.285 13.293 13.303 13.32 13.33 13.325 13.32 13.315 13.285 13.233 13.18 13.133 13.1 13.057 12.97 12.86 12.772 12.052 11.018 10.67 10.67 10.67 10.671 11.78 13.049 13.217 13.205 13.15 13.07 12.975 12.875 12.773 12.728 12.735 12.722 12.695 12.698 12.748 12.825 12.915 12.965 12.957 12.938 12.923 13 13.17 13.342 13.517 13.65 13.722 13.76 13.775 13.783 13.788 13.792 13.777 13.735 13.69 13.663 13.643 13.63 13.633 13.663 13.717 13.775 13.833 13.895 13.97 14.042 14.1 14.147 14.193 14.27 14.37 14.447 14.51 14.487 14.39 14.373 14.43 14.487 14.542 14.597 14.65 14.702 14.745 14.742 14.73 14.765 14.825 14.885 14.942 14.987 15.018 15.048 15.08 15.135 15.218
16.528 16.54 16.548 16.55 16.56 16.552 16.495 16.405 16.302 16.175 16.058 16 15.97 15.915 15.83 15.708 15.618 15.588 15.573 15.572 15.562 15.522 15.447 15.34 15.208 15.098 15.025 14.952 14.878 14.805 14.748 14.715 14.695 14.675 14.655 14.64 14.638 14.642 14.62 14.565 14.49 14.4 14.338 14.302 14.247 14.16 14.065 13.97 13.852 13.71 13.578 13.5 13.408 13.355 13.4 13.46 13.543 13.642 13.73 13.762 13.755 13.745 13.743 13.753 13.788 13.837 13.855 13.835 13.813 13.8 13.79 13.778 13.77 13.735 13.655 13.57 13.493 13.415 13.337 13.255 13.157 13.045 12.923 12.91 13.198 13.637 13.83 13.732 13.535 13.308 13.178 13.163 13.165 13.18 13.19 13.193 13.205 13.22 13.235 13.257 13.277 13.295 13.308 13.32 13.34 13.36 13.37 13.365 13.358 13.352 13.322 13.27 13.222 13.175 13.132 13.065 12.96 12.85 12.777 12.15 11.105 10.67 10.67 10.67 10.751 12.023 13.224 13.225 13.182 13.117 13.047 12.962 12.862 12.758 12.715 12.735 12.745 12.733 12.74 12.788 12.853 12.932 12.97 12.95 12.923 12.9 12.973 13.143 13.323 13.502 13.64 13.74 13.825 13.887 13.917 13.925 13.93 13.915 13.877 13.83 13.783 13.735 13.695 13.675 13.69 13.74 13.8 13.863 13.935 14.015 14.09 14.147 14.19 14.24 14.323 14.43 14.527 14.607 14.575 14.425 14.34 14.365 14.422 14.477 14.53 14.58 14.635 14.69 14.722 14.727 14.755 14.815 14.872 14.925 14.965 14.995 15.025 15.06 15.125 15.22
16.48 16.5 16.505 16.503 16.51 16.5 16.437 16.345 16.255 16.155 16.048 15.973 15.915 15.843 15.763 15.685 15.635 15.603 15.575 15.555 15.515 15.455 15.375 15.27 15.15 15.05 14.98 14.908 14.835 14.77 14.72 14.688 14.665 14.645 14.628 14.623 14.625 14.627 14.6 14.527 14.438 14.345 14.28 14.225 14.14 14.04 13.945 13.857 13.765 13.65 13.543 13.485 13.445 13.443 13.485 13.525 13.578 13.648 13.712 13.737 13.735 13.74 13.763 13.807 13.865 13.902 13.9 13.877 13.852 13.832 13.82 13.807 13.795 13.747 13.66 13.573 13.488 13.4 13.305 13.197 13.078 12.955 12.833 12.823 13.167 13.615 13.745 13.64 13.477 13.293 13.178 13.173 13.185 13.2 13.212 13.22 13.233 13.247 13.263 13.28 13.3 13.32 13.335 13.355 13.38 13.4 13.41 13.405 13.395 13.387 13.36 13.312 13.265 13.215 13.152 13.06 12.95 12.84 12.785 12.332 11.275 10.67 10.67 10.67 11.055 12.34 13.24 13.21 13.147 13.082 13.017 12.942 12.842 12.74 12.705 12.725 12.745 12.757 12.782 12.832 12.887 12.947 12.967 12.942 12.915 12.885 12.95 13.123 13.31 13.487 13.62 13.72 13.82 13.92 13.997 14.045 14.067 14.057 14.022 13.975 13.928 13.88 13.833 13.793 13.773 13.78 13.825 13.9 13.98 14.06 14.135 14.19 14.23 14.288 14.377 14.482 14.577 14.662 14.637 14.492 14.355 14.31 14.355 14.41 14.46 14.51 14.565 14.62 14.67 14.705 14.745 14.803 14.855 14.905 14.948 14.983 15.015 15.06 15.15 15.258
16.44 16.457 16.462 16.458 16.46 16.447 16.382 16.288 16.195 16.105 16.02 15.943 15.868 15.793 15.723 15.68 15.655 15.622 15.582 15.52 15.448 15.385 15.302 15.195 15.095 15.02 14.96 14.9 14.84 14.785 14.743 14.71 14.683 14.653 14.628 14.625 14.63 14.63 14.587 14.498 14.398 14.298 14.215 14.128 14.025 13.923 13.823 13.738 13.668 13.59 13.515 13.473 13.475 13.512 13.555 13.597 13.64 13.68 13.715 13.73 13.735 13.753 13.792 13.847 13.895 13.907 13.892 13.875 13.855 13.837 13.825 13.815 13.8 13.787 13.745 13.66 13.563 13.425 13.268 13.135 13.015 12.895 12.775 12.72 12.945 13.425 13.68 13.595 13.438 13.28 13.188 13.185 13.2 13.215 13.235 13.25 13.26 13.273 13.29 13.31 13.33 13.35 13.368 13.388 13.412 13.435 13.442 13.435 13.427 13.42 13.392 13.347 13.3 13.257 13.187 13.078 12.963 12.85 12.8 12.51 11.443 10.67 10.67 10.67 11.505 12.797 13.232 13.177 13.112 13.037 12.955 12.867 12.768 12.698 12.685 12.7 12.72 12.745 12.787 12.84 12.892 12.945 12.955 12.927 12.9 12.878 12.95 13.123 13.31 13.467 13.58 13.68 13.78 13.88 13.985 14.09 14.157 14.18 14.165 14.12 14.075 14.03 13.985 13.945 13.91 13.878 13.873 13.925 14.005 14.085 14.16 14.22 14.267 14.33 14.407 14.48 14.552 14.635 14.645 14.535 14.383 14.313 14.35 14.408 14.463 14.518 14.575 14.633 14.688 14.728 14.758 14.8 14.853 14.905 14.945 14.98 15.015 15.068 15.19 15.315
16.415 16.413 16.417 16.413 16.412 16.392 16.325 16.233 16.145 16.065 15.993 15.92 15.845 15.77 15.708 15.685 15.672 15.645 15.592 15.488 15.38 15.31 15.225 15.13 15.075 15.038 14.995 14.95 14.9 14.85 14.808 14.775 14.74 14.693 14.655 14.648 14.652 14.652 14.6 14.498 14.393 14.28 14.173 14.08 13.99 13.893 13.788 13.705 13.643 13.568 13.5 13.478 13.51 13.562 13.605 13.65 13.69 13.71 13.72 13.737 13.755 13.768 13.805 13.855 13.875 13.867 13.85 13.83 13.815 13.81 13.802 13.79 13.773 13.8 13.84 13.82 13.72 13.522 13.305 13.123 12.98 12.86 12.743 12.658 12.765 13.29 13.685 13.612 13.455 13.293 13.2 13.198 13.213 13.228 13.25 13.272 13.285 13.298 13.32 13.347 13.37 13.39 13.405 13.418 13.438 13.462 13.47 13.46 13.452 13.445 13.417 13.373 13.335 13.312 13.247 13.133 13.015 12.898 12.835 12.687 11.748 10.811 10.67 10.888 12.07 13.139 13.202 13.12 13.037 12.942 12.84 12.743 12.673 12.653 12.658 12.665 12.683 12.708 12.75 12.807 12.865 12.92 12.932 12.905 12.885 12.888 12.97 13.137 13.302 13.42 13.515 13.615 13.718 13.83 13.958 14.087 14.18 14.227 14.24 14.222 14.2 14.172 14.135 14.095 14.055 14.007 13.958 13.958 14.018 14.095 14.17 14.235 14.28 14.312 14.347 14.4 14.478 14.57 14.625 14.555 14.425 14.393 14.443 14.5 14.56 14.62 14.68 14.74 14.785 14.8 14.805 14.825 14.868 14.92 14.955 14.983 15.018 15.075 15.217 15.367
16.423 16.385 16.375 16.368 16.365 16.337 16.268 16.188 16.115 16.048 15.977 15.9 15.825 15.75 15.695 15.683 15.682 15.665 15.595 15.467 15.333 15.235 15.153 15.098 15.092 15.075 15.04 15.002 14.96 14.917 14.872 14.83 14.782 14.725 14.685 14.675 14.677 14.672 14.615 14.51 14.402 14.272 14.15 14.07 13.997 13.917 13.83 13.747 13.665 13.57 13.5 13.503 13.553 13.607 13.657 13.692 13.71 13.71 13.71 13.733 13.762 13.78 13.812 13.842 13.837 13.822 13.805 13.788 13.778 13.777 13.775 13.76 13.735 13.758 13.827 13.83 13.747 13.597 13.395 13.18 12.98 12.825 12.71 12.713 12.953 13.43 13.71 13.627 13.472 13.308 13.218 13.215 13.227 13.24 13.26 13.285 13.305 13.323 13.345 13.375 13.402 13.425 13.442 13.455 13.468 13.487 13.495 13.485 13.477 13.47 13.445 13.41 13.39 13.377 13.31 13.195 13.08 12.963 12.888 12.857 12.37 11.583 11.278 11.693 12.677 13.215 13.12 13.013 12.91 12.808 12.71 12.645 12.628 12.63 12.635 12.64 12.65 12.67 12.713 12.775 12.835 12.892 12.91 12.895 12.898 12.915 12.99 13.135 13.262 13.355 13.45 13.558 13.68 13.818 13.962 14.092 14.177 14.22 14.24 14.245 14.247 14.245 14.232 14.217 14.185 14.13 14.073 14.033 14.045 14.11 14.182 14.232 14.247 14.24 14.258 14.325 14.418 14.513 14.597 14.567 14.493 14.515 14.57 14.625 14.682 14.74 14.8 14.845 14.86 14.855 14.85 14.858 14.888 14.932 14.965 14.988 15.02 15.083 15.23 15.41
16.448 16.388 16.358 16.343 16.33 16.3 16.238 16.168 16.1 16.033 15.963 15.885 15.807 15.73 15.683 15.678 15.685 15.677 15.595 15.453 15.308 15.178 15.105 15.103 15.12 15.105 15.07 15.035 15 14.965 14.92 14.872 14.82 14.76 14.715 14.703 14.702 14.69 14.627 14.522 14.402 14.253 14.125 14.045 13.975 13.902 13.835 13.767 13.68 13.578 13.518 13.54 13.597 13.652 13.695 13.707 13.705 13.7 13.7 13.72 13.755 13.785 13.805 13.807 13.792 13.778 13.76 13.745 13.74 13.743 13.745 13.725 13.685 13.695 13.755 13.647 13.532 13.5 13.36 13.177 12.98 12.805 12.738 12.9 13.255 13.582 13.687 13.597 13.457 13.31 13.233 13.233 13.24 13.25 13.27 13.295 13.32 13.345 13.37 13.4 13.427 13.452 13.472 13.487 13.5 13.512 13.515 13.505 13.497 13.492 13.48 13.465 13.455 13.44 13.372 13.26 13.15 13.04 12.95 12.935 12.852 12.585 12.447 12.692 13.07 13.172 13.058 12.943 12.833 12.725 12.638 12.605 12.61 12.615 12.618 12.623 12.628 12.638 12.68 12.745 12.805 12.865 12.897 12.908 12.925 12.945 13.003 13.105 13.205 13.298 13.405 13.535 13.68 13.83 13.975 14.095 14.17 14.21 14.233 14.243 14.253 14.265 14.275 14.285 14.27 14.227 14.182 14.135 14.103 14.13 14.182 14.202 14.203 14.2 14.233 14.303 14.385 14.473 14.557 14.585 14.592 14.645 14.7 14.752 14.805 14.855 14.895 14.905 14.895 14.882 14.87 14.88 14.915 14.953 14.978 14.995 15.023 15.09 15.245 15.445
16.465 16.403 16.37 16.35 16.333 16.31 16.263 16.195 16.125 16.05 15.96 15.87 15.79 15.713 15.678 15.683 15.69 15.685 15.6 15.448 15.3 15.158 15.1 15.13 15.15 15.135 15.097 15.06 15.02 14.975 14.927 14.892 14.852 14.795 14.745 14.728 14.725 14.707 14.64 14.527 14.39 14.228 14.1 14.02 13.95 13.88 13.82 13.767 13.697 13.6 13.545 13.573 13.63 13.68 13.705 13.707 13.703 13.695 13.693 13.708 13.74 13.777 13.782 13.763 13.748 13.735 13.72 13.708 13.705 13.707 13.707 13.675 13.623 13.615 13.66 13.41 13.18 13.24 13.182 13.035 12.875 12.715 12.745 13.017 13.352 13.612 13.67 13.575 13.448 13.32 13.255 13.258 13.265 13.275 13.295 13.32 13.345 13.37 13.393 13.42 13.447 13.475 13.492 13.503 13.517 13.53 13.53 13.52 13.513 13.515 13.52 13.517 13.51 13.5 13.452 13.358 13.255 13.15 13.048 13 12.997 13 13.022 13.087 13.185 13.177 13.063 12.948 12.833 12.713 12.625 12.603 12.608 12.61 12.61 12.615 12.62 12.628 12.668 12.73 12.79 12.85 12.895 12.922 12.945 12.965 13.008 13.083 13.173 13.268 13.39 13.54 13.69 13.84 13.987 14.1 14.165 14.207 14.235 14.25 14.27 14.295 14.312 14.327 14.317 14.285 14.252 14.217 14.175 14.158 14.17 14.178 14.185 14.195 14.238 14.313 14.388 14.465 14.532 14.585 14.635 14.687 14.737 14.785 14.835 14.875 14.91 14.922 14.905 14.89 14.885 14.905 14.95 15 15.028 15.025 15.03 15.098 15.26 15.467
16.475 16.418 16.393 16.375 16.358 16.342 16.31 16.25 16.182 16.097 15.98 15.865 15.775 15.698 15.673 15.69 15.7 15.695 15.61 15.455 15.303 15.165 15.118 15.15 15.172 15.157 15.115 15.072 15.022 14.965 14.915 14.89 14.87 14.825 14.775 14.755 14.747 14.722 14.65 14.52 14.365 14.203 14.075 13.993 13.925 13.868 13.815 13.765 13.71 13.628 13.573 13.598 13.647 13.682 13.7 13.707 13.707 13.7 13.695 13.703 13.725 13.76 13.76 13.728 13.708 13.693 13.678 13.67 13.67 13.67 13.66 13.615 13.56 13.54 13.552 13.157 12.8 12.9 12.945 12.86 12.7 12.593 12.73 13.043 13.34 13.6 13.677 13.59 13.472 13.345 13.283 13.292 13.305 13.315 13.333 13.357 13.38 13.395 13.413 13.438 13.465 13.495 13.51 13.513 13.523 13.537 13.54 13.53 13.533 13.553 13.565 13.563 13.558 13.557 13.53 13.462 13.38 13.28 13.175 13.12 13.112 13.067 13.023 13.055 13.145 13.167 13.077 12.962 12.842 12.715 12.625 12.603 12.607 12.61 12.61 12.615 12.623 12.635 12.673 12.73 12.793 12.855 12.9 12.927 12.95 12.973 13.018 13.088 13.17 13.263 13.385 13.542 13.702 13.852 13.997 14.102 14.162 14.212 14.242 14.258 14.277 14.3 14.32 14.342 14.342 14.312 14.277 14.242 14.207 14.178 14.17 14.18 14.19 14.2 14.245 14.325 14.397 14.457 14.502 14.542 14.587 14.635 14.682 14.727 14.77 14.803 14.86 14.912 14.912 14.898 14.903 14.94 14.998 15.062 15.112 15.112 15.088 15.118 15.248 15.44
16.485 16.438 16.418 16.402 16.385 16.368 16.347 16.302 16.237 16.142 16.015 15.888 15.773 15.68 15.655 15.682 15.705 15.705 15.62 15.467 15.313 15.178 15.135 15.165 15.185 15.167 15.12 15.067 15.012 14.955 14.905 14.88 14.87 14.845 14.805 14.783 14.77 14.737 14.65 14.502 14.338 14.175 14.05 13.97 13.91 13.86 13.812 13.765 13.715 13.648 13.6 13.62 13.655 13.672 13.687 13.7 13.707 13.707 13.708 13.713 13.723 13.743 13.737 13.703 13.673 13.65 13.635 13.63 13.63 13.632 13.615 13.56 13.467 13.32 13.112 12.683 12.42 12.52 12.62 12.637 12.525 12.525 12.775 13.097 13.387 13.622 13.677 13.59 13.49 13.37 13.31 13.322 13.337 13.35 13.368 13.39 13.405 13.418 13.438 13.462 13.488 13.515 13.53 13.53 13.533 13.543 13.548 13.55 13.57 13.597 13.61 13.61 13.613 13.617 13.59 13.535 13.475 13.397 13.305 13.242 13.2 13.085 13.003 13.035 13.103 13.145 13.092 12.972 12.845 12.715 12.625 12.6 12.605 12.61 12.613 12.62 12.633 12.648 12.68 12.735 12.798 12.86 12.905 12.932 12.955 12.983 13.035 13.105 13.18 13.263 13.373 13.53 13.705 13.865 14.002 14.095 14.157 14.215 14.247 14.265 14.28 14.293 14.307 14.325 14.332 14.312 14.275 14.238 14.208 14.185 14.175 14.182 14.195 14.21 14.258 14.325 14.38 14.42 14.45 14.488 14.533 14.58 14.627 14.665 14.695 14.725 14.79 14.875 14.91 14.908 14.93 14.988 15.053 15.118 15.182 15.22 15.205 15.21 15.293 15.415
16.488 16.455 16.442 16.427 16.412 16.395 16.377 16.35 16.287 16.182 16.055 15.925 15.795 15.678 15.64 15.67 15.7 15.71 15.627 15.472 15.32 15.19 15.15 15.18 15.192 15.165 15.112 15.055 14.998 14.94 14.893 14.87 14.857 14.842 14.822 14.805 14.79 14.747 14.635 14.475 14.313 14.15 14.028 13.958 13.905 13.855 13.808 13.76 13.71 13.655 13.62 13.628 13.648 13.66 13.675 13.69 13.703 13.713 13.723 13.733 13.74 13.748 13.738 13.705 13.668 13.635 13.615 13.605 13.598 13.598 13.572 13.512 13.415 13.115 12.603 12.245 12.19 12.24 12.295 12.345 12.355 12.498 12.822 13.147 13.362 13.557 13.657 13.58 13.49 13.39 13.338 13.348 13.365 13.382 13.4 13.415 13.428 13.443 13.46 13.485 13.51 13.532 13.547 13.55 13.55 13.555 13.568 13.588 13.615 13.642 13.657 13.665 13.675 13.68 13.65 13.595 13.54 13.482 13.415 13.34 13.23 13.068 12.988 13.025 13.085 13.137 13.1 12.975 12.845 12.715 12.623 12.597 12.6 12.613 12.63 12.64 12.653 12.668 12.695 12.745 12.805 12.865 12.907 12.932 12.957 12.995 13.055 13.125 13.197 13.27 13.363 13.51 13.69 13.865 14.002 14.087 14.152 14.212 14.247 14.262 14.275 14.285 14.292 14.3 14.305 14.295 14.27 14.24 14.215 14.195 14.175 14.175 14.193 14.215 14.255 14.297 14.333 14.367 14.4 14.435 14.48 14.53 14.573 14.6 14.623 14.65 14.715 14.812 14.887 14.932 14.98 15.045 15.11 15.175 15.24 15.3 15.332 15.367 15.43 15.49
16.465 16.432 16.427 16.417 16.407 16.397 16.385 16.372 16.32 16.212 16.082 15.95 15.82 15.69 15.64 15.67 15.7 15.712 15.63 15.47 15.328 15.208 15.165 15.195 15.19 15.147 15.097 15.042 14.985 14.925 14.88 14.86 14.845 14.83 14.817 14.805 14.792 14.757 14.655 14.508 14.355 14.195 14.06 13.98 13.93 13.88 13.828 13.775 13.725 13.663 13.625 13.638 13.658 13.673 13.69 13.705 13.72 13.735 13.748 13.76 13.77 13.775 13.775 13.76 13.725 13.685 13.658 13.64 13.625 13.6 13.54 13.468 13.402 13.137 12.613 12.32 12.323 12.325 12.32 12.298 12.295 12.435 12.727 13.035 13.225 13.41 13.577 13.57 13.482 13.39 13.355 13.372 13.39 13.41 13.425 13.438 13.453 13.468 13.483 13.505 13.53 13.55 13.562 13.567 13.57 13.58 13.603 13.627 13.655 13.68 13.69 13.695 13.705 13.71 13.675 13.612 13.557 13.502 13.447 13.367 13.227 13.053 12.973 13.01 13.07 13.117 13.09 12.982 12.853 12.72 12.613 12.57 12.585 12.635 12.675 12.685 12.695 12.705 12.728 12.775 12.835 12.87 12.882 12.902 12.938 12.995 13.065 13.135 13.205 13.272 13.353 13.488 13.665 13.845 13.99 14.08 14.147 14.21 14.245 14.253 14.26 14.268 14.27 14.275 14.277 14.27 14.27 14.26 14.233 14.208 14.18 14.173 14.203 14.235 14.25 14.265 14.288 14.315 14.348 14.385 14.433 14.49 14.535 14.56 14.58 14.605 14.668 14.763 14.85 14.942 15.03 15.1 15.165 15.23 15.295 15.36 15.407 15.457 15.52 15.57
16.423 16.38 16.375 16.37 16.365 16.36 16.347 16.34 16.307 16.215 16.09 15.957 15.825 15.698 15.65 15.68 15.702 15.707 15.627 15.478 15.348 15.233 15.185 15.2 15.162 15.105 15.07 15.025 14.97 14.913 14.87 14.85 14.835 14.817 14.8 14.785 14.772 14.752 14.687 14.572 14.437 14.295 14.15 14.04 13.978 13.925 13.872 13.82 13.752 13.653 13.608 13.645 13.685 13.71 13.73 13.745 13.76 13.775 13.785 13.795 13.802 13.805 13.815 13.825 13.807 13.77 13.74 13.72 13.687 13.622 13.533 13.443 13.365 13.22 12.888 12.665 12.655 12.615 12.55 12.455 12.353 12.388 12.583 12.813 13.03 13.223 13.395 13.502 13.477 13.388 13.363 13.392 13.415 13.432 13.448 13.462 13.478 13.495 13.51 13.525 13.547 13.57 13.58 13.585 13.595 13.615 13.64 13.665 13.69 13.702 13.702 13.7 13.703 13.707 13.67 13.595 13.53 13.473 13.417 13.34 13.212 13.045 12.963 12.998 13.055 13.087 13.057 12.98 12.867 12.717 12.578 12.53 12.58 12.667 12.727 12.745 12.755 12.758 12.775 12.825 12.86 12.845 12.83 12.853 12.908 12.985 13.062 13.135 13.2 13.255 13.333 13.47 13.643 13.82 13.967 14.06 14.132 14.205 14.242 14.245 14.25 14.255 14.255 14.255 14.247 14.24 14.257 14.277 14.265 14.235 14.21 14.21 14.255 14.29 14.283 14.275 14.283 14.298 14.32 14.35 14.398 14.465 14.512 14.537 14.56 14.583 14.643 14.732 14.803 14.905 15.037 15.14 15.215 15.28 15.345 15.385 15.4 15.453 15.537 15.602
16.38 16.333 16.323 16.317 16.312 16.297 16.278 16.275 16.257 16.182 16.072 15.955 15.83 15.705 15.66 15.682 15.69 15.692 15.622 15.49 15.373 15.26 15.208 15.187 15.115 15.05 15.022 14.992 14.95 14.898 14.858 14.837 14.82 14.8 14.783 14.767 14.75 14.73 14.692 14.605 14.48 14.355 14.222 14.1 14.023 13.97 13.915 13.84 13.735 13.613 13.575 13.63 13.685 13.73 13.765 13.785 13.8 13.815 13.825 13.832 13.835 13.835 13.845 13.865 13.872 13.85 13.817 13.78 13.712 13.625 13.535 13.443 13.35 13.257 13.09 12.942 12.872 12.772 12.657 12.542 12.428 12.433 12.603 12.86 13.055 13.123 13.195 13.328 13.42 13.392 13.37 13.402 13.435 13.457 13.472 13.488 13.505 13.525 13.54 13.55 13.565 13.585 13.598 13.61 13.63 13.653 13.677 13.7 13.712 13.717 13.717 13.71 13.703 13.702 13.667 13.59 13.513 13.443 13.382 13.302 13.185 13.035 12.96 12.993 13.045 13.06 13.012 12.95 12.862 12.695 12.533 12.518 12.6 12.695 12.772 12.805 12.81 12.805 12.822 12.85 12.835 12.795 12.78 12.815 12.89 12.977 13.057 13.127 13.182 13.225 13.308 13.455 13.625 13.797 13.94 14.035 14.115 14.195 14.235 14.235 14.235 14.232 14.227 14.222 14.21 14.21 14.235 14.267 14.285 14.277 14.273 14.288 14.33 14.352 14.338 14.323 14.315 14.32 14.333 14.353 14.388 14.445 14.49 14.515 14.54 14.56 14.615 14.69 14.745 14.845 14.995 15.135 15.25 15.332 15.387 15.377 15.358 15.42 15.522 15.615
16.34 16.288 16.27 16.257 16.237 16.215 16.208 16.215 16.205 16.14 16.035 15.93 15.82 15.708 15.663 15.67 15.672 15.677 15.622 15.51 15.4 15.29 15.225 15.167 15.07 15 14.965 14.94 14.912 14.875 14.843 14.823 14.805 14.785 14.768 14.75 14.73 14.71 14.687 14.622 14.507 14.385 14.26 14.133 14.048 13.997 13.93 13.827 13.703 13.583 13.555 13.613 13.668 13.722 13.775 13.815 13.84 13.855 13.862 13.865 13.865 13.865 13.875 13.895 13.915 13.915 13.875 13.802 13.715 13.628 13.538 13.445 13.353 13.26 13.162 13.055 12.945 12.835 12.722 12.61 12.5 12.543 12.872 13.282 13.457 13.415 13.363 13.373 13.408 13.393 13.38 13.41 13.445 13.477 13.497 13.515 13.532 13.55 13.565 13.577 13.59 13.603 13.62 13.642 13.667 13.69 13.71 13.722 13.727 13.732 13.73 13.72 13.71 13.702 13.665 13.59 13.51 13.43 13.357 13.267 13.15 13.018 12.958 12.99 13.03 13.02 12.958 12.895 12.82 12.66 12.503 12.51 12.612 12.717 12.812 12.857 12.857 12.845 12.84 12.825 12.785 12.745 12.738 12.792 12.877 12.962 13.045 13.11 13.155 13.195 13.285 13.443 13.615 13.785 13.937 14.05 14.133 14.203 14.233 14.228 14.22 14.208 14.195 14.188 14.175 14.18 14.21 14.24 14.272 14.307 14.345 14.375 14.402 14.41 14.395 14.38 14.365 14.358 14.36 14.38 14.405 14.438 14.47 14.495 14.52 14.54 14.58 14.635 14.685 14.785 14.935 15.085 15.23 15.352 15.4 15.345 15.315 15.385 15.488 15.59
16.3 16.24 16.207 16.175 16.145 16.14 16.15 16.183 16.172 16.082 15.975 15.867 15.768 15.685 15.648 15.645 15.647 15.65 15.605 15.507 15.405 15.305 15.22 15.132 15.028 14.948 14.905 14.88 14.858 14.838 14.825 14.815 14.8 14.78 14.77 14.753 14.715 14.685 14.665 14.625 14.535 14.412 14.277 14.138 14.05 13.982 13.895 13.807 13.697 13.578 13.548 13.603 13.658 13.71 13.765 13.82 13.862 13.887 13.895 13.895 13.892 13.893 13.905 13.925 13.937 13.932 13.89 13.81 13.72 13.632 13.542 13.45 13.36 13.27 13.175 13.07 12.965 12.86 12.75 12.642 12.55 12.663 13.07 13.51 13.74 13.755 13.677 13.582 13.485 13.405 13.39 13.42 13.452 13.485 13.51 13.527 13.542 13.56 13.575 13.587 13.602 13.62 13.642 13.667 13.692 13.715 13.73 13.735 13.737 13.735 13.73 13.725 13.715 13.705 13.657 13.572 13.49 13.41 13.33 13.242 13.133 13.008 12.96 12.995 13.012 12.975 12.905 12.84 12.77 12.63 12.495 12.49 12.578 12.69 12.797 12.85 12.845 12.825 12.795 12.76 12.72 12.68 12.675 12.732 12.815 12.895 12.99 13.087 13.147 13.185 13.283 13.448 13.62 13.782 13.942 14.092 14.197 14.257 14.275 14.265 14.255 14.24 14.222 14.192 14.153 14.15 14.183 14.218 14.255 14.307 14.372 14.43 14.462 14.46 14.442 14.427 14.412 14.395 14.383 14.39 14.41 14.432 14.455 14.477 14.5 14.52 14.545 14.58 14.625 14.725 14.875 15.028 15.2 15.35 15.375 15.295 15.275 15.358 15.463 15.568
16.263 16.185 16.123 16.085 16.11 16.188 16.268 16.285 16.162 16 15.883 15.785 15.713 15.658 15.628 15.615 15.61 15.61 15.565 15.467 15.37 15.277 15.182 15.087 14.985 14.895 14.848 14.825 14.81 14.8 14.8 14.802 14.795 14.78 14.785 14.792 14.75 14.688 14.645 14.617 14.555 14.44 14.285 14.133 14.037 13.937 13.835 13.767 13.687 13.58 13.545 13.597 13.65 13.703 13.758 13.813 13.867 13.905 13.917 13.92 13.917 13.92 13.93 13.935 13.927 13.907 13.875 13.815 13.73 13.64 13.55 13.46 13.37 13.277 13.18 13.078 12.975 12.872 12.765 12.658 12.615 12.785 13.12 13.447 13.69 13.765 13.717 13.637 13.532 13.428 13.398 13.43 13.457 13.485 13.507 13.523 13.538 13.555 13.57 13.583 13.605 13.635 13.66 13.683 13.705 13.727 13.742 13.745 13.74 13.723 13.715 13.72 13.715 13.705 13.65 13.55 13.455 13.37 13.293 13.222 13.132 13.018 12.975 12.995 12.982 12.932 12.868 12.802 12.73 12.608 12.503 12.485 12.53 12.625 12.727 12.775 12.767 12.745 12.715 12.68 12.64 12.598 12.585 12.63 12.705 12.785 12.893 13.035 13.145 13.2 13.298 13.46 13.625 13.775 13.93 14.105 14.26 14.34 14.352 14.345 14.332 14.302 14.255 14.19 14.128 14.123 14.16 14.2 14.24 14.29 14.355 14.422 14.465 14.48 14.475 14.457 14.44 14.42 14.4 14.388 14.395 14.417 14.44 14.46 14.48 14.5 14.52 14.543 14.575 14.678 14.86 15.053 15.222 15.332 15.33 15.265 15.268 15.35 15.455 15.565
16.23 16.15 16.088 16.125 16.278 16.452 16.515 16.38 16.125 15.915 15.803 15.735 15.688 15.645 15.615 15.595 15.58 15.575 15.527 15.425 15.32 15.223 15.128 15.035 14.938 14.843 14.793 14.78 14.775 14.773 14.773 14.778 14.78 14.775 14.795 14.84 14.827 14.753 14.68 14.623 14.563 14.455 14.283 14.125 14.005 13.875 13.773 13.708 13.643 13.565 13.543 13.593 13.645 13.7 13.755 13.81 13.87 13.91 13.925 13.932 13.935 13.94 13.937 13.915 13.89 13.87 13.845 13.807 13.74 13.65 13.56 13.47 13.38 13.285 13.185 13.085 12.985 12.885 12.78 12.67 12.708 12.945 13.225 13.437 13.587 13.65 13.63 13.592 13.532 13.445 13.405 13.435 13.46 13.482 13.502 13.517 13.533 13.55 13.568 13.588 13.62 13.655 13.68 13.7 13.72 13.742 13.755 13.747 13.73 13.705 13.695 13.702 13.705 13.702 13.65 13.545 13.435 13.338 13.26 13.192 13.12 13.028 12.983 12.975 12.94 12.892 12.832 12.762 12.687 12.583 12.508 12.5 12.515 12.575 12.65 12.68 12.677 12.662 12.635 12.597 12.555 12.513 12.495 12.533 12.6 12.675 12.788 12.945 13.1 13.205 13.313 13.465 13.62 13.765 13.918 14.09 14.272 14.377 14.4 14.402 14.372 14.315 14.243 14.168 14.105 14.1 14.14 14.183 14.225 14.273 14.33 14.382 14.42 14.455 14.477 14.475 14.46 14.44 14.42 14.4 14.39 14.4 14.42 14.44 14.46 14.483 14.51 14.54 14.585 14.723 14.94 15.12 15.222 15.287 15.288 15.263 15.3 15.368 15.458 15.565
16.235 16.165 16.133 16.25 16.48 16.657 16.595 16.33 16.05 15.855 15.775 15.725 15.678 15.633 15.6 15.583 15.568 15.558 15.51 15.418 15.318 15.213 15.113 15.018 14.92 14.828 14.775 14.76 14.753 14.748 14.748 14.755 14.765 14.773 14.808 14.87 14.895 14.852 14.777 14.7 14.628 14.503 14.303 14.115 13.963 13.818 13.723 13.675 13.625 13.575 13.555 13.588 13.642 13.697 13.752 13.81 13.87 13.91 13.925 13.935 13.942 13.947 13.945 13.923 13.89 13.86 13.828 13.795 13.742 13.657 13.565 13.475 13.385 13.292 13.195 13.095 12.993 12.89 12.788 12.705 12.795 13.03 13.25 13.427 13.522 13.535 13.515 13.493 13.47 13.43 13.41 13.433 13.458 13.48 13.498 13.513 13.53 13.55 13.575 13.605 13.64 13.675 13.7 13.72 13.737 13.755 13.757 13.737 13.713 13.688 13.675 13.678 13.685 13.692 13.645 13.54 13.427 13.318 13.23 13.16 13.095 13.025 12.97 12.935 12.895 12.852 12.795 12.72 12.642 12.56 12.518 12.52 12.525 12.548 12.575 12.585 12.585 12.578 12.553 12.513 12.47 12.43 12.408 12.44 12.508 12.578 12.69 12.85 13.02 13.172 13.313 13.46 13.608 13.753 13.905 14.08 14.255 14.36 14.412 14.425 14.375 14.305 14.235 14.165 14.108 14.103 14.14 14.183 14.225 14.26 14.295 14.335 14.37 14.405 14.44 14.465 14.475 14.465 14.442 14.42 14.4 14.39 14.4 14.425 14.455 14.488 14.525 14.565 14.663 14.847 15.022 15.122 15.183 15.242 15.268 15.288 15.343 15.4 15.47 15.565
16.275 16.205 16.195 16.335 16.545 16.65 16.52 16.24 15.993 15.848 15.78 15.725 15.675 15.63 15.615 15.615 15.605 15.598 15.555 15.473 15.372 15.255 15.148 15.05 14.953 14.87 14.81 14.775 14.76 14.75 14.745 14.75 14.763 14.778 14.82 14.882 14.92 14.91 14.865 14.817 14.77 14.62 14.35 14.12 13.965 13.82 13.735 13.71 13.675 13.638 13.608 13.6 13.635 13.692 13.747 13.805 13.862 13.902 13.922 13.935 13.945 13.95 13.955 13.952 13.93 13.895 13.855 13.815 13.74 13.63 13.53 13.44 13.352 13.277 13.202 13.11 13.008 12.905 12.803 12.745 12.825 13.012 13.22 13.397 13.47 13.463 13.445 13.425 13.408 13.405 13.42 13.44 13.463 13.485 13.503 13.52 13.54 13.56 13.59 13.627 13.662 13.69 13.712 13.732 13.747 13.765 13.757 13.728 13.703 13.678 13.66 13.66 13.668 13.675 13.627 13.517 13.405 13.29 13.213 13.165 13.105 13.045 12.963 12.888 12.843 12.8 12.745 12.67 12.598 12.55 12.538 12.543 12.547 12.55 12.56 12.568 12.565 12.56 12.525 12.475 12.438 12.4 12.378 12.403 12.465 12.535 12.643 12.8 12.973 13.148 13.312 13.463 13.605 13.748 13.898 14.077 14.245 14.35 14.425 14.435 14.38 14.325 14.275 14.225 14.185 14.185 14.22 14.258 14.282 14.263 14.253 14.288 14.323 14.357 14.39 14.425 14.45 14.435 14.397 14.365 14.332 14.335 14.385 14.435 14.475 14.515 14.555 14.623 14.767 14.925 15.025 15.105 15.17 15.22 15.273 15.33 15.385 15.44 15.5 15.595
16.32 16.248 16.258 16.415 16.557 16.577 16.425 16.155 15.97 15.875 15.8 15.735 15.68 15.64 15.65 15.685 15.69 15.682 15.642 15.552 15.435 15.305 15.19 15.093 15.003 14.93 14.865 14.813 14.79 14.78 14.77 14.768 14.773 14.785 14.827 14.875 14.895 14.897 14.882 14.86 14.825 14.642 14.353 14.15 14.01 13.868 13.788 13.772 13.747 13.713 13.683 13.655 13.648 13.685 13.74 13.792 13.842 13.88 13.91 13.932 13.945 13.95 13.955 13.96 13.957 13.94 13.905 13.865 13.75 13.58 13.46 13.37 13.29 13.235 13.187 13.12 13.03 12.93 12.828 12.783 12.835 12.97 13.165 13.337 13.417 13.425 13.41 13.393 13.393 13.418 13.442 13.46 13.48 13.5 13.52 13.54 13.56 13.583 13.613 13.65 13.68 13.695 13.715 13.737 13.755 13.772 13.762 13.728 13.698 13.673 13.655 13.65 13.653 13.66 13.607 13.488 13.368 13.253 13.195 13.185 13.15 13.095 12.993 12.87 12.793 12.743 12.685 12.618 12.573 12.56 12.563 12.567 12.57 12.573 12.592 12.617 12.622 12.615 12.565 12.495 12.455 12.425 12.413 12.43 12.473 12.535 12.64 12.795 12.97 13.15 13.322 13.475 13.618 13.757 13.898 14.067 14.227 14.337 14.425 14.46 14.442 14.415 14.385 14.358 14.33 14.325 14.355 14.375 14.345 14.258 14.213 14.24 14.275 14.31 14.325 14.317 14.292 14.24 14.185 14.145 14.143 14.24 14.375 14.457 14.507 14.548 14.595 14.7 14.832 14.92 14.993 15.085 15.17 15.225 15.288 15.362 15.422 15.48 15.548 15.66
16.36 16.293 16.325 16.455 16.502 16.48 16.33 16.103 15.978 15.902 15.828 15.755 15.69 15.648 15.665 15.722 15.762 15.77 15.725 15.62 15.49 15.358 15.238 15.14 15.06 14.993 14.928 14.865 14.823 14.805 14.798 14.793 14.79 14.798 14.823 14.845 14.858 14.867 14.86 14.825 14.757 14.572 14.348 14.195 14.055 13.915 13.833 13.82 13.813 13.788 13.757 13.73 13.703 13.698 13.73 13.778 13.817 13.85 13.885 13.917 13.94 13.95 13.955 13.96 13.965 13.965 13.947 13.9 13.755 13.545 13.395 13.3 13.228 13.18 13.14 13.095 13.03 12.945 12.863 12.848 12.895 12.97 13.115 13.275 13.36 13.382 13.378 13.378 13.403 13.44 13.467 13.482 13.5 13.517 13.537 13.56 13.583 13.608 13.637 13.667 13.685 13.695 13.715 13.74 13.76 13.777 13.77 13.735 13.698 13.67 13.655 13.645 13.64 13.645 13.59 13.465 13.338 13.218 13.163 13.172 13.172 13.14 13.045 12.9 12.773 12.693 12.635 12.593 12.58 12.583 12.587 12.59 12.592 12.598 12.618 12.655 12.68 12.677 12.62 12.533 12.478 12.455 12.458 12.475 12.498 12.54 12.638 12.793 12.97 13.153 13.332 13.49 13.632 13.765 13.895 14.045 14.187 14.3 14.392 14.457 14.49 14.5 14.502 14.497 14.475 14.462 14.467 14.435 14.345 14.233 14.175 14.192 14.202 14.185 14.15 14.088 14.015 13.943 13.88 13.88 13.993 14.193 14.365 14.46 14.527 14.58 14.643 14.74 14.825 14.885 14.958 15.05 15.147 15.225 15.3 15.382 15.455 15.52 15.603 15.73
16.385 16.333 16.357 16.417 16.407 16.382 16.252 16.088 16.003 15.927 15.852 15.777 15.705 15.66 15.678 15.735 15.795 15.835 15.795 15.677 15.545 15.412 15.287 15.192 15.122 15.057 14.992 14.927 14.868 14.833 14.825 14.823 14.818 14.818 14.823 14.828 14.835 14.845 14.817 14.742 14.652 14.532 14.39 14.248 14.105 13.965 13.885 13.883 13.898 13.873 13.825 13.797 13.772 13.748 13.75 13.773 13.795 13.825 13.86 13.895 13.925 13.945 13.955 13.96 13.962 13.965 13.965 13.91 13.745 13.528 13.348 13.23 13.163 13.123 13.085 13.045 12.997 12.935 12.895 12.917 12.972 13.025 13.108 13.223 13.3 13.338 13.363 13.388 13.422 13.46 13.487 13.5 13.512 13.525 13.545 13.575 13.605 13.632 13.657 13.675 13.685 13.695 13.715 13.74 13.76 13.782 13.78 13.745 13.702 13.67 13.655 13.645 13.635 13.63 13.57 13.445 13.315 13.185 13.128 13.145 13.162 13.162 13.082 12.932 12.78 12.663 12.608 12.595 12.597 12.602 12.607 12.61 12.612 12.617 12.637 12.675 12.712 12.73 12.68 12.585 12.513 12.49 12.505 12.523 12.538 12.563 12.64 12.793 12.975 13.158 13.342 13.505 13.64 13.757 13.878 14.013 14.145 14.26 14.35 14.417 14.463 14.498 14.532 14.557 14.567 14.567 14.527 14.435 14.323 14.208 14.135 14.115 14.078 14.013 13.948 13.88 13.813 13.745 13.698 13.768 13.963 14.187 14.362 14.46 14.535 14.608 14.672 14.733 14.79 14.85 14.923 15.015 15.12 15.223 15.315 15.4 15.48 15.558 15.658 15.792
16.425 16.378 16.348 16.335 16.313 16.287 16.207 16.1 16.022 15.945 15.867 15.792 15.718 15.675 15.698 15.755 15.815 15.84 15.777 15.66 15.54 15.415 15.3 15.222 15.162 15.097 15.03 14.962 14.895 14.855 14.855 14.857 14.852 14.848 14.848 14.85 14.835 14.772 14.672 14.575 14.523 14.502 14.445 14.327 14.185 14.045 13.985 14.013 14.035 13.982 13.898 13.858 13.835 13.828 13.835 13.835 13.835 13.843 13.858 13.885 13.915 13.935 13.932 13.925 13.925 13.927 13.932 13.902 13.772 13.545 13.315 13.17 13.105 13.068 13.03 12.99 12.95 12.905 12.903 12.957 13.02 13.077 13.135 13.205 13.268 13.315 13.357 13.392 13.427 13.465 13.49 13.5 13.51 13.52 13.54 13.572 13.607 13.637 13.655 13.667 13.68 13.69 13.705 13.725 13.745 13.765 13.767 13.74 13.697 13.663 13.648 13.64 13.627 13.602 13.545 13.442 13.313 13.178 13.123 13.145 13.157 13.135 13.04 12.89 12.735 12.628 12.595 12.595 12.597 12.602 12.607 12.612 12.615 12.62 12.628 12.65 12.69 12.72 12.68 12.585 12.555 12.58 12.6 12.615 12.63 12.648 12.713 12.858 13.028 13.193 13.362 13.512 13.627 13.73 13.85 13.985 14.118 14.235 14.323 14.39 14.445 14.498 14.548 14.598 14.65 14.662 14.563 14.42 14.308 14.193 14.128 14.103 14.055 13.995 13.935 13.875 13.813 13.77 13.768 13.83 13.995 14.215 14.387 14.488 14.565 14.642 14.7 14.743 14.79 14.84 14.91 15.01 15.125 15.242 15.342 15.425 15.505 15.59 15.69 15.815
16.485 16.447 16.383 16.315 16.26 16.21 16.16 16.095 16.02 15.94 15.86 15.788 15.73 15.7 15.725 15.785 15.817 15.78 15.682 15.567 15.455 15.34 15.243 15.185 15.142 15.09 15.025 14.955 14.888 14.86 14.872 14.882 14.885 14.882 14.882 14.847 14.747 14.59 14.45 14.398 14.425 14.462 14.447 14.387 14.285 14.155 14.118 14.177 14.19 14.11 13.995 13.93 13.918 13.935 13.955 13.957 13.948 13.933 13.923 13.925 13.933 13.933 13.908 13.873 13.86 13.863 13.865 13.862 13.815 13.64 13.378 13.175 13.083 13.043 13.008 12.973 12.94 12.908 12.913 12.967 13.03 13.09 13.15 13.21 13.265 13.317 13.357 13.388 13.422 13.457 13.48 13.487 13.495 13.505 13.528 13.56 13.59 13.615 13.632 13.647 13.66 13.667 13.675 13.69 13.707 13.722 13.727 13.712 13.682 13.65 13.632 13.62 13.59 13.54 13.49 13.432 13.327 13.198 13.148 13.162 13.135 13.05 12.93 12.788 12.653 12.593 12.588 12.585 12.585 12.59 12.595 12.6 12.608 12.615 12.61 12.605 12.63 12.66 12.62 12.57 12.635 12.715 12.74 12.757 12.775 12.79 12.863 13.01 13.152 13.27 13.382 13.487 13.58 13.683 13.818 13.965 14.105 14.225 14.312 14.385 14.477 14.575 14.648 14.713 14.777 14.782 14.64 14.44 14.3 14.185 14.14 14.167 14.157 14.105 14.045 13.985 13.943 13.948 13.975 13.998 14.083 14.265 14.435 14.535 14.612 14.687 14.745 14.788 14.835 14.89 14.96 15.048 15.155 15.275 15.375 15.455 15.538 15.625 15.713 15.813
16.535 16.525 16.47 16.383 16.293 16.205 16.133 16.063 15.993 15.92 15.848 15.795 15.763 15.74 15.758 15.792 15.765 15.685 15.585 15.47 15.355 15.243 15.153 15.105 15.075 15.04 14.995 14.937 14.878 14.86 14.875 14.89 14.902 14.907 14.855 14.712 14.53 14.355 14.273 14.303 14.367 14.41 14.402 14.37 14.322 14.243 14.238 14.317 14.342 14.272 14.163 14.083 14.048 14.053 14.072 14.08 14.072 14.057 14.042 14.028 14.008 13.975 13.925 13.863 13.818 13.8 13.795 13.795 13.79 13.73 13.537 13.308 13.183 13.12 13.068 13.03 13 12.965 12.943 12.97 13.03 13.09 13.15 13.21 13.265 13.32 13.362 13.388 13.418 13.45 13.47 13.475 13.48 13.49 13.513 13.542 13.565 13.588 13.607 13.617 13.625 13.63 13.635 13.65 13.665 13.68 13.685 13.675 13.66 13.637 13.61 13.572 13.52 13.46 13.408 13.37 13.315 13.218 13.16 13.13 13.045 12.935 12.82 12.687 12.598 12.583 12.582 12.578 12.575 12.578 12.583 12.593 12.605 12.615 12.61 12.59 12.585 12.598 12.588 12.628 12.75 12.842 12.88 12.9 12.92 12.935 12.995 13.107 13.207 13.285 13.355 13.428 13.518 13.638 13.783 13.937 14.087 14.212 14.305 14.383 14.5 14.642 14.76 14.847 14.912 14.907 14.752 14.52 14.32 14.178 14.143 14.195 14.232 14.212 14.155 14.118 14.125 14.157 14.185 14.205 14.238 14.345 14.487 14.582 14.658 14.735 14.795 14.843 14.905 14.98 15.055 15.123 15.203 15.308 15.405 15.488 15.575 15.665 15.75 15.833
16.585 16.595 16.555 16.465 16.367 16.263 16.165 16.075 15.995 15.905 15.837 15.817 15.802 15.785 15.777 15.75 15.675 15.585 15.485 15.373 15.263 15.16 15.085 15.043 15.01 14.98 14.948 14.908 14.868 14.858 14.87 14.885 14.897 14.89 14.787 14.585 14.368 14.213 14.193 14.25 14.313 14.36 14.357 14.325 14.297 14.27 14.295 14.377 14.45 14.465 14.402 14.318 14.253 14.213 14.2 14.202 14.197 14.18 14.16 14.14 14.112 14.06 13.988 13.91 13.838 13.78 13.75 13.748 13.75 13.75 13.672 13.513 13.388 13.302 13.222 13.157 13.1 13.045 13 12.99 13.03 13.09 13.15 13.21 13.265 13.32 13.365 13.392 13.417 13.442 13.46 13.468 13.473 13.483 13.5 13.523 13.545 13.568 13.583 13.585 13.59 13.595 13.6 13.613 13.625 13.638 13.64 13.63 13.62 13.605 13.565 13.503 13.44 13.378 13.32 13.28 13.253 13.207 13.14 13.05 12.94 12.83 12.64 12.535 12.57 12.577 12.577 12.572 12.567 12.565 12.573 12.587 12.602 12.615 12.61 12.59 12.57 12.565 12.613 12.725 12.862 12.967 13.015 13.032 13.047 13.06 13.07 13.108 13.173 13.238 13.303 13.373 13.47 13.6 13.745 13.9 14.057 14.195 14.295 14.373 14.485 14.64 14.797 14.932 15.035 15.032 14.867 14.632 14.4 14.205 14.153 14.208 14.265 14.297 14.292 14.3 14.335 14.37 14.395 14.415 14.432 14.472 14.547 14.627 14.705 14.782 14.85 14.917 14.992 15.07 15.147 15.215 15.28 15.358 15.443 15.53 15.62 15.708 15.793 15.875
16.65 16.662 16.632 16.545 16.437 16.325 16.225 16.135 16.015 15.86 15.78 15.777 15.772 15.782 15.775 15.705 15.608 15.513 15.415 15.318 15.223 15.133 15.068 15.025 14.99 14.958 14.923 14.888 14.855 14.845 14.858 14.872 14.865 14.825 14.742 14.565 14.338 14.213 14.213 14.253 14.3 14.33 14.323 14.295 14.27 14.258 14.293 14.373 14.477 14.585 14.62 14.575 14.505 14.422 14.337 14.297 14.295 14.287 14.265 14.24 14.207 14.15 14.075 13.995 13.915 13.865 13.83 13.798 13.793 13.8 13.787 13.707 13.59 13.472 13.347 13.23 13.122 13.075 13.07 13.043 13.043 13.09 13.15 13.21 13.265 13.325 13.37 13.393 13.417 13.44 13.455 13.465 13.473 13.49 13.505 13.515 13.538 13.56 13.57 13.57 13.573 13.578 13.585 13.595 13.605 13.605 13.595 13.585 13.575 13.557 13.507 13.435 13.368 13.303 13.253 13.23 13.218 13.2 13.132 13.02 12.91 12.79 12.305 12.223 12.562 12.567 12.565 12.557 12.552 12.55 12.562 12.58 12.595 12.61 12.605 12.585 12.565 12.568 12.658 12.805 12.945 13.062 13.127 13.15 13.16 13.17 13.143 13.12 13.16 13.22 13.28 13.345 13.433 13.553 13.695 13.847 14.007 14.162 14.275 14.358 14.468 14.615 14.775 14.935 15.085 15.115 14.955 14.715 14.475 14.253 14.178 14.233 14.29 14.347 14.392 14.427 14.462 14.5 14.527 14.542 14.555 14.565 14.603 14.673 14.75 14.82 14.89 14.97 15.045 15.12 15.205 15.285 15.352 15.418 15.493 15.58 15.67 15.758 15.843 15.925
16.715 16.73 16.707 16.622 16.502 16.385 16.28 16.152 15.967 15.773 15.683 15.685 15.705 15.758 15.775 15.702 15.6 15.5 15.403 15.313 15.228 15.148 15.085 15.035 14.995 14.962 14.927 14.89 14.85 14.833 14.842 14.84 14.8 14.747 14.7 14.555 14.36 14.273 14.278 14.312 14.337 14.332 14.308 14.28 14.253 14.243 14.285 14.368 14.473 14.605 14.71 14.727 14.66 14.547 14.422 14.353 14.355 14.367 14.36 14.34 14.302 14.237 14.162 14.085 14.03 14.05 14.037 13.945 13.898 13.898 13.9 13.805 13.637 13.482 13.327 13.19 13.065 13.028 13.067 13.087 13.08 13.095 13.15 13.21 13.27 13.34 13.385 13.398 13.418 13.44 13.455 13.465 13.483 13.512 13.527 13.523 13.533 13.555 13.567 13.57 13.57 13.575 13.585 13.595 13.595 13.575 13.555 13.545 13.53 13.507 13.455 13.38 13.31 13.243 13.205 13.215 13.23 13.222 13.16 13.047 12.925 12.782 12.11 12.038 12.557 12.555 12.547 12.535 12.53 12.53 12.545 12.567 12.582 12.597 12.595 12.575 12.563 12.58 12.685 12.845 12.99 13.112 13.197 13.247 13.27 13.282 13.25 13.185 13.175 13.22 13.28 13.34 13.41 13.505 13.633 13.783 13.95 14.122 14.245 14.328 14.433 14.575 14.735 14.898 15.062 15.135 15.002 14.757 14.513 14.288 14.213 14.268 14.325 14.382 14.43 14.468 14.505 14.547 14.575 14.585 14.595 14.605 14.645 14.717 14.785 14.84 14.905 14.987 15.065 15.14 15.23 15.327 15.407 15.473 15.548 15.635 15.725 15.812 15.895 15.975
16.752 16.78 16.765 16.682 16.562 16.435 16.285 16.09 15.87 15.675 15.6 15.633 15.693 15.767 15.787 15.72 15.62 15.517 15.415 15.32 15.238 15.165 15.105 15.05 15.003 14.967 14.93 14.89 14.85 14.825 14.81 14.772 14.715 14.668 14.647 14.545 14.4 14.34 14.343 14.37 14.367 14.335 14.3 14.27 14.24 14.233 14.28 14.363 14.465 14.58 14.655 14.677 14.65 14.57 14.458 14.395 14.405 14.425 14.437 14.432 14.392 14.322 14.248 14.19 14.2 14.277 14.265 14.138 14.035 14.003 13.99 13.797 13.54 13.39 13.258 13.135 13.015 12.955 12.99 13.057 13.097 13.112 13.15 13.215 13.288 13.362 13.402 13.41 13.423 13.44 13.455 13.473 13.503 13.537 13.555 13.548 13.54 13.55 13.565 13.57 13.57 13.575 13.585 13.585 13.565 13.535 13.515 13.5 13.477 13.452 13.402 13.328 13.255 13.185 13.158 13.19 13.227 13.242 13.182 13.052 12.91 12.607 12.163 12.263 12.56 12.54 12.532 12.52 12.513 12.51 12.525 12.55 12.567 12.585 12.585 12.573 12.575 12.6 12.705 12.872 13.03 13.152 13.24 13.315 13.367 13.395 13.367 13.29 13.23 13.23 13.28 13.343 13.408 13.48 13.583 13.723 13.898 14.085 14.215 14.29 14.385 14.525 14.69 14.86 15.032 15.14 15.037 14.792 14.548 14.323 14.248 14.303 14.36 14.42 14.47 14.508 14.548 14.592 14.62 14.627 14.635 14.645 14.685 14.752 14.807 14.855 14.918 15 15.082 15.16 15.253 15.357 15.452 15.527 15.605 15.692 15.78 15.865 15.947 16.025
16.767 16.792 16.767 16.677 16.56 16.432 16.265 16.053 15.825 15.628 15.57 15.63 15.705 15.78 15.8 15.737 15.637 15.533 15.43 15.335 15.255 15.185 15.125 15.067 15.005 14.947 14.897 14.852 14.81 14.765 14.712 14.657 14.602 14.57 14.57 14.535 14.46 14.408 14.402 14.405 14.372 14.33 14.295 14.265 14.233 14.225 14.275 14.357 14.442 14.505 14.525 14.53 14.535 14.517 14.465 14.432 14.44 14.45 14.46 14.467 14.455 14.407 14.35 14.35 14.425 14.512 14.485 14.355 14.223 14.133 14.062 13.77 13.455 13.325 13.203 13.08 12.96 12.88 12.898 12.97 13.042 13.097 13.153 13.23 13.312 13.385 13.417 13.425 13.433 13.443 13.463 13.492 13.527 13.565 13.585 13.58 13.565 13.558 13.565 13.57 13.573 13.577 13.575 13.555 13.525 13.495 13.47 13.447 13.422 13.397 13.35 13.275 13.2 13.13 13.118 13.165 13.215 13.245 13.177 13.03 12.877 12.285 12.103 12.53 12.587 12.538 12.518 12.505 12.495 12.493 12.508 12.53 12.55 12.572 12.583 12.585 12.595 12.62 12.725 12.895 13.065 13.192 13.275 13.355 13.43 13.49 13.48 13.405 13.325 13.27 13.285 13.35 13.415 13.48 13.56 13.683 13.855 14.045 14.177 14.245 14.338 14.485 14.658 14.833 15.01 15.14 15.057 14.812 14.567 14.35 14.283 14.34 14.4 14.457 14.507 14.55 14.592 14.637 14.662 14.667 14.675 14.685 14.72 14.772 14.82 14.87 14.933 15.013 15.098 15.183 15.278 15.38 15.482 15.577 15.662 15.745 15.83 15.915 15.997 16.067
16.772 16.777 16.73 16.625 16.505 16.382 16.247 16.072 15.85 15.67 15.608 15.64 15.715 15.79 15.807 15.75 15.655 15.55 15.448 15.368 15.303 15.225 15.14 15.045 14.955 14.88 14.813 14.747 14.69 14.622 14.548 14.495 14.468 14.468 14.48 14.49 14.485 14.462 14.442 14.412 14.37 14.33 14.292 14.257 14.223 14.215 14.268 14.347 14.397 14.41 14.41 14.413 14.415 14.418 14.427 14.43 14.425 14.425 14.425 14.435 14.452 14.442 14.445 14.517 14.622 14.7 14.66 14.527 14.39 14.262 14.062 13.693 13.403 13.28 13.155 13.028 12.905 12.805 12.808 12.893 12.975 13.055 13.142 13.235 13.322 13.395 13.427 13.435 13.442 13.45 13.47 13.5 13.535 13.577 13.605 13.605 13.59 13.575 13.573 13.575 13.58 13.577 13.547 13.51 13.48 13.45 13.42 13.393 13.368 13.342 13.295 13.223 13.16 13.113 13.118 13.173 13.22 13.23 13.147 13 12.845 12.118 11.983 12.585 12.632 12.55 12.5 12.485 12.478 12.483 12.5 12.52 12.54 12.565 12.585 12.595 12.605 12.628 12.74 12.92 13.092 13.22 13.302 13.385 13.465 13.545 13.542 13.46 13.38 13.298 13.283 13.345 13.412 13.477 13.545 13.665 13.84 14.022 14.162 14.24 14.33 14.48 14.655 14.81 14.937 15.025 14.935 14.692 14.453 14.308 14.31 14.37 14.43 14.487 14.527 14.555 14.595 14.64 14.66 14.665 14.675 14.7 14.742 14.788 14.835 14.89 14.96 15.04 15.125 15.215 15.31 15.41 15.515 15.615 15.702 15.785 15.867 15.95 16.03 16.1
16.757 16.747 16.685 16.57 16.45 16.327 16.205 16.067 15.898 15.768 15.695 15.675 15.728 15.802 15.817 15.762 15.675 15.57 15.483 15.435 15.39 15.305 15.19 15.06 14.943 14.843 14.743 14.63 14.528 14.46 14.41 14.375 14.365 14.373 14.385 14.4 14.425 14.442 14.43 14.395 14.355 14.312 14.277 14.245 14.208 14.203 14.257 14.315 14.33 14.33 14.33 14.33 14.33 14.355 14.395 14.39 14.37 14.37 14.375 14.387 14.387 14.37 14.417 14.532 14.645 14.722 14.685 14.56 14.425 14.287 14.017 13.63 13.38 13.253 13.128 13.003 12.883 12.773 12.768 12.86 12.945 13.023 13.113 13.22 13.317 13.395 13.432 13.44 13.448 13.455 13.47 13.493 13.525 13.567 13.6 13.612 13.607 13.593 13.585 13.587 13.585 13.562 13.517 13.468 13.428 13.395 13.368 13.34 13.315 13.29 13.253 13.205 13.163 13.135 13.153 13.202 13.22 13.195 13.11 12.97 12.657 11.945 11.945 12.567 12.657 12.543 12.478 12.468 12.473 12.493 12.51 12.523 12.54 12.565 12.585 12.592 12.598 12.61 12.74 12.95 13.12 13.24 13.325 13.41 13.49 13.57 13.562 13.463 13.37 13.285 13.268 13.328 13.395 13.46 13.533 13.665 13.843 14.02 14.182 14.287 14.365 14.472 14.59 14.682 14.745 14.787 14.685 14.445 14.278 14.265 14.33 14.39 14.45 14.51 14.54 14.54 14.56 14.6 14.622 14.63 14.653 14.703 14.757 14.805 14.86 14.925 14.998 15.078 15.165 15.255 15.35 15.452 15.55 15.635 15.72 15.81 15.895 15.975 16.055 16.13
16.725 16.707 16.635 16.515 16.393 16.27 16.153 16.035 15.928 15.865 15.81 15.75 15.753 15.812 15.825 15.772 15.692 15.598 15.543 15.52 15.487 15.407 15.285 15.155 15.028 14.905 14.78 14.608 14.47 14.438 14.418 14.385 14.363 14.353 14.35 14.35 14.358 14.363 14.358 14.345 14.315 14.273 14.24 14.22 14.19 14.188 14.227 14.25 14.25 14.25 14.25 14.25 14.273 14.343 14.387 14.348 14.31 14.312 14.32 14.312 14.272 14.235 14.288 14.415 14.54 14.625 14.595 14.482 14.362 14.23 13.967 13.603 13.37 13.25 13.133 13.018 12.905 12.798 12.775 12.843 12.915 12.988 13.08 13.195 13.305 13.395 13.437 13.445 13.452 13.46 13.475 13.495 13.52 13.555 13.585 13.602 13.612 13.607 13.6 13.595 13.572 13.535 13.49 13.435 13.38 13.34 13.315 13.29 13.265 13.243 13.228 13.22 13.197 13.17 13.185 13.207 13.185 13.145 13.07 12.94 12.323 11.626 11.933 12.522 12.617 12.522 12.458 12.463 12.485 12.515 12.53 12.535 12.545 12.563 12.58 12.585 12.585 12.588 12.723 12.965 13.147 13.26 13.345 13.43 13.51 13.592 13.587 13.475 13.36 13.268 13.255 13.315 13.378 13.44 13.528 13.673 13.845 14.02 14.195 14.335 14.405 14.42 14.418 14.435 14.48 14.527 14.432 14.258 14.225 14.285 14.35 14.41 14.47 14.53 14.56 14.55 14.543 14.563 14.585 14.608 14.658 14.72 14.775 14.828 14.893 14.965 15.035 15.115 15.205 15.295 15.39 15.487 15.572 15.648 15.733 15.827 15.92 16.005 16.082 16.155
16.688 16.662 16.585 16.465 16.345 16.228 16.115 16.008 15.92 15.89 15.875 15.835 15.803 15.823 15.83 15.78 15.71 15.645 15.618 15.6 15.577 15.51 15.39 15.263 15.14 15.02 14.875 14.66 14.538 14.545 14.52 14.465 14.43 14.415 14.4 14.38 14.365 14.348 14.32 14.3 14.275 14.243 14.213 14.193 14.17 14.16 14.168 14.17 14.17 14.17 14.17 14.193 14.263 14.357 14.382 14.308 14.255 14.25 14.227 14.177 14.125 14.1 14.153 14.28 14.417 14.517 14.495 14.388 14.285 14.157 13.89 13.56 13.383 13.29 13.183 13.075 12.965 12.863 12.823 12.85 12.893 12.953 13.048 13.165 13.28 13.387 13.442 13.45 13.458 13.465 13.48 13.5 13.52 13.545 13.57 13.585 13.6 13.612 13.607 13.582 13.545 13.505 13.462 13.41 13.35 13.3 13.27 13.248 13.225 13.205 13.2 13.21 13.21 13.2 13.197 13.18 13.14 13.1 13.032 12.902 12.145 11.588 12.043 12.425 12.478 12.465 12.45 12.47 12.502 12.535 12.552 12.558 12.563 12.57 12.578 12.58 12.58 12.578 12.698 12.95 13.16 13.28 13.365 13.45 13.533 13.617 13.61 13.495 13.368 13.26 13.245 13.305 13.368 13.43 13.528 13.678 13.845 14.02 14.192 14.355 14.427 14.388 14.325 14.288 14.275 14.278 14.228 14.19 14.24 14.305 14.37 14.43 14.49 14.55 14.582 14.575 14.555 14.548 14.565 14.61 14.673 14.737 14.798 14.858 14.93 15.005 15.075 15.155 15.245 15.335 15.425 15.507 15.585 15.663 15.748 15.843 15.938 16.03 16.11 16.18
16.663 16.63 16.545 16.428 16.315 16.202 16.093 15.993 15.905 15.863 15.862 15.865 15.85 15.847 15.835 15.788 15.74 15.705 15.685 15.665 15.642 15.6 15.507 15.383 15.26 15.14 14.952 14.715 14.633 14.657 14.622 14.548 14.498 14.482 14.465 14.435 14.415 14.395 14.355 14.315 14.28 14.245 14.213 14.188 14.163 14.14 14.128 14.123 14.118 14.11 14.078 14.135 14.272 14.372 14.377 14.252 14.167 14.14 14.082 14.02 13.983 13.968 14.015 14.142 14.27 14.36 14.385 14.325 14.23 14.067 13.795 13.518 13.378 13.325 13.247 13.15 13.04 12.945 12.91 12.92 12.933 12.96 13.038 13.155 13.275 13.395 13.46 13.47 13.475 13.475 13.475 13.485 13.505 13.525 13.542 13.557 13.575 13.592 13.582 13.542 13.5 13.46 13.427 13.395 13.345 13.29 13.255 13.235 13.215 13.195 13.19 13.198 13.205 13.217 13.195 13.14 13.095 13.055 12.995 12.637 11.895 11.858 12.305 12.373 12.398 12.44 12.463 12.473 12.502 12.537 12.572 12.592 12.6 12.605 12.605 12.605 12.605 12.61 12.708 12.935 13.167 13.307 13.393 13.478 13.562 13.642 13.622 13.5 13.373 13.26 13.265 13.353 13.418 13.483 13.563 13.685 13.845 14.017 14.18 14.335 14.412 14.38 14.32 14.26 14.195 14.148 14.145 14.188 14.25 14.315 14.38 14.44 14.5 14.56 14.605 14.615 14.603 14.585 14.59 14.633 14.69 14.755 14.827 14.9 14.975 15.05 15.123 15.208 15.3 15.388 15.463 15.53 15.605 15.685 15.77 15.865 15.96 16.057 16.145 16.215
16.655 16.622 16.527 16.403 16.29 16.178 16.073 15.983 15.898 15.84 15.83 15.84 15.85 15.857 15.84 15.798 15.768 15.75 15.732 15.715 15.69 15.665 15.612 15.507 15.382 15.24 15.005 14.773 14.73 14.765 14.725 14.633 14.568 14.55 14.527 14.49 14.467 14.445 14.405 14.368 14.333 14.285 14.233 14.195 14.168 14.145 14.128 14.115 14.097 14.057 13.975 13.95 13.992 14.027 14.035 13.977 13.945 13.95 13.915 13.87 13.847 13.833 13.88 13.98 14.04 14.07 14.215 14.315 14.187 13.94 13.663 13.443 13.333 13.3 13.262 13.205 13.115 13.028 13 13.01 13.017 13.023 13.07 13.178 13.303 13.425 13.49 13.497 13.5 13.492 13.475 13.465 13.475 13.492 13.508 13.523 13.54 13.557 13.542 13.493 13.443 13.4 13.378 13.375 13.35 13.298 13.26 13.243 13.225 13.208 13.203 13.205 13.215 13.237 13.212 13.138 13.068 13.01 12.955 12.293 11.566 12.025 12.505 12.428 12.443 12.487 12.5 12.48 12.49 12.523 12.57 12.617 12.645 12.655 12.655 12.655 12.663 12.685 12.75 12.933 13.175 13.335 13.427 13.512 13.592 13.657 13.62 13.493 13.373 13.263 13.295 13.435 13.52 13.585 13.645 13.72 13.85 14.012 14.16 14.292 14.375 14.36 14.3 14.243 14.188 14.145 14.145 14.19 14.25 14.315 14.38 14.443 14.505 14.565 14.62 14.657 14.665 14.653 14.65 14.673 14.715 14.775 14.855 14.942 15.025 15.1 15.178 15.27 15.365 15.452 15.517 15.568 15.635 15.713 15.798 15.893 15.99 16.092 16.182 16.252
16.655 16.627 16.53 16.388 16.265 16.158 16.06 15.975 15.893 15.823 15.8 15.81 15.823 15.84 15.842 15.815 15.79 15.78 15.77 15.757 15.737 15.715 15.685 15.617 15.507 15.32 15.035 14.833 14.825 14.867 14.827 14.723 14.645 14.617 14.59 14.55 14.52 14.49 14.455 14.425 14.395 14.347 14.283 14.223 14.178 14.15 14.132 14.105 14.052 13.975 13.875 13.74 13.525 13.393 13.423 13.473 13.55 13.668 13.737 13.71 13.658 13.643 13.682 13.72 13.713 13.7 13.93 14.175 14.06 13.782 13.528 13.388 13.33 13.29 13.253 13.217 13.16 13.102 13.087 13.092 13.095 13.098 13.125 13.215 13.34 13.457 13.517 13.52 13.517 13.507 13.487 13.465 13.453 13.458 13.475 13.49 13.505 13.522 13.505 13.45 13.393 13.343 13.323 13.332 13.335 13.302 13.265 13.25 13.235 13.22 13.215 13.22 13.24 13.265 13.25 13.18 13.09 13.007 12.892 12.142 11.471 12.047 12.587 12.535 12.518 12.538 12.545 12.513 12.495 12.51 12.555 12.612 12.662 12.695 12.707 12.718 12.74 12.77 12.808 12.945 13.172 13.352 13.462 13.542 13.615 13.662 13.612 13.493 13.38 13.273 13.303 13.467 13.602 13.687 13.745 13.793 13.87 14.005 14.14 14.25 14.337 14.34 14.285 14.238 14.198 14.163 14.153 14.19 14.25 14.315 14.38 14.445 14.512 14.575 14.63 14.68 14.712 14.715 14.718 14.733 14.755 14.8 14.875 14.97 15.065 15.147 15.23 15.325 15.422 15.515 15.58 15.623 15.675 15.74 15.825 15.923 16.022 16.125 16.215 16.282
16.66 16.64 16.55 16.398 16.255 16.143 16.053 15.968 15.885 15.808 15.773 15.783 15.8 15.82 15.838 15.835 15.82 15.81 15.797 15.785 15.772 15.755 15.735 15.7 15.602 15.387 15.1 14.935 14.935 14.97 14.93 14.818 14.728 14.68 14.645 14.608 14.573 14.538 14.51 14.487 14.457 14.41 14.345 14.278 14.215 14.165 14.123 14.065 13.988 13.903 13.768 13.485 13.068 12.895 13.018 13.148 13.303 13.498 13.635 13.605 13.495 13.44 13.428 13.408 13.398 13.393 13.543 13.692 13.63 13.507 13.415 13.392 13.37 13.325 13.252 13.162 13.115 13.117 13.13 13.14 13.15 13.162 13.18 13.247 13.357 13.457 13.51 13.52 13.527 13.522 13.5 13.472 13.442 13.427 13.437 13.45 13.465 13.48 13.462 13.41 13.35 13.29 13.268 13.28 13.292 13.29 13.27 13.255 13.24 13.222 13.225 13.245 13.27 13.295 13.287 13.22 13.12 13.017 12.53 11.783 11.47 12.063 12.645 12.625 12.605 12.6 12.587 12.555 12.522 12.51 12.545 12.603 12.66 12.712 12.747 12.777 12.812 12.847 12.883 12.975 13.163 13.365 13.492 13.565 13.632 13.665 13.61 13.5 13.39 13.285 13.305 13.468 13.645 13.77 13.83 13.87 13.923 14.013 14.12 14.22 14.312 14.33 14.288 14.25 14.215 14.18 14.16 14.19 14.253 14.32 14.385 14.45 14.518 14.58 14.635 14.685 14.732 14.762 14.78 14.795 14.807 14.833 14.895 14.99 15.09 15.185 15.275 15.37 15.47 15.562 15.627 15.675 15.722 15.775 15.855 15.955 16.055 16.155 16.242 16.302
16.683 16.672 16.6 16.455 16.305 16.183 16.085 15.99 15.893 15.8 15.753 15.765 15.795 15.825 15.853 15.85 15.827 15.815 15.802 15.79 15.775 15.752 15.735 15.717 15.655 15.487 15.258 15.133 15.115 15.087 15.01 14.9 14.808 14.755 14.725 14.698 14.66 14.61 14.573 14.55 14.522 14.472 14.408 14.348 14.29 14.228 14.155 14.08 14.008 13.94 13.797 13.4 12.923 12.773 12.9 13.088 13.29 13.495 13.615 13.562 13.438 13.358 13.313 13.268 13.243 13.218 13.21 13.203 13.185 13.2 13.232 13.28 13.29 13.217 13.123 13.06 13.05 13.088 13.122 13.145 13.165 13.185 13.182 13.192 13.257 13.34 13.392 13.415 13.437 13.45 13.435 13.402 13.372 13.37 13.377 13.382 13.397 13.41 13.402 13.362 13.305 13.243 13.218 13.23 13.24 13.242 13.23 13.215 13.2 13.183 13.22 13.277 13.305 13.332 13.312 13.222 13.107 12.972 12.183 11.471 11.553 12.13 12.617 12.605 12.6 12.605 12.59 12.552 12.523 12.515 12.548 12.605 12.665 12.715 12.752 12.79 12.832 12.875 12.92 13.003 13.168 13.377 13.515 13.585 13.647 13.667 13.607 13.502 13.395 13.293 13.315 13.48 13.667 13.815 13.887 13.935 13.987 14.033 14.105 14.205 14.307 14.345 14.313 14.275 14.24 14.205 14.175 14.195 14.263 14.335 14.4 14.465 14.53 14.587 14.64 14.69 14.74 14.785 14.815 14.832 14.845 14.858 14.913 15.01 15.11 15.21 15.307 15.402 15.497 15.585 15.65 15.7 15.75 15.805 15.885 15.988 16.09 16.187 16.267 16.32
16.717 16.71 16.665 16.547 16.408 16.285 16.173 16.067 15.945 15.8 15.723 15.76 15.827 15.877 15.897 15.867 15.823 15.8 15.787 15.772 15.747 15.718 15.697 15.677 15.65 15.572 15.435 15.322 15.242 15.135 15.028 14.965 14.933 14.92 14.905 14.857 14.788 14.72 14.67 14.633 14.595 14.548 14.493 14.443 14.387 14.32 14.245 14.173 14.113 14.065 13.972 13.617 13.193 13.023 13.025 13.123 13.29 13.495 13.595 13.52 13.413 13.363 13.327 13.28 13.228 13.168 13.075 12.983 12.96 12.98 12.995 13.025 13.048 13.008 12.975 12.995 13.025 13.063 13.105 13.135 13.152 13.145 13.102 13.07 13.085 13.145 13.2 13.228 13.26 13.292 13.29 13.258 13.255 13.295 13.31 13.303 13.31 13.322 13.322 13.297 13.252 13.195 13.17 13.18 13.182 13.17 13.15 13.135 13.123 13.11 13.203 13.315 13.345 13.375 13.33 13.2 13.072 12.755 11.983 11.47 11.873 12.402 12.522 12.518 12.53 12.555 12.55 12.518 12.508 12.525 12.565 12.62 12.672 12.71 12.74 12.775 12.82 12.87 12.935 13.043 13.2 13.397 13.54 13.605 13.655 13.665 13.602 13.498 13.398 13.305 13.338 13.51 13.695 13.842 13.927 13.98 14.017 14.043 14.103 14.203 14.315 14.37 14.347 14.31 14.272 14.235 14.195 14.208 14.28 14.355 14.42 14.485 14.547 14.6 14.65 14.7 14.75 14.795 14.825 14.845 14.862 14.875 14.93 15.03 15.13 15.23 15.33 15.425 15.512 15.595 15.66 15.71 15.765 15.833 15.92 16.022 16.122 16.217 16.292 16.34
16.75 16.74 16.72 16.64 16.515 16.392 16.255 16.105 15.937 15.748 15.648 15.705 15.812 15.897 15.917 15.877 15.832 15.795 15.768 15.743 15.71 15.68 15.657 15.63 15.597 15.557 15.477 15.355 15.235 15.13 15.065 15.065 15.092 15.117 15.1 15.022 14.927 14.84 14.775 14.727 14.685 14.647 14.607 14.555 14.487 14.412 14.342 14.285 14.24 14.2 14.145 13.865 13.505 13.338 13.278 13.283 13.343 13.495 13.575 13.498 13.415 13.375 13.34 13.287 13.225 13.155 13.05 12.908 12.803 12.77 12.785 12.833 12.88 12.91 12.94 12.97 13 13.038 13.085 13.117 13.107 13.05 12.99 12.965 12.958 12.973 13.01 13.05 13.095 13.14 13.145 13.135 13.175 13.235 13.25 13.233 13.228 13.237 13.235 13.215 13.19 13.145 13.12 13.122 13.11 13.09 13.073 13.058 13.048 13.04 13.17 13.337 13.385 13.41 13.345 13.187 13.01 12.363 11.64 11.47 12.087 12.57 12.438 12.455 12.485 12.512 12.515 12.508 12.523 12.548 12.583 12.63 12.67 12.698 12.728 12.768 12.82 12.883 12.973 13.103 13.253 13.43 13.562 13.615 13.647 13.655 13.6 13.5 13.41 13.325 13.36 13.535 13.722 13.867 13.952 13.997 14.023 14.048 14.105 14.208 14.325 14.392 14.382 14.345 14.303 14.26 14.218 14.228 14.3 14.375 14.44 14.5 14.555 14.605 14.655 14.705 14.755 14.802 14.835 14.855 14.875 14.893 14.95 15.05 15.15 15.25 15.347 15.437 15.52 15.6 15.665 15.723 15.793 15.868 15.955 16.055 16.15 16.245 16.32 16.362
16.777 16.757 16.737 16.687 16.585 16.46 16.295 16.093 15.888 15.685 15.558 15.583 15.692 15.802 15.835 15.8 15.77 15.77 15.765 15.725 15.683 15.645 15.613 15.58 15.548 15.515 15.46 15.368 15.278 15.203 15.163 15.175 15.205 15.232 15.205 15.122 15.035 14.942 14.855 14.795 14.757 14.722 14.69 14.635 14.56 14.485 14.417 14.377 14.35 14.322 14.295 14.12 13.845 13.652 13.565 13.55 13.538 13.572 13.585 13.52 13.45 13.395 13.345 13.283 13.213 13.143 13.048 12.923 12.793 12.688 12.683 12.77 12.845 12.88 12.91 12.94 12.973 13.005 13.03 13.037 13 12.928 12.88 12.865 12.853 12.843 12.858 12.898 12.943 12.988 13.018 13.053 13.115 13.175 13.19 13.17 13.155 13.152 13.145 13.128 13.112 13.085 13.062 13.05 13.03 13.01 12.995 12.983 12.975 12.97 13.113 13.332 13.422 13.382 13.257 13.105 12.877 12.103 11.47 11.47 12.075 12.542 12.415 12.44 12.468 12.493 12.51 12.525 12.548 12.57 12.598 12.633 12.668 12.7 12.735 12.78 12.838 12.91 13.02 13.165 13.315 13.47 13.572 13.61 13.635 13.647 13.605 13.515 13.43 13.348 13.383 13.558 13.75 13.892 13.967 14.005 14.033 14.06 14.11 14.213 14.335 14.415 14.42 14.388 14.35 14.313 14.278 14.28 14.333 14.398 14.458 14.51 14.56 14.61 14.66 14.71 14.76 14.81 14.842 14.86 14.88 14.9 14.963 15.067 15.17 15.27 15.362 15.445 15.523 15.6 15.673 15.748 15.83 15.908 15.99 16.085 16.18 16.275 16.347 16.385
16.772 16.742 16.715 16.685 16.61 16.487 16.315 16.105 15.895 15.68 15.52 15.493 15.555 15.65 15.685 15.67 15.7 15.768 15.785 15.737 15.682 15.623 15.58 15.55 15.52 15.495 15.49 15.462 15.392 15.315 15.265 15.265 15.29 15.307 15.27 15.188 15.105 15.017 14.91 14.813 14.755 14.715 14.69 14.662 14.602 14.525 14.45 14.4 14.375 14.36 14.342 14.225 14.012 13.83 13.742 13.717 13.69 13.655 13.627 13.59 13.525 13.46 13.395 13.325 13.255 13.19 13.128 13.045 12.938 12.815 12.738 12.765 12.82 12.85 12.883 12.915 12.95 12.945 12.893 12.855 12.828 12.795 12.775 12.765 12.753 12.753 12.765 12.788 12.825 12.865 12.913 12.972 13.04 13.085 13.087 13.075 13.062 13.055 13.05 13.037 13.02 13 12.982 12.965 12.948 12.935 12.923 12.91 12.905 12.9 13.05 13.32 13.392 13.222 13.057 12.977 12.832 12.165 11.536 11.471 12.06 12.582 12.505 12.508 12.528 12.563 12.6 12.62 12.64 12.66 12.68 12.703 12.735 12.775 12.813 12.853 12.898 12.955 13.063 13.207 13.352 13.492 13.575 13.603 13.628 13.652 13.622 13.538 13.453 13.373 13.413 13.588 13.777 13.922 13.997 14.03 14.055 14.078 14.118 14.213 14.335 14.427 14.457 14.45 14.44 14.42 14.39 14.378 14.405 14.445 14.485 14.538 14.59 14.635 14.675 14.72 14.77 14.815 14.82 14.815 14.835 14.863 14.95 15.075 15.18 15.28 15.37 15.45 15.527 15.605 15.7 15.797 15.88 15.96 16.038 16.118 16.208 16.302 16.37 16.405
16.735 16.708 16.685 16.665 16.617 16.51 16.337 16.127 15.91 15.685 15.52 15.47 15.483 15.525 15.573 15.633 15.735 15.815 15.81 15.755 15.682 15.605 15.56 15.535 15.505 15.48 15.5 15.532 15.5 15.428 15.378 15.363 15.375 15.382 15.335 15.255 15.165 15.06 14.94 14.805 14.713 14.67 14.65 14.647 14.62 14.555 14.475 14.4 14.35 14.33 14.297 14.17 13.99 13.853 13.778 13.745 13.71 13.67 13.657 13.657 13.62 13.56 13.495 13.425 13.355 13.29 13.247 13.21 13.14 13.032 12.888 12.795 12.8 12.83 12.865 12.9 12.935 12.9 12.783 12.693 12.668 12.675 12.675 12.668 12.668 12.685 12.697 12.708 12.74 12.778 12.82 12.88 12.945 12.947 12.917 12.915 12.91 12.905 12.917 12.93 12.922 12.905 12.888 12.87 12.873 12.905 12.913 12.89 12.875 12.9 13.088 13.347 13.32 13.045 12.755 12.673 12.762 12.512 12.165 12.09 12.362 12.635 12.622 12.625 12.663 12.717 12.757 12.782 12.802 12.82 12.835 12.848 12.868 12.9 12.937 12.967 12.987 13.018 13.1 13.228 13.365 13.497 13.572 13.598 13.628 13.665 13.645 13.563 13.48 13.403 13.445 13.623 13.807 13.96 14.04 14.062 14.08 14.095 14.125 14.21 14.32 14.417 14.47 14.48 14.49 14.49 14.48 14.477 14.492 14.505 14.53 14.582 14.63 14.667 14.7 14.735 14.78 14.817 14.793 14.748 14.75 14.788 14.903 15.06 15.18 15.28 15.37 15.45 15.53 15.61 15.722 15.847 15.94 16.02 16.095 16.163 16.24 16.33 16.392 16.433
16.703 16.678 16.655 16.635 16.607 16.527 16.36 16.142 15.915 15.685 15.52 15.47 15.478 15.495 15.563 15.683 15.805 15.862 15.825 15.747 15.663 15.585 15.538 15.512 15.488 15.465 15.485 15.542 15.57 15.537 15.49 15.465 15.463 15.457 15.402 15.312 15.205 15.09 14.97 14.82 14.69 14.628 14.61 14.612 14.61 14.577 14.507 14.423 14.348 14.305 14.24 14.108 13.973 13.86 13.78 13.745 13.72 13.685 13.673 13.69 13.692 13.657 13.595 13.525 13.455 13.39 13.345 13.325 13.3 13.232 13.065 12.895 12.838 12.833 12.853 12.887 12.922 12.887 12.765 12.65 12.588 12.578 12.58 12.583 12.6 12.622 12.63 12.63 12.655 12.688 12.725 12.782 12.832 12.785 12.72 12.72 12.717 12.715 12.738 12.777 12.805 12.807 12.795 12.805 12.855 12.927 12.952 12.968 13.037 13.13 13.25 13.375 13.36 13.048 12.563 12.318 12.308 12.228 12.068 12.028 12.12 12.215 12.333 12.555 12.787 12.88 12.91 12.94 12.965 12.982 12.997 13.007 13.012 13.027 13.05 13.062 13.065 13.085 13.153 13.258 13.38 13.5 13.567 13.598 13.635 13.672 13.66 13.588 13.51 13.435 13.478 13.655 13.837 13.997 14.077 14.088 14.098 14.11 14.133 14.203 14.295 14.395 14.462 14.475 14.485 14.495 14.515 14.545 14.557 14.555 14.578 14.623 14.66 14.695 14.73 14.76 14.795 14.82 14.787 14.72 14.683 14.71 14.835 15.012 15.165 15.28 15.37 15.45 15.53 15.613 15.73 15.877 15.997 16.082 16.155 16.22 16.288 16.365 16.43 16.49
16.675 16.653 16.63 16.608 16.585 16.527 16.37 16.145 15.915 15.685 15.528 15.493 15.515 15.545 15.623 15.75 15.865 15.887 15.815 15.725 15.64 15.563 15.513 15.49 15.467 15.448 15.47 15.527 15.585 15.615 15.6 15.575 15.557 15.53 15.457 15.35 15.235 15.12 15 14.85 14.69 14.593 14.573 14.578 14.582 14.577 14.532 14.452 14.367 14.297 14.207 14.09 13.98 13.868 13.778 13.735 13.718 13.7 13.698 13.715 13.735 13.732 13.685 13.615 13.545 13.477 13.432 13.415 13.402 13.37 13.212 13.028 12.945 12.893 12.863 12.873 12.907 12.877 12.77 12.665 12.575 12.515 12.5 12.515 12.54 12.557 12.562 12.557 12.57 12.592 12.628 12.677 12.687 12.597 12.52 12.52 12.52 12.525 12.55 12.6 12.658 12.698 12.733 12.795 12.875 12.947 12.975 13.02 13.13 13.22 13.25 13.297 13.382 13.207 12.738 12.408 12.263 12.113 11.943 11.89 11.97 12.06 12.163 12.19 12.555 12.97 13.025 13.08 13.12 13.145 13.162 13.167 13.147 13.12 13.112 13.12 13.127 13.15 13.215 13.31 13.412 13.507 13.567 13.605 13.645 13.68 13.675 13.617 13.542 13.468 13.513 13.685 13.865 14.035 14.117 14.12 14.123 14.128 14.14 14.185 14.265 14.372 14.45 14.47 14.485 14.513 14.56 14.605 14.615 14.61 14.635 14.678 14.708 14.735 14.765 14.795 14.825 14.835 14.793 14.718 14.648 14.648 14.768 14.945 15.12 15.267 15.37 15.45 15.53 15.62 15.745 15.897 16.04 16.142 16.215 16.283 16.35 16.418 16.49 16.57
16.655 16.635 16.615 16.592 16.562 16.507 16.362 16.14 15.91 15.683 15.553 15.548 15.575 15.608 15.688 15.815 15.887 15.865 15.792 15.705 15.62 15.54 15.49 15.467 15.442 15.418 15.435 15.495 15.555 15.612 15.632 15.617 15.602 15.57 15.487 15.372 15.257 15.142 15.02 14.87 14.703 14.578 14.538 14.543 14.548 14.552 14.522 14.447 14.362 14.275 14.177 14.072 13.965 13.855 13.768 13.738 13.737 13.735 13.738 13.75 13.77 13.777 13.737 13.665 13.597 13.53 13.49 13.48 13.467 13.445 13.322 13.163 13.077 13.01 12.945 12.905 12.905 12.872 12.785 12.695 12.605 12.52 12.473 12.473 12.485 12.492 12.467 12.407 12.36 12.417 12.517 12.56 12.517 12.393 12.35 12.398 12.428 12.43 12.443 12.493 12.558 12.62 12.693 12.775 12.855 12.922 12.945 12.95 12.97 13.005 13.06 13.155 13.287 13.28 12.947 12.68 12.65 12.61 12.57 12.527 12.485 12.472 12.46 12.215 12.448 12.94 13.015 13.092 13.157 13.215 13.262 13.26 13.205 13.145 13.125 13.14 13.155 13.175 13.237 13.332 13.425 13.5 13.55 13.59 13.63 13.667 13.672 13.625 13.552 13.478 13.52 13.69 13.87 14.032 14.13 14.155 14.155 14.155 14.158 14.188 14.255 14.353 14.435 14.475 14.515 14.573 14.637 14.672 14.673 14.678 14.743 14.815 14.84 14.86 14.868 14.883 14.915 14.918 14.865 14.785 14.708 14.69 14.798 14.973 15.15 15.287 15.375 15.455 15.535 15.628 15.75 15.897 16.052 16.182 16.275 16.347 16.415 16.483 16.558 16.64
16.645 16.625 16.605 16.58 16.537 16.477 16.342 16.127 15.9 15.7 15.615 15.623 15.643 15.673 15.752 15.847 15.85 15.8 15.752 15.682 15.597 15.518 15.468 15.442 15.415 15.38 15.385 15.44 15.497 15.55 15.572 15.567 15.575 15.562 15.487 15.382 15.272 15.157 15.032 14.88 14.703 14.558 14.505 14.51 14.515 14.52 14.49 14.412 14.322 14.222 14.12 14.02 13.918 13.825 13.758 13.735 13.755 13.78 13.79 13.795 13.81 13.812 13.765 13.69 13.623 13.56 13.53 13.53 13.525 13.505 13.402 13.265 13.182 13.117 13.052 12.987 12.94 12.895 12.83 12.75 12.658 12.565 12.498 12.467 12.21 11.96 11.933 11.875 11.825 11.875 11.958 11.978 11.973 12.137 12.355 12.417 12.435 12.407 12.405 12.453 12.513 12.578 12.65 12.727 12.8 12.86 12.875 12.855 12.838 12.873 12.943 13.048 13.2 13.232 13.02 12.845 12.827 12.792 12.75 12.713 12.7 12.727 12.715 12.567 12.51 12.725 12.92 12.993 13.068 13.15 13.225 13.25 13.21 13.148 13.128 13.142 13.155 13.168 13.223 13.315 13.4 13.467 13.515 13.555 13.595 13.632 13.637 13.592 13.525 13.453 13.493 13.657 13.82 13.955 14.062 14.135 14.172 14.185 14.185 14.213 14.273 14.355 14.447 14.523 14.588 14.655 14.715 14.735 14.738 14.763 14.875 15 15.04 15.055 15.04 15.03 15.055 15.052 14.995 14.918 14.85 14.825 14.92 15.097 15.252 15.335 15.388 15.465 15.563 15.668 15.758 15.88 16.037 16.182 16.302 16.4 16.48 16.55 16.625 16.702
16.63 16.615 16.592 16.552 16.495 16.435 16.31 16.11 15.89 15.74 15.705 15.71 15.72 15.738 15.797 15.827 15.775 15.718 15.68 15.637 15.57 15.493 15.443 15.415 15.38 15.34 15.335 15.38 15.432 15.477 15.498 15.505 15.535 15.537 15.47 15.375 15.275 15.167 15.042 14.875 14.675 14.523 14.475 14.478 14.483 14.487 14.455 14.372 14.272 14.168 14.063 13.965 13.88 13.81 13.753 13.713 13.723 13.77 13.81 13.835 13.852 13.847 13.797 13.722 13.65 13.593 13.57 13.575 13.577 13.562 13.455 13.308 13.225 13.162 13.097 13.037 12.99 12.952 12.902 12.822 12.725 12.623 12.53 12.362 11.848 11.46 11.46 11.46 11.46 11.46 11.46 11.46 11.488 11.723 12.195 12.45 12.412 12.363 12.365 12.418 12.473 12.533 12.605 12.675 12.732 12.787 12.808 12.8 12.835 12.94 13.013 13.053 13.148 13.19 13.095 13.01 13 12.972 12.935 12.925 12.96 12.997 12.917 12.7 12.238 12.353 12.835 12.903 12.97 13.045 13.115 13.17 13.187 13.152 13.133 13.145 13.155 13.165 13.213 13.295 13.367 13.432 13.485 13.522 13.56 13.595 13.592 13.545 13.482 13.418 13.453 13.592 13.725 13.845 13.95 14.045 14.13 14.19 14.215 14.24 14.298 14.373 14.473 14.582 14.67 14.737 14.782 14.8 14.82 14.86 14.99 15.162 15.24 15.245 15.22 15.19 15.195 15.185 15.125 15.058 15 14.963 15.04 15.217 15.327 15.36 15.403 15.475 15.625 15.757 15.793 15.873 16.015 16.157 16.287 16.41 16.52 16.61 16.687 16.75
16.61 16.602 16.572 16.515 16.45 16.39 16.27 16.08 15.89 15.795 15.79 15.792 15.797 15.805 15.807 15.77 15.7 15.64 15.595 15.56 15.52 15.463 15.415 15.38 15.34 15.3 15.285 15.315 15.363 15.405 15.435 15.465 15.502 15.51 15.452 15.357 15.26 15.16 15.037 14.87 14.67 14.503 14.443 14.445 14.45 14.455 14.415 14.325 14.22 14.115 14.018 13.935 13.87 13.807 13.748 13.7 13.678 13.705 13.765 13.82 13.862 13.862 13.807 13.73 13.652 13.607 13.6 13.605 13.61 13.605 13.487 13.32 13.233 13.168 13.113 13.07 13.038 13.012 12.972 12.89 12.782 12.675 12.565 12.2 11.675 11.46 11.46 11.46 11.46 11.46 11.46 11.46 11.46 11.46 11.958 12.427 12.368 12.32 12.33 12.385 12.44 12.493 12.553 12.61 12.66 12.715 12.77 12.84 12.965 13.122 13.195 13.185 13.195 13.205 13.182 13.162 13.155 13.14 13.13 13.145 13.177 13.18 13.037 12.78 12.318 12.308 12.707 12.817 12.885 12.983 13.065 13.103 13.133 13.137 13.135 13.145 13.152 13.16 13.197 13.265 13.332 13.397 13.45 13.485 13.52 13.555 13.55 13.5 13.44 13.375 13.393 13.5 13.615 13.733 13.838 13.935 14.03 14.125 14.202 14.26 14.323 14.393 14.49 14.615 14.732 14.817 14.857 14.88 14.91 14.96 15.1 15.302 15.425 15.437 15.405 15.365 15.347 15.32 15.262 15.208 15.155 15.105 15.165 15.307 15.365 15.38 15.42 15.488 15.685 15.842 15.848 15.885 15.995 16.135 16.262 16.387 16.512 16.625 16.705 16.752
16.585 16.582 16.55 16.488 16.425 16.35 16.215 16.025 15.875 15.823 15.82 15.82 15.822 15.83 15.8 15.73 15.665 15.61 15.563 15.523 15.485 15.445 15.403 15.363 15.325 15.285 15.268 15.293 15.338 15.355 15.377 15.427 15.467 15.482 15.435 15.34 15.24 15.135 15.01 14.86 14.687 14.53 14.46 14.45 14.443 14.435 14.387 14.293 14.188 14.088 14 13.93 13.867 13.803 13.745 13.7 13.658 13.648 13.69 13.752 13.81 13.787 13.7 13.62 13.563 13.562 13.58 13.585 13.592 13.605 13.502 13.33 13.24 13.188 13.152 13.12 13.08 13.042 12.997 12.917 12.812 12.705 12.595 12.327 11.788 11.46 11.46 11.46 11.46 11.46 11.46 11.46 11.46 11.46 11.955 12.415 12.345 12.295 12.313 12.372 12.425 12.478 12.53 12.58 12.63 12.69 12.783 12.92 13.077 13.21 13.265 13.26 13.245 13.225 13.215 13.212 13.207 13.217 13.242 13.26 13.272 13.247 13.102 12.86 12.6 12.328 12.443 12.735 12.83 12.982 13.085 13.105 13.117 13.107 13.09 13.082 13.082 13.09 13.125 13.195 13.275 13.345 13.392 13.432 13.477 13.515 13.505 13.445 13.375 13.318 13.34 13.44 13.553 13.665 13.77 13.873 13.975 14.078 14.178 14.267 14.342 14.413 14.51 14.635 14.765 14.87 14.927 14.965 15.002 15.063 15.21 15.42 15.585 15.625 15.575 15.517 15.47 15.43 15.397 15.36 15.31 15.258 15.29 15.365 15.38 15.4 15.44 15.543 15.765 15.91 15.915 15.925 15.993 16.112 16.235 16.355 16.472 16.587 16.667 16.712
16.568 16.56 16.532 16.475 16.4 16.295 16.142 15.973 15.858 15.808 15.795 15.798 15.805 15.817 15.79 15.723 15.668 15.623 15.58 15.538 15.495 15.46 15.42 15.378 15.34 15.3 15.288 15.32 15.34 15.305 15.288 15.35 15.427 15.46 15.417 15.317 15.212 15.1 14.967 14.823 14.688 14.58 14.51 14.468 14.44 14.42 14.37 14.278 14.178 14.083 13.995 13.925 13.863 13.8 13.745 13.7 13.655 13.618 13.625 13.677 13.707 13.62 13.498 13.433 13.433 13.49 13.52 13.528 13.545 13.575 13.495 13.338 13.255 13.21 13.172 13.13 13.077 13.025 12.972 12.905 12.815 12.71 12.603 12.515 12.222 11.713 11.46 11.46 11.46 11.46 11.46 11.46 11.46 11.46 11.952 12.412 12.345 12.283 12.295 12.367 12.427 12.482 12.535 12.588 12.65 12.725 12.82 12.955 13.102 13.19 13.215 13.22 13.212 13.195 13.185 13.18 13.185 13.218 13.257 13.287 13.307 13.282 13.15 12.93 12.68 12.113 12.148 12.677 12.828 13.012 13.115 13.13 13.117 13.065 13.015 12.985 12.965 12.963 13.005 13.09 13.18 13.25 13.277 13.292 13.32 13.357 13.377 13.35 13.283 13.248 13.308 13.425 13.547 13.66 13.768 13.875 13.982 14.085 14.175 14.265 14.352 14.428 14.528 14.655 14.78 14.885 14.955 15.005 15.06 15.135 15.265 15.45 15.632 15.682 15.612 15.542 15.485 15.45 15.437 15.42 15.392 15.365 15.37 15.392 15.398 15.42 15.46 15.62 15.852 15.942 15.94 15.942 15.98 16.075 16.192 16.307 16.42 16.532 16.612 16.66
16.575 16.548 16.515 16.447 16.345 16.225 16.08 15.948 15.863 15.798 15.77 15.778 15.795 15.81 15.782 15.725 15.68 15.64 15.597 15.555 15.52 15.49 15.45 15.405 15.363 15.32 15.312 15.325 15.295 15.235 15.188 15.23 15.345 15.425 15.397 15.287 15.175 15.06 14.93 14.805 14.705 14.62 14.548 14.485 14.435 14.403 14.352 14.267 14.173 14.078 13.988 13.918 13.857 13.795 13.743 13.7 13.655 13.61 13.585 13.607 13.585 13.44 13.305 13.28 13.345 13.427 13.465 13.483 13.51 13.545 13.482 13.363 13.29 13.223 13.155 13.095 13.043 12.99 12.94 12.88 12.8 12.702 12.605 12.54 12.505 12.23 11.833 11.578 11.46 11.46 11.46 11.46 11.46 11.46 11.945 12.4 12.337 12.27 12.27 12.347 12.425 12.485 12.54 12.608 12.688 12.773 12.86 12.985 13.102 13.145 13.155 13.165 13.17 13.162 13.153 13.158 13.185 13.225 13.265 13.305 13.337 13.32 13.187 12.98 12.752 12.288 12.165 12.562 12.85 13.05 13.142 13.127 13.072 13.003 12.955 12.92 12.888 12.875 12.905 12.98 13.07 13.13 13.135 13.118 13.11 13.133 13.173 13.19 13.175 13.185 13.275 13.413 13.55 13.672 13.785 13.892 13.99 14.08 14.165 14.255 14.355 14.443 14.545 14.667 14.78 14.882 14.955 15.018 15.105 15.203 15.298 15.41 15.562 15.612 15.545 15.49 15.443 15.41 15.398 15.39 15.382 15.387 15.405 15.423 15.43 15.44 15.47 15.645 15.867 15.92 15.898 15.893 15.928 16.018 16.132 16.25 16.365 16.477 16.562 16.625
16.603 16.555 16.495 16.398 16.278 16.158 16.043 15.945 15.867 15.793 15.758 15.77 15.79 15.805 15.782 15.735 15.695 15.655 15.615 15.58 15.55 15.517 15.477 15.435 15.39 15.343 15.315 15.282 15.225 15.168 15.113 15.11 15.2 15.312 15.327 15.237 15.122 15.01 14.905 14.817 14.74 14.662 14.592 14.525 14.46 14.405 14.342 14.26 14.167 14.073 13.983 13.912 13.852 13.79 13.74 13.697 13.652 13.61 13.567 13.54 13.455 13.285 13.18 13.213 13.31 13.398 13.445 13.465 13.488 13.518 13.492 13.425 13.358 13.273 13.188 13.11 13.043 12.975 12.91 12.845 12.772 12.69 12.618 12.575 12.545 12.515 12.355 12.085 11.71 11.46 11.46 11.46 11.46 11.46 11.938 12.385 12.325 12.263 12.25 12.318 12.41 12.493 12.57 12.653 12.735 12.82 12.905 13.002 13.07 13.085 13.095 13.105 13.118 13.128 13.13 13.15 13.19 13.232 13.275 13.315 13.355 13.35 13.222 13.02 12.81 12.575 12.195 12.295 12.782 13.037 13.137 13.08 13.007 12.94 12.898 12.873 12.853 12.845 12.858 12.898 12.965 13.01 13.013 13.01 13.015 13.035 13.06 13.08 13.105 13.15 13.255 13.403 13.545 13.68 13.797 13.897 13.985 14.07 14.155 14.245 14.35 14.452 14.557 14.667 14.775 14.882 14.978 15.075 15.19 15.3 15.377 15.438 15.525 15.55 15.498 15.453 15.408 15.375 15.363 15.355 15.348 15.393 15.457 15.48 15.477 15.463 15.475 15.64 15.842 15.885 15.853 15.848 15.888 15.963 16.068 16.185 16.3 16.415 16.517 16.612
16.635 16.58 16.5 16.383 16.255 16.13 16.03 15.95 15.87 15.795 15.763 15.775 15.795 15.81 15.792 15.75 15.71 15.665 15.625 15.595 15.565 15.53 15.495 15.46 15.415 15.365 15.315 15.26 15.2 15.143 15.088 15.055 15.048 15.093 15.162 15.14 15.037 14.93 14.845 14.775 14.712 14.652 14.585 14.515 14.45 14.392 14.33 14.25 14.16 14.065 13.97 13.89 13.827 13.77 13.72 13.675 13.627 13.582 13.535 13.477 13.373 13.225 13.183 13.265 13.363 13.453 13.51 13.53 13.545 13.55 13.538 13.507 13.442 13.357 13.272 13.182 13.087 12.987 12.89 12.81 12.74 12.67 12.63 12.61 12.58 12.55 12.52 12.49 11.987 11.48 11.46 11.46 11.46 11.63 12.087 12.345 12.285 12.24 12.248 12.315 12.41 12.513 12.622 12.72 12.8 12.883 12.968 13.04 13.078 13.093 13.105 13.118 13.135 13.135 13.123 13.14 13.18 13.225 13.27 13.31 13.35 13.362 13.27 13.07 12.853 12.64 12.118 12.113 12.622 12.892 13.05 13.005 12.935 12.885 12.863 12.85 12.843 12.84 12.85 12.87 12.9 12.925 12.94 12.963 12.988 13.015 13.04 13.063 13.095 13.138 13.245 13.405 13.55 13.69 13.805 13.89 13.973 14.057 14.143 14.24 14.35 14.46 14.565 14.67 14.78 14.89 15.01 15.137 15.262 15.38 15.455 15.497 15.542 15.53 15.468 15.418 15.373 15.34 15.325 15.315 15.34 15.443 15.527 15.535 15.517 15.49 15.49 15.635 15.807 15.847 15.833 15.84 15.89 15.945 16.01 16.11 16.227 16.342 16.455 16.57
16.665 16.61 16.527 16.405 16.27 16.133 16.028 15.95 15.875 15.81 15.78 15.788 15.805 15.82 15.805 15.765 15.722 15.67 15.625 15.595 15.565 15.533 15.502 15.472 15.432 15.387 15.337 15.28 15.22 15.165 15.118 15.078 15.01 14.95 14.955 14.977 14.93 14.828 14.745 14.683 14.635 14.587 14.525 14.458 14.403 14.365 14.315 14.237 14.147 14.052 13.955 13.855 13.775 13.717 13.667 13.62 13.57 13.517 13.465 13.41 13.337 13.263 13.278 13.372 13.465 13.555 13.625 13.657 13.662 13.627 13.597 13.585 13.52 13.42 13.317 13.212 13.102 12.985 12.87 12.78 12.713 12.65 12.628 12.63 12.61 12.58 12.55 12.517 12.162 11.643 11.46 11.46 11.46 11.875 12.295 12.27 12.225 12.23 12.285 12.353 12.433 12.533 12.657 12.785 12.88 12.96 13.042 13.11 13.15 13.175 13.193 13.207 13.205 13.16 13.118 13.125 13.16 13.203 13.247 13.287 13.325 13.35 13.307 13.16 12.943 12.707 12.325 12.148 12.41 12.71 12.895 12.92 12.858 12.853 12.865 12.848 12.838 12.835 12.845 12.862 12.873 12.885 12.913 12.945 12.97 12.995 13.023 13.05 13.093 13.143 13.245 13.41 13.572 13.712 13.815 13.888 13.96 14.043 14.133 14.24 14.357 14.47 14.575 14.68 14.79 14.9 15.025 15.16 15.29 15.415 15.49 15.523 15.565 15.557 15.473 15.39 15.338 15.303 15.285 15.295 15.38 15.515 15.587 15.582 15.555 15.525 15.51 15.613 15.752 15.802 15.82 15.863 15.922 15.955 15.988 16.05 16.15 16.265 16.378 16.498
16.698 16.637 16.55 16.42 16.277 16.133 16.023 15.953 15.89 15.83 15.8 15.805 15.818 15.832 15.82 15.775 15.722 15.668 15.625 15.595 15.565 15.535 15.505 15.475 15.442 15.407 15.36 15.303 15.25 15.205 15.165 15.125 15.075 14.985 14.883 14.835 14.8 14.728 14.658 14.61 14.57 14.525 14.465 14.41 14.378 14.355 14.305 14.222 14.132 14.04 13.942 13.833 13.73 13.655 13.6 13.55 13.498 13.443 13.39 13.338 13.295 13.298 13.365 13.462 13.557 13.65 13.732 13.775 13.752 13.682 13.635 13.592 13.505 13.405 13.302 13.192 13.075 12.957 12.843 12.75 12.688 12.63 12.608 12.622 12.625 12.607 12.58 12.54 12.26 11.732 11.46 11.46 11.46 11.942 12.335 12.215 12.208 12.27 12.342 12.403 12.468 12.553 12.673 12.815 12.942 13.04 13.115 13.177 13.227 13.262 13.285 13.28 13.23 13.153 13.11 13.118 13.143 13.18 13.222 13.262 13.297 13.322 13.305 13.23 13.08 12.845 12.585 12.1 12.153 12.61 12.76 12.832 12.8 12.853 12.89 12.863 12.84 12.828 12.833 12.842 12.845 12.853 12.88 12.917 12.95 12.977 13.005 13.04 13.093 13.158 13.258 13.418 13.595 13.732 13.825 13.895 13.955 14.028 14.125 14.24 14.36 14.477 14.587 14.693 14.8 14.913 15.038 15.17 15.303 15.43 15.505 15.543 15.587 15.605 15.527 15.4 15.313 15.265 15.255 15.315 15.45 15.585 15.637 15.622 15.595 15.565 15.538 15.588 15.688 15.77 15.853 15.92 15.955 15.97 16 16.04 16.1 16.19 16.31 16.455
16.735 16.665 16.565 16.425 16.28 16.135 16.025 15.963 15.907 15.85 15.82 15.825 15.835 15.847 15.832 15.78 15.72 15.663 15.623 15.595 15.565 15.535 15.505 15.475 15.445 15.415 15.377 15.333 15.29 15.25 15.21 15.173 15.137 15.065 14.95 14.83 14.738 14.665 14.603 14.558 14.513 14.468 14.42 14.385 14.365 14.347 14.297 14.208 14.118 14.03 13.93 13.815 13.698 13.603 13.54 13.49 13.438 13.385 13.338 13.303 13.293 13.325 13.408 13.512 13.615 13.712 13.81 13.84 13.78 13.697 13.605 13.49 13.383 13.297 13.212 13.117 13.015 12.917 12.813 12.725 12.668 12.613 12.588 12.597 12.612 12.617 12.595 12.545 12.097 11.57 11.46 11.46 11.46 11.927 12.337 12.268 12.28 12.338 12.4 12.46 12.52 12.588 12.693 12.83 12.972 13.102 13.187 13.242 13.295 13.34 13.35 13.302 13.225 13.143 13.105 13.115 13.133 13.16 13.195 13.235 13.272 13.297 13.28 13.227 13.155 12.997 12.732 12.168 12.085 12.502 12.655 12.72 12.763 12.872 12.92 12.885 12.855 12.833 12.823 12.818 12.818 12.823 12.843 12.88 12.92 12.955 12.99 13.04 13.105 13.18 13.283 13.445 13.615 13.737 13.832 13.902 13.958 14.023 14.12 14.24 14.36 14.48 14.6 14.715 14.825 14.94 15.065 15.195 15.328 15.455 15.527 15.565 15.61 15.647 15.595 15.455 15.328 15.24 15.255 15.375 15.53 15.652 15.682 15.658 15.635 15.613 15.588 15.62 15.738 15.842 15.91 15.955 15.972 15.988 16.015 16.06 16.11 16.17 16.28 16.44
16.75 16.677 16.572 16.43 16.285 16.143 16.04 15.98 15.923 15.868 15.84 15.845 15.855 15.865 15.845 15.79 15.73 15.668 15.623 15.595 15.562 15.53 15.5 15.47 15.44 15.41 15.385 15.365 15.335 15.295 15.255 15.22 15.19 15.132 15.03 14.91 14.783 14.678 14.615 14.565 14.515 14.45 14.393 14.365 14.345 14.34 14.302 14.213 14.12 14.03 13.922 13.793 13.663 13.558 13.49 13.443 13.398 13.355 13.325 13.318 13.33 13.36 13.433 13.538 13.642 13.745 13.827 13.812 13.725 13.645 13.515 13.353 13.243 13.163 13.083 13.005 12.925 12.855 12.79 12.728 12.673 12.618 12.578 12.568 12.58 12.595 12.577 12.525 11.977 11.46 11.46 11.46 11.46 11.948 12.42 12.407 12.412 12.428 12.468 12.525 12.588 12.65 12.738 12.868 13.01 13.155 13.232 13.26 13.31 13.36 13.362 13.3 13.22 13.143 13.11 13.12 13.14 13.158 13.173 13.205 13.245 13.272 13.255 13.203 13.162 13.087 12.865 12.462 12.118 12.295 12.595 12.655 12.765 12.907 12.952 12.905 12.87 12.845 12.825 12.81 12.803 12.798 12.808 12.845 12.903 12.97 13.025 13.075 13.143 13.225 13.333 13.48 13.622 13.735 13.832 13.9 13.953 14.02 14.12 14.24 14.36 14.48 14.61 14.752 14.882 15 15.125 15.255 15.39 15.522 15.57 15.575 15.61 15.645 15.61 15.485 15.348 15.238 15.243 15.398 15.605 15.73 15.757 15.755 15.743 15.725 15.715 15.76 15.852 15.902 15.915 15.94 15.97 15.998 16.05 16.12 16.178 16.233 16.313 16.44
16.745 16.672 16.57 16.435 16.295 16.155 16.055 15.998 15.943 15.89 15.865 15.868 15.875 15.885 15.862 15.805 15.742 15.675 15.625 15.595 15.552 15.51 15.48 15.452 15.425 15.395 15.375 15.377 15.375 15.345 15.305 15.27 15.24 15.197 15.11 14.987 14.848 14.733 14.67 14.62 14.552 14.45 14.365 14.33 14.323 14.34 14.315 14.23 14.137 14.045 13.93 13.79 13.65 13.528 13.45 13.405 13.373 13.353 13.345 13.35 13.368 13.398 13.463 13.563 13.667 13.772 13.807 13.737 13.64 13.555 13.417 13.253 13.148 13.073 13.003 12.943 12.885 12.838 12.803 12.757 12.702 12.642 12.585 12.548 12.54 12.552 12.537 12.295 11.768 11.46 11.46 11.46 11.71 12.21 12.482 12.51 12.515 12.515 12.543 12.6 12.665 12.73 12.805 12.923 13.068 13.217 13.277 13.26 13.285 13.33 13.335 13.29 13.222 13.148 13.115 13.13 13.16 13.18 13.18 13.188 13.215 13.245 13.23 13.188 13.173 13.162 12.99 12.655 12.01 12.05 12.58 12.663 12.805 12.952 12.99 12.93 12.883 12.855 12.835 12.82 12.805 12.805 12.835 12.893 12.978 13.073 13.127 13.148 13.198 13.288 13.397 13.51 13.623 13.735 13.83 13.892 13.94 14.01 14.115 14.235 14.355 14.475 14.613 14.777 14.942 15.08 15.205 15.338 15.483 15.625 15.655 15.615 15.598 15.593 15.563 15.465 15.39 15.358 15.36 15.51 15.71 15.797 15.835 15.865 15.875 15.877 15.85 15.837 15.855 15.87 15.898 15.928 15.965 16.003 16.082 16.19 16.267 16.33 16.393 16.478
16.735 16.665 16.562 16.435 16.302 16.168 16.07 16.015 15.965 15.915 15.89 15.89 15.895 15.902 15.877 15.817 15.75 15.68 15.63 15.59 15.528 15.478 15.453 15.427 15.403 15.378 15.358 15.365 15.387 15.382 15.352 15.32 15.29 15.257 15.187 15.062 14.908 14.785 14.72 14.655 14.555 14.435 14.34 14.303 14.318 14.35 14.325 14.24 14.152 14.065 13.947 13.797 13.642 13.505 13.42 13.388 13.378 13.375 13.378 13.385 13.405 13.44 13.498 13.588 13.692 13.777 13.762 13.662 13.56 13.465 13.333 13.19 13.103 13.043 12.99 12.945 12.908 12.872 12.835 12.79 12.732 12.665 12.605 12.555 12.518 12.512 12.28 11.803 11.513 11.46 11.46 11.46 11.95 12.42 12.45 12.53 12.572 12.585 12.618 12.68 12.745 12.81 12.878 12.983 13.125 13.28 13.35 13.313 13.285 13.297 13.292 13.257 13.215 13.153 13.123 13.148 13.182 13.21 13.212 13.2 13.203 13.22 13.212 13.198 13.205 13.217 13.087 12.775 12.208 12.045 12.43 12.665 12.837 12.995 13.03 12.965 12.905 12.868 12.845 12.843 12.865 12.913 12.975 13.045 13.127 13.215 13.255 13.243 13.265 13.35 13.45 13.54 13.635 13.74 13.83 13.885 13.93 14.003 14.11 14.23 14.35 14.47 14.613 14.785 14.967 15.135 15.283 15.43 15.583 15.727 15.765 15.713 15.66 15.613 15.605 15.613 15.648 15.64 15.618 15.71 15.8 15.84 15.89 15.922 15.905 15.867 15.825 15.805 15.828 15.865 15.9 15.935 15.975 16.01 16.088 16.212 16.325 16.417 16.49 16.555
