ncols         200
nrows         71
xllcorner     545000
yllcorner     261585
cellsize      5
NODATA_value  -9999.0
9.69 9.69 9.69 9.69 9.69 9.69 9.69 9.69 9.69 9.69 9.69 9.69 9.69 9.69 9.69 9.69 9.69 9.69 9.69 9.691 9.691 9.831 10.113 10.398 10.68 10.902 11.033 11.232 11.547 11.895 12.255 12.478 12.553 12.611 12.981 13.838 14.685 15.082 15.217 15.337 15.5 16.282 17.404 17.894 17.961 18.021 18.081 18.116 18.139 18.209 18.324 18.439 18.529 18.609 18.665 18.677 18.68 18.67 18.652 18.635 18.62 18.635 18.735 18.962 19.157 19.238 19.323 19.4 19.387 19.282 19.21 19.197 19.18 19.159 18.514 17.087 15.475 13.924 13.139 13.053 13.004 13.253 15.316 17.584 17.784 17.643 18.247 19.014 19.327 19.352 19.37 19.372 19.342 19.322 19.292 19.194 18.952 18.422 17.677 16.885 16.078 15.275 14.575 14.078 13.806 13.558 13.298 13.153 13.058 13.03 13.073 13.148 13.235 13.327 13.34 13.233 13.088 12.963 12.85 12.84 12.96 13.097 13.192 13.212 13.18 13.12 13.073 13.058 13.047 13.012 12.98 12.967 12.942 12.91 12.847 12.75 12.65 12.563 12.498 12.438 12.37 12.303 12.313 12.4 12.495 12.593 12.667 12.705 12.722 12.732 12.715 12.678 12.69 12.757 12.79 12.775 12.74 12.695 12.62 12.503 12.43 12.43 12.445 12.46 12.48 12.495 12.51 12.53 12.545 12.522 12.42 12.313 12.275 12.262 12.23 12.2 12.225 12.28 12.317 12.33 12.33 12.325 12.318 12.325 12.355 12.39 12.42 12.455 12.49 12.522 12.547 12.535 12.485 12.402 12.3 12.265 12.3 12.348 12.4 12.45
9.69 9.69 9.69 9.69 9.69 9.69 9.69 9.69 9.69 9.69 9.69 9.69 9.69 9.69 9.691 9.741 9.933 10.215 10.498 10.78 10.95 11.117 11.397 11.68 11.957 12.175 12.287 12.35 12.631 13.261 14.07 14.64 14.905 15.143 15.63 16.524 17.359 17.724 17.824 17.911 17.976 18.022 18.047 18.06 18.072 18.087 18.105 18.135 18.183 18.255 18.353 18.435 18.475 18.493 18.51 18.53 18.548 18.555 18.558 18.563 18.57 18.58 18.703 18.968 19.205 19.32 19.385 19.44 19.443 19.428 19.422 19.417 19.41 19.397 19.382 19.366 18.571 17.079 15.393 13.774 13.103 13.045 13.014 13.467 13.679 13.61 14.559 15.953 16.848 17.352 17.632 17.662 17.6 17.527 17.4 17.16 16.88 16.407 15.66 14.863 14.25 13.8 13.393 13.178 13.205 13.205 13.075 12.963 12.975 13.098 13.145 13.173 13.275 13.372 13.442 13.395 13.232 13.04 12.855 12.823 12.948 13.092 13.212 13.237 13.18 13.108 13.065 13.055 13.05 13.037 13.015 12.987 12.95 12.915 12.85 12.75 12.65 12.553 12.478 12.433 12.39 12.34 12.36 12.453 12.547 12.635 12.695 12.732 12.767 12.795 12.792 12.757 12.728 12.755 12.78 12.752 12.71 12.665 12.59 12.44 12.348 12.363 12.378 12.385 12.4 12.415 12.43 12.45 12.465 12.48 12.46 12.37 12.288 12.26 12.242 12.21 12.22 12.28 12.32 12.33 12.33 12.325 12.315 12.31 12.328 12.36 12.39 12.425 12.46 12.49 12.522 12.53 12.48 12.385 12.27 12.208 12.225 12.275 12.33 12.385
9.69 9.69 9.69 9.69 9.69 9.69 9.69 9.69 9.691 9.691 9.793 10.035 10.315 10.598 10.865 11.03 11.21 11.487 11.765 12.045 12.212 12.235 12.28 12.438 12.683 13.041 13.513 14.02 14.683 15.547 16.509 17.209 17.514 17.716 17.861 17.937 17.967 17.982 17.995 18.007 18.022 18.038 18.053 18.065 18.078 18.105 18.148 18.205 18.275 18.348 18.425 18.488 18.533 18.575 18.618 18.663 18.708 18.74 18.758 18.775 18.795 18.808 18.878 19.06 19.29 19.455 19.542 19.585 19.59 19.585 19.58 19.58 19.577 19.509 19.347 19.149 18.951 18.753 17.62 15.639 14.257 13.47 13.083 13.01 12.97 13.04 13.423 14.088 14.75 15.323 15.67 15.743 15.663 15.503 15.265 14.958 14.658 14.375 13.993 13.536 13.245 13.118 12.973 12.895 12.983 13.05 12.97 12.983 13.245 13.523 13.465 13.25 13.248 13.355 13.46 13.447 13.27 13.035 12.85 12.83 12.93 13.067 13.182 13.197 13.145 13.085 13.05 13.037 13.027 13.017 12.992 12.957 12.92 12.882 12.83 12.745 12.645 12.548 12.483 12.465 12.44 12.393 12.415 12.507 12.595 12.657 12.69 12.72 12.757 12.792 12.81 12.797 12.767 12.765 12.762 12.725 12.68 12.635 12.515 12.33 12.263 12.295 12.317 12.332 12.347 12.353 12.355 12.37 12.385 12.4 12.415 12.395 12.32 12.258 12.242 12.225 12.23 12.277 12.315 12.327 12.327 12.322 12.315 12.305 12.308 12.33 12.36 12.395 12.43 12.468 12.51 12.525 12.49 12.39 12.255 12.16 12.153 12.205 12.26 12.315
9.69 9.69 9.69 9.691 9.761 9.963 10.203 10.428 10.688 10.935 11.122 11.322 11.57 11.84 12.102 12.212 12.218 12.333 12.53 12.723 12.896 13.096 13.393 13.808 14.315 14.935 15.632 16.344 17.029 17.459 17.675 17.865 17.95 17.952 17.962 17.977 17.99 18.003 18.017 18.03 18.043 18.058 18.073 18.098 18.133 18.185 18.255 18.333 18.415 18.495 18.575 18.655 18.735 18.815 18.895 18.975 19.055 19.12 19.165 19.207 19.252 19.297 19.34 19.405 19.525 19.662 19.737 19.689 19.532 19.334 19.137 18.942 18.747 18.489 18.135 17.745 17.355 16.965 16.617 15.796 14.537 13.555 13.123 13.035 12.96 13 13.135 13.26 13.508 13.84 14.035 14.073 14.018 13.905 13.743 13.561 13.403 13.328 13.283 13.185 13.068 12.965 12.873 12.813 12.848 12.943 13.26 13.8 14.22 14.282 13.952 13.48 13.23 13.265 13.365 13.335 13.167 12.973 12.84 12.85 12.93 13.02 13.075 13.073 13.05 13.02 13.002 12.99 12.975 12.957 12.927 12.892 12.855 12.813 12.78 12.73 12.64 12.543 12.483 12.48 12.477 12.445 12.47 12.557 12.622 12.652 12.67 12.698 12.733 12.77 12.787 12.78 12.772 12.765 12.74 12.697 12.65 12.602 12.423 12.225 12.195 12.218 12.245 12.275 12.3 12.312 12.318 12.32 12.318 12.323 12.335 12.35 12.335 12.275 12.238 12.23 12.235 12.27 12.305 12.32 12.322 12.32 12.315 12.305 12.298 12.305 12.33 12.365 12.403 12.455 12.51 12.53 12.527 12.44 12.278 12.138 12.095 12.143 12.198 12.255
9.988 10.263 10.535 10.803 11.082 11.342 11.54 11.722 11.94 12.155 12.227 12.273 12.43 12.62 12.818 13.013 13.213 13.493 13.88 14.308 14.735 15.197 15.707 16.222 16.627 16.914 17.195 17.497 17.825 17.987 17.98 17.972 17.97 17.978 17.99 18.003 18.017 18.03 18.043 18.058 18.07 18.09 18.125 18.178 18.245 18.318 18.395 18.478 18.56 18.642 18.725 18.805 18.885 18.965 19.045 19.125 19.205 19.285 19.365 19.445 19.525 19.604 19.562 19.409 19.259 19.107 18.937 18.682 18.33 17.94 17.55 17.16 16.772 16.385 15.995 15.605 15.215 14.825 14.463 13.951 13.428 13.205 13.125 13.05 12.965 12.975 13.085 13.187 13.275 13.343 13.355 13.325 13.3 13.285 13.273 13.265 13.263 13.252 13.197 13.103 13.015 12.945 12.895 12.845 12.848 13.23 14.177 15.072 15.259 14.847 14.305 13.81 13.37 13.203 13.227 13.155 13.003 12.865 12.805 12.848 12.92 12.97 12.978 12.965 12.955 12.943 12.933 12.925 12.915 12.895 12.862 12.825 12.785 12.74 12.713 12.695 12.632 12.535 12.48 12.485 12.5 12.493 12.523 12.587 12.62 12.637 12.655 12.678 12.71 12.747 12.762 12.755 12.747 12.73 12.692 12.655 12.615 12.542 12.38 12.233 12.183 12.178 12.198 12.213 12.23 12.258 12.285 12.297 12.297 12.293 12.288 12.285 12.292 12.277 12.24 12.223 12.228 12.26 12.292 12.307 12.317 12.32 12.315 12.305 12.295 12.29 12.303 12.335 12.385 12.455 12.512 12.537 12.555 12.495 12.35 12.215 12.143 12.143 12.185 12.245
11.365 11.645 11.922 12.175 12.34 12.387 12.413 12.525 12.69 12.863 13.056 13.346 13.735 14.14 14.523 14.885 15.277 15.692 16.094 16.427 16.702 16.982 17.267 17.549 17.722 17.787 17.852 17.925 17.987 18.005 17.995 17.99 17.993 18.003 18.017 18.03 18.043 18.057 18.07 18.088 18.12 18.168 18.233 18.308 18.385 18.465 18.545 18.625 18.705 18.788 18.87 18.952 19.035 19.115 19.195 19.275 19.354 19.357 19.199 18.977 18.827 18.729 18.492 18.132 17.767 17.38 16.99 16.6 16.21 15.82 15.43 15.04 14.65 14.298 14.028 13.803 13.581 13.373 13.188 13.098 13.103 13.12 13.11 13.052 12.973 12.95 13.015 13.102 13.185 13.26 13.28 13.25 13.22 13.198 13.19 13.19 13.19 13.185 13.138 13.065 13.008 12.95 12.903 12.863 13.085 13.85 14.862 15.594 15.595 15.077 14.57 14.11 13.63 13.25 13.093 13 12.878 12.773 12.755 12.822 12.887 12.925 12.927 12.913 12.903 12.898 12.885 12.87 12.858 12.833 12.795 12.755 12.713 12.668 12.64 12.632 12.605 12.53 12.483 12.495 12.515 12.528 12.555 12.587 12.603 12.62 12.64 12.66 12.69 12.725 12.737 12.732 12.717 12.67 12.603 12.565 12.547 12.497 12.41 12.323 12.245 12.193 12.188 12.198 12.203 12.218 12.238 12.253 12.27 12.282 12.282 12.27 12.258 12.253 12.235 12.22 12.228 12.253 12.278 12.295 12.31 12.318 12.315 12.305 12.295 12.285 12.285 12.315 12.38 12.46 12.515 12.54 12.56 12.545 12.472 12.385 12.305 12.245 12.235 12.273
12.502 12.702 12.838 12.928 12.976 13.111 13.381 13.745 14.16 14.572 14.987 15.4 15.807 16.142 16.362 16.544 16.774 17.049 17.284 17.402 17.445 17.487 17.532 17.575 17.65 17.76 17.855 17.935 18 18.022 18.015 18.01 18.018 18.03 18.043 18.057 18.07 18.085 18.113 18.158 18.223 18.298 18.375 18.455 18.535 18.615 18.695 18.775 18.855 18.935 19.015 19.097 19.149 19.039 18.797 18.554 18.359 18.159 17.825 17.425 17.087 16.772 16.423 16.045 15.655 15.265 14.875 14.49 14.191 13.968 13.743 13.518 13.293 13.105 13 12.945 12.925 12.94 12.97 13.003 13.027 13.052 13.065 13.03 12.955 12.903 12.933 13.017 13.1 13.167 13.2 13.19 13.163 13.14 13.153 13.178 13.18 13.178 13.125 13.055 13.01 12.955 12.943 13.09 13.585 14.317 15.027 15.605 15.642 15.187 14.695 14.225 13.755 13.293 13.013 12.91 12.81 12.725 12.725 12.792 12.845 12.877 12.882 12.868 12.86 12.86 12.852 12.835 12.815 12.788 12.753 12.708 12.648 12.595 12.57 12.56 12.553 12.515 12.488 12.52 12.555 12.573 12.57 12.57 12.587 12.603 12.62 12.64 12.668 12.7 12.712 12.705 12.67 12.595 12.508 12.45 12.435 12.442 12.44 12.402 12.337 12.26 12.208 12.2 12.212 12.225 12.23 12.23 12.238 12.253 12.263 12.265 12.265 12.255 12.238 12.233 12.245 12.27 12.298 12.323 12.343 12.332 12.31 12.3 12.292 12.285 12.27 12.29 12.357 12.44 12.495 12.505 12.515 12.535 12.535 12.497 12.445 12.392 12.345 12.325
13.425 13.743 13.983 14.225 14.513 14.865 15.275 15.665 16.004 16.259 16.442 16.642 16.909 17.107 17.165 17.18 17.18 17.195 17.225 17.26 17.3 17.34 17.38 17.445 17.573 17.732 17.857 17.945 18.012 18.037 18.033 18.033 18.043 18.057 18.07 18.085 18.11 18.15 18.21 18.285 18.365 18.445 18.525 18.605 18.685 18.765 18.844 18.924 18.859 18.632 18.389 18.149 17.877 17.517 17.1 16.68 16.308 16.01 15.733 15.425 15.083 14.71 14.375 14.123 13.898 13.673 13.448 13.228 13.095 13.04 12.98 12.92 12.86 12.8 12.765 12.768 12.805 12.852 12.887 12.917 12.943 12.97 12.992 12.975 12.915 12.848 12.853 12.935 13.007 13.045 13.087 13.125 13.117 13.095 13.128 13.195 13.222 13.225 13.15 13.04 12.985 13.035 13.3 13.742 14.155 14.603 15.165 15.642 15.6 15.102 14.61 14.135 13.655 13.23 12.98 12.858 12.75 12.683 12.698 12.752 12.795 12.83 12.835 12.823 12.82 12.82 12.817 12.805 12.782 12.755 12.725 12.687 12.638 12.58 12.548 12.548 12.553 12.548 12.553 12.59 12.625 12.64 12.613 12.57 12.57 12.587 12.605 12.625 12.648 12.675 12.687 12.662 12.597 12.51 12.42 12.343 12.315 12.34 12.38 12.402 12.397 12.352 12.278 12.223 12.213 12.23 12.245 12.25 12.25 12.25 12.25 12.258 12.27 12.27 12.265 12.278 12.305 12.343 12.38 12.41 12.41 12.352 12.305 12.295 12.282 12.265 12.238 12.248 12.313 12.405 12.472 12.455 12.43 12.448 12.472 12.485 12.475 12.45 12.415 12.375
15.072 15.322 15.555 15.807 16.104 16.342 16.517 16.662 16.762 16.785 16.817 16.932 17.062 17.155 17.192 17.2 17.178 17.155 17.148 17.145 17.153 17.18 17.238 17.353 17.518 17.69 17.845 17.955 18.027 18.055 18.05 18.058 18.07 18.083 18.105 18.145 18.203 18.275 18.355 18.435 18.515 18.595 18.674 18.654 18.472 18.229 17.989 17.747 17.359 16.837 16.372 15.958 15.538 15.19 14.92 14.648 14.39 14.195 14.033 13.833 13.61 13.388 13.218 13.13 13.07 13.01 12.95 12.89 12.835 12.78 12.72 12.66 12.613 12.598 12.628 12.685 12.735 12.772 12.805 12.833 12.86 12.897 12.922 12.902 12.855 12.795 12.785 12.845 12.89 12.905 12.95 13.022 13.057 13.05 13.085 13.175 13.245 13.272 13.195 13.048 13.008 13.313 13.912 14.352 14.537 14.86 15.37 15.695 15.472 14.928 14.448 13.982 13.505 13.138 12.948 12.82 12.7 12.638 12.658 12.705 12.745 12.78 12.787 12.78 12.78 12.783 12.785 12.775 12.747 12.715 12.685 12.66 12.637 12.61 12.598 12.608 12.62 12.627 12.645 12.672 12.695 12.71 12.68 12.613 12.57 12.57 12.59 12.61 12.63 12.652 12.65 12.595 12.51 12.423 12.345 12.278 12.24 12.245 12.275 12.318 12.36 12.372 12.35 12.295 12.238 12.223 12.24 12.262 12.27 12.27 12.273 12.278 12.28 12.28 12.295 12.34 12.397 12.447 12.487 12.507 12.46 12.358 12.298 12.28 12.252 12.22 12.19 12.2 12.273 12.38 12.465 12.442 12.37 12.355 12.38 12.41 12.427 12.417 12.395 12.38
16.025 16.222 16.502 16.702 16.745 16.68 16.587 16.53 16.538 16.633 16.825 17.025 17.122 17.177 17.217 17.242 17.252 17.237 17.205 17.168 17.14 17.133 17.183 17.303 17.463 17.638 17.81 17.95 18.042 18.075 18.073 18.083 18.103 18.135 18.187 18.26 18.34 18.422 18.449 18.312 18.069 17.829 17.587 17.244 16.742 16.177 15.668 15.23 14.813 14.421 14.118 13.918 13.748 13.58 13.425 13.328 13.223 13.058 12.885 12.793 12.798 12.81 12.823 12.835 12.81 12.75 12.69 12.63 12.575 12.52 12.463 12.435 12.45 12.498 12.565 12.62 12.655 12.688 12.72 12.75 12.785 12.83 12.852 12.827 12.785 12.738 12.713 12.73 12.753 12.765 12.808 12.885 12.955 12.992 13.045 13.135 13.222 13.29 13.255 13.125 13.063 13.338 13.882 14.382 14.727 15.105 15.575 15.685 15.287 14.75 14.28 13.825 13.368 13.058 12.913 12.788 12.665 12.598 12.613 12.655 12.695 12.732 12.745 12.74 12.743 12.747 12.75 12.742 12.715 12.678 12.65 12.64 12.64 12.65 12.665 12.675 12.682 12.685 12.7 12.73 12.757 12.777 12.75 12.68 12.613 12.57 12.57 12.593 12.615 12.627 12.605 12.545 12.473 12.403 12.345 12.298 12.248 12.218 12.223 12.238 12.26 12.295 12.327 12.332 12.3 12.25 12.228 12.248 12.275 12.287 12.295 12.3 12.3 12.29 12.31 12.382 12.462 12.53 12.587 12.585 12.5 12.39 12.318 12.275 12.223 12.175 12.14 12.155 12.243 12.36 12.457 12.447 12.35 12.3 12.31 12.33 12.353 12.365 12.358 12.37
16.237 16.385 16.675 16.825 16.725 16.55 16.423 16.373 16.43 16.65 16.867 16.967 17.025 17.112 17.217 17.28 17.305 17.317 17.317 17.307 17.285 17.26 17.295 17.388 17.498 17.623 17.765 17.923 18.047 18.092 18.097 18.127 18.179 18.239 18.147 17.904 17.664 17.424 17.129 16.672 16.107 15.545 14.988 14.503 14.106 13.758 13.498 13.316 13.156 12.993 12.845 12.748 12.693 12.703 12.775 12.855 12.805 12.623 12.438 12.36 12.395 12.438 12.485 12.53 12.528 12.483 12.435 12.385 12.338 12.295 12.278 12.313 12.378 12.443 12.5 12.54 12.575 12.62 12.655 12.68 12.718 12.762 12.78 12.752 12.71 12.675 12.663 12.675 12.69 12.698 12.708 12.755 12.835 12.907 12.982 13.067 13.15 13.232 13.27 13.222 13.133 13.143 13.39 13.915 14.675 15.337 15.694 15.59 15.082 14.567 14.11 13.662 13.258 13.013 12.888 12.768 12.653 12.58 12.583 12.618 12.65 12.685 12.702 12.7 12.705 12.71 12.71 12.712 12.698 12.665 12.655 12.67 12.69 12.71 12.725 12.732 12.735 12.735 12.75 12.78 12.81 12.827 12.795 12.727 12.66 12.595 12.568 12.583 12.605 12.617 12.605 12.565 12.51 12.455 12.405 12.362 12.31 12.263 12.245 12.23 12.223 12.233 12.248 12.275 12.297 12.29 12.257 12.233 12.25 12.282 12.307 12.32 12.32 12.313 12.34 12.418 12.5 12.582 12.65 12.647 12.57 12.47 12.403 12.35 12.28 12.215 12.16 12.148 12.22 12.34 12.445 12.445 12.348 12.278 12.265 12.278 12.293 12.308 12.318 12.355
16.335 16.485 16.712 16.807 16.745 16.62 16.5 16.435 16.433 16.567 16.692 16.73 16.803 16.95 17.14 17.29 17.352 17.37 17.397 17.422 17.43 17.443 17.507 17.595 17.67 17.745 17.835 17.949 18.057 17.999 17.754 17.487 17.232 16.969 16.547 15.972 15.398 14.82 14.303 13.941 13.658 13.363 13.068 12.843 12.706 12.621 12.575 12.548 12.48 12.405 12.375 12.35 12.355 12.458 12.628 12.69 12.59 12.473 12.405 12.38 12.388 12.393 12.4 12.405 12.4 12.39 12.375 12.358 12.34 12.323 12.328 12.355 12.38 12.413 12.458 12.505 12.558 12.618 12.65 12.648 12.66 12.695 12.707 12.678 12.645 12.635 12.65 12.687 12.717 12.72 12.695 12.685 12.733 12.81 12.89 12.97 13.05 13.13 13.197 13.225 13.2 13.14 13.193 13.448 13.978 14.485 15.097 15.164 14.585 14.237 13.85 13.428 13.133 12.99 12.882 12.767 12.655 12.58 12.573 12.6 12.625 12.642 12.655 12.66 12.662 12.665 12.668 12.682 12.697 12.69 12.695 12.725 12.75 12.77 12.785 12.787 12.785 12.783 12.795 12.827 12.852 12.855 12.815 12.75 12.685 12.623 12.59 12.588 12.6 12.62 12.632 12.617 12.572 12.518 12.465 12.427 12.38 12.318 12.283 12.268 12.255 12.245 12.233 12.23 12.243 12.26 12.265 12.252 12.238 12.25 12.29 12.32 12.34 12.363 12.4 12.465 12.545 12.622 12.667 12.672 12.642 12.565 12.495 12.46 12.41 12.34 12.27 12.215 12.23 12.325 12.42 12.425 12.342 12.258 12.23 12.242 12.255 12.265 12.278 12.328
16.445 16.587 16.737 16.762 16.72 16.655 16.57 16.482 16.42 16.448 16.503 16.555 16.673 16.843 17.035 17.237 17.37 17.412 17.455 17.512 17.559 17.597 17.642 17.636 17.474 17.222 16.979 16.737 16.494 16.122 15.577 14.99 14.466 14.093 13.811 13.528 13.243 12.958 12.733 12.671 12.668 12.63 12.61 12.6 12.59 12.58 12.575 12.533 12.398 12.273 12.243 12.27 12.33 12.443 12.58 12.622 12.568 12.49 12.428 12.41 12.42 12.425 12.43 12.437 12.442 12.45 12.455 12.46 12.455 12.452 12.46 12.462 12.455 12.45 12.483 12.54 12.6 12.657 12.675 12.65 12.633 12.638 12.638 12.62 12.613 12.618 12.638 12.682 12.732 12.75 12.725 12.685 12.675 12.718 12.79 12.87 12.95 13.03 13.095 13.145 13.175 13.157 13.185 13.295 13.378 13.461 13.963 14.12 13.85 13.785 13.49 13.163 13.013 12.937 12.855 12.76 12.655 12.578 12.565 12.582 12.592 12.59 12.595 12.61 12.617 12.62 12.628 12.653 12.687 12.71 12.732 12.77 12.802 12.827 12.842 12.84 12.835 12.83 12.84 12.867 12.877 12.87 12.832 12.77 12.705 12.65 12.623 12.61 12.608 12.62 12.64 12.647 12.627 12.58 12.528 12.497 12.455 12.383 12.328 12.305 12.295 12.285 12.27 12.255 12.245 12.238 12.24 12.247 12.238 12.228 12.25 12.293 12.352 12.415 12.462 12.518 12.59 12.645 12.66 12.66 12.657 12.632 12.57 12.547 12.535 12.472 12.405 12.338 12.295 12.328 12.387 12.385 12.325 12.24 12.198 12.205 12.215 12.225 12.235 12.288
16.558 16.675 16.745 16.712 16.657 16.602 16.527 16.432 16.378 16.4 16.478 16.6 16.757 16.92 17.072 17.199 17.284 17.324 17.209 16.954 16.689 16.417 16.139 15.812 15.337 14.773 14.311 13.981 13.701 13.423 13.138 12.851 12.628 12.561 12.583 12.605 12.625 12.645 12.678 12.72 12.7 12.655 12.793 12.95 12.932 12.865 12.797 12.675 12.495 12.333 12.268 12.31 12.378 12.467 12.56 12.605 12.582 12.51 12.453 12.44 12.45 12.457 12.463 12.47 12.475 12.48 12.485 12.472 12.438 12.45 12.49 12.505 12.515 12.52 12.55 12.6 12.65 12.692 12.695 12.665 12.635 12.61 12.598 12.595 12.598 12.603 12.623 12.67 12.732 12.77 12.76 12.725 12.685 12.668 12.7 12.77 12.85 12.927 12.992 13.045 13.095 13.133 13.182 13.24 13.28 13.34 13.375 13.343 13.36 13.37 13.193 13.01 12.93 12.853 12.78 12.708 12.63 12.573 12.56 12.568 12.57 12.558 12.55 12.56 12.568 12.575 12.598 12.638 12.68 12.715 12.737 12.755 12.79 12.837 12.872 12.885 12.885 12.88 12.887 12.9 12.895 12.885 12.85 12.79 12.725 12.678 12.658 12.643 12.63 12.628 12.638 12.653 12.658 12.635 12.595 12.57 12.53 12.455 12.385 12.348 12.335 12.325 12.31 12.295 12.285 12.273 12.258 12.245 12.243 12.233 12.228 12.27 12.36 12.452 12.517 12.57 12.62 12.645 12.645 12.645 12.645 12.647 12.625 12.617 12.615 12.567 12.51 12.452 12.397 12.37 12.363 12.335 12.287 12.218 12.168 12.168 12.178 12.185 12.193 12.243
16.682 16.745 16.712 16.62 16.545 16.475 16.393 16.337 16.377 16.49 16.617 16.722 16.719 16.564 16.332 16.059 15.765 15.48 15.057 14.553 14.178 13.878 13.588 13.318 13.053 12.761 12.543 12.466 12.463 12.488 12.518 12.545 12.565 12.585 12.61 12.635 12.658 12.69 12.745 12.775 12.735 12.708 12.98 13.252 13.182 13.025 12.877 12.732 12.567 12.393 12.308 12.34 12.407 12.482 12.535 12.575 12.585 12.53 12.478 12.47 12.48 12.49 12.495 12.5 12.507 12.505 12.485 12.44 12.403 12.448 12.502 12.515 12.532 12.552 12.59 12.64 12.685 12.71 12.697 12.665 12.63 12.603 12.595 12.595 12.595 12.595 12.615 12.67 12.74 12.782 12.787 12.767 12.728 12.688 12.683 12.715 12.76 12.823 12.89 12.95 13.018 13.098 13.167 13.208 13.235 13.268 13.268 13.228 13.183 13.145 13.083 12.995 12.915 12.84 12.78 12.733 12.688 12.65 12.635 12.64 12.64 12.605 12.575 12.575 12.575 12.575 12.6 12.65 12.692 12.717 12.72 12.713 12.725 12.763 12.812 12.852 12.877 12.902 12.92 12.92 12.91 12.9 12.867 12.81 12.748 12.708 12.693 12.677 12.663 12.668 12.708 12.73 12.718 12.695 12.663 12.64 12.6 12.525 12.45 12.398 12.375 12.362 12.348 12.335 12.325 12.31 12.295 12.285 12.275 12.263 12.25 12.263 12.338 12.45 12.527 12.57 12.602 12.615 12.615 12.615 12.615 12.615 12.617 12.615 12.597 12.562 12.515 12.467 12.42 12.38 12.365 12.335 12.26 12.188 12.143 12.13 12.143 12.165 12.188 12.208
16.817 16.837 16.727 16.58 16.455 16.347 16.264 16.092 15.847 15.637 15.417 15.157 14.795 14.413 14.113 13.821 13.511 13.208 12.919 12.701 12.618 12.611 12.626 12.63 12.603 12.548 12.478 12.438 12.453 12.498 12.548 12.585 12.6 12.618 12.643 12.668 12.705 12.76 12.82 12.825 12.783 12.775 12.997 13.207 13.147 13.012 12.875 12.757 12.62 12.45 12.355 12.365 12.415 12.48 12.518 12.54 12.567 12.545 12.503 12.5 12.51 12.52 12.527 12.532 12.525 12.492 12.44 12.38 12.378 12.46 12.517 12.528 12.54 12.56 12.6 12.647 12.685 12.7 12.68 12.645 12.615 12.6 12.602 12.605 12.605 12.603 12.623 12.678 12.745 12.787 12.8 12.8 12.775 12.74 12.73 12.738 12.748 12.775 12.823 12.893 12.985 13.085 13.17 13.222 13.25 13.26 13.253 13.225 13.18 13.143 13.13 13.102 13.035 12.965 12.92 12.893 12.857 12.81 12.785 12.79 12.757 12.683 12.645 12.645 12.635 12.615 12.63 12.675 12.702 12.715 12.715 12.705 12.695 12.695 12.713 12.753 12.813 12.88 12.92 12.927 12.925 12.915 12.887 12.832 12.773 12.74 12.727 12.708 12.7 12.748 12.845 12.907 12.895 12.84 12.765 12.713 12.667 12.595 12.52 12.455 12.418 12.4 12.385 12.375 12.365 12.35 12.335 12.325 12.318 12.313 12.302 12.28 12.3 12.397 12.477 12.51 12.54 12.557 12.56 12.56 12.56 12.563 12.567 12.555 12.528 12.495 12.45 12.405 12.368 12.343 12.365 12.39 12.332 12.238 12.163 12.135 12.16 12.205 12.237 12.22
16.629 16.472 16.149 15.787 15.422 15.067 14.742 14.383 14.018 13.703 13.396 13.086 12.781 12.626 12.638 12.691 12.725 12.72 12.705 12.713 12.738 12.743 12.768 12.752 12.665 12.588 12.52 12.493 12.513 12.56 12.615 12.642 12.645 12.655 12.68 12.718 12.775 12.84 12.882 12.875 12.845 12.848 12.975 13.09 13.072 12.987 12.865 12.762 12.652 12.505 12.418 12.42 12.44 12.483 12.515 12.525 12.545 12.545 12.528 12.53 12.54 12.55 12.555 12.54 12.497 12.44 12.38 12.328 12.358 12.467 12.53 12.54 12.55 12.57 12.607 12.645 12.67 12.68 12.66 12.625 12.608 12.605 12.608 12.612 12.615 12.615 12.638 12.688 12.75 12.792 12.805 12.815 12.812 12.79 12.78 12.79 12.797 12.803 12.82 12.88 12.975 13.075 13.163 13.23 13.267 13.27 13.265 13.257 13.23 13.193 13.2 13.23 13.212 13.155 13.108 13.072 13.025 12.97 12.938 12.917 12.842 12.748 12.71 12.7 12.67 12.643 12.655 12.687 12.705 12.715 12.715 12.705 12.695 12.693 12.69 12.705 12.765 12.845 12.897 12.92 12.932 12.93 12.907 12.855 12.8 12.77 12.747 12.73 12.763 12.855 12.97 13.075 13.125 13.067 12.937 12.828 12.738 12.658 12.588 12.518 12.468 12.44 12.425 12.415 12.403 12.39 12.383 12.375 12.37 12.37 12.355 12.323 12.3 12.34 12.402 12.435 12.468 12.492 12.5 12.503 12.508 12.513 12.512 12.495 12.463 12.425 12.388 12.358 12.335 12.32 12.348 12.41 12.437 12.382 12.29 12.243 12.248 12.285 12.302 12.27
14.967 14.555 14.175 13.875 13.573 13.268 12.966 12.751 12.668 12.641 12.625 12.605 12.585 12.588 12.628 12.713 12.785 12.805 12.818 12.86 12.92 12.95 12.955 12.907 12.805 12.713 12.655 12.64 12.642 12.66 12.682 12.69 12.687 12.685 12.707 12.767 12.845 12.917 12.947 12.935 12.915 12.905 12.937 12.97 12.97 12.937 12.855 12.755 12.655 12.54 12.475 12.477 12.48 12.492 12.512 12.525 12.535 12.542 12.547 12.555 12.565 12.57 12.552 12.502 12.44 12.38 12.32 12.293 12.355 12.475 12.542 12.555 12.565 12.577 12.6 12.625 12.645 12.657 12.64 12.613 12.608 12.61 12.613 12.618 12.623 12.63 12.658 12.705 12.76 12.795 12.805 12.815 12.822 12.822 12.825 12.835 12.842 12.847 12.855 12.888 12.97 13.08 13.175 13.24 13.26 13.26 13.27 13.275 13.267 13.242 13.25 13.297 13.33 13.322 13.287 13.24 13.185 13.13 13.08 13.012 12.91 12.815 12.765 12.735 12.695 12.668 12.67 12.69 12.705 12.715 12.715 12.705 12.718 12.742 12.727 12.7 12.735 12.815 12.87 12.895 12.915 12.927 12.92 12.875 12.82 12.782 12.755 12.778 12.865 12.975 13.082 13.177 13.245 13.207 13.082 12.962 12.845 12.747 12.662 12.582 12.522 12.483 12.465 12.455 12.445 12.44 12.44 12.438 12.435 12.435 12.418 12.38 12.34 12.325 12.343 12.37 12.405 12.438 12.453 12.458 12.465 12.47 12.463 12.443 12.415 12.383 12.355 12.333 12.31 12.3 12.33 12.393 12.457 12.487 12.46 12.415 12.387 12.382 12.365 12.32
13.133 12.878 12.748 12.711 12.678 12.66 12.655 12.668 12.67 12.648 12.643 12.658 12.673 12.695 12.753 12.832 12.895 12.933 12.968 13.02 13.08 13.12 13.112 13.045 12.942 12.838 12.755 12.725 12.725 12.725 12.715 12.702 12.695 12.685 12.688 12.735 12.817 12.9 12.942 12.94 12.925 12.902 12.89 12.888 12.883 12.875 12.83 12.74 12.64 12.54 12.49 12.49 12.487 12.477 12.49 12.515 12.525 12.535 12.545 12.555 12.562 12.557 12.53 12.475 12.405 12.338 12.27 12.27 12.365 12.485 12.555 12.567 12.565 12.55 12.557 12.592 12.62 12.635 12.625 12.61 12.613 12.615 12.623 12.633 12.64 12.653 12.68 12.725 12.765 12.78 12.782 12.785 12.785 12.805 12.832 12.845 12.855 12.862 12.873 12.908 12.995 13.115 13.212 13.242 13.213 13.203 13.227 13.245 13.255 13.255 13.265 13.295 13.325 13.347 13.34 13.295 13.237 13.18 13.135 13.08 12.982 12.883 12.823 12.785 12.753 12.733 12.715 12.703 12.705 12.715 12.723 12.75 12.805 12.815 12.755 12.69 12.705 12.782 12.84 12.877 12.905 12.925 12.925 12.882 12.823 12.78 12.793 12.865 12.952 13.035 13.112 13.18 13.225 13.197 13.102 12.997 12.892 12.787 12.68 12.6 12.552 12.522 12.515 12.513 12.51 12.51 12.513 12.515 12.515 12.518 12.512 12.483 12.44 12.39 12.365 12.385 12.418 12.44 12.468 12.493 12.498 12.498 12.473 12.435 12.41 12.385 12.36 12.335 12.313 12.315 12.34 12.388 12.453 12.517 12.537 12.51 12.477 12.45 12.417 12.37
12.668 12.693 12.705 12.698 12.685 12.68 12.71 12.795 12.865 12.833 12.77 12.763 12.775 12.805 12.875 12.96 13.037 13.102 13.15 13.19 13.22 13.217 13.192 13.145 13.057 12.95 12.833 12.755 12.74 12.74 12.72 12.688 12.673 12.665 12.65 12.65 12.703 12.787 12.842 12.86 12.865 12.857 12.847 12.837 12.825 12.812 12.777 12.71 12.62 12.52 12.47 12.47 12.457 12.428 12.44 12.485 12.507 12.52 12.53 12.537 12.535 12.52 12.5 12.465 12.405 12.333 12.275 12.298 12.395 12.502 12.557 12.552 12.527 12.493 12.49 12.532 12.58 12.61 12.617 12.618 12.628 12.64 12.653 12.668 12.677 12.683 12.703 12.745 12.762 12.74 12.723 12.717 12.72 12.758 12.805 12.825 12.835 12.85 12.883 12.95 13.053 13.167 13.24 13.222 13.158 13.128 13.145 13.17 13.19 13.197 13.19 13.192 13.207 13.225 13.235 13.215 13.165 13.105 13.082 13.09 13.045 12.953 12.89 12.86 12.848 12.847 12.82 12.775 12.745 12.75 12.798 12.875 12.907 12.85 12.765 12.685 12.68 12.75 12.81 12.857 12.897 12.93 12.927 12.88 12.825 12.785 12.813 12.887 12.95 13.007 13.062 13.117 13.152 13.135 13.057 12.952 12.847 12.742 12.633 12.563 12.535 12.523 12.55 12.585 12.595 12.598 12.602 12.605 12.608 12.615 12.622 12.612 12.572 12.505 12.455 12.463 12.487 12.485 12.533 12.595 12.6 12.587 12.54 12.48 12.438 12.405 12.38 12.358 12.353 12.383 12.403 12.413 12.458 12.52 12.54 12.515 12.488 12.475 12.46 12.42
12.663 12.747 12.797 12.802 12.79 12.77 12.808 12.927 13.05 13.052 12.955 12.888 12.878 12.918 12.995 13.08 13.16 13.225 13.272 13.3 13.295 13.272 13.25 13.222 13.162 13.06 12.933 12.815 12.76 12.755 12.73 12.683 12.655 12.642 12.625 12.603 12.61 12.673 12.727 12.75 12.772 12.79 12.79 12.777 12.762 12.747 12.715 12.662 12.595 12.505 12.453 12.442 12.415 12.375 12.383 12.437 12.482 12.505 12.512 12.512 12.5 12.48 12.46 12.435 12.397 12.343 12.33 12.385 12.465 12.55 12.572 12.533 12.485 12.44 12.418 12.445 12.508 12.565 12.607 12.64 12.665 12.682 12.697 12.71 12.717 12.72 12.73 12.755 12.747 12.7 12.66 12.643 12.66 12.715 12.777 12.807 12.823 12.86 12.92 13.008 13.112 13.212 13.237 13.18 13.11 13.063 13.065 13.09 13.105 13.097 13.07 13.05 13.053 13.07 13.085 13.09 13.067 13.015 13 13.04 13.062 13.02 12.968 12.953 12.96 12.97 12.945 12.898 12.868 12.88 12.952 13 12.95 12.86 12.775 12.69 12.665 12.718 12.775 12.822 12.867 12.91 12.925 12.905 12.867 12.825 12.81 12.838 12.89 12.95 13.005 13.05 13.077 13.077 13.015 12.908 12.802 12.695 12.585 12.52 12.5 12.498 12.533 12.597 12.66 12.69 12.695 12.697 12.7 12.697 12.695 12.685 12.657 12.607 12.548 12.535 12.542 12.523 12.585 12.68 12.697 12.67 12.61 12.545 12.485 12.433 12.4 12.388 12.413 12.467 12.49 12.48 12.488 12.528 12.545 12.525 12.51 12.505 12.497 12.467
12.692 12.8 12.872 12.882 12.867 12.853 12.908 13.042 13.177 13.232 13.17 13.067 13.007 13.02 13.067 13.112 13.155 13.202 13.265 13.302 13.3 13.29 13.277 13.262 13.24 13.165 13.037 12.903 12.8 12.765 12.74 12.69 12.648 12.62 12.6 12.58 12.563 12.578 12.613 12.64 12.673 12.705 12.717 12.71 12.697 12.682 12.652 12.602 12.547 12.48 12.428 12.4 12.365 12.325 12.328 12.38 12.44 12.482 12.49 12.478 12.46 12.44 12.423 12.403 12.38 12.36 12.388 12.46 12.532 12.597 12.6 12.545 12.485 12.428 12.38 12.383 12.44 12.507 12.57 12.627 12.675 12.712 12.737 12.747 12.752 12.755 12.76 12.757 12.722 12.67 12.62 12.588 12.61 12.675 12.745 12.795 12.838 12.9 12.973 13.057 13.15 13.225 13.212 13.135 13.063 12.998 12.983 13.005 13.01 12.992 12.965 12.935 12.915 12.915 12.928 12.942 12.945 12.918 12.918 12.965 13.015 13.035 13.037 13.057 13.077 13.087 13.075 13.055 13.06 13.075 13.087 13.05 12.96 12.87 12.785 12.7 12.658 12.688 12.737 12.782 12.822 12.86 12.89 12.902 12.89 12.867 12.847 12.833 12.845 12.89 12.945 12.982 13.002 13.015 12.967 12.863 12.757 12.643 12.535 12.48 12.47 12.48 12.498 12.55 12.647 12.727 12.75 12.742 12.732 12.715 12.69 12.665 12.655 12.645 12.617 12.595 12.572 12.548 12.62 12.75 12.787 12.745 12.68 12.615 12.55 12.485 12.433 12.43 12.485 12.55 12.577 12.57 12.56 12.563 12.56 12.545 12.537 12.532 12.525 12.497
12.685 12.787 12.882 12.932 12.935 12.92 12.943 13.035 13.15 13.225 13.2 13.105 13.017 12.985 12.99 12.995 13.01 13.085 13.195 13.247 13.255 13.255 13.252 13.25 13.237 13.177 13.077 12.977 12.872 12.795 12.75 12.7 12.65 12.608 12.578 12.555 12.535 12.52 12.523 12.55 12.59 12.625 12.64 12.635 12.625 12.615 12.59 12.542 12.49 12.443 12.413 12.388 12.353 12.32 12.33 12.388 12.445 12.48 12.477 12.453 12.433 12.415 12.405 12.4 12.388 12.385 12.425 12.495 12.562 12.615 12.615 12.567 12.51 12.45 12.388 12.353 12.385 12.452 12.515 12.575 12.635 12.697 12.732 12.737 12.742 12.747 12.752 12.74 12.697 12.645 12.595 12.568 12.598 12.665 12.733 12.81 12.89 12.96 13.02 13.073 13.14 13.207 13.19 13.105 13.023 12.945 12.91 12.912 12.905 12.885 12.86 12.83 12.8 12.778 12.775 12.785 12.805 12.823 12.838 12.873 12.917 12.96 13.005 13.052 13.092 13.137 13.167 13.172 13.177 13.177 13.15 13.077 12.985 12.893 12.803 12.713 12.648 12.653 12.692 12.73 12.767 12.802 12.83 12.842 12.84 12.837 12.837 12.83 12.83 12.847 12.88 12.91 12.925 12.94 12.91 12.817 12.707 12.588 12.488 12.445 12.445 12.46 12.475 12.503 12.58 12.682 12.732 12.725 12.705 12.682 12.64 12.608 12.608 12.612 12.612 12.597 12.562 12.543 12.63 12.785 12.85 12.815 12.75 12.685 12.622 12.557 12.493 12.48 12.547 12.63 12.662 12.65 12.63 12.605 12.575 12.553 12.542 12.537 12.53 12.477
12.678 12.775 12.875 12.96 12.992 12.975 12.935 12.925 12.99 13.065 13.045 12.958 12.878 12.825 12.813 12.818 12.87 13.005 13.132 13.187 13.205 13.207 13.205 13.197 13.16 13.092 13.015 12.937 12.857 12.795 12.755 12.71 12.66 12.608 12.558 12.525 12.505 12.485 12.473 12.478 12.505 12.542 12.56 12.555 12.545 12.517 12.49 12.477 12.445 12.413 12.417 12.415 12.385 12.368 12.398 12.452 12.485 12.495 12.477 12.445 12.42 12.4 12.395 12.407 12.41 12.408 12.445 12.512 12.57 12.617 12.62 12.577 12.53 12.475 12.408 12.34 12.338 12.398 12.46 12.523 12.588 12.657 12.692 12.688 12.69 12.697 12.7 12.69 12.665 12.625 12.573 12.563 12.615 12.682 12.75 12.858 12.965 13.025 13.057 13.075 13.113 13.177 13.175 13.09 13 12.915 12.85 12.818 12.798 12.775 12.75 12.72 12.69 12.67 12.675 12.698 12.735 12.78 12.785 12.775 12.8 12.84 12.888 12.948 13.02 13.11 13.175 13.19 13.187 13.182 13.165 13.112 13.027 12.933 12.838 12.748 12.678 12.638 12.64 12.673 12.71 12.745 12.767 12.775 12.77 12.765 12.763 12.765 12.78 12.792 12.807 12.83 12.847 12.862 12.85 12.772 12.652 12.53 12.443 12.418 12.428 12.443 12.458 12.473 12.52 12.603 12.675 12.695 12.675 12.635 12.58 12.558 12.56 12.56 12.555 12.545 12.523 12.523 12.62 12.755 12.832 12.855 12.822 12.757 12.695 12.63 12.568 12.533 12.57 12.665 12.715 12.697 12.665 12.63 12.59 12.558 12.535 12.522 12.495 12.415
12.678 12.76 12.86 12.962 13.032 13.032 12.97 12.893 12.87 12.908 12.892 12.81 12.733 12.665 12.638 12.67 12.783 12.95 13.07 13.12 13.147 13.16 13.152 13.122 13.067 13 12.922 12.835 12.765 12.748 12.75 12.722 12.675 12.617 12.555 12.505 12.475 12.455 12.44 12.43 12.433 12.46 12.48 12.472 12.435 12.358 12.325 12.36 12.38 12.388 12.415 12.44 12.428 12.425 12.46 12.487 12.497 12.5 12.482 12.448 12.415 12.388 12.38 12.397 12.417 12.428 12.463 12.52 12.568 12.615 12.62 12.58 12.54 12.495 12.43 12.348 12.308 12.343 12.408 12.475 12.545 12.62 12.657 12.648 12.64 12.643 12.642 12.63 12.615 12.592 12.55 12.56 12.632 12.7 12.778 12.912 13.03 13.07 13.085 13.095 13.11 13.15 13.152 13.08 12.987 12.887 12.795 12.735 12.698 12.668 12.64 12.618 12.613 12.63 12.663 12.698 12.738 12.78 12.77 12.723 12.703 12.728 12.795 12.88 12.975 13.075 13.147 13.177 13.187 13.185 13.167 13.135 13.07 12.98 12.895 12.83 12.778 12.705 12.643 12.628 12.65 12.685 12.702 12.705 12.7 12.695 12.69 12.683 12.685 12.7 12.72 12.74 12.76 12.78 12.787 12.722 12.598 12.473 12.4 12.395 12.41 12.428 12.445 12.463 12.493 12.545 12.61 12.65 12.632 12.568 12.518 12.51 12.505 12.5 12.495 12.485 12.475 12.5 12.582 12.67 12.74 12.807 12.842 12.822 12.767 12.703 12.643 12.595 12.58 12.64 12.702 12.705 12.685 12.65 12.613 12.578 12.543 12.51 12.452 12.37
12.69 12.753 12.845 12.947 13.042 13.075 13.02 12.93 12.85 12.803 12.75 12.67 12.59 12.513 12.485 12.568 12.725 12.895 13.01 13.055 13.082 13.102 13.087 13.033 12.97 12.908 12.838 12.765 12.705 12.695 12.722 12.725 12.69 12.63 12.565 12.503 12.453 12.425 12.41 12.4 12.388 12.39 12.393 12.365 12.305 12.23 12.218 12.27 12.325 12.368 12.405 12.445 12.462 12.472 12.49 12.497 12.5 12.502 12.487 12.453 12.418 12.383 12.368 12.38 12.405 12.43 12.467 12.517 12.565 12.612 12.62 12.585 12.542 12.5 12.442 12.363 12.3 12.313 12.38 12.45 12.52 12.592 12.627 12.618 12.603 12.595 12.59 12.578 12.565 12.55 12.533 12.565 12.645 12.718 12.81 12.947 13.045 13.072 13.087 13.102 13.117 13.14 13.132 13.06 12.955 12.842 12.748 12.68 12.625 12.578 12.558 12.573 12.605 12.65 12.69 12.72 12.75 12.78 12.765 12.708 12.66 12.663 12.735 12.837 12.94 13.04 13.117 13.155 13.172 13.18 13.17 13.145 13.102 13.042 12.985 12.945 12.9 12.822 12.728 12.653 12.618 12.625 12.638 12.635 12.63 12.628 12.63 12.63 12.633 12.645 12.67 12.698 12.725 12.755 12.762 12.685 12.55 12.423 12.365 12.38 12.4 12.42 12.44 12.463 12.495 12.535 12.565 12.582 12.557 12.495 12.462 12.455 12.442 12.432 12.423 12.41 12.42 12.463 12.515 12.57 12.635 12.703 12.77 12.817 12.82 12.777 12.718 12.67 12.63 12.63 12.658 12.675 12.682 12.67 12.645 12.61 12.572 12.507 12.42 12.34
12.715 12.76 12.835 12.935 13.035 13.092 13.055 12.962 12.847 12.725 12.64 12.57 12.49 12.41 12.39 12.495 12.665 12.832 12.942 12.985 13.01 13.032 13.015 12.95 12.885 12.828 12.77 12.715 12.66 12.638 12.665 12.695 12.685 12.63 12.56 12.49 12.433 12.403 12.39 12.378 12.363 12.358 12.343 12.3 12.25 12.205 12.21 12.265 12.317 12.358 12.395 12.437 12.472 12.49 12.497 12.5 12.503 12.507 12.492 12.458 12.422 12.377 12.345 12.35 12.375 12.408 12.45 12.5 12.55 12.597 12.612 12.585 12.54 12.495 12.445 12.373 12.31 12.323 12.388 12.455 12.525 12.595 12.622 12.61 12.598 12.588 12.58 12.568 12.555 12.538 12.52 12.558 12.645 12.73 12.825 12.935 13.005 13.03 13.05 13.07 13.09 13.11 13.092 13.007 12.892 12.778 12.688 12.625 12.565 12.518 12.523 12.57 12.617 12.662 12.697 12.725 12.75 12.77 12.75 12.695 12.665 12.668 12.705 12.785 12.887 12.992 13.077 13.115 13.127 13.135 13.125 13.1 13.085 13.082 13.072 13.057 13.02 12.94 12.845 12.753 12.665 12.615 12.603 12.605 12.61 12.615 12.625 12.635 12.648 12.665 12.693 12.725 12.76 12.795 12.775 12.667 12.533 12.428 12.405 12.433 12.445 12.455 12.465 12.455 12.445 12.458 12.46 12.447 12.415 12.375 12.355 12.343 12.333 12.34 12.36 12.38 12.42 12.47 12.51 12.553 12.6 12.65 12.703 12.758 12.802 12.817 12.792 12.737 12.672 12.633 12.633 12.65 12.678 12.702 12.695 12.662 12.607 12.492 12.375 12.297
12.743 12.778 12.833 12.923 13.022 13.092 13.052 12.917 12.75 12.613 12.548 12.495 12.425 12.345 12.325 12.433 12.605 12.762 12.857 12.9 12.932 12.957 12.942 12.882 12.82 12.768 12.72 12.67 12.618 12.585 12.598 12.63 12.63 12.58 12.507 12.443 12.405 12.393 12.383 12.37 12.365 12.37 12.355 12.31 12.26 12.215 12.22 12.272 12.317 12.352 12.39 12.427 12.455 12.475 12.49 12.5 12.507 12.51 12.497 12.465 12.42 12.36 12.313 12.313 12.343 12.38 12.425 12.475 12.522 12.567 12.587 12.57 12.53 12.485 12.44 12.375 12.325 12.348 12.413 12.478 12.545 12.612 12.635 12.623 12.618 12.612 12.605 12.59 12.57 12.545 12.515 12.538 12.622 12.717 12.805 12.887 12.945 12.97 12.99 13.01 13.03 13.05 13.027 12.935 12.818 12.703 12.613 12.553 12.508 12.488 12.51 12.56 12.61 12.657 12.69 12.71 12.733 12.752 12.73 12.693 12.693 12.705 12.718 12.75 12.825 12.925 13.002 13.04 13.052 13.05 13.035 13.025 13.04 13.07 13.092 13.11 13.115 13.06 12.965 12.872 12.775 12.7 12.655 12.638 12.645 12.655 12.665 12.678 12.695 12.718 12.743 12.77 12.803 12.835 12.787 12.67 12.575 12.51 12.505 12.55 12.575 12.575 12.568 12.518 12.445 12.388 12.33 12.273 12.23 12.218 12.23 12.248 12.273 12.315 12.37 12.425 12.477 12.527 12.57 12.61 12.645 12.68 12.72 12.76 12.795 12.82 12.802 12.73 12.65 12.615 12.625 12.653 12.7 12.75 12.755 12.715 12.615 12.453 12.328 12.253
12.77 12.802 12.843 12.913 13.005 13.067 12.987 12.793 12.608 12.495 12.445 12.4 12.347 12.275 12.255 12.365 12.54 12.682 12.76 12.805 12.847 12.88 12.87 12.818 12.763 12.715 12.67 12.62 12.57 12.53 12.53 12.542 12.527 12.487 12.433 12.395 12.385 12.385 12.382 12.383 12.39 12.4 12.387 12.337 12.275 12.225 12.23 12.275 12.31 12.345 12.382 12.41 12.428 12.445 12.467 12.49 12.505 12.512 12.502 12.465 12.402 12.33 12.28 12.28 12.315 12.355 12.4 12.45 12.492 12.53 12.55 12.54 12.512 12.475 12.43 12.375 12.343 12.373 12.437 12.5 12.565 12.627 12.65 12.643 12.64 12.637 12.625 12.602 12.575 12.545 12.515 12.523 12.59 12.682 12.768 12.848 12.903 12.918 12.93 12.95 12.97 12.99 12.96 12.86 12.743 12.628 12.54 12.495 12.478 12.473 12.498 12.55 12.602 12.655 12.687 12.703 12.72 12.735 12.723 12.713 12.727 12.74 12.752 12.765 12.793 12.845 12.893 12.93 12.958 12.965 12.968 12.983 13.01 13.037 13.07 13.12 13.172 13.165 13.087 12.99 12.9 12.845 12.79 12.728 12.698 12.695 12.708 12.725 12.745 12.77 12.795 12.82 12.847 12.862 12.815 12.73 12.67 12.62 12.588 12.638 12.722 12.75 12.725 12.662 12.578 12.478 12.373 12.27 12.178 12.158 12.208 12.263 12.32 12.375 12.427 12.482 12.535 12.585 12.63 12.67 12.707 12.742 12.775 12.797 12.807 12.79 12.737 12.66 12.608 12.605 12.623 12.665 12.73 12.795 12.812 12.74 12.59 12.41 12.283 12.218
12.775 12.807 12.845 12.892 12.95 12.99 12.892 12.678 12.503 12.408 12.35 12.298 12.253 12.198 12.185 12.295 12.472 12.6 12.662 12.708 12.753 12.795 12.797 12.757 12.712 12.667 12.62 12.57 12.52 12.473 12.453 12.445 12.425 12.403 12.383 12.373 12.37 12.37 12.377 12.395 12.415 12.43 12.42 12.37 12.302 12.243 12.235 12.27 12.3 12.332 12.362 12.385 12.402 12.418 12.44 12.465 12.485 12.505 12.497 12.447 12.375 12.3 12.248 12.25 12.29 12.33 12.372 12.417 12.457 12.492 12.51 12.502 12.485 12.457 12.415 12.368 12.355 12.398 12.462 12.525 12.585 12.637 12.665 12.665 12.66 12.66 12.637 12.6 12.57 12.54 12.51 12.513 12.573 12.655 12.74 12.832 12.897 12.91 12.908 12.913 12.918 12.927 12.89 12.785 12.673 12.56 12.485 12.465 12.46 12.458 12.483 12.537 12.592 12.647 12.682 12.7 12.715 12.725 12.725 12.727 12.74 12.747 12.757 12.77 12.775 12.79 12.818 12.848 12.88 12.9 12.918 12.942 12.967 12.993 13.035 13.107 13.185 13.235 13.2 13.095 13.028 13 12.945 12.865 12.795 12.755 12.755 12.775 12.798 12.825 12.85 12.875 12.902 12.91 12.882 12.832 12.78 12.73 12.68 12.698 12.805 12.89 12.875 12.805 12.727 12.632 12.53 12.392 12.243 12.193 12.235 12.297 12.362 12.425 12.482 12.54 12.595 12.645 12.69 12.73 12.762 12.78 12.785 12.78 12.765 12.725 12.663 12.605 12.588 12.603 12.635 12.695 12.762 12.83 12.837 12.725 12.55 12.37 12.25 12.213
12.727 12.765 12.805 12.835 12.855 12.88 12.802 12.598 12.475 12.428 12.355 12.29 12.233 12.175 12.165 12.28 12.44 12.527 12.573 12.618 12.662 12.697 12.702 12.672 12.63 12.592 12.552 12.505 12.455 12.42 12.393 12.37 12.355 12.34 12.343 12.35 12.35 12.348 12.355 12.38 12.41 12.435 12.432 12.385 12.317 12.25 12.225 12.25 12.282 12.312 12.335 12.355 12.375 12.392 12.413 12.435 12.457 12.472 12.46 12.415 12.347 12.273 12.218 12.22 12.262 12.305 12.34 12.372 12.41 12.445 12.467 12.47 12.455 12.43 12.39 12.358 12.37 12.42 12.485 12.547 12.597 12.637 12.667 12.68 12.68 12.68 12.65 12.598 12.56 12.53 12.503 12.513 12.573 12.648 12.733 12.83 12.915 12.945 12.935 12.925 12.915 12.905 12.86 12.765 12.658 12.53 12.438 12.418 12.42 12.433 12.463 12.515 12.57 12.637 12.687 12.705 12.723 12.737 12.725 12.71 12.717 12.722 12.73 12.737 12.743 12.76 12.785 12.81 12.84 12.86 12.87 12.888 12.913 12.938 12.985 13.063 13.15 13.222 13.23 13.182 13.15 13.132 13.08 12.997 12.915 12.845 12.82 12.835 12.86 12.89 12.915 12.94 12.967 12.98 12.965 12.925 12.877 12.83 12.782 12.76 12.815 12.915 12.95 12.925 12.872 12.787 12.647 12.458 12.313 12.24 12.245 12.31 12.38 12.45 12.517 12.582 12.645 12.702 12.74 12.757 12.765 12.76 12.747 12.735 12.705 12.65 12.598 12.57 12.57 12.59 12.64 12.707 12.77 12.82 12.81 12.695 12.52 12.34 12.25 12.267
12.665 12.695 12.732 12.752 12.755 12.767 12.707 12.56 12.518 12.522 12.46 12.388 12.32 12.263 12.248 12.352 12.442 12.453 12.485 12.527 12.562 12.58 12.582 12.555 12.513 12.488 12.465 12.425 12.375 12.375 12.372 12.328 12.303 12.293 12.3 12.317 12.327 12.325 12.33 12.355 12.385 12.407 12.402 12.36 12.295 12.233 12.208 12.223 12.255 12.285 12.305 12.325 12.345 12.365 12.385 12.405 12.422 12.417 12.395 12.367 12.317 12.245 12.193 12.193 12.228 12.267 12.295 12.318 12.348 12.382 12.412 12.43 12.425 12.398 12.368 12.368 12.4 12.448 12.505 12.555 12.595 12.63 12.66 12.687 12.7 12.7 12.67 12.608 12.555 12.52 12.5 12.52 12.578 12.653 12.74 12.833 12.93 12.977 12.97 12.96 12.947 12.917 12.862 12.787 12.672 12.51 12.383 12.353 12.375 12.405 12.438 12.485 12.548 12.637 12.7 12.718 12.743 12.767 12.742 12.695 12.685 12.69 12.7 12.705 12.71 12.728 12.753 12.78 12.807 12.827 12.83 12.835 12.858 12.883 12.935 13.017 13.092 13.137 13.16 13.18 13.195 13.2 13.17 13.097 13.018 12.948 12.913 12.915 12.933 12.96 12.987 13.012 13.032 13.04 13.037 13.01 12.962 12.91 12.857 12.82 12.82 12.873 12.932 12.96 12.95 12.877 12.692 12.503 12.395 12.305 12.273 12.32 12.39 12.46 12.53 12.6 12.67 12.737 12.757 12.738 12.725 12.715 12.705 12.685 12.64 12.59 12.56 12.543 12.54 12.568 12.625 12.682 12.725 12.75 12.75 12.665 12.497 12.333 12.265 12.312
12.633 12.628 12.652 12.665 12.66 12.66 12.613 12.555 12.58 12.605 12.567 12.502 12.447 12.402 12.377 12.412 12.405 12.368 12.392 12.42 12.435 12.445 12.452 12.432 12.398 12.383 12.372 12.342 12.31 12.347 12.365 12.303 12.258 12.248 12.26 12.28 12.297 12.302 12.308 12.33 12.352 12.357 12.34 12.305 12.255 12.21 12.195 12.203 12.228 12.255 12.275 12.295 12.315 12.335 12.355 12.37 12.367 12.347 12.325 12.302 12.27 12.213 12.168 12.168 12.195 12.227 12.248 12.265 12.288 12.318 12.347 12.372 12.385 12.373 12.37 12.4 12.435 12.47 12.512 12.55 12.585 12.62 12.65 12.685 12.712 12.72 12.69 12.625 12.56 12.51 12.498 12.53 12.58 12.655 12.75 12.84 12.937 13 13.005 12.995 12.97 12.92 12.847 12.765 12.647 12.48 12.35 12.323 12.353 12.385 12.415 12.458 12.54 12.65 12.712 12.738 12.77 12.8 12.775 12.705 12.665 12.66 12.667 12.673 12.683 12.698 12.72 12.75 12.775 12.795 12.797 12.79 12.803 12.828 12.883 12.962 13.015 13.04 13.063 13.095 13.135 13.17 13.185 13.167 13.117 13.055 13.02 13.013 13.015 13.033 13.06 13.082 13.092 13.097 13.1 13.077 13.025 12.962 12.913 12.888 12.873 12.875 12.905 12.927 12.93 12.872 12.718 12.573 12.478 12.385 12.318 12.33 12.4 12.47 12.54 12.61 12.68 12.75 12.765 12.725 12.69 12.67 12.657 12.628 12.588 12.56 12.54 12.523 12.518 12.547 12.595 12.625 12.645 12.66 12.67 12.617 12.473 12.335 12.285 12.315
12.635 12.585 12.575 12.58 12.578 12.578 12.56 12.57 12.63 12.67 12.65 12.595 12.547 12.497 12.45 12.402 12.33 12.283 12.285 12.293 12.3 12.308 12.315 12.308 12.288 12.278 12.272 12.255 12.265 12.337 12.352 12.288 12.233 12.21 12.218 12.235 12.257 12.275 12.285 12.297 12.302 12.293 12.273 12.245 12.213 12.19 12.188 12.193 12.205 12.225 12.245 12.265 12.285 12.305 12.32 12.32 12.3 12.275 12.255 12.233 12.21 12.175 12.148 12.145 12.16 12.185 12.202 12.217 12.235 12.258 12.285 12.313 12.338 12.355 12.377 12.41 12.437 12.457 12.485 12.525 12.565 12.602 12.637 12.675 12.71 12.732 12.71 12.645 12.575 12.508 12.488 12.52 12.555 12.633 12.75 12.85 12.942 13.017 13.04 13.022 12.977 12.892 12.775 12.68 12.6 12.46 12.343 12.328 12.353 12.38 12.408 12.455 12.56 12.675 12.732 12.762 12.795 12.827 12.807 12.733 12.668 12.635 12.633 12.64 12.655 12.67 12.69 12.72 12.745 12.767 12.772 12.755 12.753 12.775 12.83 12.89 12.92 12.943 12.97 13.005 13.045 13.088 13.132 13.167 13.167 13.145 13.13 13.12 13.112 13.112 13.125 13.135 13.13 13.125 13.117 13.09 13.045 13 12.97 12.952 12.935 12.918 12.915 12.913 12.895 12.852 12.762 12.657 12.563 12.468 12.378 12.355 12.41 12.48 12.55 12.62 12.69 12.76 12.782 12.74 12.683 12.638 12.61 12.585 12.56 12.54 12.523 12.508 12.5 12.513 12.53 12.54 12.553 12.568 12.58 12.562 12.45 12.335 12.31 12.325
12.617 12.55 12.538 12.555 12.555 12.558 12.565 12.59 12.64 12.687 12.667 12.602 12.55 12.495 12.435 12.357 12.275 12.238 12.24 12.245 12.243 12.238 12.233 12.215 12.193 12.183 12.18 12.188 12.245 12.337 12.347 12.288 12.24 12.21 12.195 12.2 12.22 12.24 12.255 12.257 12.25 12.24 12.233 12.218 12.198 12.188 12.188 12.19 12.193 12.205 12.225 12.245 12.265 12.285 12.298 12.293 12.273 12.25 12.23 12.208 12.183 12.148 12.117 12.095 12.082 12.092 12.107 12.12 12.148 12.198 12.24 12.27 12.3 12.33 12.36 12.387 12.41 12.42 12.44 12.483 12.525 12.567 12.61 12.65 12.687 12.715 12.7 12.632 12.55 12.483 12.46 12.48 12.508 12.583 12.715 12.84 12.945 13.037 13.07 13.02 12.925 12.795 12.65 12.573 12.547 12.44 12.335 12.338 12.367 12.392 12.418 12.485 12.595 12.677 12.717 12.752 12.805 12.852 12.837 12.767 12.692 12.63 12.605 12.61 12.625 12.64 12.66 12.69 12.715 12.74 12.745 12.727 12.715 12.728 12.767 12.8 12.823 12.848 12.878 12.915 12.958 13.008 13.062 13.107 13.132 13.132 13.122 13.117 13.112 13.12 13.14 13.145 13.132 13.117 13.1 13.07 13.04 13.022 13.005 12.987 12.97 12.955 12.95 12.935 12.902 12.842 12.772 12.72 12.647 12.552 12.458 12.398 12.42 12.49 12.56 12.63 12.7 12.77 12.795 12.755 12.695 12.638 12.595 12.57 12.55 12.53 12.513 12.498 12.503 12.51 12.5 12.488 12.475 12.478 12.49 12.495 12.422 12.343 12.335 12.34
12.565 12.508 12.52 12.57 12.585 12.585 12.59 12.603 12.633 12.672 12.645 12.563 12.5 12.445 12.382 12.31 12.25 12.23 12.25 12.277 12.277 12.263 12.243 12.2 12.15 12.118 12.103 12.148 12.255 12.35 12.357 12.308 12.273 12.243 12.21 12.193 12.195 12.21 12.225 12.225 12.218 12.215 12.217 12.217 12.21 12.2 12.195 12.195 12.193 12.198 12.218 12.24 12.26 12.277 12.29 12.292 12.282 12.265 12.245 12.22 12.18 12.125 12.072 12 11.945 11.945 11.96 11.995 12.06 12.145 12.207 12.24 12.273 12.305 12.335 12.36 12.375 12.38 12.4 12.44 12.48 12.522 12.56 12.582 12.595 12.6 12.595 12.552 12.475 12.43 12.425 12.438 12.465 12.53 12.653 12.795 12.925 13.04 13.055 12.947 12.805 12.655 12.528 12.478 12.482 12.407 12.328 12.345 12.38 12.405 12.44 12.52 12.602 12.645 12.673 12.705 12.755 12.795 12.785 12.74 12.68 12.608 12.57 12.578 12.595 12.61 12.63 12.657 12.682 12.705 12.707 12.695 12.68 12.675 12.685 12.703 12.728 12.753 12.785 12.83 12.883 12.94 12.997 13.042 13.07 13.037 12.993 12.99 13.005 13.05 13.095 13.117 13.117 13.102 13.082 13.055 13.038 13.032 13.02 13.003 12.99 12.988 12.987 12.97 12.915 12.812 12.713 12.685 12.69 12.637 12.542 12.455 12.44 12.5 12.57 12.64 12.71 12.782 12.807 12.765 12.705 12.65 12.605 12.573 12.55 12.53 12.51 12.505 12.535 12.565 12.555 12.523 12.488 12.463 12.45 12.438 12.398 12.365 12.365 12.365
12.52 12.473 12.478 12.557 12.612 12.615 12.62 12.63 12.645 12.665 12.63 12.54 12.46 12.395 12.333 12.278 12.243 12.22 12.233 12.28 12.315 12.315 12.282 12.225 12.16 12.103 12.073 12.135 12.267 12.367 12.375 12.335 12.307 12.278 12.245 12.215 12.195 12.193 12.2 12.202 12.2 12.202 12.205 12.21 12.212 12.207 12.205 12.202 12.195 12.195 12.213 12.235 12.252 12.267 12.28 12.285 12.282 12.272 12.252 12.217 12.16 12.095 12.035 11.9 11.788 11.8 11.85 11.925 12.013 12.1 12.17 12.21 12.245 12.28 12.307 12.325 12.335 12.34 12.358 12.39 12.412 12.427 12.437 12.435 12.423 12.413 12.42 12.425 12.403 12.39 12.398 12.405 12.423 12.478 12.59 12.733 12.875 13 12.977 12.82 12.665 12.515 12.415 12.393 12.4 12.358 12.323 12.353 12.388 12.418 12.465 12.53 12.575 12.605 12.635 12.66 12.698 12.735 12.728 12.688 12.635 12.575 12.548 12.555 12.565 12.578 12.598 12.618 12.638 12.653 12.65 12.643 12.633 12.62 12.615 12.623 12.638 12.663 12.703 12.755 12.815 12.875 12.932 12.98 12.995 12.93 12.863 12.87 12.92 12.985 13.032 13.067 13.09 13.087 13.068 13.05 13.048 13.047 13.038 13.025 13.023 13.03 13.027 12.987 12.89 12.765 12.645 12.573 12.602 12.642 12.61 12.532 12.48 12.51 12.58 12.65 12.725 12.805 12.822 12.772 12.715 12.66 12.615 12.58 12.553 12.53 12.515 12.53 12.575 12.62 12.627 12.6 12.567 12.533 12.498 12.46 12.425 12.403 12.395 12.395
12.48 12.438 12.428 12.512 12.61 12.635 12.635 12.637 12.64 12.65 12.622 12.54 12.448 12.363 12.315 12.298 12.288 12.28 12.293 12.335 12.375 12.37 12.32 12.258 12.193 12.13 12.113 12.18 12.295 12.387 12.4 12.37 12.345 12.315 12.285 12.255 12.223 12.195 12.183 12.183 12.185 12.19 12.195 12.2 12.208 12.21 12.21 12.208 12.2 12.195 12.205 12.225 12.24 12.255 12.27 12.275 12.275 12.27 12.242 12.19 12.125 12.06 12 11.81 11.66 11.71 11.795 11.885 11.973 12.06 12.132 12.177 12.212 12.247 12.275 12.29 12.3 12.308 12.318 12.328 12.325 12.313 12.3 12.29 12.278 12.28 12.315 12.36 12.375 12.37 12.373 12.375 12.383 12.423 12.528 12.67 12.812 12.922 12.872 12.698 12.53 12.38 12.308 12.308 12.315 12.318 12.333 12.368 12.403 12.438 12.475 12.508 12.535 12.565 12.595 12.64 12.713 12.772 12.765 12.71 12.653 12.61 12.595 12.595 12.593 12.6 12.615 12.625 12.638 12.645 12.643 12.64 12.638 12.635 12.645 12.648 12.635 12.633 12.65 12.693 12.75 12.808 12.865 12.915 12.9 12.805 12.75 12.79 12.863 12.925 12.97 13.005 13.04 13.062 13.06 13.055 13.06 13.062 13.06 13.062 13.067 13.075 13.055 12.972 12.847 12.72 12.598 12.483 12.45 12.515 12.575 12.58 12.535 12.528 12.59 12.665 12.75 12.83 12.835 12.78 12.725 12.67 12.628 12.593 12.56 12.533 12.53 12.565 12.615 12.665 12.69 12.675 12.645 12.612 12.572 12.527 12.482 12.443 12.425 12.425
12.44 12.398 12.375 12.448 12.552 12.585 12.58 12.575 12.58 12.602 12.615 12.565 12.473 12.38 12.365 12.4 12.41 12.423 12.445 12.465 12.462 12.425 12.363 12.3 12.237 12.175 12.178 12.26 12.352 12.41 12.417 12.402 12.382 12.355 12.325 12.292 12.257 12.217 12.183 12.178 12.188 12.195 12.2 12.205 12.213 12.218 12.22 12.217 12.21 12.2 12.2 12.215 12.233 12.247 12.26 12.265 12.26 12.242 12.202 12.147 12.085 12.02 11.957 11.758 11.613 11.678 11.765 11.855 11.945 12.03 12.092 12.132 12.165 12.2 12.237 12.265 12.277 12.285 12.295 12.298 12.288 12.273 12.258 12.245 12.24 12.263 12.323 12.377 12.387 12.373 12.36 12.353 12.353 12.373 12.463 12.6 12.725 12.812 12.752 12.577 12.403 12.265 12.233 12.265 12.298 12.343 12.398 12.445 12.48 12.513 12.533 12.543 12.558 12.578 12.603 12.665 12.76 12.827 12.825 12.77 12.723 12.698 12.688 12.685 12.683 12.69 12.703 12.71 12.718 12.723 12.725 12.725 12.725 12.73 12.76 12.782 12.765 12.725 12.698 12.71 12.743 12.775 12.81 12.84 12.823 12.763 12.743 12.778 12.823 12.865 12.902 12.935 12.97 13.027 13.047 13.03 13.035 13.04 13.047 13.065 13.08 13.085 13.04 12.93 12.8 12.675 12.553 12.43 12.335 12.34 12.425 12.505 12.54 12.553 12.605 12.685 12.765 12.83 12.835 12.79 12.737 12.683 12.64 12.605 12.57 12.55 12.563 12.603 12.65 12.7 12.732 12.725 12.692 12.655 12.612 12.565 12.515 12.468 12.445 12.445
12.397 12.353 12.318 12.365 12.447 12.472 12.47 12.473 12.498 12.538 12.58 12.58 12.515 12.43 12.44 12.52 12.557 12.575 12.58 12.56 12.522 12.475 12.412 12.343 12.28 12.228 12.25 12.335 12.392 12.412 12.412 12.407 12.402 12.387 12.357 12.322 12.282 12.227 12.18 12.175 12.192 12.207 12.217 12.225 12.23 12.235 12.237 12.232 12.225 12.215 12.208 12.213 12.227 12.24 12.25 12.247 12.225 12.187 12.142 12.095 12.04 11.977 11.912 11.748 11.618 11.663 11.75 11.84 11.925 12 12.05 12.08 12.108 12.14 12.185 12.23 12.257 12.27 12.283 12.295 12.292 12.278 12.263 12.253 12.265 12.305 12.365 12.402 12.4 12.385 12.368 12.353 12.343 12.34 12.395 12.503 12.605 12.685 12.625 12.45 12.303 12.23 12.25 12.308 12.365 12.423 12.495 12.565 12.607 12.637 12.65 12.655 12.665 12.683 12.7 12.735 12.81 12.882 12.885 12.835 12.803 12.79 12.78 12.775 12.78 12.795 12.81 12.82 12.825 12.828 12.832 12.835 12.838 12.848 12.885 12.935 12.942 12.898 12.838 12.813 12.82 12.83 12.843 12.85 12.848 12.84 12.84 12.85 12.838 12.813 12.82 12.853 12.91 13.01 13.04 12.99 12.973 12.978 12.99 13.015 13.03 13.02 12.965 12.873 12.78 12.673 12.548 12.423 12.298 12.253 12.318 12.413 12.51 12.562 12.608 12.682 12.747 12.802 12.817 12.792 12.75 12.695 12.65 12.618 12.593 12.588 12.605 12.64 12.685 12.735 12.76 12.742 12.705 12.665 12.625 12.58 12.532 12.485 12.46 12.455
12.353 12.308 12.268 12.273 12.32 12.355 12.368 12.388 12.428 12.473 12.515 12.55 12.537 12.48 12.5 12.6 12.667 12.682 12.657 12.615 12.57 12.525 12.465 12.39 12.323 12.285 12.32 12.375 12.392 12.398 12.398 12.4 12.41 12.407 12.382 12.34 12.285 12.22 12.17 12.165 12.188 12.21 12.227 12.24 12.247 12.252 12.252 12.247 12.242 12.235 12.225 12.218 12.223 12.232 12.23 12.207 12.167 12.123 12.08 12.035 11.987 11.932 11.857 11.73 11.628 11.653 11.737 11.82 11.895 11.962 12.005 12.03 12.055 12.083 12.125 12.175 12.22 12.253 12.27 12.283 12.29 12.282 12.27 12.275 12.305 12.35 12.402 12.422 12.41 12.398 12.383 12.368 12.358 12.35 12.368 12.413 12.48 12.555 12.497 12.36 12.288 12.283 12.33 12.39 12.45 12.508 12.583 12.67 12.732 12.762 12.775 12.788 12.805 12.83 12.85 12.855 12.88 12.94 12.95 12.91 12.89 12.88 12.87 12.868 12.88 12.9 12.917 12.927 12.932 12.935 12.94 12.947 12.953 12.968 13.01 13.07 13.107 13.082 13.007 12.945 12.93 12.937 12.945 12.95 12.952 12.95 12.947 12.93 12.865 12.785 12.75 12.788 12.885 13.005 13.052 12.993 12.928 12.915 12.93 12.942 12.93 12.9 12.858 12.82 12.802 12.74 12.62 12.498 12.39 12.325 12.36 12.46 12.535 12.555 12.588 12.652 12.71 12.765 12.785 12.772 12.75 12.705 12.66 12.638 12.633 12.635 12.648 12.68 12.723 12.77 12.787 12.76 12.718 12.675 12.635 12.59 12.545 12.5 12.47 12.45
12.318 12.28 12.25 12.24 12.253 12.27 12.288 12.32 12.365 12.41 12.45 12.492 12.522 12.52 12.552 12.63 12.687 12.695 12.662 12.627 12.59 12.555 12.507 12.44 12.37 12.338 12.355 12.373 12.383 12.388 12.39 12.402 12.417 12.425 12.4 12.34 12.275 12.21 12.163 12.16 12.182 12.205 12.225 12.242 12.257 12.267 12.267 12.263 12.258 12.252 12.242 12.228 12.222 12.215 12.187 12.147 12.103 12.06 12.017 11.972 11.927 11.88 11.805 11.715 11.65 11.65 11.715 11.79 11.86 11.925 11.968 11.993 12.018 12.045 12.083 12.133 12.19 12.247 12.28 12.285 12.285 12.285 12.29 12.315 12.355 12.398 12.432 12.438 12.425 12.418 12.41 12.403 12.4 12.4 12.403 12.408 12.43 12.463 12.428 12.365 12.343 12.358 12.41 12.47 12.53 12.59 12.665 12.76 12.845 12.887 12.902 12.917 12.935 12.955 12.975 12.985 12.99 13.017 13.022 12.995 12.98 12.97 12.962 12.965 12.975 12.985 12.995 12.997 12.995 12.992 13.005 13.037 13.062 13.085 13.13 13.185 13.23 13.217 13.142 13.06 13.017 13.017 13.025 13.032 13.04 13.045 13.022 12.955 12.865 12.778 12.735 12.775 12.875 12.995 13.067 13.027 12.93 12.873 12.857 12.845 12.82 12.79 12.768 12.775 12.805 12.807 12.74 12.64 12.555 12.48 12.488 12.552 12.567 12.555 12.573 12.618 12.668 12.722 12.745 12.735 12.725 12.702 12.678 12.673 12.678 12.683 12.693 12.72 12.76 12.805 12.815 12.78 12.735 12.687 12.642 12.597 12.552 12.507 12.467 12.43
12.305 12.275 12.258 12.255 12.247 12.238 12.245 12.273 12.313 12.358 12.4 12.44 12.482 12.512 12.55 12.6 12.64 12.65 12.622 12.59 12.565 12.555 12.53 12.47 12.405 12.378 12.385 12.395 12.405 12.398 12.39 12.4 12.415 12.427 12.397 12.33 12.263 12.198 12.155 12.155 12.175 12.195 12.215 12.232 12.25 12.272 12.285 12.283 12.278 12.272 12.255 12.232 12.197 12.157 12.125 12.083 12.04 12 11.955 11.91 11.865 11.823 11.783 11.743 11.7 11.683 11.725 11.795 11.865 11.933 11.985 12.018 12.045 12.075 12.098 12.133 12.193 12.26 12.315 12.327 12.315 12.315 12.338 12.375 12.415 12.455 12.475 12.473 12.468 12.465 12.465 12.465 12.465 12.465 12.465 12.47 12.473 12.463 12.443 12.418 12.428 12.48 12.535 12.585 12.635 12.685 12.742 12.817 12.9 12.947 12.96 12.972 12.987 13.002 13.017 13.035 13.055 13.077 13.082 13.067 13.052 13.03 13.002 12.992 12.995 12.995 12.995 12.995 12.99 12.978 12.995 13.05 13.097 13.13 13.167 13.207 13.23 13.21 13.14 13.06 13.025 13.03 13.04 13.05 13.06 13.07 13.032 12.945 12.865 12.815 12.815 12.845 12.895 12.99 13.085 13.07 12.965 12.848 12.775 12.753 12.73 12.708 12.7 12.725 12.762 12.787 12.775 12.722 12.657 12.595 12.59 12.612 12.605 12.6 12.61 12.635 12.668 12.703 12.715 12.708 12.705 12.7 12.703 12.717 12.725 12.728 12.738 12.765 12.805 12.832 12.815 12.767 12.717 12.667 12.632 12.597 12.552 12.507 12.462 12.418
12.303 12.28 12.267 12.257 12.233 12.22 12.23 12.243 12.27 12.315 12.36 12.397 12.427 12.45 12.49 12.542 12.585 12.6 12.577 12.548 12.54 12.555 12.54 12.483 12.435 12.425 12.438 12.45 12.445 12.415 12.393 12.393 12.403 12.41 12.38 12.317 12.25 12.185 12.145 12.145 12.165 12.182 12.195 12.205 12.23 12.267 12.295 12.305 12.302 12.295 12.26 12.222 12.155 12.08 12.052 12.02 11.98 11.937 11.893 11.848 11.82 11.8 11.783 11.785 11.77 11.75 11.778 11.838 11.908 11.977 12.037 12.087 12.125 12.152 12.163 12.17 12.208 12.27 12.345 12.385 12.38 12.388 12.418 12.458 12.5 12.542 12.553 12.54 12.54 12.54 12.538 12.535 12.535 12.535 12.535 12.537 12.53 12.51 12.488 12.49 12.558 12.652 12.715 12.755 12.79 12.792 12.79 12.833 12.9 12.94 12.953 12.967 12.983 12.998 13.015 13.04 13.073 13.11 13.125 13.112 13.082 13.03 12.978 12.95 12.945 12.945 12.948 12.952 12.955 12.945 12.958 13.007 13.05 13.08 13.11 13.132 13.135 13.11 13.048 12.99 12.985 13 13.01 13.02 13.03 13.042 13.01 12.943 12.91 12.923 12.952 12.97 12.983 13.023 13.102 13.105 12.98 12.8 12.69 12.673 12.655 12.635 12.638 12.665 12.685 12.685 12.695 12.69 12.645 12.607 12.622 12.665 12.68 12.68 12.69 12.71 12.725 12.725 12.715 12.71 12.713 12.713 12.725 12.75 12.767 12.775 12.783 12.81 12.837 12.825 12.775 12.72 12.665 12.615 12.595 12.582 12.547 12.5 12.455 12.413
12.3 12.285 12.267 12.24 12.21 12.205 12.22 12.228 12.24 12.273 12.315 12.345 12.36 12.373 12.415 12.477 12.527 12.55 12.538 12.525 12.54 12.565 12.552 12.508 12.483 12.483 12.492 12.492 12.465 12.425 12.4 12.395 12.395 12.395 12.362 12.3 12.238 12.173 12.13 12.128 12.142 12.155 12.162 12.173 12.218 12.267 12.292 12.315 12.325 12.315 12.268 12.215 12.12 12.003 11.965 11.952 11.92 11.875 11.838 11.825 11.822 11.802 11.785 11.802 11.822 11.82 11.84 11.893 11.955 12.02 12.08 12.14 12.19 12.225 12.24 12.235 12.24 12.283 12.36 12.43 12.455 12.475 12.515 12.558 12.603 12.65 12.655 12.625 12.615 12.615 12.612 12.61 12.608 12.605 12.602 12.595 12.577 12.555 12.553 12.61 12.717 12.827 12.9 12.925 12.912 12.85 12.8 12.828 12.895 12.935 12.948 12.963 12.978 12.993 13.02 13.062 13.107 13.15 13.16 13.127 13.07 13 12.945 12.915 12.9 12.898 12.902 12.907 12.912 12.913 12.925 12.957 12.987 13.013 13.035 13.042 13.032 13.01 12.965 12.938 12.95 12.967 12.98 12.99 13.003 13.02 13.015 13.003 13.023 13.057 13.085 13.1 13.11 13.12 13.152 13.12 12.955 12.748 12.63 12.598 12.575 12.563 12.563 12.575 12.575 12.565 12.585 12.61 12.585 12.57 12.62 12.695 12.745 12.76 12.77 12.78 12.775 12.755 12.735 12.73 12.728 12.728 12.743 12.767 12.795 12.815 12.825 12.84 12.835 12.79 12.73 12.673 12.615 12.563 12.54 12.542 12.53 12.492 12.45 12.418
12.3 12.277 12.247 12.213 12.19 12.195 12.21 12.22 12.225 12.24 12.268 12.285 12.295 12.303 12.338 12.4 12.457 12.5 12.515 12.525 12.547 12.572 12.57 12.548 12.54 12.54 12.537 12.515 12.475 12.435 12.41 12.405 12.4 12.39 12.352 12.29 12.23 12.168 12.123 12.11 12.11 12.115 12.125 12.15 12.212 12.267 12.29 12.312 12.335 12.327 12.28 12.217 12.085 11.92 11.86 11.865 11.85 11.835 11.845 11.857 11.837 11.795 11.783 11.808 11.842 11.867 11.9 11.95 12.002 12.06 12.12 12.18 12.235 12.282 12.305 12.302 12.297 12.31 12.37 12.455 12.522 12.572 12.618 12.663 12.71 12.757 12.76 12.72 12.695 12.69 12.687 12.685 12.68 12.675 12.665 12.645 12.623 12.61 12.653 12.755 12.872 12.987 13.045 13.017 12.945 12.855 12.8 12.823 12.89 12.932 12.945 12.96 12.978 12.995 13.028 13.077 13.13 13.17 13.162 13.105 13.035 12.965 12.91 12.883 12.865 12.855 12.855 12.86 12.868 12.875 12.887 12.905 12.928 12.95 12.958 12.948 12.933 12.915 12.898 12.898 12.915 12.933 12.948 12.96 12.975 12.993 13.032 13.102 13.157 13.192 13.217 13.23 13.237 13.232 13.217 13.125 12.935 12.768 12.7 12.663 12.613 12.578 12.55 12.53 12.505 12.475 12.475 12.51 12.523 12.548 12.62 12.702 12.78 12.827 12.837 12.825 12.802 12.772 12.75 12.745 12.742 12.743 12.758 12.783 12.81 12.837 12.857 12.85 12.805 12.745 12.685 12.625 12.565 12.51 12.485 12.488 12.487 12.475 12.452 12.437
12.293 12.255 12.22 12.185 12.17 12.185 12.2 12.21 12.215 12.24 12.27 12.28 12.288 12.283 12.293 12.338 12.398 12.455 12.492 12.517 12.54 12.567 12.59 12.595 12.595 12.592 12.572 12.533 12.488 12.445 12.42 12.41 12.4 12.385 12.347 12.29 12.23 12.17 12.125 12.108 12.1 12.095 12.098 12.138 12.212 12.26 12.277 12.29 12.302 12.282 12.227 12.167 12.025 11.833 11.76 11.78 11.795 11.842 11.892 11.88 11.835 11.79 11.783 11.813 11.848 11.89 11.94 11.99 12.04 12.098 12.16 12.217 12.272 12.312 12.322 12.32 12.32 12.32 12.365 12.452 12.547 12.647 12.72 12.77 12.817 12.862 12.865 12.825 12.79 12.77 12.76 12.755 12.75 12.742 12.725 12.695 12.668 12.663 12.73 12.847 12.957 13.055 13.082 13.02 12.932 12.845 12.788 12.803 12.862 12.917 12.947 12.965 12.983 13 13.033 13.083 13.132 13.152 13.12 13.057 12.992 12.928 12.875 12.85 12.838 12.825 12.823 12.83 12.84 12.837 12.84 12.868 12.893 12.91 12.91 12.89 12.878 12.88 12.883 12.88 12.89 12.908 12.923 12.93 12.938 12.953 13.015 13.13 13.23 13.307 13.345 13.337 13.32 13.292 13.255 13.135 12.953 12.86 12.857 12.845 12.79 12.728 12.68 12.64 12.578 12.498 12.443 12.44 12.468 12.52 12.6 12.682 12.765 12.83 12.845 12.822 12.795 12.762 12.742 12.745 12.75 12.75 12.768 12.797 12.825 12.852 12.872 12.85 12.785 12.72 12.653 12.585 12.525 12.47 12.443 12.44 12.44 12.44 12.435 12.43
12.278 12.228 12.19 12.16 12.155 12.175 12.19 12.2 12.223 12.28 12.325 12.332 12.325 12.3 12.29 12.31 12.355 12.412 12.455 12.483 12.513 12.555 12.6 12.63 12.642 12.64 12.615 12.57 12.523 12.48 12.44 12.408 12.39 12.372 12.337 12.287 12.23 12.17 12.125 12.11 12.107 12.1 12.103 12.145 12.2 12.222 12.23 12.235 12.235 12.195 12.12 12.05 11.905 11.75 11.715 11.74 11.773 11.84 11.887 11.872 11.837 11.793 11.785 11.82 11.863 11.913 11.965 12.015 12.07 12.132 12.195 12.252 12.3 12.317 12.31 12.305 12.305 12.305 12.348 12.438 12.54 12.662 12.777 12.862 12.922 12.97 12.975 12.93 12.865 12.823 12.822 12.822 12.817 12.81 12.79 12.755 12.72 12.708 12.77 12.875 12.96 13.03 13.04 12.982 12.902 12.818 12.765 12.773 12.82 12.882 12.937 12.97 12.987 13.005 13.04 13.09 13.117 13.107 13.065 13.005 12.943 12.903 12.883 12.85 12.825 12.815 12.815 12.82 12.812 12.788 12.788 12.835 12.875 12.892 12.89 12.875 12.883 12.915 12.927 12.905 12.885 12.89 12.905 12.905 12.9 12.908 12.973 13.09 13.215 13.335 13.395 13.385 13.352 13.317 13.272 13.14 13.008 12.988 13.002 13.01 12.98 12.925 12.87 12.797 12.695 12.588 12.5 12.44 12.433 12.48 12.555 12.635 12.71 12.767 12.79 12.78 12.755 12.725 12.713 12.727 12.742 12.748 12.77 12.807 12.84 12.867 12.88 12.85 12.787 12.722 12.645 12.563 12.495 12.44 12.41 12.403 12.4 12.4 12.395 12.387
12.268 12.208 12.163 12.14 12.145 12.165 12.18 12.195 12.25 12.337 12.38 12.37 12.342 12.31 12.3 12.31 12.328 12.368 12.41 12.445 12.493 12.55 12.6 12.64 12.672 12.685 12.665 12.622 12.58 12.54 12.485 12.425 12.388 12.36 12.325 12.28 12.227 12.17 12.128 12.113 12.11 12.105 12.107 12.1 12.11 12.145 12.157 12.162 12.165 12.117 12.022 11.92 11.795 11.725 11.73 11.745 11.768 11.808 11.84 11.84 11.825 11.795 11.793 11.835 11.885 11.935 11.985 12.038 12.1 12.167 12.23 12.282 12.31 12.31 12.3 12.295 12.292 12.29 12.333 12.425 12.53 12.645 12.772 12.897 13.002 13.075 13.075 13.002 12.895 12.843 12.86 12.875 12.88 12.877 12.857 12.822 12.785 12.753 12.785 12.862 12.925 12.987 12.992 12.935 12.865 12.785 12.748 12.758 12.785 12.838 12.902 12.957 12.992 13.013 13.045 13.08 13.077 13.052 13.01 12.96 12.93 12.938 12.955 12.92 12.865 12.825 12.803 12.787 12.757 12.725 12.735 12.792 12.847 12.875 12.878 12.885 12.92 12.965 12.982 12.96 12.92 12.895 12.89 12.885 12.875 12.87 12.93 13.05 13.172 13.285 13.347 13.362 13.362 13.34 13.28 13.175 13.118 13.132 13.147 13.162 13.157 13.1 13.002 12.885 12.765 12.668 12.583 12.498 12.438 12.443 12.505 12.58 12.642 12.692 12.717 12.72 12.71 12.685 12.678 12.7 12.725 12.743 12.77 12.81 12.847 12.88 12.885 12.845 12.785 12.722 12.645 12.555 12.473 12.41 12.38 12.37 12.363 12.36 12.355 12.337
12.263 12.198 12.14 12.12 12.135 12.155 12.17 12.208 12.295 12.39 12.417 12.385 12.35 12.32 12.31 12.32 12.325 12.34 12.375 12.428 12.49 12.55 12.6 12.64 12.68 12.707 12.7 12.667 12.632 12.597 12.545 12.475 12.413 12.36 12.313 12.268 12.22 12.167 12.13 12.117 12.11 12.092 12.042 11.948 11.95 12.045 12.082 12.087 12.092 12.042 11.928 11.818 11.758 11.75 11.76 11.773 11.793 11.82 11.835 11.83 11.823 11.808 11.815 11.86 11.908 11.955 12.008 12.067 12.132 12.2 12.265 12.3 12.305 12.3 12.293 12.287 12.28 12.275 12.32 12.415 12.52 12.627 12.747 12.882 13.015 13.122 13.122 13.02 12.903 12.858 12.88 12.905 12.927 12.937 12.922 12.88 12.825 12.765 12.763 12.82 12.88 12.952 12.962 12.895 12.825 12.76 12.738 12.753 12.77 12.803 12.858 12.922 12.98 13.015 13.04 13.045 13.023 12.998 12.973 12.965 12.985 13.017 13.042 13.007 12.925 12.843 12.793 12.758 12.705 12.665 12.683 12.745 12.808 12.858 12.888 12.923 12.97 13.015 13.037 13.02 12.977 12.933 12.9 12.883 12.868 12.853 12.9 13.013 13.128 13.222 13.273 13.298 13.322 13.332 13.302 13.26 13.245 13.242 13.242 13.242 13.245 13.195 13.075 12.948 12.838 12.75 12.667 12.582 12.498 12.44 12.455 12.513 12.568 12.618 12.643 12.648 12.65 12.64 12.643 12.67 12.7 12.73 12.765 12.807 12.85 12.887 12.89 12.848 12.79 12.733 12.658 12.565 12.473 12.395 12.36 12.35 12.34 12.328 12.31 12.28
12.265 12.205 12.158 12.155 12.178 12.193 12.205 12.245 12.333 12.43 12.452 12.408 12.365 12.333 12.328 12.343 12.355 12.373 12.393 12.43 12.49 12.55 12.6 12.64 12.677 12.697 12.692 12.67 12.64 12.612 12.57 12.507 12.44 12.37 12.31 12.262 12.215 12.147 12.097 12.087 12.075 12.05 11.945 11.775 11.783 11.935 12.005 12.012 12.017 11.962 11.86 11.803 11.793 11.8 11.813 11.83 11.855 11.885 11.898 11.89 11.875 11.85 11.858 11.903 11.948 11.99 12.033 12.09 12.155 12.22 12.28 12.302 12.297 12.29 12.285 12.28 12.27 12.265 12.305 12.395 12.497 12.6 12.7 12.815 12.94 13.062 13.072 12.965 12.875 12.85 12.87 12.895 12.927 12.955 12.947 12.895 12.82 12.743 12.73 12.785 12.848 12.95 12.99 12.92 12.843 12.778 12.758 12.775 12.785 12.783 12.813 12.878 12.942 12.99 13.017 13.02 12.998 12.978 12.968 12.98 13.007 13.035 13.062 13.027 12.932 12.835 12.788 12.767 12.71 12.663 12.685 12.755 12.825 12.888 12.92 12.95 13 13.045 13.072 13.062 13.022 12.975 12.935 12.908 12.885 12.865 12.905 13.01 13.118 13.195 13.23 13.253 13.278 13.303 13.317 13.317 13.292 13.26 13.245 13.233 13.242 13.227 13.13 13.013 12.918 12.832 12.75 12.662 12.57 12.483 12.45 12.475 12.518 12.568 12.593 12.598 12.6 12.587 12.587 12.612 12.645 12.698 12.752 12.797 12.842 12.882 12.895 12.875 12.83 12.775 12.702 12.608 12.513 12.425 12.38 12.37 12.355 12.315 12.27 12.235
12.295 12.24 12.218 12.248 12.282 12.295 12.305 12.32 12.365 12.452 12.492 12.455 12.405 12.37 12.37 12.393 12.42 12.452 12.465 12.46 12.49 12.55 12.6 12.637 12.66 12.66 12.65 12.635 12.612 12.587 12.55 12.497 12.44 12.377 12.317 12.247 12.162 12.06 12 12.005 12.002 11.985 11.875 11.7 11.698 11.845 11.925 11.935 11.943 11.918 11.883 11.88 11.888 11.895 11.905 11.918 11.94 11.97 11.982 11.972 11.945 11.908 11.913 11.957 12 12.035 12.063 12.103 12.163 12.227 12.275 12.29 12.287 12.28 12.275 12.27 12.26 12.255 12.285 12.36 12.455 12.555 12.638 12.718 12.825 12.947 12.962 12.868 12.82 12.825 12.838 12.855 12.883 12.912 12.907 12.862 12.797 12.72 12.7 12.75 12.84 12.992 13.062 13 12.92 12.843 12.81 12.825 12.81 12.76 12.768 12.832 12.882 12.905 12.947 13.005 13.015 12.998 12.983 12.978 12.983 13 13.03 13 12.907 12.81 12.77 12.782 12.755 12.725 12.76 12.833 12.902 12.965 12.983 12.978 13.01 13.055 13.085 13.087 13.06 13.015 12.975 12.943 12.915 12.895 12.935 13.037 13.135 13.202 13.228 13.24 13.262 13.285 13.31 13.33 13.322 13.285 13.235 13.208 13.23 13.252 13.19 13.085 12.997 12.907 12.815 12.717 12.618 12.535 12.5 12.505 12.523 12.553 12.575 12.57 12.547 12.513 12.5 12.53 12.585 12.663 12.732 12.782 12.827 12.865 12.885 12.89 12.875 12.832 12.762 12.67 12.578 12.49 12.438 12.42 12.377 12.3 12.24 12.208
12.34 12.293 12.285 12.34 12.392 12.415 12.422 12.425 12.438 12.485 12.527 12.51 12.468 12.438 12.438 12.465 12.5 12.537 12.557 12.535 12.515 12.55 12.6 12.625 12.625 12.615 12.605 12.595 12.582 12.56 12.52 12.47 12.422 12.352 12.262 12.16 12.037 11.918 11.87 11.895 11.915 11.912 11.818 11.728 11.758 11.835 11.89 11.908 11.923 11.955 11.985 11.995 12.005 12.015 12.02 12.023 12.033 12.055 12.065 12.042 12 11.963 11.97 12.01 12.045 12.072 12.098 12.128 12.173 12.23 12.265 12.27 12.27 12.267 12.265 12.26 12.25 12.245 12.27 12.328 12.408 12.505 12.585 12.645 12.725 12.835 12.852 12.788 12.783 12.807 12.818 12.825 12.838 12.85 12.84 12.805 12.76 12.698 12.673 12.735 12.875 13.06 13.137 13.082 13.005 12.925 12.873 12.862 12.822 12.738 12.725 12.772 12.78 12.768 12.82 12.925 12.997 13.017 13.01 13 12.988 12.985 13 12.967 12.88 12.788 12.75 12.775 12.782 12.793 12.845 12.912 12.977 13.042 13.065 13.043 13.038 13.065 13.092 13.1 13.09 13.055 13.015 12.98 12.948 12.925 12.965 13.057 13.14 13.21 13.237 13.235 13.248 13.273 13.3 13.33 13.357 13.357 13.305 13.265 13.278 13.292 13.247 13.15 13.052 12.955 12.855 12.753 12.655 12.585 12.563 12.567 12.565 12.557 12.555 12.525 12.47 12.42 12.413 12.468 12.55 12.637 12.71 12.765 12.812 12.847 12.865 12.875 12.88 12.867 12.817 12.732 12.645 12.56 12.497 12.447 12.365 12.273 12.215 12.188
12.352 12.343 12.358 12.425 12.49 12.53 12.54 12.54 12.542 12.557 12.58 12.57 12.532 12.495 12.487 12.517 12.555 12.595 12.62 12.607 12.575 12.57 12.587 12.59 12.58 12.57 12.56 12.55 12.54 12.525 12.492 12.432 12.35 12.24 12.12 12.007 11.89 11.778 11.74 11.77 11.8 11.822 11.793 11.78 11.825 11.867 11.91 11.943 11.965 12.015 12.082 12.115 12.125 12.132 12.137 12.14 12.14 12.147 12.14 12.1 12.05 12.015 12.023 12.055 12.082 12.107 12.135 12.165 12.195 12.23 12.25 12.25 12.25 12.25 12.25 12.247 12.24 12.235 12.26 12.31 12.373 12.455 12.53 12.585 12.645 12.73 12.755 12.735 12.758 12.788 12.803 12.81 12.818 12.81 12.783 12.745 12.705 12.66 12.658 12.763 12.935 13.117 13.205 13.165 13.09 13.01 12.938 12.888 12.823 12.728 12.685 12.7 12.705 12.68 12.703 12.798 12.902 12.985 13.015 13.007 12.99 12.972 12.967 12.935 12.855 12.763 12.73 12.763 12.793 12.847 12.922 12.988 13.053 13.117 13.147 13.132 13.108 13.098 13.103 13.105 13.105 13.087 13.055 13.02 12.985 12.958 12.988 13.065 13.14 13.215 13.247 13.243 13.243 13.26 13.29 13.32 13.35 13.382 13.385 13.362 13.345 13.32 13.27 13.187 13.087 12.985 12.887 12.79 12.692 12.63 12.607 12.587 12.557 12.548 12.542 12.495 12.43 12.375 12.36 12.42 12.517 12.612 12.687 12.742 12.797 12.832 12.842 12.847 12.85 12.852 12.837 12.777 12.695 12.61 12.535 12.457 12.36 12.273 12.22 12.188
12.348 12.378 12.42 12.487 12.55 12.587 12.595 12.597 12.6 12.605 12.615 12.607 12.57 12.523 12.503 12.523 12.562 12.605 12.62 12.602 12.58 12.557 12.535 12.52 12.512 12.505 12.495 12.485 12.477 12.47 12.427 12.332 12.207 12.075 11.955 11.843 11.743 11.675 11.663 11.69 11.723 11.758 11.782 11.802 11.838 11.885 11.937 11.985 12.015 12.058 12.14 12.215 12.245 12.25 12.252 12.257 12.245 12.212 12.172 12.125 12.078 12.05 12.055 12.08 12.105 12.13 12.16 12.187 12.212 12.232 12.24 12.24 12.238 12.235 12.233 12.23 12.228 12.225 12.25 12.3 12.36 12.428 12.488 12.54 12.593 12.653 12.69 12.713 12.748 12.783 12.805 12.812 12.812 12.792 12.753 12.708 12.663 12.623 12.633 12.745 12.917 13.092 13.197 13.197 13.14 13.062 12.987 12.928 12.858 12.765 12.71 12.715 12.725 12.673 12.645 12.703 12.793 12.897 12.96 12.96 12.94 12.922 12.917 12.91 12.852 12.758 12.73 12.77 12.798 12.863 12.975 13.065 13.13 13.192 13.23 13.225 13.2 13.17 13.155 13.153 13.135 13.095 13.052 13.017 12.985 12.963 12.99 13.06 13.138 13.22 13.26 13.257 13.253 13.265 13.295 13.325 13.355 13.382 13.395 13.38 13.347 13.312 13.267 13.2 13.112 13.007 12.897 12.79 12.687 12.62 12.577 12.533 12.505 12.533 12.547 12.495 12.43 12.385 12.37 12.388 12.455 12.555 12.632 12.69 12.745 12.782 12.797 12.8 12.8 12.8 12.805 12.782 12.712 12.628 12.552 12.48 12.393 12.305 12.258 12.235
12.365 12.405 12.457 12.517 12.562 12.582 12.583 12.582 12.585 12.59 12.6 12.602 12.577 12.535 12.51 12.515 12.548 12.587 12.585 12.548 12.52 12.495 12.46 12.43 12.42 12.415 12.405 12.395 12.39 12.38 12.31 12.18 12.043 11.913 11.795 11.71 11.665 11.65 11.66 11.685 11.715 11.743 11.768 11.805 11.855 11.908 11.962 12.015 12.055 12.098 12.175 12.272 12.342 12.367 12.357 12.332 12.29 12.225 12.17 12.125 12.09 12.08 12.078 12.088 12.113 12.14 12.167 12.192 12.215 12.23 12.237 12.242 12.24 12.235 12.23 12.223 12.22 12.223 12.263 12.325 12.38 12.433 12.48 12.53 12.58 12.63 12.678 12.72 12.76 12.797 12.817 12.815 12.8 12.777 12.74 12.688 12.64 12.6 12.608 12.688 12.825 12.995 13.11 13.15 13.14 13.085 13.02 12.98 12.935 12.855 12.805 12.805 12.77 12.678 12.63 12.653 12.71 12.8 12.867 12.875 12.858 12.853 12.86 12.872 12.85 12.775 12.748 12.78 12.795 12.848 12.98 13.117 13.207 13.272 13.312 13.31 13.287 13.26 13.242 13.215 13.15 13.068 13.005 12.97 12.948 12.943 12.98 13.055 13.14 13.232 13.277 13.273 13.273 13.288 13.315 13.342 13.365 13.377 13.375 13.355 13.325 13.295 13.26 13.187 13.082 12.965 12.84 12.725 12.628 12.553 12.495 12.463 12.48 12.537 12.55 12.495 12.435 12.413 12.422 12.41 12.408 12.47 12.545 12.6 12.645 12.685 12.72 12.737 12.74 12.74 12.75 12.757 12.715 12.635 12.565 12.505 12.432 12.345 12.3 12.297
12.393 12.433 12.482 12.527 12.552 12.567 12.57 12.563 12.558 12.56 12.57 12.58 12.577 12.547 12.52 12.518 12.538 12.56 12.54 12.495 12.46 12.43 12.39 12.345 12.32 12.313 12.305 12.295 12.285 12.262 12.175 12.033 11.893 11.775 11.7 11.675 11.675 11.675 11.685 11.708 11.733 11.765 11.805 11.85 11.895 11.938 11.985 12.038 12.088 12.133 12.205 12.305 12.392 12.43 12.405 12.35 12.287 12.223 12.168 12.133 12.123 12.125 12.115 12.105 12.118 12.145 12.172 12.197 12.215 12.225 12.235 12.245 12.247 12.245 12.24 12.233 12.245 12.273 12.315 12.367 12.407 12.445 12.493 12.545 12.595 12.645 12.692 12.735 12.775 12.807 12.815 12.8 12.78 12.76 12.725 12.673 12.623 12.585 12.605 12.67 12.758 12.898 13.01 13.057 13.085 13.082 13.047 13.02 13 12.945 12.902 12.872 12.79 12.683 12.625 12.63 12.658 12.713 12.775 12.792 12.785 12.793 12.805 12.817 12.822 12.785 12.763 12.78 12.788 12.835 12.96 13.12 13.257 13.352 13.39 13.38 13.357 13.327 13.285 13.215 13.12 13.023 12.958 12.933 12.928 12.938 12.983 13.065 13.155 13.247 13.292 13.293 13.3 13.312 13.327 13.342 13.355 13.362 13.355 13.33 13.303 13.278 13.252 13.17 13.015 12.865 12.745 12.643 12.555 12.478 12.423 12.425 12.48 12.545 12.552 12.495 12.45 12.45 12.47 12.465 12.435 12.43 12.458 12.495 12.535 12.575 12.62 12.657 12.675 12.68 12.69 12.71 12.702 12.645 12.578 12.522 12.462 12.385 12.338 12.335
12.423 12.46 12.497 12.525 12.543 12.555 12.552 12.542 12.535 12.53 12.537 12.55 12.56 12.55 12.533 12.528 12.532 12.527 12.492 12.448 12.405 12.365 12.32 12.27 12.23 12.213 12.205 12.19 12.173 12.158 12.083 11.953 11.83 11.728 11.69 11.695 11.698 11.7 11.71 11.74 11.783 11.833 11.89 11.94 11.975 12.005 12.04 12.085 12.13 12.17 12.227 12.302 12.37 12.4 12.377 12.33 12.277 12.22 12.175 12.16 12.165 12.17 12.162 12.145 12.135 12.15 12.177 12.197 12.212 12.225 12.235 12.243 12.248 12.253 12.26 12.275 12.308 12.35 12.372 12.39 12.423 12.46 12.508 12.56 12.61 12.66 12.705 12.74 12.77 12.797 12.8 12.78 12.76 12.74 12.713 12.675 12.635 12.59 12.595 12.66 12.733 12.828 12.912 12.958 12.995 13.03 13.03 13.02 13.03 13.017 12.977 12.902 12.795 12.688 12.62 12.615 12.635 12.663 12.7 12.72 12.725 12.738 12.75 12.763 12.778 12.775 12.77 12.778 12.783 12.82 12.935 13.095 13.255 13.38 13.412 13.382 13.345 13.302 13.235 13.145 13.052 12.97 12.935 12.938 12.945 12.96 13.01 13.095 13.183 13.265 13.307 13.315 13.325 13.332 13.338 13.34 13.343 13.348 13.338 13.313 13.29 13.27 13.25 13.185 13.02 12.828 12.695 12.6 12.51 12.423 12.383 12.42 12.487 12.552 12.557 12.503 12.48 12.493 12.51 12.515 12.492 12.453 12.428 12.428 12.438 12.465 12.508 12.552 12.592 12.612 12.627 12.65 12.667 12.645 12.59 12.538 12.482 12.42 12.378 12.37
12.457 12.487 12.51 12.533 12.55 12.55 12.53 12.51 12.5 12.49 12.495 12.512 12.525 12.537 12.542 12.535 12.52 12.49 12.45 12.408 12.363 12.315 12.265 12.213 12.16 12.123 12.11 12.113 12.12 12.13 12.077 11.96 11.843 11.74 11.698 11.705 11.728 11.76 11.775 11.805 11.863 11.918 11.98 12.037 12.075 12.105 12.138 12.172 12.202 12.222 12.228 12.25 12.3 12.33 12.315 12.275 12.235 12.21 12.203 12.2 12.2 12.192 12.18 12.17 12.162 12.165 12.18 12.195 12.205 12.218 12.24 12.26 12.27 12.28 12.303 12.337 12.372 12.41 12.427 12.425 12.44 12.475 12.52 12.57 12.62 12.657 12.69 12.725 12.75 12.772 12.777 12.76 12.74 12.74 12.75 12.735 12.697 12.623 12.58 12.625 12.697 12.772 12.835 12.88 12.923 12.965 12.962 12.945 12.962 12.982 12.967 12.9 12.8 12.693 12.618 12.605 12.623 12.643 12.673 12.705 12.725 12.74 12.755 12.768 12.783 12.8 12.82 12.82 12.795 12.805 12.908 13.055 13.197 13.315 13.347 13.31 13.26 13.21 13.14 13.05 12.973 12.933 12.943 12.97 12.987 13.003 13.053 13.137 13.22 13.29 13.325 13.332 13.34 13.347 13.352 13.352 13.35 13.358 13.343 13.31 13.29 13.27 13.25 13.212 13.082 12.885 12.74 12.645 12.55 12.453 12.405 12.435 12.495 12.56 12.562 12.52 12.52 12.537 12.555 12.567 12.545 12.495 12.458 12.433 12.41 12.405 12.42 12.45 12.493 12.53 12.557 12.58 12.613 12.635 12.61 12.558 12.503 12.45 12.413 12.398
12.485 12.512 12.535 12.555 12.56 12.542 12.512 12.48 12.455 12.44 12.445 12.465 12.488 12.522 12.542 12.527 12.492 12.45 12.41 12.37 12.325 12.278 12.227 12.17 12.113 12.063 12.063 12.105 12.14 12.16 12.107 11.99 11.87 11.768 11.755 11.805 11.858 11.92 11.913 11.9 11.95 12.005 12.07 12.132 12.175 12.207 12.24 12.262 12.277 12.28 12.245 12.213 12.233 12.262 12.25 12.213 12.198 12.22 12.24 12.232 12.215 12.19 12.17 12.163 12.162 12.165 12.17 12.18 12.193 12.215 12.253 12.295 12.325 12.34 12.363 12.395 12.43 12.47 12.495 12.49 12.478 12.49 12.53 12.577 12.612 12.625 12.645 12.687 12.725 12.75 12.755 12.74 12.74 12.785 12.835 12.835 12.772 12.658 12.585 12.593 12.638 12.71 12.775 12.822 12.867 12.91 12.895 12.833 12.818 12.842 12.855 12.84 12.787 12.697 12.613 12.59 12.61 12.638 12.68 12.732 12.775 12.8 12.817 12.833 12.848 12.873 12.91 12.927 12.905 12.875 12.898 12.988 13.108 13.202 13.23 13.21 13.17 13.117 13.045 12.97 12.933 12.933 12.96 12.997 13.027 13.045 13.095 13.18 13.252 13.31 13.34 13.347 13.355 13.362 13.367 13.368 13.373 13.395 13.377 13.323 13.29 13.27 13.25 13.22 13.132 12.978 12.84 12.743 12.645 12.545 12.48 12.473 12.508 12.567 12.57 12.545 12.56 12.58 12.587 12.59 12.577 12.535 12.495 12.467 12.435 12.403 12.39 12.4 12.42 12.445 12.483 12.53 12.59 12.645 12.64 12.585 12.533 12.485 12.445 12.42
12.51 12.54 12.562 12.567 12.552 12.527 12.497 12.46 12.425 12.398 12.398 12.428 12.467 12.512 12.532 12.505 12.455 12.41 12.37 12.33 12.287 12.242 12.19 12.133 12.078 12.028 12.06 12.132 12.167 12.187 12.132 12.02 11.908 11.818 11.848 11.957 12.055 12.137 12.11 12.03 12.038 12.095 12.158 12.222 12.272 12.302 12.32 12.327 12.332 12.327 12.29 12.23 12.195 12.198 12.195 12.188 12.215 12.255 12.262 12.24 12.21 12.18 12.16 12.15 12.143 12.143 12.148 12.163 12.193 12.228 12.268 12.32 12.37 12.4 12.422 12.453 12.49 12.53 12.562 12.565 12.527 12.505 12.53 12.56 12.57 12.57 12.593 12.64 12.687 12.725 12.735 12.74 12.785 12.86 12.927 12.932 12.832 12.683 12.605 12.595 12.603 12.653 12.715 12.765 12.81 12.852 12.84 12.75 12.69 12.695 12.705 12.71 12.705 12.672 12.608 12.578 12.608 12.648 12.695 12.748 12.8 12.845 12.877 12.897 12.917 12.95 12.99 13.03 13.055 13.04 13.008 13.015 13.06 13.098 13.105 13.095 13.072 13.025 12.965 12.93 12.933 12.948 12.975 13.017 13.06 13.088 13.138 13.212 13.27 13.32 13.35 13.36 13.37 13.377 13.383 13.388 13.405 13.435 13.42 13.355 13.3 13.27 13.247 13.217 13.17 13.065 12.94 12.84 12.738 12.635 12.57 12.545 12.54 12.573 12.587 12.58 12.585 12.582 12.57 12.57 12.585 12.57 12.535 12.497 12.45 12.41 12.395 12.398 12.4 12.405 12.448 12.528 12.61 12.672 12.67 12.62 12.573 12.528 12.488 12.458
12.543 12.565 12.572 12.56 12.537 12.515 12.485 12.445 12.41 12.375 12.363 12.395 12.442 12.487 12.505 12.472 12.418 12.37 12.33 12.29 12.247 12.202 12.152 12.1 12.045 11.995 12.045 12.145 12.195 12.215 12.16 12.047 11.935 11.865 11.915 12.045 12.175 12.29 12.31 12.203 12.14 12.185 12.245 12.305 12.34 12.35 12.36 12.37 12.377 12.372 12.335 12.275 12.215 12.175 12.175 12.205 12.247 12.275 12.265 12.233 12.2 12.17 12.15 12.14 12.13 12.13 12.14 12.165 12.205 12.243 12.285 12.337 12.392 12.44 12.475 12.51 12.55 12.587 12.62 12.615 12.555 12.505 12.502 12.51 12.51 12.51 12.538 12.59 12.64 12.687 12.722 12.777 12.86 12.94 13.017 13.01 12.875 12.708 12.625 12.615 12.605 12.618 12.658 12.703 12.748 12.795 12.785 12.693 12.595 12.56 12.568 12.575 12.583 12.588 12.575 12.58 12.623 12.67 12.72 12.77 12.82 12.872 12.92 12.95 12.975 13.01 13.047 13.082 13.12 13.145 13.142 13.115 13.075 13.045 13.025 13.005 12.983 12.955 12.935 12.935 12.948 12.963 12.99 13.035 13.082 13.122 13.172 13.23 13.28 13.33 13.36 13.37 13.38 13.39 13.4 13.418 13.445 13.475 13.462 13.4 13.333 13.28 13.245 13.215 13.182 13.117 13.027 12.935 12.832 12.728 12.66 12.635 12.612 12.597 12.59 12.577 12.56 12.537 12.528 12.545 12.572 12.58 12.557 12.512 12.46 12.42 12.405 12.405 12.405 12.41 12.453 12.532 12.617 12.685 12.692 12.657 12.615 12.57 12.532 12.5
12.585 12.575 12.542 12.52 12.5 12.482 12.467 12.44 12.403 12.368 12.345 12.353 12.388 12.435 12.457 12.432 12.38 12.33 12.287 12.245 12.2 12.142 12.1 12.065 12.013 11.968 12.018 12.142 12.222 12.245 12.187 12.073 11.98 11.945 11.99 12.1 12.23 12.36 12.422 12.337 12.248 12.27 12.325 12.357 12.355 12.348 12.357 12.372 12.387 12.395 12.367 12.312 12.255 12.198 12.19 12.23 12.262 12.277 12.265 12.233 12.198 12.165 12.153 12.155 12.158 12.168 12.173 12.185 12.22 12.26 12.303 12.353 12.408 12.462 12.497 12.517 12.547 12.58 12.61 12.617 12.57 12.498 12.458 12.45 12.45 12.453 12.485 12.54 12.59 12.635 12.677 12.737 12.81 12.892 12.987 12.972 12.832 12.7 12.645 12.64 12.633 12.633 12.655 12.695 12.735 12.77 12.755 12.67 12.563 12.5 12.495 12.505 12.515 12.528 12.555 12.603 12.655 12.705 12.755 12.805 12.855 12.897 12.935 12.955 12.967 13 13.035 13.065 13.1 13.12 13.13 13.13 13.09 13.04 13.005 12.973 12.95 12.955 12.97 12.98 12.985 12.98 12.995 13.04 13.085 13.117 13.172 13.24 13.29 13.34 13.372 13.385 13.395 13.405 13.423 13.452 13.487 13.52 13.507 13.445 13.375 13.305 13.247 13.205 13.165 13.115 13.05 12.975 12.892 12.805 12.735 12.687 12.642 12.587 12.545 12.52 12.495 12.48 12.488 12.512 12.535 12.542 12.522 12.485 12.445 12.417 12.412 12.415 12.415 12.418 12.453 12.528 12.61 12.662 12.665 12.64 12.607 12.575 12.555 12.53
12.607 12.545 12.483 12.455 12.44 12.433 12.442 12.435 12.398 12.368 12.345 12.328 12.335 12.375 12.405 12.387 12.337 12.288 12.242 12.195 12.132 12.05 12.013 12.01 11.977 11.94 11.99 12.125 12.232 12.27 12.212 12.118 12.073 12.068 12.098 12.17 12.28 12.41 12.47 12.402 12.33 12.342 12.37 12.365 12.345 12.333 12.335 12.35 12.375 12.397 12.38 12.332 12.282 12.228 12.215 12.242 12.262 12.277 12.267 12.235 12.2 12.163 12.163 12.2 12.227 12.242 12.24 12.228 12.24 12.275 12.318 12.368 12.422 12.475 12.49 12.475 12.483 12.51 12.54 12.572 12.567 12.503 12.433 12.398 12.39 12.398 12.433 12.485 12.53 12.567 12.6 12.633 12.675 12.735 12.8 12.787 12.7 12.628 12.627 12.662 12.667 12.675 12.705 12.735 12.752 12.775 12.765 12.685 12.58 12.5 12.475 12.488 12.505 12.533 12.575 12.63 12.69 12.745 12.795 12.837 12.875 12.905 12.927 12.927 12.918 12.94 12.975 13.005 13.032 13.032 13.04 13.075 13.075 13.037 13 12.975 12.98 13.017 13.042 13.037 13.017 12.985 12.983 13.025 13.06 13.065 13.123 13.23 13.3 13.352 13.387 13.4 13.41 13.42 13.443 13.482 13.527 13.565 13.55 13.485 13.392 13.275 13.2 13.17 13.132 13.08 13.017 12.953 12.892 12.835 12.757 12.668 12.59 12.52 12.475 12.45 12.433 12.43 12.443 12.467 12.48 12.47 12.445 12.415 12.393 12.388 12.4 12.417 12.425 12.425 12.453 12.525 12.587 12.602 12.59 12.568 12.548 12.533 12.535 12.537
12.575 12.485 12.42 12.395 12.39 12.39 12.407 12.417 12.395 12.37 12.35 12.328 12.313 12.325 12.355 12.345 12.295 12.245 12.192 12.125 12.037 11.945 11.908 11.923 11.922 11.905 11.963 12.098 12.222 12.287 12.255 12.205 12.195 12.195 12.225 12.28 12.353 12.46 12.51 12.448 12.388 12.382 12.375 12.355 12.338 12.323 12.318 12.335 12.373 12.405 12.392 12.347 12.3 12.253 12.235 12.245 12.26 12.28 12.27 12.232 12.195 12.155 12.16 12.222 12.28 12.315 12.322 12.3 12.28 12.293 12.335 12.385 12.437 12.477 12.475 12.445 12.428 12.438 12.468 12.505 12.535 12.512 12.44 12.37 12.338 12.345 12.38 12.425 12.46 12.493 12.528 12.56 12.595 12.635 12.655 12.63 12.58 12.53 12.553 12.637 12.687 12.71 12.73 12.74 12.743 12.777 12.787 12.71 12.603 12.503 12.463 12.485 12.517 12.555 12.6 12.655 12.712 12.76 12.805 12.842 12.867 12.892 12.91 12.9 12.878 12.883 12.913 12.945 12.955 12.935 12.94 12.985 13.022 13.022 13 13.003 13.037 13.08 13.087 13.055 13.012 12.97 12.968 13 13.01 12.995 13.05 13.18 13.287 13.362 13.4 13.41 13.42 13.43 13.458 13.505 13.555 13.597 13.565 13.457 13.32 13.178 13.115 13.11 13.09 13.045 12.987 12.932 12.882 12.837 12.755 12.638 12.533 12.45 12.405 12.388 12.383 12.388 12.4 12.412 12.405 12.388 12.365 12.343 12.338 12.345 12.365 12.395 12.42 12.432 12.457 12.505 12.53 12.525 12.513 12.498 12.488 12.48 12.49 12.52
12.56 12.468 12.4 12.375 12.363 12.35 12.363 12.392 12.392 12.37 12.35 12.33 12.31 12.298 12.31 12.302 12.255 12.2 12.13 12.04 11.943 11.853 11.825 11.853 11.878 11.898 11.97 12.1 12.23 12.322 12.338 12.325 12.325 12.325 12.353 12.407 12.463 12.532 12.557 12.49 12.425 12.4 12.38 12.358 12.338 12.32 12.31 12.333 12.378 12.412 12.405 12.36 12.31 12.265 12.245 12.25 12.265 12.282 12.27 12.227 12.185 12.145 12.15 12.215 12.292 12.357 12.395 12.387 12.352 12.335 12.355 12.4 12.45 12.47 12.45 12.42 12.39 12.375 12.395 12.435 12.48 12.502 12.46 12.375 12.308 12.293 12.323 12.365 12.403 12.438 12.468 12.498 12.538 12.582 12.597 12.56 12.5 12.445 12.46 12.552 12.647 12.705 12.72 12.72 12.735 12.79 12.81 12.735 12.625 12.513 12.453 12.472 12.515 12.557 12.602 12.647 12.687 12.717 12.745 12.79 12.842 12.877 12.887 12.872 12.848 12.833 12.85 12.875 12.865 12.835 12.84 12.885 12.935 12.972 12.997 13.03 13.067 13.1 13.09 13.045 13 12.955 12.95 12.96 12.945 12.925 12.98 13.108 13.232 13.347 13.407 13.42 13.43 13.437 13.457 13.497 13.54 13.572 13.507 13.35 13.188 13.075 13.043 13.038 13.03 13 12.95 12.905 12.86 12.812 12.75 12.645 12.515 12.398 12.34 12.338 12.34 12.343 12.348 12.343 12.328 12.315 12.298 12.288 12.295 12.308 12.328 12.358 12.392 12.42 12.442 12.455 12.455 12.453 12.45 12.445 12.438 12.43 12.438 12.475
12.625 12.53 12.46 12.43 12.407 12.358 12.338 12.377 12.377 12.345 12.327 12.312 12.297 12.282 12.277 12.257 12.205 12.14 12.06 11.965 11.865 11.81 11.863 11.938 11.975 12.018 12.088 12.198 12.325 12.422 12.455 12.455 12.455 12.455 12.48 12.533 12.587 12.625 12.605 12.525 12.453 12.42 12.403 12.385 12.363 12.34 12.333 12.358 12.395 12.42 12.412 12.37 12.323 12.278 12.255 12.263 12.278 12.292 12.272 12.22 12.175 12.135 12.143 12.208 12.285 12.357 12.41 12.42 12.395 12.365 12.365 12.405 12.452 12.46 12.43 12.4 12.37 12.348 12.348 12.378 12.423 12.465 12.45 12.372 12.3 12.27 12.29 12.333 12.378 12.417 12.438 12.455 12.493 12.535 12.542 12.497 12.433 12.38 12.388 12.458 12.553 12.642 12.687 12.7 12.738 12.81 12.83 12.755 12.642 12.528 12.453 12.44 12.468 12.512 12.555 12.59 12.62 12.645 12.65 12.688 12.77 12.837 12.86 12.845 12.82 12.792 12.79 12.79 12.765 12.738 12.745 12.79 12.843 12.895 12.955 13.017 13.06 13.09 13.082 13.038 12.99 12.948 12.923 12.9 12.873 12.853 12.908 13.038 13.175 13.317 13.4 13.415 13.425 13.43 13.43 13.448 13.48 13.487 13.395 13.233 13.083 12.993 12.973 12.97 12.965 12.935 12.88 12.83 12.785 12.735 12.69 12.625 12.53 12.41 12.325 12.313 12.318 12.328 12.335 12.33 12.32 12.3 12.27 12.253 12.258 12.273 12.293 12.323 12.355 12.385 12.41 12.405 12.388 12.385 12.392 12.4 12.397 12.388 12.393 12.428
12.712 12.63 12.563 12.53 12.467 12.368 12.333 12.372 12.37 12.315 12.268 12.245 12.235 12.225 12.212 12.187 12.137 12.07 11.987 11.893 11.828 11.843 11.965 12.11 12.185 12.23 12.285 12.37 12.49 12.567 12.582 12.585 12.587 12.59 12.61 12.657 12.695 12.685 12.632 12.555 12.48 12.443 12.428 12.415 12.4 12.38 12.375 12.392 12.412 12.425 12.412 12.375 12.335 12.29 12.268 12.278 12.293 12.31 12.285 12.22 12.168 12.125 12.135 12.202 12.272 12.325 12.36 12.382 12.382 12.358 12.36 12.402 12.442 12.45 12.425 12.395 12.37 12.355 12.345 12.35 12.38 12.422 12.412 12.348 12.31 12.298 12.3 12.33 12.375 12.412 12.425 12.433 12.453 12.485 12.485 12.433 12.388 12.368 12.383 12.438 12.508 12.585 12.645 12.688 12.75 12.827 12.85 12.775 12.653 12.54 12.47 12.433 12.42 12.448 12.487 12.52 12.55 12.575 12.57 12.583 12.652 12.73 12.762 12.755 12.737 12.715 12.705 12.697 12.675 12.65 12.66 12.705 12.758 12.81 12.875 12.965 13.042 13.085 13.077 13.033 12.995 12.975 12.945 12.895 12.85 12.818 12.863 12.995 13.145 13.295 13.382 13.4 13.41 13.415 13.403 13.395 13.415 13.395 13.28 13.135 13.013 12.933 12.908 12.905 12.902 12.867 12.798 12.735 12.685 12.635 12.588 12.543 12.492 12.417 12.338 12.31 12.328 12.358 12.38 12.38 12.36 12.315 12.268 12.24 12.23 12.235 12.255 12.285 12.315 12.35 12.387 12.372 12.33 12.32 12.33 12.347 12.357 12.353 12.36 12.395
12.775 12.717 12.65 12.567 12.43 12.33 12.333 12.37 12.385 12.33 12.24 12.173 12.138 12.125 12.107 12.085 12.052 11.997 11.915 11.848 11.855 11.915 12.038 12.217 12.36 12.437 12.492 12.557 12.647 12.702 12.707 12.712 12.717 12.722 12.74 12.767 12.757 12.705 12.645 12.577 12.508 12.468 12.452 12.438 12.425 12.41 12.397 12.4 12.412 12.422 12.407 12.372 12.337 12.298 12.28 12.293 12.313 12.335 12.307 12.235 12.168 12.115 12.128 12.187 12.235 12.267 12.295 12.325 12.345 12.34 12.353 12.392 12.427 12.44 12.423 12.4 12.385 12.375 12.365 12.355 12.358 12.387 12.377 12.34 12.348 12.35 12.33 12.335 12.375 12.405 12.412 12.418 12.425 12.443 12.438 12.408 12.398 12.403 12.43 12.483 12.538 12.593 12.648 12.708 12.778 12.85 12.87 12.787 12.655 12.55 12.49 12.45 12.413 12.4 12.423 12.452 12.477 12.502 12.5 12.485 12.528 12.585 12.6 12.6 12.592 12.58 12.577 12.585 12.585 12.568 12.575 12.623 12.675 12.725 12.785 12.88 12.99 13.067 13.075 13.048 13.037 13.035 13.022 12.985 12.938 12.898 12.925 13.028 13.143 13.277 13.367 13.385 13.395 13.4 13.385 13.36 13.36 13.312 13.19 13.07 12.958 12.873 12.843 12.84 12.837 12.8 12.73 12.665 12.615 12.57 12.523 12.478 12.433 12.385 12.33 12.32 12.36 12.4 12.427 12.42 12.375 12.31 12.263 12.24 12.218 12.205 12.218 12.245 12.28 12.323 12.367 12.35 12.285 12.26 12.27 12.29 12.307 12.315 12.328 12.35
12.792 12.765 12.675 12.51 12.358 12.305 12.338 12.375 12.405 12.367 12.27 12.17 12.093 12.043 12.005 11.978 11.953 11.918 11.868 11.863 11.92 11.99 12.11 12.287 12.452 12.562 12.637 12.707 12.765 12.797 12.807 12.817 12.827 12.837 12.847 12.832 12.78 12.715 12.655 12.59 12.528 12.49 12.475 12.46 12.442 12.422 12.4 12.395 12.407 12.417 12.402 12.368 12.335 12.303 12.293 12.313 12.337 12.36 12.332 12.257 12.183 12.115 12.11 12.15 12.18 12.21 12.24 12.27 12.298 12.318 12.343 12.377 12.412 12.432 12.428 12.415 12.405 12.395 12.385 12.375 12.365 12.368 12.365 12.37 12.4 12.407 12.378 12.353 12.37 12.392 12.398 12.405 12.418 12.43 12.43 12.43 12.437 12.445 12.478 12.53 12.585 12.64 12.695 12.758 12.822 12.875 12.88 12.807 12.678 12.573 12.518 12.475 12.435 12.398 12.38 12.388 12.405 12.427 12.427 12.4 12.408 12.433 12.435 12.435 12.433 12.43 12.438 12.455 12.473 12.48 12.5 12.548 12.6 12.648 12.7 12.793 12.92 13.032 13.075 13.072 13.072 13.057 13.045 13.04 13.03 13.022 13.052 13.12 13.192 13.285 13.347 13.36 13.372 13.367 13.34 13.31 13.287 13.227 13.122 13.015 12.903 12.81 12.775 12.778 12.782 12.75 12.685 12.63 12.598 12.563 12.513 12.468 12.423 12.375 12.328 12.333 12.382 12.427 12.462 12.442 12.375 12.305 12.26 12.24 12.215 12.193 12.188 12.208 12.25 12.295 12.34 12.33 12.26 12.223 12.228 12.245 12.263 12.278 12.29 12.293
12.765 12.775 12.67 12.443 12.31 12.305 12.35 12.4 12.445 12.422 12.333 12.23 12.118 12.02 11.963 11.928 11.895 11.875 11.883 11.928 11.993 12.06 12.178 12.347 12.497 12.602 12.69 12.76 12.795 12.812 12.827 12.842 12.857 12.87 12.867 12.84 12.785 12.72 12.66 12.595 12.538 12.508 12.492 12.475 12.452 12.427 12.403 12.395 12.405 12.417 12.407 12.375 12.345 12.315 12.31 12.332 12.355 12.36 12.335 12.277 12.202 12.13 12.105 12.125 12.15 12.18 12.21 12.243 12.275 12.3 12.325 12.36 12.398 12.43 12.442 12.435 12.425 12.415 12.405 12.395 12.388 12.38 12.385 12.407 12.442 12.462 12.435 12.393 12.38 12.39 12.4 12.415 12.435 12.453 12.457 12.458 12.465 12.48 12.523 12.58 12.635 12.69 12.745 12.81 12.86 12.867 12.852 12.817 12.73 12.628 12.563 12.52 12.48 12.443 12.405 12.375 12.358 12.358 12.355 12.343 12.34 12.34 12.343 12.348 12.35 12.36 12.38 12.403 12.433 12.473 12.503 12.53 12.575 12.623 12.675 12.773 12.908 13.017 13.07 13.08 13.075 13.043 13.018 13.025 13.037 13.065 13.105 13.157 13.222 13.282 13.315 13.325 13.327 13.302 13.245 13.195 13.162 13.107 13.025 12.93 12.832 12.748 12.715 12.728 12.742 12.717 12.655 12.61 12.595 12.572 12.523 12.473 12.425 12.378 12.333 12.335 12.385 12.435 12.47 12.477 12.435 12.353 12.275 12.228 12.202 12.18 12.173 12.198 12.243 12.285 12.327 12.325 12.265 12.218 12.21 12.225 12.24 12.245 12.252 12.255
