ncols         200
nrows         71
xllcorner     545000
yllcorner     254190
cellsize      5
NODATA_value  -9999.0
17.225 17.127 17.05 16.997 16.942 16.885 16.82 16.77 16.735 16.675 16.595 16.505 16.4 16.315 16.275 16.25 16.215 16.175 16.127 16.067 15.998 15.935 15.92 15.937 15.94 15.925 15.907 15.887 15.857 15.815 15.76 15.697 15.625 15.54 15.455 15.38 15.305 15.235 15.17 15.082 14.977 14.873 14.793 14.743 14.703 14.67 14.655 14.645 14.615 14.575 14.55 14.548 14.55 14.542 14.517 14.483 14.445 14.405 14.367 14.315 14.22 14.125 14.07 14.085 14.162 14.242 14.317 14.385 14.432 14.462 14.488 14.518 14.555 14.592 14.615 14.617 14.605 14.577 14.527 14.46 14.392 14.32 14.235 14.135 14.005 13.832 13.557 13.24 12.715 12.583 12.797 12.69 12.435 12.035 12.388 12.867 12.803 12.853 12.917 12.505 12.028 12 12 12 12 12 12 12 12 12 12 12 12 12 12 12 12 12 12 12 12 12 12 12.148 12.395 12.74 12.977 12.97 12.975 12.99 12.995 12.985 12.962 12.75 12.6 12.548 12.718 13.142 13.432 13.68 13.85 13.907 13.88 13.825 13.785 13.763 13.753 13.75 13.747 13.738 13.735 13.743 13.75 13.76 13.785 13.822 13.855 13.885 13.95 14.055 14.157 14.253 14.363 14.505 14.64 14.715 14.737 14.72 14.677 14.615 14.568 14.547 14.51 14.46 14.518 15.03 15.612 15.827 15.395 14.815 14.75 14.778 14.888 15.022 15.032 14.983 14.955 14.94 14.92 14.897 14.855 14.895 14.964 14.035 13.628 14.444 13.935 12.873 12.61 12.61
17.1 17.07 17.028 16.982 16.935 16.88 16.815 16.75 16.703 16.647 16.57 16.49 16.405 16.325 16.272 16.235 16.19 16.145 16.1 16.047 15.983 15.925 15.918 15.94 15.96 15.965 15.945 15.91 15.865 15.815 15.76 15.705 15.645 15.567 15.485 15.41 15.332 15.24 15.14 15.04 14.935 14.83 14.75 14.703 14.67 14.638 14.623 14.625 14.62 14.6 14.58 14.575 14.57 14.555 14.53 14.497 14.46 14.42 14.382 14.32 14.218 14.133 14.083 14.06 14.105 14.197 14.287 14.367 14.435 14.477 14.508 14.542 14.58 14.617 14.64 14.637 14.607 14.555 14.493 14.425 14.355 14.285 14.215 14.137 14.047 13.912 13.67 13.385 12.95 12.723 12.802 12.737 12.57 12.153 12.228 12.657 12.72 12.783 12.867 12.735 12.277 12 12 12 12 12 12 12 12 12 12 12 12 12 12 12 12 12 12 12 12.213 12.457 12.485 12.622 12.862 12.952 12.937 12.922 12.915 12.917 12.885 12.655 12.503 12.425 12.458 12.815 13.13 13.362 13.607 13.787 13.86 13.882 13.865 13.828 13.805 13.79 13.78 13.772 13.762 13.748 13.743 13.75 13.76 13.77 13.795 13.832 13.862 13.888 13.95 14.052 14.147 14.235 14.335 14.46 14.557 14.605 14.645 14.662 14.615 14.535 14.498 14.492 14.472 14.433 14.495 14.95 15.545 15.822 15.452 14.863 14.715 14.743 14.832 14.925 14.925 14.89 14.88 14.867 14.83 14.8 14.755 14.69 14.439 13.461 13.678 14.731 13.705 12.611 12.61 12.61
17.015 17.04 17.015 16.968 16.925 16.875 16.81 16.74 16.68 16.62 16.545 16.465 16.382 16.305 16.247 16.205 16.162 16.117 16.07 16.02 15.962 15.915 15.915 15.937 15.957 15.975 15.957 15.91 15.86 15.807 15.747 15.692 15.642 15.582 15.512 15.427 15.325 15.207 15.095 14.992 14.887 14.785 14.713 14.673 14.64 14.605 14.59 14.6 14.61 14.612 14.602 14.59 14.58 14.565 14.54 14.51 14.475 14.435 14.395 14.322 14.22 14.145 14.1 14.06 14.068 14.143 14.235 14.328 14.42 14.487 14.53 14.565 14.6 14.64 14.657 14.63 14.572 14.515 14.467 14.41 14.34 14.273 14.205 14.135 14.065 13.982 13.8 13.535 13.242 12.693 12.578 12.81 12.677 12.405 12.05 12.235 12.647 12.755 12.865 12.71 12.25 12 12 12 12 12 12 12 12 12 12 12 12 12 12 12 12 12.2 12.442 12.478 12.677 12.912 12.93 12.912 12.902 12.87 12.78 12.66 12.535 12.47 12.495 12.385 12.363 12.588 12.857 13.122 13.338 13.552 13.722 13.8 13.83 13.857 13.857 13.84 13.83 13.82 13.807 13.795 13.78 13.762 13.753 13.757 13.77 13.78 13.802 13.835 13.865 13.89 13.948 14.042 14.132 14.22 14.31 14.403 14.475 14.525 14.575 14.61 14.537 14.44 14.425 14.423 14.415 14.4 14.473 14.868 15.477 15.817 15.547 14.948 14.683 14.71 14.76 14.807 14.81 14.793 14.797 14.8 14.752 14.702 14.452 13.97 13.453 12.941 13.7 14.734 13.79 12.716 12.746 13.148
17.02 17.052 17.02 16.97 16.923 16.87 16.805 16.735 16.668 16.595 16.513 16.43 16.347 16.268 16.21 16.17 16.13 16.085 16.035 15.985 15.93 15.89 15.892 15.91 15.925 15.947 15.937 15.89 15.84 15.782 15.707 15.635 15.582 15.537 15.485 15.397 15.277 15.155 15.043 14.938 14.835 14.755 14.713 14.683 14.65 14.615 14.598 14.608 14.623 14.627 14.615 14.6 14.59 14.575 14.55 14.52 14.487 14.45 14.402 14.323 14.238 14.183 14.135 14.088 14.06 14.105 14.205 14.308 14.41 14.492 14.545 14.582 14.62 14.645 14.63 14.572 14.5 14.443 14.432 14.427 14.375 14.308 14.24 14.173 14.115 14.072 13.935 13.685 13.425 12.815 12.583 12.84 12.797 12.612 12.125 12.118 12.545 12.708 12.87 12.475 12 12 12 12 12 12 12 12 12 12 12 12 12 12 12 12.095 12.338 12.675 12.9 12.919 12.832 12.667 12.513 12.388 12.37 12.418 12.4 12.358 12.31 12.315 12.448 12.625 12.785 12.95 13.135 13.345 13.552 13.7 13.752 13.775 13.805 13.835 13.845 13.835 13.827 13.822 13.815 13.802 13.787 13.77 13.755 13.758 13.77 13.78 13.8 13.83 13.86 13.888 13.943 14.03 14.12 14.207 14.282 14.37 14.455 14.515 14.575 14.587 14.475 14.37 14.363 14.365 14.363 14.363 14.443 14.78 15.412 15.812 15.64 15.03 14.645 14.675 14.688 14.703 14.715 14.703 14.665 14.587 14.372 13.947 13.455 13.003 12.733 12.691 13.658 14.654 14.257 13.683 13.803 14.365
17.037 17.062 17.025 16.975 16.925 16.87 16.805 16.735 16.67 16.602 16.51 16.403 16.31 16.23 16.17 16.13 16.087 16.04 15.99 15.94 15.888 15.848 15.843 15.86 15.883 15.91 15.907 15.862 15.805 15.74 15.655 15.56 15.488 15.44 15.392 15.322 15.222 15.105 14.99 14.888 14.808 14.765 14.745 14.722 14.697 14.665 14.64 14.643 14.652 14.645 14.628 14.613 14.6 14.585 14.562 14.533 14.5 14.467 14.41 14.333 14.275 14.235 14.187 14.135 14.095 14.12 14.213 14.317 14.417 14.502 14.557 14.59 14.61 14.607 14.565 14.488 14.41 14.348 14.355 14.41 14.412 14.362 14.295 14.238 14.208 14.185 14.057 13.825 13.585 13.197 12.723 12.673 12.842 12.775 12.51 12.445 12.64 12.795 12.927 12.57 12.14 12.06 12 12 12 12 12 12 12 12 12 12 12 12 12.248 12.58 12.805 12.925 12.755 12.445 12.305 12.31 12.285 12.248 12.295 12.425 12.543 12.663 12.768 12.863 12.987 13.067 13.098 13.198 13.375 13.58 13.727 13.77 13.763 13.765 13.783 13.81 13.822 13.815 13.808 13.808 13.807 13.797 13.782 13.765 13.753 13.753 13.758 13.768 13.788 13.815 13.847 13.88 13.935 14.02 14.105 14.18 14.243 14.347 14.47 14.542 14.587 14.557 14.438 14.348 14.33 14.33 14.325 14.328 14.405 14.688 15.345 15.807 15.735 15.113 14.608 14.64 14.633 14.628 14.642 14.64 14.16 13.593 13.358 12.965 12.7 12.69 12.69 12.69 13.63 14.612 14.672 14.69 14.939 15.174
17.052 17.07 17.025 16.975 16.925 16.87 16.805 16.74 16.683 16.627 16.552 16.433 16.303 16.198 16.128 16.083 16.035 15.988 15.94 15.89 15.84 15.8 15.793 15.815 15.845 15.875 15.877 15.832 15.765 15.692 15.605 15.505 15.41 15.343 15.29 15.227 15.152 15.05 14.943 14.865 14.82 14.795 14.775 14.755 14.735 14.71 14.682 14.675 14.672 14.657 14.642 14.625 14.61 14.595 14.575 14.547 14.513 14.48 14.428 14.368 14.325 14.285 14.242 14.195 14.163 14.165 14.225 14.325 14.422 14.512 14.562 14.57 14.56 14.542 14.495 14.41 14.325 14.253 14.255 14.33 14.387 14.395 14.357 14.325 14.32 14.305 14.177 13.955 13.73 13.4 12.73 12.543 12.82 12.835 12.757 12.722 12.85 12.962 12.997 12.83 12.647 12.572 12.505 12.25 12 12 12 12.038 12.135 12.098 12 12 12.223 12.465 12.722 12.942 12.917 12.595 12.273 12.225 12.365 12.653 12.825 12.945 13.055 13.157 13.25 13.327 13.38 13.432 13.49 13.485 13.438 13.465 13.61 13.757 13.802 13.797 13.79 13.78 13.778 13.79 13.8 13.798 13.798 13.802 13.8 13.79 13.777 13.76 13.748 13.745 13.745 13.753 13.773 13.8 13.835 13.87 13.925 14.005 14.077 14.137 14.195 14.295 14.452 14.567 14.577 14.505 14.403 14.343 14.32 14.303 14.288 14.295 14.37 14.578 15.26 15.802 15.83 15.195 14.57 14.605 14.583 14.563 14.58 14.597 14.165 13.536 13.018 12.69 12.69 12.69 12.69 12.69 13.607 14.619 14.735 14.778 15.002 15.195
17.068 17.075 17.025 16.975 16.923 16.868 16.81 16.755 16.7 16.645 16.592 16.492 16.337 16.195 16.103 16.045 15.995 15.945 15.895 15.845 15.795 15.753 15.748 15.775 15.805 15.837 15.842 15.795 15.722 15.647 15.56 15.457 15.353 15.263 15.193 15.128 15.063 14.988 14.918 14.877 14.85 14.825 14.802 14.78 14.757 14.732 14.705 14.687 14.677 14.662 14.647 14.63 14.615 14.602 14.587 14.565 14.533 14.5 14.46 14.415 14.375 14.335 14.295 14.255 14.215 14.18 14.215 14.315 14.412 14.495 14.527 14.517 14.5 14.48 14.427 14.34 14.25 14.165 14.16 14.235 14.315 14.385 14.41 14.41 14.417 14.405 14.282 14.067 13.852 13.587 13.03 12.67 12.76 12.825 12.825 12.638 12.728 12.99 12.993 13.002 13.027 13.042 13.032 12.765 12.253 12 12 12.038 12.385 12.347 12.001 12.248 12.717 12.96 12.967 12.932 12.635 12.236 12.358 12.785 13.122 13.38 13.51 13.57 13.632 13.692 13.732 13.747 13.752 13.76 13.76 13.745 13.722 13.722 13.785 13.832 13.827 13.822 13.815 13.805 13.795 13.788 13.788 13.79 13.795 13.8 13.792 13.78 13.77 13.755 13.743 13.74 13.74 13.743 13.76 13.793 13.828 13.86 13.91 13.975 14.035 14.093 14.148 14.218 14.387 14.555 14.555 14.465 14.38 14.335 14.31 14.285 14.263 14.26 14.333 14.5 15.205 15.805 15.872 15.22 14.533 14.565 14.538 14.515 14.533 14.558 14.572 14.407 13.465 12.69 12.69 12.69 12.69 12.69 13.305 14.362 14.782 14.743 14.84 15.025
17.105 17.08 17.03 16.983 16.932 16.873 16.815 16.765 16.712 16.657 16.605 16.507 16.352 16.213 16.11 16.035 15.98 15.928 15.875 15.823 15.77 15.715 15.7 15.732 15.765 15.795 15.797 15.75 15.677 15.602 15.515 15.41 15.31 15.225 15.138 15.06 14.998 14.943 14.907 14.877 14.842 14.812 14.787 14.762 14.735 14.705 14.677 14.66 14.65 14.637 14.622 14.607 14.597 14.592 14.592 14.587 14.565 14.538 14.505 14.465 14.425 14.385 14.34 14.285 14.22 14.16 14.185 14.285 14.38 14.44 14.447 14.435 14.425 14.41 14.355 14.263 14.175 14.11 14.118 14.193 14.283 14.377 14.437 14.452 14.457 14.442 14.325 14.12 13.91 13.7 13.32 12.648 12.52 12.805 12.83 12.645 12.555 12.825 12.997 13.02 13.052 13.075 13.072 13.052 12.775 12.463 12.208 12.006 12.507 12.762 12.528 12.782 13.03 13.025 12.987 12.685 12.396 12.61 12.96 13.175 13.405 13.665 13.807 13.83 13.855 13.882 13.88 13.847 13.817 13.792 13.785 13.797 13.812 13.83 13.845 13.847 13.845 13.84 13.83 13.817 13.805 13.79 13.785 13.79 13.795 13.797 13.787 13.773 13.76 13.748 13.743 13.745 13.745 13.745 13.76 13.793 13.825 13.858 13.893 13.935 13.99 14.05 14.105 14.15 14.278 14.455 14.487 14.407 14.355 14.33 14.3 14.272 14.242 14.22 14.288 14.468 15.19 15.807 15.867 15.215 14.518 14.52 14.505 14.505 14.515 14.53 14.545 14.395 13.465 12.69 12.69 12.69 12.69 12.69 13.126 14.243 14.937 14.973 15.05 15.413
17.13 17.097 17.05 17.002 16.95 16.882 16.818 16.765 16.715 16.662 16.607 16.495 16.348 16.235 16.135 16.043 15.973 15.92 15.87 15.817 15.757 15.685 15.658 15.687 15.717 15.737 15.732 15.69 15.627 15.557 15.468 15.37 15.29 15.225 15.133 15.03 14.963 14.917 14.882 14.84 14.792 14.755 14.73 14.705 14.675 14.648 14.625 14.61 14.6 14.59 14.578 14.57 14.57 14.573 14.585 14.6 14.6 14.582 14.55 14.51 14.47 14.422 14.362 14.282 14.195 14.13 14.155 14.255 14.33 14.36 14.355 14.34 14.33 14.313 14.263 14.198 14.15 14.125 14.148 14.213 14.298 14.39 14.45 14.465 14.455 14.425 14.32 14.13 13.93 13.75 13.467 12.8 12.55 12.785 12.81 12.812 12.45 12.535 13.002 13.047 13.08 13.105 13.107 13.092 13.065 12.99 12.727 12.533 12.803 13.075 13.102 13.115 13.09 13.03 12.735 12.451 12.773 13.212 13.307 13.345 13.475 13.687 13.805 13.808 13.82 13.842 13.842 13.815 13.788 13.765 13.763 13.775 13.793 13.82 13.842 13.852 13.855 13.85 13.837 13.823 13.808 13.793 13.788 13.79 13.792 13.79 13.78 13.767 13.755 13.745 13.745 13.75 13.752 13.755 13.768 13.795 13.828 13.862 13.885 13.905 13.95 14.01 14.062 14.1 14.158 14.302 14.367 14.305 14.3 14.31 14.285 14.252 14.213 14.178 14.245 14.435 15.137 15.772 15.862 15.252 14.545 14.478 14.48 14.512 14.525 14.53 14.537 14.185 13.26 12.69 12.69 12.69 12.69 12.898 13.73 14.685 15.085 15.3 15.753 16.613
17.127 17.117 17.08 17.025 16.957 16.885 16.823 16.768 16.715 16.665 16.602 16.49 16.365 16.265 16.165 16.065 15.975 15.91 15.86 15.805 15.732 15.65 15.618 15.637 15.657 15.67 15.66 15.618 15.563 15.508 15.438 15.36 15.295 15.235 15.142 15.02 14.93 14.88 14.835 14.785 14.735 14.695 14.67 14.645 14.618 14.593 14.573 14.56 14.55 14.54 14.54 14.547 14.552 14.56 14.575 14.595 14.612 14.615 14.592 14.552 14.502 14.437 14.362 14.275 14.178 14.103 14.125 14.21 14.255 14.27 14.267 14.253 14.245 14.245 14.228 14.203 14.19 14.18 14.2 14.255 14.323 14.405 14.462 14.465 14.435 14.395 14.31 14.147 13.965 13.797 13.572 13.165 12.66 12.598 12.787 12.817 12.55 12.38 12.757 13.05 13.102 13.137 13.142 13.125 13.105 13.08 13.07 13.092 13.13 13.167 13.182 13.147 13.06 12.768 12.516 12.805 13.295 13.545 13.61 13.612 13.648 13.737 13.795 13.795 13.798 13.805 13.802 13.785 13.762 13.74 13.738 13.755 13.783 13.815 13.837 13.85 13.857 13.857 13.845 13.828 13.812 13.798 13.79 13.79 13.787 13.782 13.773 13.763 13.755 13.748 13.748 13.753 13.757 13.76 13.773 13.8 13.833 13.865 13.885 13.895 13.92 13.97 14.017 14.05 14.075 14.172 14.227 14.205 14.245 14.277 14.265 14.227 14.18 14.135 14.205 14.405 15.053 15.707 15.86 15.33 14.613 14.45 14.47 14.515 14.535 14.543 14.562 14.162 13.218 12.69 12.69 12.778 13.115 13.788 14.577 14.98 15.276 15.948 16.945 18.087
17.127 17.13 17.1 17.035 16.96 16.885 16.825 16.772 16.718 16.665 16.597 16.5 16.395 16.295 16.195 16.097 16 15.913 15.845 15.777 15.697 15.613 15.573 15.583 15.595 15.605 15.595 15.558 15.513 15.473 15.43 15.372 15.31 15.25 15.157 15.028 14.913 14.835 14.78 14.73 14.68 14.638 14.61 14.585 14.56 14.535 14.515 14.507 14.5 14.488 14.478 14.495 14.53 14.55 14.565 14.585 14.605 14.625 14.625 14.582 14.512 14.437 14.355 14.26 14.16 14.078 14.088 14.142 14.165 14.18 14.19 14.208 14.24 14.28 14.283 14.258 14.245 14.233 14.253 14.31 14.37 14.435 14.47 14.45 14.413 14.375 14.305 14.167 13.997 13.832 13.65 13.325 12.658 12.483 12.765 12.8 12.787 12.44 12.393 12.855 13.08 13.127 13.147 13.14 13.125 13.112 13.117 13.145 13.175 13.202 13.18 13.065 12.785 12.568 12.823 13.26 13.605 13.805 13.815 13.795 13.777 13.775 13.78 13.78 13.78 13.78 13.775 13.757 13.735 13.715 13.718 13.745 13.777 13.81 13.832 13.845 13.855 13.862 13.855 13.832 13.812 13.795 13.787 13.787 13.783 13.778 13.77 13.763 13.755 13.75 13.753 13.758 13.763 13.765 13.78 13.81 13.84 13.867 13.885 13.895 13.908 13.935 13.97 13.998 14.023 14.07 14.105 14.135 14.198 14.245 14.24 14.198 14.15 14.103 14.173 14.373 14.965 15.64 15.855 15.425 14.695 14.43 14.47 14.515 14.543 14.565 14.605 14.435 13.705 13.106 13.145 13.558 14.13 14.63 14.943 15.308 16.123 17.248 18.385 19.242
17.11 17.117 17.085 17.017 16.947 16.88 16.825 16.775 16.722 16.67 16.605 16.515 16.415 16.315 16.215 16.12 16.025 15.912 15.797 15.702 15.617 15.558 15.548 15.558 15.565 15.575 15.563 15.53 15.498 15.463 15.427 15.382 15.325 15.265 15.167 15.04 14.92 14.815 14.735 14.675 14.625 14.58 14.55 14.525 14.5 14.48 14.463 14.453 14.445 14.432 14.4 14.39 14.435 14.492 14.547 14.585 14.605 14.627 14.637 14.595 14.513 14.432 14.345 14.245 14.148 14.06 14.053 14.1 14.133 14.158 14.188 14.243 14.308 14.367 14.365 14.32 14.3 14.288 14.308 14.365 14.425 14.47 14.477 14.45 14.415 14.38 14.297 14.15 13.985 13.835 13.7 13.46 12.948 12.613 12.687 12.78 12.815 12.682 12.345 12.403 12.817 13.015 13.072 13.092 13.077 13.077 13.097 13.122 13.145 13.145 13.047 12.778 12.595 12.845 13.22 13.532 13.805 13.877 13.845 13.805 13.772 13.76 13.76 13.76 13.76 13.757 13.747 13.727 13.705 13.693 13.7 13.725 13.757 13.79 13.81 13.82 13.832 13.845 13.842 13.822 13.8 13.778 13.775 13.785 13.782 13.778 13.773 13.767 13.76 13.755 13.76 13.765 13.77 13.778 13.793 13.818 13.845 13.872 13.89 13.9 13.91 13.933 13.963 13.988 14.013 14.043 14.088 14.145 14.205 14.245 14.232 14.19 14.148 14.098 14.153 14.34 14.878 15.572 15.847 15.517 14.78 14.415 14.482 14.535 14.565 14.6 14.65 14.682 14.422 14.087 14.12 14.43 14.675 14.93 15.456 16.288 17.4 18.587 19.504 19.87
17.08 17.08 17.04 16.975 16.915 16.863 16.812 16.77 16.73 16.68 16.612 16.52 16.422 16.325 16.225 16.125 16.007 15.86 15.703 15.58 15.49 15.5 15.562 15.57 15.573 15.58 15.565 15.525 15.49 15.455 15.42 15.387 15.34 15.277 15.177 15.055 14.94 14.825 14.72 14.63 14.565 14.52 14.49 14.465 14.445 14.435 14.42 14.403 14.39 14.38 14.345 14.295 14.29 14.358 14.465 14.557 14.61 14.635 14.647 14.607 14.517 14.42 14.35 14.295 14.215 14.125 14.105 14.155 14.195 14.22 14.26 14.32 14.383 14.445 14.45 14.398 14.36 14.343 14.363 14.417 14.462 14.485 14.485 14.465 14.435 14.382 14.265 14.113 13.973 13.85 13.74 13.587 13.247 12.603 12.493 12.802 12.835 12.862 12.652 12.283 12.308 12.685 12.94 12.99 12.985 12.995 13.03 13.055 13.062 12.845 12.64 12.643 12.86 13.21 13.477 13.735 13.84 13.825 13.795 13.76 13.743 13.74 13.74 13.74 13.737 13.73 13.715 13.695 13.683 13.683 13.685 13.695 13.723 13.755 13.772 13.778 13.788 13.8 13.802 13.792 13.775 13.753 13.753 13.772 13.782 13.782 13.778 13.773 13.768 13.765 13.77 13.777 13.783 13.79 13.805 13.825 13.85 13.877 13.895 13.908 13.928 13.965 14.002 14.03 14.058 14.103 14.165 14.22 14.255 14.265 14.25 14.215 14.17 14.11 14.138 14.308 14.78 15.495 15.847 15.615 14.878 14.418 14.505 14.572 14.61 14.64 14.685 14.732 14.725 14.692 14.67 14.798 15.133 15.816 16.823 17.85 18.897 19.732 20.13 20.255
17.055 17.04 16.993 16.935 16.888 16.845 16.793 16.747 16.717 16.68 16.617 16.525 16.427 16.33 16.22 16.09 15.935 15.768 15.6 15.46 15.398 15.493 15.595 15.592 15.588 15.587 15.57 15.525 15.483 15.448 15.415 15.387 15.35 15.29 15.192 15.075 14.96 14.845 14.735 14.625 14.53 14.465 14.43 14.413 14.405 14.4 14.383 14.36 14.34 14.327 14.295 14.235 14.195 14.23 14.328 14.445 14.552 14.625 14.662 14.62 14.502 14.375 14.325 14.327 14.302 14.252 14.232 14.26 14.28 14.298 14.34 14.4 14.46 14.52 14.532 14.487 14.438 14.403 14.417 14.46 14.477 14.485 14.485 14.472 14.45 14.375 14.248 14.123 14.01 13.898 13.785 13.672 13.47 12.84 12.583 12.857 12.93 12.965 12.947 12.68 12.353 12.325 12.473 12.64 12.758 12.835 12.875 12.643 12.515 12.543 12.61 12.927 13.212 13.445 13.667 13.78 13.785 13.773 13.748 13.725 13.72 13.72 13.72 13.717 13.71 13.7 13.685 13.673 13.673 13.677 13.68 13.683 13.695 13.72 13.737 13.74 13.743 13.75 13.755 13.752 13.745 13.728 13.728 13.75 13.77 13.782 13.782 13.778 13.775 13.773 13.775 13.785 13.792 13.8 13.815 13.835 13.858 13.882 13.9 13.923 13.96 14.005 14.047 14.078 14.12 14.187 14.247 14.277 14.28 14.275 14.267 14.24 14.187 14.12 14.125 14.275 14.658 15.39 15.85 15.717 15.003 14.453 14.528 14.605 14.655 14.678 14.715 14.76 14.761 15.003 15.473 15.978 16.633 17.553 18.65 19.637 20.294 20.465 20.427 20.527
17.04 17.003 16.958 16.915 16.875 16.832 16.775 16.713 16.678 16.657 16.602 16.51 16.41 16.315 16.192 16.028 15.855 15.685 15.513 15.353 15.355 15.525 15.62 15.615 15.602 15.592 15.57 15.527 15.482 15.443 15.41 15.38 15.347 15.297 15.207 15.095 14.98 14.865 14.752 14.64 14.53 14.433 14.383 14.375 14.375 14.37 14.35 14.325 14.3 14.278 14.25 14.223 14.213 14.24 14.31 14.403 14.508 14.605 14.665 14.607 14.45 14.305 14.255 14.275 14.295 14.302 14.31 14.33 14.35 14.372 14.415 14.472 14.527 14.582 14.597 14.56 14.507 14.457 14.445 14.457 14.46 14.467 14.472 14.462 14.445 14.407 14.322 14.205 14.088 13.97 13.85 13.733 13.612 13.252 12.705 12.695 13 13.075 13.042 12.955 12.817 12.608 12.518 12.573 12.59 12.61 12.668 12.515 12.455 12.73 13.007 13.232 13.44 13.63 13.737 13.755 13.743 13.73 13.715 13.705 13.705 13.703 13.698 13.69 13.68 13.67 13.663 13.663 13.668 13.673 13.675 13.678 13.683 13.693 13.7 13.7 13.703 13.708 13.71 13.71 13.708 13.698 13.705 13.733 13.755 13.777 13.787 13.785 13.782 13.778 13.78 13.79 13.803 13.815 13.83 13.85 13.87 13.893 13.92 13.958 14 14.045 14.09 14.135 14.202 14.27 14.3 14.3 14.29 14.285 14.28 14.255 14.2 14.13 14.12 14.25 14.52 15.27 15.855 15.822 15.105 14.488 14.583 14.64 14.693 14.721 14.951 15.393 15.766 16.348 17.153 17.86 18.585 19.505 20.367 20.849 20.9 20.72 20.595 20.732
17.093 17.01 16.938 16.9 16.86 16.817 16.76 16.69 16.64 16.615 16.557 16.46 16.368 16.285 16.165 15.995 15.818 15.643 15.465 15.315 15.373 15.56 15.62 15.602 15.587 15.572 15.545 15.505 15.465 15.433 15.405 15.375 15.345 15.297 15.207 15.095 14.98 14.865 14.752 14.637 14.525 14.42 14.358 14.345 14.342 14.335 14.317 14.292 14.268 14.253 14.263 14.29 14.315 14.35 14.415 14.495 14.575 14.65 14.677 14.577 14.398 14.258 14.218 14.245 14.27 14.295 14.325 14.355 14.385 14.415 14.452 14.495 14.537 14.585 14.6 14.565 14.515 14.46 14.415 14.4 14.4 14.407 14.427 14.432 14.42 14.425 14.412 14.345 14.24 14.118 13.993 13.868 13.745 13.487 12.818 12.628 12.99 13.095 13.075 12.995 13.005 13.08 13.03 12.892 12.788 12.738 12.785 12.89 12.967 13.037 13.19 13.397 13.587 13.712 13.757 13.763 13.75 13.735 13.723 13.713 13.71 13.708 13.698 13.685 13.675 13.668 13.668 13.673 13.678 13.677 13.673 13.673 13.675 13.678 13.68 13.68 13.683 13.69 13.695 13.695 13.693 13.69 13.703 13.728 13.753 13.78 13.795 13.795 13.79 13.788 13.8 13.815 13.83 13.845 13.86 13.88 13.9 13.933 13.98 14.028 14.07 14.113 14.153 14.195 14.255 14.31 14.325 14.315 14.305 14.3 14.29 14.262 14.212 14.145 14.125 14.23 14.43 15.2 15.862 15.89 15.145 14.525 14.68 14.778 15.133 15.621 16.38 17.31 17.967 18.54 19.133 19.773 20.527 21.119 21.34 21.267 21.073 20.91 20.775 20.519
17.217 17.115 16.973 16.885 16.845 16.802 16.745 16.675 16.61 16.565 16.502 16.41 16.33 16.255 16.157 15.997 15.805 15.628 15.473 15.368 15.44 15.592 15.61 15.568 15.545 15.53 15.5 15.465 15.44 15.428 15.41 15.38 15.347 15.3 15.192 15.065 14.957 14.845 14.735 14.62 14.505 14.41 14.35 14.32 14.308 14.3 14.283 14.26 14.253 14.268 14.32 14.39 14.43 14.463 14.525 14.605 14.677 14.732 14.702 14.555 14.368 14.233 14.21 14.242 14.268 14.295 14.325 14.358 14.393 14.427 14.46 14.49 14.52 14.555 14.565 14.527 14.472 14.417 14.363 14.325 14.315 14.323 14.352 14.382 14.385 14.39 14.412 14.42 14.392 14.31 14.187 14.062 13.927 13.725 13.203 12.798 12.9 13.067 13.075 13.04 13.103 13.195 13.147 13.053 13.047 13.05 13.062 13.087 13.118 13.175 13.318 13.507 13.645 13.722 13.765 13.787 13.787 13.775 13.76 13.743 13.733 13.73 13.722 13.71 13.7 13.695 13.698 13.702 13.7 13.687 13.678 13.673 13.67 13.673 13.677 13.68 13.683 13.695 13.705 13.707 13.707 13.705 13.715 13.735 13.76 13.79 13.805 13.803 13.8 13.805 13.825 13.85 13.867 13.883 13.9 13.92 13.953 14.01 14.072 14.122 14.167 14.21 14.235 14.25 14.28 14.327 14.347 14.335 14.325 14.315 14.295 14.265 14.225 14.165 14.138 14.215 14.395 15.185 15.867 15.9 15.165 14.565 14.73 15.175 16.198 17.318 18.5 19.545 20.202 20.75 21.322 21.707 21.919 21.875 21.617 21.41 21.225 20.99 20.524 19.63
17.355 17.28 17.115 16.93 16.838 16.79 16.73 16.66 16.588 16.523 16.452 16.372 16.297 16.222 16.145 15.995 15.795 15.63 15.518 15.445 15.513 15.63 15.615 15.56 15.518 15.488 15.463 15.445 15.437 15.432 15.415 15.385 15.35 15.31 15.19 15.03 14.92 14.82 14.715 14.6 14.485 14.4 14.35 14.308 14.28 14.268 14.255 14.255 14.275 14.308 14.37 14.46 14.53 14.575 14.635 14.705 14.755 14.787 14.715 14.535 14.343 14.21 14.198 14.235 14.265 14.298 14.333 14.368 14.405 14.442 14.475 14.505 14.525 14.53 14.515 14.475 14.425 14.372 14.317 14.265 14.235 14.238 14.265 14.307 14.337 14.35 14.368 14.395 14.422 14.415 14.357 14.257 14.1 13.897 13.49 12.825 12.735 13.065 13.095 13.11 13.192 13.265 13.245 13.195 13.2 13.207 13.22 13.245 13.272 13.313 13.43 13.575 13.66 13.72 13.765 13.795 13.812 13.812 13.8 13.778 13.76 13.753 13.745 13.738 13.733 13.73 13.732 13.73 13.715 13.693 13.68 13.677 13.673 13.67 13.673 13.68 13.69 13.702 13.712 13.717 13.72 13.72 13.73 13.75 13.773 13.797 13.812 13.813 13.815 13.825 13.845 13.875 13.9 13.92 13.94 13.973 14.03 14.1 14.165 14.217 14.263 14.307 14.315 14.31 14.332 14.36 14.365 14.35 14.34 14.322 14.295 14.265 14.23 14.18 14.153 14.205 14.365 15.152 15.852 15.895 15.223 14.59 14.698 15.818 17.632 19.057 20.345 21.317 21.969 22.389 22.659 22.669 22.392 22.085 21.785 21.54 21.205 20.58 19.66 18.502
17.482 17.422 17.287 17.073 16.89 16.785 16.72 16.663 16.605 16.505 16.398 16.325 16.252 16.18 16.107 15.99 15.813 15.668 15.59 15.525 15.585 15.667 15.625 15.568 15.513 15.463 15.435 15.43 15.43 15.422 15.397 15.372 15.347 15.312 15.197 15.008 14.87 14.78 14.685 14.577 14.47 14.398 14.353 14.305 14.265 14.25 14.26 14.288 14.32 14.355 14.42 14.51 14.597 14.672 14.732 14.78 14.815 14.82 14.71 14.515 14.32 14.188 14.175 14.22 14.265 14.305 14.345 14.38 14.415 14.455 14.487 14.5 14.492 14.472 14.44 14.4 14.36 14.315 14.265 14.215 14.17 14.155 14.18 14.223 14.265 14.3 14.33 14.358 14.383 14.41 14.427 14.395 14.25 14.03 13.712 13.09 12.865 13.085 13.13 13.185 13.265 13.332 13.35 13.342 13.35 13.36 13.372 13.392 13.415 13.437 13.505 13.595 13.66 13.72 13.765 13.795 13.82 13.837 13.835 13.812 13.793 13.78 13.773 13.767 13.765 13.765 13.76 13.742 13.72 13.698 13.683 13.68 13.675 13.67 13.673 13.682 13.695 13.708 13.72 13.725 13.73 13.735 13.745 13.765 13.785 13.805 13.82 13.828 13.835 13.843 13.86 13.893 13.925 13.958 13.995 14.05 14.118 14.185 14.252 14.315 14.362 14.392 14.382 14.372 14.372 14.35 14.327 14.31 14.3 14.282 14.26 14.237 14.21 14.182 14.17 14.198 14.333 15.08 15.802 15.892 15.312 14.64 14.628 16.2 18.832 20.827 22.089 22.619 22.867 22.955 22.892 22.73 22.467 22.2 21.885 21.49 20.785 19.695 18.495 17.247
17.562 17.505 17.382 17.187 16.98 16.823 16.748 16.705 16.635 16.475 16.33 16.26 16.19 16.12 16.05 15.98 15.85 15.728 15.67 15.605 15.642 15.687 15.632 15.575 15.52 15.468 15.423 15.403 15.4 15.387 15.347 15.305 15.3 15.3 15.205 15.012 14.838 14.725 14.635 14.543 14.463 14.413 14.373 14.33 14.298 14.288 14.303 14.333 14.368 14.405 14.47 14.562 14.652 14.717 14.755 14.79 14.82 14.797 14.675 14.487 14.29 14.148 14.125 14.188 14.262 14.315 14.352 14.387 14.425 14.452 14.457 14.442 14.415 14.387 14.355 14.315 14.275 14.235 14.192 14.15 14.105 14.085 14.12 14.183 14.245 14.308 14.338 14.348 14.375 14.405 14.435 14.447 14.347 14.137 13.887 13.467 12.94 12.91 13.157 13.23 13.305 13.37 13.402 13.41 13.417 13.425 13.442 13.465 13.485 13.5 13.535 13.6 13.665 13.722 13.765 13.792 13.818 13.85 13.86 13.84 13.82 13.805 13.798 13.792 13.79 13.79 13.777 13.753 13.727 13.697 13.677 13.672 13.665 13.66 13.665 13.675 13.69 13.72 13.74 13.74 13.743 13.748 13.76 13.78 13.8 13.82 13.835 13.845 13.853 13.87 13.905 13.948 13.988 14.033 14.09 14.153 14.215 14.278 14.343 14.408 14.465 14.478 14.425 14.373 14.325 14.275 14.248 14.228 14.213 14.195 14.18 14.165 14.153 14.158 14.177 14.203 14.31 14.99 15.732 15.89 15.405 14.713 14.568 16.183 19.465 22.079 23.049 23.102 23.04 22.98 22.912 22.745 22.48 22.09 21.567 20.827 19.737 18.457 17.125 15.825
17.6 17.555 17.43 17.24 17.063 16.918 16.825 16.775 16.642 16.413 16.26 16.19 16.12 16.047 15.975 15.93 15.885 15.805 15.74 15.688 15.69 15.695 15.64 15.587 15.533 15.48 15.425 15.38 15.365 15.345 15.292 15.228 15.198 15.202 15.132 14.965 14.795 14.678 14.598 14.528 14.485 14.458 14.423 14.393 14.38 14.378 14.37 14.38 14.413 14.455 14.525 14.612 14.672 14.69 14.707 14.732 14.737 14.702 14.595 14.435 14.252 14.098 14.068 14.153 14.255 14.32 14.357 14.392 14.415 14.41 14.385 14.358 14.332 14.305 14.27 14.23 14.19 14.15 14.115 14.098 14.093 14.103 14.15 14.225 14.305 14.385 14.4 14.378 14.395 14.425 14.45 14.46 14.405 14.235 13.997 13.652 13.028 12.895 13.185 13.24 13.305 13.365 13.395 13.398 13.403 13.41 13.435 13.467 13.492 13.51 13.545 13.607 13.67 13.725 13.765 13.79 13.82 13.862 13.875 13.855 13.84 13.83 13.82 13.813 13.808 13.805 13.792 13.765 13.73 13.683 13.655 13.652 13.645 13.64 13.645 13.663 13.695 13.745 13.77 13.763 13.76 13.763 13.775 13.795 13.815 13.837 13.855 13.863 13.883 13.938 14 14.048 14.093 14.148 14.21 14.27 14.33 14.39 14.475 14.713 15.19 15.38 14.89 14.375 14.223 14.19 14.17 14.15 14.13 14.11 14.093 14.088 14.1 14.123 14.172 14.218 14.3 14.878 15.637 15.895 15.507 14.788 14.538 16.253 19.817 22.521 23.255 23.173 23.088 23.01 22.932 22.7 22.215 21.517 20.632 19.515 18.225 16.915 15.658 14.788
17.597 17.59 17.487 17.32 17.17 17.035 16.918 16.83 16.632 16.348 16.19 16.117 16.045 15.97 15.893 15.86 15.877 15.845 15.787 15.755 15.732 15.702 15.65 15.6 15.547 15.492 15.435 15.378 15.34 15.305 15.248 15.183 15.123 15.085 15.02 14.898 14.775 14.675 14.6 14.553 14.535 14.517 14.49 14.475 14.473 14.477 14.465 14.448 14.46 14.505 14.575 14.627 14.632 14.628 14.635 14.632 14.615 14.577 14.48 14.34 14.188 14.04 14.023 14.13 14.245 14.322 14.357 14.37 14.357 14.332 14.305 14.275 14.25 14.223 14.185 14.148 14.128 14.123 14.123 14.14 14.173 14.208 14.255 14.32 14.39 14.465 14.48 14.433 14.418 14.44 14.457 14.462 14.45 14.325 14.092 13.822 13.405 13.08 13.128 13.247 13.295 13.355 13.387 13.39 13.393 13.4 13.423 13.457 13.492 13.518 13.555 13.612 13.667 13.722 13.762 13.793 13.833 13.877 13.89 13.873 13.865 13.86 13.85 13.84 13.83 13.822 13.802 13.762 13.712 13.658 13.628 13.625 13.623 13.618 13.63 13.67 13.723 13.777 13.8 13.79 13.783 13.78 13.79 13.81 13.83 13.852 13.87 13.895 13.955 14.037 14.105 14.153 14.203 14.265 14.33 14.39 14.465 14.675 15.03 15.65 16.487 16.834 16.117 14.851 14.2 14.15 14.128 14.105 14.085 14.07 14.053 14.048 14.07 14.098 14.16 14.225 14.293 14.743 15.52 15.902 15.612 14.878 14.521 16.143 19.632 22.491 23.372 23.295 23.192 23.06 22.717 22.082 21.25 20.322 19.235 17.927 16.55 15.421 14.733 14.52
17.547 17.572 17.49 17.345 17.225 17.11 16.997 16.855 16.587 16.28 16.118 16.04 15.963 15.888 15.815 15.795 15.82 15.825 15.795 15.745 15.72 15.697 15.655 15.61 15.56 15.505 15.445 15.388 15.333 15.278 15.218 15.158 15.103 15.05 14.983 14.893 14.8 14.705 14.628 14.595 14.587 14.572 14.56 14.56 14.562 14.567 14.567 14.547 14.528 14.547 14.585 14.595 14.585 14.575 14.55 14.515 14.49 14.455 14.36 14.23 14.12 14.023 14.013 14.11 14.23 14.31 14.325 14.305 14.275 14.248 14.223 14.195 14.173 14.155 14.145 14.145 14.16 14.19 14.222 14.255 14.287 14.32 14.365 14.43 14.49 14.542 14.55 14.502 14.458 14.45 14.46 14.465 14.47 14.387 14.185 13.94 13.617 13.08 13.008 13.282 13.308 13.35 13.38 13.385 13.385 13.388 13.408 13.445 13.485 13.52 13.56 13.613 13.665 13.717 13.762 13.803 13.847 13.892 13.91 13.9 13.895 13.89 13.88 13.867 13.852 13.835 13.8 13.747 13.69 13.633 13.603 13.603 13.61 13.618 13.645 13.7 13.758 13.81 13.83 13.82 13.81 13.803 13.81 13.83 13.85 13.873 13.908 13.97 14.055 14.14 14.208 14.263 14.32 14.383 14.45 14.65 14.995 15.475 16.042 16.632 17.232 17.599 17.217 15.805 14.526 14.175 14.15 14.143 14.148 14.123 14.085 14.068 14.07 14.08 14.133 14.22 14.288 14.608 15.402 15.907 15.717 14.985 14.508 15.716 18.735 22.084 23.519 23.36 23.09 22.707 21.865 20.745 19.74 18.737 17.537 16.158 15.116 14.648 14.55 14.55
17.467 17.482 17.38 17.202 17.08 16.985 16.895 16.795 16.557 16.24 16.068 15.985 15.895 15.81 15.745 15.725 15.73 15.73 15.697 15.64 15.647 15.662 15.627 15.59 15.557 15.53 15.49 15.443 15.365 15.268 15.203 15.152 15.097 15.042 14.975 14.892 14.807 14.72 14.655 14.632 14.622 14.607 14.597 14.597 14.602 14.607 14.612 14.602 14.577 14.572 14.578 14.575 14.575 14.56 14.515 14.46 14.418 14.385 14.323 14.235 14.165 14.105 14.065 14.105 14.215 14.287 14.285 14.255 14.225 14.203 14.198 14.193 14.18 14.173 14.178 14.198 14.227 14.262 14.3 14.337 14.372 14.405 14.447 14.502 14.55 14.577 14.565 14.525 14.483 14.463 14.468 14.473 14.48 14.442 14.272 14.025 13.757 13.305 13.165 13.337 13.35 13.368 13.382 13.388 13.393 13.395 13.415 13.455 13.495 13.53 13.565 13.613 13.665 13.715 13.765 13.81 13.855 13.895 13.917 13.92 13.912 13.907 13.897 13.877 13.855 13.832 13.792 13.735 13.675 13.62 13.605 13.623 13.64 13.66 13.695 13.748 13.8 13.842 13.86 13.855 13.845 13.835 13.84 13.86 13.88 13.913 13.99 14.085 14.168 14.25 14.32 14.38 14.44 14.628 14.955 15.405 15.83 16.17 16.573 16.99 17.465 17.935 18.04 16.917 15.188 14.365 14.258 14.277 14.27 14.205 14.148 14.13 14.12 14.108 14.12 14.207 14.288 14.478 15.285 15.915 15.822 15.093 14.496 15.388 17.803 20.999 22.819 22.792 22.277 21.54 20.395 19.12 17.987 16.863 15.77 14.903 14.573 14.57 14.555 14.535
17.36 17.36 17.247 17.013 16.82 16.705 16.635 16.62 16.505 16.228 16.04 15.962 15.875 15.783 15.695 15.623 15.58 15.562 15.525 15.503 15.555 15.595 15.572 15.54 15.545 15.582 15.58 15.532 15.417 15.263 15.18 15.142 15.092 15.037 14.97 14.887 14.803 14.72 14.668 14.65 14.637 14.623 14.608 14.6 14.6 14.605 14.607 14.598 14.588 14.587 14.59 14.59 14.585 14.567 14.525 14.465 14.428 14.423 14.405 14.358 14.3 14.237 14.17 14.138 14.2 14.272 14.27 14.24 14.225 14.235 14.255 14.267 14.267 14.26 14.25 14.248 14.258 14.285 14.325 14.365 14.402 14.43 14.47 14.522 14.562 14.57 14.543 14.513 14.49 14.48 14.483 14.49 14.507 14.51 14.367 14.12 13.89 13.625 13.208 13.168 13.4 13.39 13.382 13.402 13.42 13.428 13.448 13.485 13.52 13.545 13.575 13.618 13.665 13.715 13.765 13.81 13.847 13.872 13.897 13.917 13.917 13.912 13.9 13.873 13.845 13.825 13.785 13.725 13.67 13.625 13.628 13.667 13.695 13.715 13.75 13.8 13.842 13.867 13.882 13.89 13.885 13.875 13.88 13.9 13.928 13.975 14.09 14.215 14.295 14.37 14.435 14.615 14.935 15.235 15.512 15.838 16.245 16.813 17.24 17.545 17.993 18.518 18.987 18.129 16.033 14.66 14.388 14.415 14.36 14.27 14.215 14.2 14.187 14.152 14.123 14.188 14.28 14.398 15.205 15.922 15.905 15.172 14.481 15.136 17.21 19.657 21.122 21.319 20.695 19.8 18.625 17.365 16.148 15.231 14.748 14.573 14.56 14.545 14.525 14.51
17.235 17.235 17.14 16.895 16.625 16.448 16.39 16.4 16.38 16.197 16.01 15.94 15.867 15.79 15.688 15.563 15.463 15.403 15.36 15.375 15.455 15.517 15.517 15.498 15.548 15.65 15.68 15.605 15.45 15.26 15.15 15.115 15.077 15.03 14.965 14.883 14.803 14.725 14.673 14.658 14.652 14.64 14.625 14.613 14.603 14.602 14.602 14.598 14.595 14.6 14.605 14.605 14.595 14.575 14.538 14.5 14.5 14.52 14.52 14.487 14.435 14.37 14.3 14.23 14.218 14.255 14.263 14.258 14.275 14.31 14.335 14.345 14.352 14.35 14.34 14.33 14.318 14.318 14.343 14.375 14.402 14.42 14.46 14.525 14.565 14.562 14.54 14.522 14.507 14.498 14.498 14.515 14.545 14.57 14.47 14.252 14.032 13.785 13.278 13.175 13.437 13.385 13.358 13.397 13.432 13.455 13.48 13.51 13.535 13.558 13.588 13.625 13.668 13.715 13.762 13.797 13.82 13.835 13.86 13.892 13.912 13.917 13.902 13.873 13.84 13.815 13.775 13.72 13.678 13.64 13.645 13.695 13.737 13.765 13.8 13.845 13.872 13.885 13.897 13.91 13.915 13.912 13.918 13.945 13.99 14.045 14.187 14.343 14.423 14.597 14.827 14.985 15.208 15.56 15.993 16.466 17.133 17.842 18.22 18.5 18.91 19.455 20.064 19.359 16.875 14.896 14.44 14.47 14.42 14.335 14.283 14.267 14.235 14.163 14.118 14.168 14.268 14.378 15.18 15.927 15.932 15.2 14.473 14.843 16.53 18.457 19.41 19.43 18.75 17.81 16.543 15.566 14.951 14.605 14.545 14.518 14.52 14.512 14.495 14.505
17.12 17.11 17.032 16.805 16.51 16.285 16.2 16.193 16.2 16.117 15.985 15.913 15.853 15.8 15.71 15.58 15.45 15.33 15.26 15.278 15.355 15.437 15.46 15.475 15.57 15.702 15.76 15.66 15.47 15.27 15.133 15.08 15.055 15.028 14.967 14.885 14.807 14.73 14.675 14.66 14.66 14.655 14.642 14.627 14.612 14.6 14.597 14.602 14.607 14.612 14.617 14.615 14.603 14.588 14.568 14.562 14.577 14.595 14.602 14.587 14.55 14.49 14.42 14.35 14.293 14.275 14.29 14.32 14.357 14.392 14.415 14.425 14.432 14.435 14.43 14.417 14.4 14.382 14.373 14.375 14.39 14.408 14.443 14.502 14.545 14.55 14.54 14.527 14.515 14.508 14.51 14.53 14.555 14.577 14.517 14.357 14.17 13.935 13.622 13.355 13.337 13.36 13.33 13.375 13.422 13.462 13.497 13.525 13.545 13.57 13.6 13.635 13.672 13.71 13.745 13.765 13.778 13.793 13.818 13.852 13.887 13.912 13.907 13.877 13.84 13.807 13.772 13.73 13.695 13.663 13.67 13.72 13.77 13.812 13.847 13.875 13.89 13.9 13.91 13.922 13.935 13.942 13.963 14.008 14.062 14.118 14.268 14.562 14.68 14.678 14.928 15.32 15.753 16.386 17.208 17.907 18.402 18.713 19.043 19.565 20.127 20.737 21.294 20.436 17.618 15.158 14.455 14.48 14.46 14.398 14.35 14.317 14.247 14.158 14.115 14.16 14.257 14.358 15.162 15.93 15.935 15.25 14.528 14.543 15.59 17.089 17.684 17.382 16.505 15.726 15.053 14.666 14.61 14.53 14.468 14.45 14.462 14.467 14.483 14.538
17.075 17.042 16.955 16.737 16.455 16.223 16.113 16.078 16.058 16.03 15.968 15.905 15.863 15.825 15.74 15.61 15.48 15.353 15.28 15.293 15.335 15.375 15.41 15.48 15.595 15.717 15.77 15.655 15.448 15.27 15.16 15.115 15.098 15.062 14.985 14.893 14.81 14.73 14.678 14.665 14.665 14.665 14.645 14.62 14.605 14.585 14.577 14.585 14.595 14.602 14.617 14.63 14.625 14.615 14.605 14.602 14.61 14.625 14.635 14.632 14.617 14.57 14.5 14.43 14.357 14.303 14.335 14.402 14.44 14.475 14.492 14.5 14.507 14.51 14.5 14.477 14.455 14.435 14.402 14.37 14.37 14.387 14.41 14.453 14.5 14.517 14.512 14.505 14.503 14.52 14.515 14.5 14.51 14.525 14.487 14.362 14.232 14.055 13.792 13.298 13.17 13.347 13.318 13.365 13.413 13.46 13.505 13.535 13.555 13.57 13.592 13.627 13.66 13.682 13.702 13.722 13.735 13.75 13.775 13.81 13.85 13.88 13.887 13.865 13.825 13.788 13.77 13.755 13.725 13.693 13.7 13.75 13.8 13.855 13.882 13.883 13.89 13.9 13.912 13.927 13.94 13.955 14 14.065 14.125 14.185 14.278 14.492 14.53 14.723 15.388 16.238 17.19 18.055 18.625 18.945 19.24 19.647 20.202 20.685 21.077 21.495 21.829 21.004 18.327 15.531 14.475 14.48 14.477 14.45 14.4 14.332 14.245 14.158 14.12 14.163 14.245 14.333 15.097 15.88 15.942 15.35 14.63 14.425 14.723 15.403 15.658 15.425 14.943 14.676 14.675 14.597 14.505 14.425 14.378 14.373 14.385 14.408 14.465 14.552
17.082 17.01 16.88 16.68 16.423 16.19 16.08 16.045 16.015 15.998 15.963 15.92 15.893 15.857 15.77 15.64 15.51 15.403 15.36 15.395 15.435 15.435 15.448 15.498 15.57 15.665 15.7 15.585 15.418 15.303 15.24 15.215 15.185 15.11 15.008 14.908 14.815 14.73 14.68 14.67 14.683 14.68 14.628 14.585 14.572 14.555 14.543 14.545 14.555 14.573 14.605 14.642 14.66 14.655 14.64 14.625 14.625 14.637 14.645 14.648 14.652 14.62 14.55 14.477 14.39 14.298 14.35 14.475 14.525 14.555 14.567 14.572 14.575 14.57 14.55 14.518 14.488 14.462 14.425 14.378 14.355 14.363 14.38 14.405 14.445 14.47 14.468 14.468 14.495 14.552 14.542 14.48 14.453 14.452 14.427 14.33 14.25 14.137 13.905 13.465 13.295 13.36 13.315 13.363 13.41 13.465 13.515 13.545 13.557 13.555 13.568 13.6 13.622 13.632 13.648 13.672 13.692 13.71 13.735 13.77 13.797 13.805 13.815 13.817 13.79 13.753 13.75 13.767 13.76 13.73 13.735 13.785 13.84 13.905 13.922 13.893 13.885 13.895 13.907 13.92 13.935 13.96 14.018 14.097 14.165 14.205 14.193 14.218 14.651 15.793 17.012 17.895 18.61 19.157 19.472 19.74 20.09 20.43 20.8 21.04 21.207 21.445 21.725 21.177 18.862 15.876 14.501 14.478 14.457 14.44 14.407 14.345 14.26 14.175 14.143 14.183 14.248 14.325 14.983 15.77 15.947 15.45 14.733 14.47 14.393 14.453 14.513 14.5 14.548 14.592 14.562 14.473 14.395 14.328 14.293 14.295 14.315 14.358 14.428 14.523
17.052 16.925 16.772 16.592 16.37 16.158 16.053 16.028 16.013 16.003 15.978 15.95 15.93 15.892 15.8 15.67 15.55 15.47 15.443 15.485 15.56 15.587 15.583 15.585 15.603 15.643 15.65 15.57 15.473 15.4 15.345 15.305 15.24 15.14 15.035 14.932 14.83 14.738 14.685 14.688 14.725 14.705 14.605 14.543 14.532 14.522 14.508 14.505 14.523 14.558 14.6 14.645 14.682 14.692 14.68 14.66 14.648 14.65 14.658 14.665 14.68 14.662 14.597 14.512 14.41 14.3 14.305 14.477 14.61 14.635 14.64 14.637 14.63 14.62 14.6 14.565 14.527 14.487 14.44 14.39 14.348 14.34 14.357 14.373 14.395 14.42 14.433 14.46 14.525 14.602 14.6 14.52 14.448 14.4 14.365 14.31 14.267 14.19 14.002 13.707 13.29 13.18 13.322 13.36 13.415 13.472 13.52 13.545 13.545 13.535 13.545 13.567 13.575 13.578 13.593 13.618 13.643 13.665 13.688 13.707 13.71 13.703 13.713 13.737 13.74 13.715 13.715 13.745 13.765 13.76 13.773 13.828 13.895 13.967 13.982 13.933 13.895 13.89 13.9 13.915 13.94 13.97 14.03 14.12 14.18 14.16 14.303 14.798 15.973 17.537 18.539 19.094 19.49 19.695 19.872 20.14 20.36 20.48 20.623 20.813 21.065 21.355 21.647 21.314 19.159 16.026 14.553 14.487 14.398 14.348 14.337 14.325 14.277 14.205 14.178 14.22 14.275 14.335 14.86 15.65 15.95 15.547 14.833 14.49 14.43 14.43 14.46 14.46 14.465 14.478 14.442 14.368 14.3 14.235 14.208 14.228 14.27 14.325 14.393 14.488
16.963 16.81 16.66 16.488 16.293 16.125 16.048 16.035 16.028 16.028 16.013 15.985 15.965 15.925 15.83 15.703 15.608 15.555 15.528 15.565 15.655 15.72 15.735 15.722 15.707 15.69 15.66 15.612 15.555 15.497 15.44 15.367 15.272 15.167 15.062 14.955 14.847 14.748 14.695 14.727 14.772 14.717 14.593 14.51 14.488 14.48 14.468 14.473 14.508 14.555 14.6 14.643 14.688 14.72 14.72 14.7 14.68 14.667 14.672 14.685 14.7 14.697 14.637 14.535 14.425 14.313 14.233 14.375 14.622 14.705 14.7 14.69 14.68 14.67 14.642 14.595 14.545 14.495 14.447 14.402 14.355 14.328 14.333 14.348 14.363 14.383 14.423 14.492 14.575 14.655 14.655 14.575 14.492 14.41 14.348 14.308 14.283 14.225 14.057 13.757 13.22 13.105 13.337 13.36 13.42 13.475 13.52 13.537 13.53 13.52 13.525 13.535 13.535 13.538 13.558 13.588 13.615 13.64 13.65 13.64 13.623 13.61 13.613 13.638 13.665 13.668 13.675 13.705 13.738 13.765 13.81 13.883 13.958 14.032 14.045 13.99 13.933 13.895 13.895 13.92 13.95 13.983 14.045 14.123 14.215 14.553 15.283 16.248 17.437 18.584 19.185 19.43 19.66 19.86 20.005 20.113 20.213 20.343 20.545 20.815 21.105 21.282 21.314 20.759 18.759 15.978 14.616 14.51 14.36 14.248 14.21 14.225 14.227 14.205 14.21 14.258 14.312 14.365 14.753 15.532 15.95 15.645 14.933 14.49 14.44 14.435 14.445 14.448 14.45 14.422 14.355 14.28 14.208 14.145 14.138 14.183 14.238 14.295 14.36 14.452
16.94 16.78 16.62 16.44 16.255 16.118 16.063 16.055 16.053 16.07 16.06 16.023 16 15.957 15.86 15.75 15.685 15.645 15.613 15.645 15.735 15.8 15.815 15.79 15.752 15.717 15.68 15.637 15.592 15.537 15.47 15.382 15.275 15.17 15.065 14.955 14.847 14.753 14.695 14.707 14.75 14.707 14.587 14.485 14.44 14.433 14.448 14.493 14.538 14.58 14.628 14.675 14.725 14.755 14.74 14.71 14.69 14.67 14.67 14.687 14.7 14.69 14.645 14.56 14.45 14.338 14.23 14.29 14.57 14.747 14.75 14.74 14.73 14.7 14.647 14.592 14.535 14.483 14.44 14.4 14.357 14.32 14.315 14.333 14.35 14.373 14.42 14.5 14.59 14.677 14.69 14.617 14.532 14.448 14.38 14.348 14.33 14.28 14.095 13.778 13.445 13.272 13.282 13.332 13.39 13.447 13.497 13.522 13.52 13.51 13.513 13.525 13.53 13.535 13.563 13.603 13.633 13.657 13.66 13.635 13.613 13.605 13.613 13.63 13.65 13.66 13.665 13.685 13.72 13.76 13.838 13.94 14.022 14.095 14.102 14.047 13.99 13.945 13.938 13.95 13.968 13.998 14.048 14.331 14.956 15.868 16.89 17.75 18.42 18.905 19.202 19.405 19.602 19.805 19.995 20.147 20.272 20.455 20.557 20.529 20.517 20.399 20.055 19.285 17.847 15.835 14.665 14.527 14.363 14.208 14.148 14.173 14.19 14.205 14.24 14.293 14.348 14.405 14.66 15.417 15.95 15.742 15.035 14.493 14.443 14.435 14.438 14.442 14.425 14.365 14.285 14.205 14.128 14.093 14.12 14.173 14.23 14.29 14.34 14.393
17.012 16.85 16.677 16.478 16.278 16.135 16.078 16.078 16.093 16.117 16.117 16.078 16.038 15.99 15.9 15.818 15.77 15.73 15.695 15.728 15.8 15.815 15.807 15.8 15.77 15.735 15.697 15.652 15.595 15.507 15.432 15.36 15.258 15.152 15.045 14.938 14.833 14.758 14.708 14.658 14.665 14.657 14.565 14.458 14.405 14.425 14.485 14.562 14.617 14.658 14.705 14.757 14.792 14.792 14.755 14.703 14.67 14.653 14.655 14.665 14.652 14.612 14.587 14.562 14.48 14.37 14.295 14.34 14.548 14.747 14.8 14.787 14.755 14.685 14.615 14.572 14.525 14.47 14.425 14.385 14.345 14.31 14.308 14.33 14.35 14.375 14.415 14.478 14.562 14.65 14.677 14.632 14.557 14.473 14.42 14.41 14.402 14.362 14.157 13.815 13.592 13.178 13.048 13.292 13.335 13.392 13.445 13.487 13.505 13.5 13.508 13.53 13.545 13.553 13.58 13.627 13.665 13.695 13.7 13.678 13.668 13.683 13.705 13.722 13.733 13.735 13.718 13.7 13.72 13.76 13.848 13.977 14.08 14.155 14.16 14.105 14.063 14.043 14.037 14.03 14.028 14.141 14.566 15.43 16.53 17.404 18.012 18.477 18.755 18.945 19.135 19.33 19.532 19.737 19.915 19.942 19.84 19.769 19.58 19.245 18.93 18.683 18.338 17.74 16.89 15.568 14.683 14.53 14.36 14.2 14.148 14.187 14.215 14.235 14.27 14.328 14.388 14.45 14.568 15.3 15.95 15.835 15.133 14.498 14.44 14.43 14.432 14.422 14.372 14.295 14.215 14.138 14.1 14.125 14.163 14.198 14.25 14.31 14.34 14.333
17.042 16.94 16.76 16.545 16.318 16.155 16.1 16.11 16.135 16.162 16.182 16.15 16.085 16.023 15.953 15.898 15.855 15.815 15.78 15.8 15.825 15.798 15.783 15.787 15.78 15.752 15.712 15.652 15.56 15.443 15.37 15.327 15.242 15.135 15.028 14.923 14.828 14.775 14.742 14.67 14.608 14.578 14.515 14.433 14.408 14.463 14.547 14.63 14.702 14.757 14.8 14.83 14.832 14.82 14.787 14.725 14.665 14.638 14.632 14.61 14.562 14.508 14.49 14.505 14.485 14.405 14.38 14.468 14.598 14.762 14.847 14.81 14.735 14.645 14.578 14.542 14.507 14.46 14.415 14.375 14.338 14.305 14.303 14.328 14.35 14.378 14.418 14.468 14.533 14.597 14.622 14.607 14.567 14.505 14.47 14.47 14.467 14.447 14.24 13.89 13.667 13.255 13.1 13.282 13.29 13.338 13.387 13.435 13.475 13.49 13.503 13.527 13.552 13.568 13.595 13.645 13.692 13.732 13.742 13.735 13.745 13.77 13.795 13.815 13.832 13.842 13.817 13.768 13.743 13.76 13.85 13.99 14.12 14.212 14.22 14.18 14.16 14.14 14.108 14.11 14.411 15.075 16.047 16.997 17.642 18.065 18.3 18.49 18.68 18.87 19.06 19.22 19.25 19.18 19.082 18.832 18.467 18.125 17.803 17.528 17.308 17.158 16.957 16.49 15.855 15.115 14.63 14.49 14.337 14.188 14.14 14.187 14.23 14.263 14.305 14.368 14.433 14.5 14.515 15.223 15.95 15.915 15.217 14.508 14.443 14.425 14.417 14.377 14.305 14.225 14.148 14.11 14.143 14.2 14.23 14.248 14.28 14.33 14.35 14.315
16.992 16.995 16.837 16.61 16.37 16.185 16.13 16.152 16.18 16.21 16.237 16.222 16.155 16.075 16.015 15.975 15.937 15.9 15.862 15.84 15.807 15.77 15.76 15.763 15.765 15.757 15.71 15.61 15.49 15.37 15.305 15.285 15.22 15.118 15.012 14.905 14.83 14.802 14.777 14.71 14.615 14.54 14.483 14.44 14.435 14.49 14.582 14.672 14.757 14.83 14.865 14.865 14.852 14.84 14.81 14.747 14.67 14.615 14.577 14.528 14.47 14.413 14.395 14.415 14.432 14.43 14.473 14.58 14.69 14.812 14.857 14.787 14.695 14.605 14.54 14.505 14.475 14.44 14.403 14.365 14.33 14.303 14.303 14.328 14.353 14.385 14.425 14.47 14.52 14.56 14.575 14.573 14.563 14.538 14.52 14.52 14.52 14.515 14.352 14.057 13.805 13.55 13.22 13.143 13.257 13.285 13.333 13.38 13.43 13.47 13.495 13.52 13.55 13.575 13.61 13.66 13.71 13.757 13.775 13.782 13.807 13.835 13.862 13.885 13.907 13.93 13.917 13.867 13.812 13.785 13.853 13.99 14.135 14.247 14.257 14.212 14.175 14.125 14.323 14.856 15.727 16.619 17.247 17.65 17.845 18.035 18.225 18.415 18.6 18.642 18.545 18.4 18.127 17.775 17.42 17.088 16.78 16.515 16.308 16.148 16.04 15.943 15.805 15.528 15.118 14.758 14.55 14.417 14.28 14.163 14.14 14.19 14.24 14.288 14.348 14.415 14.48 14.55 14.533 15.215 15.95 15.95 15.255 14.52 14.448 14.41 14.377 14.313 14.235 14.155 14.115 14.15 14.217 14.275 14.305 14.317 14.332 14.36 14.36 14.315
16.932 17 16.897 16.67 16.43 16.223 16.15 16.18 16.21 16.242 16.272 16.267 16.197 16.102 16.04 16 15.962 15.925 15.885 15.84 15.785 15.75 15.748 15.75 15.753 15.757 15.722 15.583 15.418 15.303 15.243 15.227 15.187 15.102 14.995 14.898 14.845 14.828 14.81 14.752 14.657 14.558 14.498 14.48 14.465 14.503 14.595 14.69 14.775 14.84 14.865 14.86 14.845 14.83 14.797 14.725 14.64 14.565 14.505 14.455 14.403 14.345 14.325 14.348 14.38 14.435 14.522 14.627 14.735 14.807 14.79 14.715 14.632 14.55 14.493 14.46 14.43 14.408 14.397 14.378 14.345 14.32 14.325 14.35 14.375 14.405 14.443 14.488 14.53 14.565 14.585 14.59 14.59 14.58 14.563 14.553 14.55 14.545 14.417 14.17 13.917 13.672 13.15 12.995 13.24 13.26 13.31 13.36 13.408 13.45 13.472 13.49 13.52 13.55 13.607 13.675 13.725 13.767 13.772 13.77 13.795 13.825 13.852 13.877 13.905 13.945 13.947 13.9 13.847 13.818 13.86 13.978 14.122 14.22 14.21 14.145 14.263 14.678 15.47 16.352 17.012 17.377 17.48 17.595 17.765 17.955 18.072 18.047 17.947 17.705 17.322 16.925 16.53 16.143 15.79 15.545 15.36 15.208 15.123 15.08 15.05 15.023 14.985 14.905 14.773 14.613 14.465 14.33 14.2 14.133 14.155 14.21 14.263 14.318 14.387 14.462 14.53 14.597 14.573 15.233 15.95 15.95 15.287 14.563 14.453 14.395 14.345 14.268 14.19 14.11 14.103 14.175 14.255 14.322 14.35 14.352 14.357 14.37 14.357 14.312
16.912 16.95 16.87 16.7 16.485 16.253 16.155 16.185 16.215 16.245 16.27 16.255 16.177 16.08 16.015 15.975 15.935 15.892 15.853 15.82 15.778 15.748 15.748 15.752 15.757 15.76 15.747 15.647 15.458 15.273 15.18 15.165 15.145 15.08 14.975 14.903 14.875 14.855 14.837 14.79 14.695 14.59 14.535 14.522 14.505 14.525 14.605 14.695 14.757 14.795 14.817 14.825 14.815 14.8 14.762 14.675 14.578 14.495 14.435 14.392 14.345 14.293 14.28 14.318 14.373 14.438 14.525 14.632 14.71 14.725 14.68 14.61 14.54 14.48 14.438 14.408 14.385 14.378 14.395 14.405 14.382 14.358 14.365 14.39 14.412 14.435 14.468 14.512 14.552 14.59 14.625 14.647 14.655 14.645 14.618 14.59 14.575 14.552 14.41 14.175 13.965 13.77 13.355 13.143 13.237 13.26 13.32 13.365 13.405 13.44 13.443 13.44 13.465 13.495 13.58 13.685 13.745 13.775 13.757 13.728 13.735 13.762 13.788 13.818 13.858 13.912 13.922 13.875 13.845 13.855 13.888 13.968 14.095 14.145 14.201 14.538 15.253 16.092 16.784 17.174 17.302 17.38 17.46 17.55 17.552 17.457 17.29 16.98 16.6 16.218 15.835 15.45 15.12 14.87 14.688 14.59 14.548 14.518 14.505 14.525 14.555 14.585 14.608 14.608 14.587 14.502 14.365 14.233 14.145 14.133 14.175 14.24 14.297 14.35 14.42 14.502 14.577 14.637 14.605 15.205 15.905 15.95 15.37 14.653 14.458 14.385 14.33 14.25 14.17 14.09 14.075 14.145 14.232 14.305 14.33 14.325 14.33 14.345 14.342 14.307
16.87 16.83 16.745 16.635 16.492 16.288 16.168 16.185 16.21 16.227 16.237 16.202 16.122 16.04 15.983 15.942 15.9 15.858 15.82 15.795 15.768 15.75 15.75 15.752 15.755 15.757 15.75 15.717 15.597 15.38 15.22 15.143 15.093 15.045 14.968 14.918 14.902 14.885 14.865 14.822 14.717 14.613 14.575 14.565 14.55 14.553 14.61 14.677 14.71 14.735 14.76 14.78 14.782 14.77 14.727 14.63 14.52 14.428 14.365 14.323 14.278 14.24 14.255 14.315 14.38 14.445 14.527 14.612 14.635 14.615 14.57 14.508 14.455 14.415 14.383 14.358 14.348 14.35 14.378 14.412 14.412 14.395 14.403 14.425 14.445 14.465 14.495 14.537 14.575 14.61 14.65 14.687 14.712 14.712 14.685 14.647 14.617 14.575 14.435 14.23 14.043 13.857 13.587 13.105 13.008 13.257 13.322 13.36 13.393 13.427 13.427 13.403 13.41 13.438 13.53 13.675 13.765 13.782 13.75 13.705 13.685 13.698 13.73 13.775 13.83 13.89 13.9 13.875 13.883 13.91 13.937 13.98 14.07 14.396 15.033 15.827 16.549 16.977 17.137 17.205 17.28 17.34 17.267 17.075 16.752 16.305 15.883 15.495 15.173 14.938 14.735 14.53 14.38 14.325 14.3 14.285 14.298 14.325 14.355 14.385 14.412 14.435 14.445 14.442 14.432 14.377 14.265 14.165 14.14 14.158 14.195 14.26 14.325 14.38 14.45 14.537 14.62 14.672 14.635 15.12 15.802 15.95 15.467 14.758 14.463 14.373 14.31 14.23 14.15 14.073 14.048 14.103 14.182 14.252 14.282 14.283 14.295 14.315 14.325 14.302
16.755 16.68 16.595 16.498 16.402 16.27 16.175 16.175 16.19 16.2 16.195 16.142 16.06 15.985 15.938 15.905 15.865 15.823 15.788 15.768 15.755 15.75 15.75 15.75 15.75 15.752 15.747 15.73 15.687 15.562 15.4 15.26 15.148 15.05 14.975 14.945 14.928 14.912 14.895 14.847 14.728 14.63 14.61 14.597 14.58 14.57 14.595 14.63 14.653 14.678 14.703 14.727 14.742 14.74 14.692 14.59 14.475 14.368 14.298 14.265 14.238 14.22 14.243 14.305 14.377 14.45 14.515 14.545 14.535 14.515 14.478 14.433 14.395 14.36 14.333 14.318 14.315 14.323 14.353 14.395 14.425 14.432 14.44 14.46 14.477 14.495 14.52 14.555 14.592 14.627 14.665 14.705 14.742 14.76 14.735 14.687 14.645 14.6 14.497 14.327 14.14 13.952 13.717 13.123 12.938 13.245 13.31 13.35 13.38 13.412 13.42 13.382 13.362 13.38 13.47 13.632 13.757 13.782 13.743 13.698 13.658 13.65 13.688 13.745 13.807 13.867 13.89 13.897 13.92 13.943 13.968 14.231 14.793 15.562 16.322 16.779 16.97 17.04 17.107 17.135 17.037 16.835 16.5 16.028 15.523 15.095 14.798 14.563 14.413 14.36 14.338 14.313 14.288 14.265 14.24 14.213 14.198 14.198 14.213 14.238 14.26 14.277 14.28 14.275 14.27 14.248 14.188 14.148 14.16 14.18 14.215 14.275 14.345 14.407 14.477 14.565 14.65 14.702 14.665 15.018 15.685 15.95 15.56 14.86 14.47 14.36 14.29 14.21 14.132 14.058 14.02 14.055 14.125 14.195 14.235 14.247 14.265 14.285 14.302 14.295
16.663 16.595 16.51 16.415 16.32 16.223 16.163 16.153 16.16 16.17 16.147 16.082 16.005 15.93 15.883 15.857 15.827 15.788 15.755 15.745 15.748 15.75 15.75 15.75 15.75 15.75 15.742 15.725 15.705 15.64 15.505 15.345 15.192 15.065 14.995 14.973 14.955 14.938 14.92 14.857 14.72 14.62 14.597 14.582 14.567 14.563 14.573 14.59 14.613 14.633 14.653 14.673 14.693 14.705 14.657 14.55 14.435 14.325 14.263 14.25 14.238 14.225 14.233 14.275 14.345 14.425 14.48 14.488 14.473 14.458 14.428 14.388 14.35 14.315 14.293 14.285 14.288 14.3 14.33 14.373 14.42 14.447 14.46 14.477 14.49 14.502 14.517 14.542 14.58 14.615 14.65 14.69 14.73 14.762 14.745 14.69 14.645 14.61 14.56 14.432 14.245 14.065 13.84 13.43 13.098 13.142 13.28 13.33 13.37 13.405 13.165 12.893 12.875 12.895 13.147 13.485 13.687 13.775 13.742 13.698 13.655 13.635 13.665 13.725 13.787 13.84 13.87 13.89 13.91 14.016 14.481 15.32 16.089 16.582 16.807 16.872 16.94 16.947 16.825 16.595 16.237 15.793 15.395 15.068 14.76 14.54 14.425 14.34 14.293 14.27 14.247 14.225 14.205 14.182 14.155 14.13 14.107 14.085 14.083 14.095 14.108 14.125 14.138 14.143 14.148 14.155 14.153 14.155 14.175 14.195 14.233 14.292 14.357 14.41 14.472 14.557 14.64 14.707 14.69 14.915 15.567 15.95 15.647 14.958 14.485 14.353 14.262 14.18 14.102 14.03 13.993 14.023 14.09 14.142 14.17 14.19 14.21 14.23 14.25 14.262
16.645 16.585 16.5 16.4 16.303 16.21 16.15 16.133 16.133 16.14 16.107 16.03 15.95 15.875 15.828 15.802 15.777 15.75 15.733 15.735 15.745 15.75 15.75 15.75 15.75 15.75 15.74 15.72 15.677 15.592 15.45 15.278 15.148 15.075 15.03 15 14.98 14.962 14.932 14.845 14.698 14.585 14.545 14.533 14.533 14.543 14.557 14.573 14.59 14.605 14.62 14.638 14.655 14.675 14.627 14.51 14.395 14.3 14.26 14.255 14.243 14.23 14.235 14.26 14.308 14.38 14.437 14.455 14.447 14.435 14.405 14.355 14.313 14.28 14.263 14.26 14.268 14.293 14.333 14.38 14.407 14.407 14.432 14.465 14.475 14.485 14.493 14.508 14.538 14.573 14.61 14.65 14.695 14.74 14.732 14.683 14.645 14.618 14.595 14.515 14.357 14.195 13.952 13.585 13.005 12.93 13.255 13.295 13.335 13.15 12.678 12.41 12.41 12.425 12.718 13.217 13.577 13.742 13.747 13.705 13.663 13.633 13.655 13.715 13.772 13.812 13.835 13.853 14.151 14.895 15.737 16.362 16.635 16.705 16.77 16.79 16.677 16.417 16.035 15.595 15.258 15.008 14.803 14.675 14.575 14.475 14.378 14.283 14.21 14.173 14.15 14.13 14.107 14.08 14.052 14.027 14 13.978 13.973 13.978 13.998 14.035 14.075 14.105 14.123 14.14 14.158 14.173 14.188 14.205 14.245 14.305 14.355 14.385 14.438 14.52 14.6 14.677 14.693 14.813 15.452 15.95 15.732 15.05 14.49 14.328 14.218 14.135 14.065 14.008 13.978 14.01 14.062 14.075 14.083 14.11 14.135 14.153 14.173 14.197
16.65 16.585 16.497 16.393 16.293 16.198 16.14 16.125 16.115 16.112 16.072 15.983 15.895 15.818 15.77 15.748 15.725 15.713 15.718 15.732 15.745 15.75 15.75 15.75 15.75 15.75 15.737 15.692 15.605 15.495 15.36 15.23 15.16 15.115 15.07 15.033 15.005 14.987 14.93 14.81 14.67 14.553 14.5 14.498 14.51 14.525 14.54 14.555 14.57 14.587 14.603 14.62 14.64 14.66 14.602 14.473 14.355 14.278 14.258 14.257 14.25 14.24 14.243 14.26 14.288 14.34 14.39 14.412 14.42 14.412 14.382 14.33 14.28 14.25 14.243 14.253 14.275 14.313 14.36 14.387 14.365 14.33 14.363 14.427 14.455 14.462 14.468 14.475 14.495 14.53 14.57 14.613 14.665 14.72 14.72 14.68 14.65 14.625 14.602 14.56 14.472 14.337 14.075 13.712 13.173 13.03 13.262 13.288 13.312 12.883 12.425 12.41 12.41 12.41 12.495 12.965 13.48 13.692 13.755 13.712 13.668 13.63 13.643 13.7 13.75 13.78 13.913 14.403 15.232 16.072 16.482 16.537 16.595 16.635 16.532 16.277 15.9 15.48 15.173 14.933 14.778 14.71 14.655 14.605 14.525 14.425 14.33 14.235 14.145 14.085 14.053 14.027 14 13.97 13.943 13.92 13.893 13.868 13.868 13.89 13.935 13.99 14.045 14.097 14.137 14.165 14.182 14.195 14.205 14.22 14.257 14.305 14.335 14.355 14.403 14.48 14.56 14.635 14.682 14.733 15.36 15.95 15.817 15.143 14.483 14.285 14.17 14.103 14.05 14.005 13.973 13.985 14 13.985 13.988 14.02 14.055 14.077 14.098 14.123
16.668 16.587 16.495 16.39 16.287 16.188 16.135 16.12 16.1 16.08 16.027 15.937 15.847 15.765 15.713 15.695 15.685 15.685 15.7 15.72 15.737 15.747 15.75 15.75 15.75 15.747 15.71 15.622 15.515 15.4 15.292 15.235 15.202 15.155 15.11 15.067 15.032 14.997 14.91 14.775 14.635 14.515 14.47 14.48 14.493 14.508 14.523 14.538 14.553 14.57 14.588 14.608 14.635 14.65 14.58 14.445 14.323 14.258 14.255 14.26 14.255 14.245 14.245 14.26 14.28 14.31 14.343 14.365 14.38 14.382 14.36 14.31 14.253 14.228 14.243 14.27 14.305 14.345 14.365 14.342 14.29 14.248 14.275 14.358 14.42 14.44 14.443 14.448 14.46 14.49 14.533 14.583 14.638 14.695 14.71 14.682 14.655 14.627 14.6 14.57 14.53 14.447 14.212 13.867 13.512 13.188 13.175 13.31 13.33 13.085 12.62 12.41 12.41 12.41 12.41 12.733 13.3 13.655 13.752 13.717 13.675 13.633 13.633 13.68 13.718 14.048 14.818 15.645 16.209 16.422 16.465 16.505 16.405 16.15 15.775 15.368 15.085 14.885 14.775 14.713 14.635 14.558 14.503 14.475 14.435 14.367 14.282 14.185 14.087 14.003 13.95 13.92 13.893 13.87 13.858 13.853 13.825 13.79 13.79 13.825 13.88 13.937 13.995 14.055 14.112 14.16 14.19 14.205 14.217 14.232 14.26 14.287 14.305 14.325 14.368 14.437 14.515 14.592 14.665 14.665 15.29 15.95 15.902 15.237 14.478 14.253 14.145 14.095 14.05 14.005 13.965 13.943 13.92 13.893 13.893 13.925 13.963 13.995 14.023 14.05
16.688 16.595 16.483 16.368 16.26 16.158 16.1 16.077 16.05 16.012 15.952 15.872 15.79 15.71 15.663 15.655 15.658 15.665 15.68 15.7 15.72 15.735 15.74 15.74 15.737 15.732 15.675 15.568 15.452 15.315 15.18 15.12 15.112 15.095 15.08 15.067 15.052 14.99 14.865 14.72 14.583 14.485 14.46 14.475 14.485 14.5 14.515 14.528 14.543 14.563 14.585 14.613 14.645 14.647 14.565 14.43 14.323 14.268 14.255 14.258 14.257 14.25 14.25 14.265 14.285 14.308 14.323 14.328 14.335 14.345 14.327 14.275 14.223 14.208 14.235 14.272 14.31 14.355 14.355 14.3 14.238 14.195 14.223 14.308 14.39 14.425 14.425 14.428 14.433 14.455 14.503 14.56 14.615 14.67 14.695 14.675 14.645 14.615 14.588 14.56 14.54 14.512 14.33 14.007 13.67 13.11 13.025 13.335 13.352 13.332 12.857 12.41 12.41 12.41 12.41 12.505 12.86 13.425 13.725 13.705 13.675 13.638 13.628 13.798 14.31 15.13 15.939 16.305 16.35 16.395 16.332 16.12 15.71 15.278 15.003 14.828 14.765 14.743 14.69 14.61 14.53 14.46 14.41 14.375 14.342 14.287 14.202 14.107 14.012 13.915 13.845 13.818 13.81 13.815 13.83 13.83 13.798 13.778 13.768 13.778 13.825 13.875 13.93 13.99 14.047 14.102 14.152 14.182 14.2 14.215 14.242 14.275 14.293 14.31 14.335 14.383 14.452 14.53 14.61 14.605 15.255 15.95 15.947 15.292 14.483 14.245 14.143 14.095 14.05 14.008 13.968 13.93 13.89 13.86 13.853 13.873 13.908 13.945 13.978 14.005
16.72 16.635 16.503 16.353 16.215 16.098 16.03 16 15.962 15.915 15.855 15.782 15.707 15.63 15.608 15.627 15.635 15.645 15.66 15.68 15.7 15.715 15.717 15.715 15.712 15.707 15.652 15.535 15.392 15.227 15.048 14.905 14.865 14.882 14.9 14.92 14.95 14.917 14.79 14.648 14.54 14.475 14.458 14.472 14.485 14.5 14.515 14.528 14.553 14.588 14.61 14.633 14.665 14.65 14.553 14.443 14.375 14.325 14.288 14.268 14.26 14.258 14.258 14.27 14.293 14.325 14.34 14.325 14.31 14.308 14.285 14.238 14.198 14.183 14.205 14.243 14.288 14.347 14.36 14.305 14.255 14.245 14.245 14.293 14.38 14.415 14.415 14.415 14.418 14.438 14.483 14.54 14.595 14.647 14.672 14.657 14.63 14.6 14.578 14.57 14.58 14.577 14.41 14.1 13.785 13.308 13.17 13.357 13.37 13.375 12.943 12.46 12.41 12.41 12.41 12.41 12.485 13.125 13.682 13.667 13.65 13.62 13.928 14.713 15.53 16.052 16.235 16.275 16.305 16.147 15.747 15.298 14.925 14.74 14.713 14.71 14.695 14.675 14.627 14.55 14.48 14.427 14.377 14.317 14.25 14.165 14.07 13.977 13.885 13.81 13.77 13.765 13.78 13.803 13.825 13.813 13.793 13.81 13.788 13.755 13.78 13.82 13.86 13.913 13.972 14.028 14.085 14.132 14.16 14.178 14.213 14.262 14.295 14.312 14.323 14.34 14.383 14.45 14.535 14.58 15.265 15.95 15.95 15.315 14.513 14.258 14.145 14.098 14.055 14.018 13.985 13.95 13.915 13.898 13.885 13.878 13.9 13.94 13.97 13.993
16.78 16.71 16.577 16.4 16.228 16.068 15.963 15.913 15.868 15.818 15.755 15.683 15.607 15.53 15.523 15.577 15.61 15.625 15.64 15.66 15.677 15.692 15.695 15.69 15.69 15.685 15.617 15.472 15.305 15.133 14.953 14.765 14.638 14.615 14.643 14.683 14.743 14.777 14.707 14.6 14.533 14.48 14.458 14.47 14.485 14.5 14.523 14.553 14.595 14.637 14.655 14.663 14.685 14.652 14.563 14.5 14.455 14.405 14.36 14.318 14.283 14.265 14.26 14.275 14.308 14.35 14.37 14.35 14.318 14.29 14.258 14.218 14.18 14.155 14.17 14.215 14.275 14.345 14.367 14.343 14.345 14.375 14.343 14.315 14.368 14.402 14.405 14.408 14.413 14.428 14.465 14.52 14.575 14.625 14.647 14.637 14.618 14.605 14.608 14.625 14.655 14.655 14.485 14.175 13.862 13.552 13.337 13.34 13.41 13.43 13.135 12.618 12.41 12.41 12.41 12.41 12.41 13.03 13.632 13.6 13.738 14.225 15.012 15.784 16.125 16.165 16.205 16.127 15.857 15.385 14.938 14.7 14.585 14.56 14.572 14.592 14.602 14.6 14.562 14.497 14.43 14.362 14.285 14.192 14.097 14 13.903 13.823 13.768 13.753 13.76 13.765 13.78 13.8 13.81 13.808 13.823 13.855 13.825 13.755 13.745 13.78 13.815 13.853 13.9 13.953 14.01 14.067 14.112 14.142 14.18 14.235 14.287 14.317 14.327 14.33 14.34 14.38 14.473 14.575 15.255 15.922 15.95 15.372 14.583 14.27 14.148 14.105 14.068 14.035 14.005 13.973 13.953 13.95 13.94 13.918 13.913 13.938 13.965 13.985
16.782 16.737 16.622 16.44 16.247 16.05 15.913 15.845 15.79 15.743 15.678 15.59 15.505 15.425 15.418 15.488 15.552 15.595 15.618 15.635 15.653 15.668 15.673 15.675 15.685 15.68 15.585 15.41 15.235 15.063 14.883 14.69 14.503 14.408 14.435 14.508 14.585 14.655 14.65 14.588 14.535 14.485 14.46 14.47 14.488 14.513 14.555 14.605 14.655 14.69 14.702 14.705 14.712 14.68 14.62 14.58 14.535 14.487 14.442 14.395 14.345 14.3 14.273 14.288 14.332 14.377 14.395 14.372 14.335 14.293 14.25 14.21 14.168 14.13 14.145 14.21 14.28 14.353 14.403 14.43 14.47 14.51 14.475 14.395 14.375 14.39 14.398 14.408 14.418 14.425 14.455 14.505 14.555 14.602 14.62 14.61 14.6 14.612 14.647 14.682 14.717 14.725 14.557 14.245 13.93 13.615 13.203 13.208 13.475 13.517 13.42 12.848 12.41 12.41 12.41 12.41 12.72 13.297 13.54 13.846 14.61 15.402 15.897 16.055 16.095 16.107 15.927 15.48 15.003 14.67 14.52 14.473 14.417 14.385 14.392 14.42 14.45 14.49 14.475 14.397 14.31 14.212 14.115 14.015 13.915 13.828 13.768 13.743 13.755 13.777 13.782 13.78 13.788 13.802 13.813 13.833 13.865 13.895 13.865 13.778 13.733 13.748 13.785 13.815 13.843 13.883 13.935 13.993 14.047 14.097 14.147 14.205 14.262 14.31 14.33 14.33 14.333 14.345 14.428 14.575 15.188 15.837 15.95 15.457 14.68 14.285 14.158 14.12 14.085 14.052 14.02 14.002 14.005 14.007 13.995 13.972 13.953 13.948 13.96 13.98
16.68 16.655 16.575 16.415 16.217 16.015 15.88 15.81 15.75 15.713 15.682 15.615 15.518 15.425 15.395 15.443 15.513 15.58 15.623 15.645 15.663 15.678 15.69 15.705 15.71 15.687 15.577 15.395 15.218 15.043 14.865 14.678 14.48 14.35 14.363 14.448 14.528 14.592 14.612 14.582 14.537 14.49 14.463 14.475 14.513 14.558 14.608 14.662 14.715 14.742 14.748 14.752 14.752 14.727 14.685 14.645 14.597 14.545 14.497 14.45 14.397 14.342 14.303 14.308 14.348 14.392 14.41 14.385 14.342 14.298 14.255 14.213 14.17 14.145 14.175 14.245 14.315 14.39 14.465 14.527 14.585 14.637 14.607 14.497 14.42 14.403 14.413 14.428 14.437 14.438 14.46 14.505 14.55 14.582 14.587 14.58 14.573 14.593 14.637 14.68 14.722 14.737 14.595 14.305 13.99 13.675 13.03 13.035 13.547 13.61 13.647 13.025 12.411 12.41 12.488 12.905 13.442 13.695 14.063 14.852 15.622 15.94 15.985 16.025 15.932 15.622 15.138 14.673 14.45 14.385 14.342 14.29 14.23 14.185 14.185 14.23 14.31 14.367 14.325 14.225 14.125 14.025 13.925 13.835 13.77 13.733 13.735 13.77 13.805 13.81 13.8 13.8 13.805 13.81 13.828 13.86 13.89 13.922 13.9 13.818 13.745 13.728 13.755 13.785 13.81 13.835 13.873 13.923 13.983 14.045 14.102 14.16 14.217 14.275 14.317 14.33 14.332 14.335 14.398 14.573 15.088 15.72 15.95 15.542 14.78 14.308 14.163 14.117 14.082 14.047 14.015 14.01 14.03 14.042 14.035 14.012 13.99 13.968 13.965 13.985
16.543 16.515 16.457 16.347 16.182 15.985 15.848 15.78 15.735 15.708 15.71 15.707 15.642 15.548 15.495 15.503 15.54 15.6 15.657 15.695 15.717 15.735 15.755 15.76 15.732 15.69 15.605 15.427 15.225 15.05 14.877 14.702 14.518 14.378 14.378 14.455 14.515 14.56 14.58 14.562 14.527 14.488 14.47 14.503 14.565 14.622 14.668 14.72 14.772 14.795 14.795 14.797 14.797 14.775 14.732 14.682 14.622 14.56 14.515 14.475 14.422 14.37 14.34 14.34 14.36 14.4 14.425 14.4 14.35 14.305 14.262 14.22 14.198 14.205 14.243 14.305 14.375 14.45 14.525 14.595 14.66 14.717 14.687 14.565 14.478 14.448 14.448 14.46 14.46 14.45 14.468 14.512 14.55 14.56 14.552 14.545 14.538 14.558 14.6 14.64 14.685 14.697 14.575 14.332 14.045 13.735 13.095 13.06 13.572 13.692 13.8 13.545 13.26 13.265 13.285 13.54 13.89 14.435 15.187 15.674 15.852 15.907 15.91 15.732 15.3 14.8 14.448 14.28 14.218 14.167 14.122 14.073 14.018 13.983 14.025 14.14 14.237 14.227 14.135 14.035 13.935 13.84 13.77 13.73 13.723 13.743 13.783 13.83 13.845 13.83 13.82 13.82 13.822 13.82 13.833 13.867 13.9 13.935 13.92 13.85 13.773 13.725 13.73 13.755 13.785 13.81 13.833 13.87 13.928 13.99 14.047 14.103 14.16 14.22 14.275 14.312 14.325 14.325 14.375 14.563 14.983 15.607 15.95 15.627 14.893 14.353 14.18 14.105 14.058 14.023 13.995 13.995 14.023 14.052 14.057 14.037 14.012 13.985 13.98 14
16.428 16.38 16.322 16.235 16.12 15.95 15.815 15.76 15.73 15.705 15.703 15.73 15.73 15.68 15.64 15.63 15.63 15.653 15.695 15.74 15.775 15.8 15.805 15.777 15.732 15.69 15.637 15.467 15.238 15.06 14.89 14.72 14.545 14.4 14.38 14.437 14.48 14.52 14.55 14.54 14.51 14.503 14.525 14.573 14.63 14.685 14.732 14.78 14.822 14.842 14.845 14.845 14.842 14.815 14.76 14.695 14.625 14.56 14.515 14.485 14.445 14.4 14.383 14.385 14.39 14.415 14.445 14.422 14.363 14.313 14.27 14.248 14.255 14.278 14.315 14.37 14.435 14.51 14.582 14.642 14.692 14.74 14.707 14.605 14.545 14.515 14.492 14.485 14.472 14.458 14.475 14.512 14.53 14.525 14.517 14.51 14.503 14.52 14.56 14.603 14.65 14.655 14.525 14.305 14.067 13.79 13.348 13.23 13.492 13.647 13.79 13.922 14.004 13.97 13.852 13.965 14.57 15.342 15.705 15.76 15.815 15.77 15.507 15.038 14.58 14.328 14.2 14.095 14.008 13.94 13.895 13.875 13.863 13.885 14 14.125 14.13 14.045 13.945 13.848 13.773 13.725 13.705 13.72 13.755 13.803 13.855 13.88 13.87 13.848 13.838 13.837 13.832 13.825 13.838 13.873 13.907 13.945 13.932 13.868 13.8 13.738 13.715 13.73 13.755 13.785 13.81 13.835 13.875 13.93 13.99 14.045 14.1 14.16 14.215 14.267 14.307 14.32 14.36 14.543 14.885 15.517 15.95 15.712 15.045 14.443 14.223 14.128 14.05 14 13.978 13.988 14.02 14.055 14.07 14.06 14.032 14 13.995 14.03
16.35 16.268 16.19 16.098 16.008 15.89 15.793 15.755 15.728 15.703 15.698 15.72 15.75 15.762 15.755 15.745 15.732 15.712 15.7 15.722 15.767 15.795 15.78 15.742 15.71 15.682 15.645 15.507 15.277 15.073 14.9 14.73 14.56 14.413 14.373 14.413 14.448 14.483 14.518 14.535 14.543 14.572 14.617 14.66 14.7 14.743 14.79 14.837 14.87 14.882 14.885 14.885 14.88 14.84 14.77 14.7 14.63 14.563 14.503 14.473 14.455 14.433 14.427 14.432 14.435 14.443 14.465 14.447 14.383 14.328 14.303 14.31 14.328 14.35 14.39 14.443 14.5 14.56 14.617 14.665 14.705 14.75 14.73 14.663 14.62 14.575 14.522 14.492 14.477 14.463 14.477 14.497 14.498 14.49 14.483 14.48 14.485 14.51 14.555 14.608 14.66 14.645 14.492 14.27 14.05 13.812 13.493 13.288 13.375 13.513 13.623 13.75 13.765 13.81 14.175 14.812 15.375 15.61 15.665 15.712 15.622 15.267 14.81 14.458 14.27 14.153 14.033 13.938 13.863 13.8 13.77 13.785 13.813 13.895 14.012 14.032 13.955 13.855 13.775 13.725 13.7 13.703 13.725 13.77 13.825 13.88 13.915 13.91 13.887 13.863 13.852 13.847 13.835 13.825 13.84 13.877 13.912 13.95 13.947 13.89 13.825 13.76 13.715 13.715 13.735 13.758 13.785 13.81 13.838 13.878 13.928 13.982 14.04 14.1 14.155 14.21 14.265 14.305 14.358 14.525 14.798 15.445 15.95 15.797 15.185 14.525 14.278 14.183 14.088 14.005 13.973 13.99 14.025 14.06 14.082 14.077 14.045 14.01 14.018 14.08
16.275 16.185 16.113 16.033 15.94 15.85 15.79 15.76 15.733 15.705 15.693 15.71 15.74 15.777 15.81 15.815 15.8 15.755 15.678 15.648 15.685 15.71 15.682 15.637 15.612 15.597 15.575 15.467 15.272 15.085 14.915 14.745 14.575 14.423 14.373 14.408 14.44 14.473 14.513 14.548 14.58 14.62 14.667 14.72 14.762 14.798 14.84 14.887 14.912 14.915 14.915 14.915 14.905 14.86 14.788 14.715 14.645 14.575 14.515 14.503 14.505 14.475 14.453 14.455 14.462 14.467 14.48 14.475 14.433 14.383 14.37 14.39 14.407 14.425 14.46 14.512 14.547 14.555 14.582 14.635 14.687 14.745 14.752 14.702 14.645 14.577 14.508 14.475 14.47 14.463 14.47 14.483 14.49 14.5 14.508 14.518 14.538 14.57 14.62 14.68 14.702 14.647 14.485 14.26 14.038 13.827 13.545 13.158 13.178 13.415 13.48 13.56 13.79 14.35 15.02 15.41 15.517 15.572 15.577 15.432 15.05 14.61 14.35 14.223 14.115 14.003 13.918 13.858 13.81 13.77 13.75 13.765 13.813 13.9 13.935 13.865 13.78 13.723 13.695 13.693 13.703 13.73 13.778 13.835 13.89 13.935 13.945 13.925 13.902 13.878 13.862 13.85 13.835 13.825 13.84 13.877 13.912 13.95 13.96 13.922 13.865 13.8 13.738 13.713 13.723 13.738 13.758 13.785 13.812 13.84 13.863 13.9 13.96 14.02 14.085 14.152 14.213 14.273 14.353 14.51 14.71 15.375 15.95 15.882 15.272 14.578 14.375 14.278 14.177 14.058 13.993 14.013 14.048 14.083 14.105 14.09 14.053 14.02 14.023 14.077
16.193 16.118 16.067 16.02 15.942 15.855 15.803 15.775 15.745 15.713 15.693 15.705 15.735 15.775 15.825 15.857 15.852 15.787 15.675 15.588 15.585 15.61 15.575 15.513 15.468 15.44 15.425 15.32 15.183 15.08 14.93 14.762 14.593 14.435 14.38 14.415 14.453 14.495 14.545 14.57 14.585 14.62 14.675 14.745 14.807 14.852 14.892 14.927 14.942 14.945 14.945 14.945 14.927 14.88 14.812 14.74 14.67 14.6 14.56 14.592 14.605 14.54 14.478 14.45 14.45 14.46 14.475 14.5 14.502 14.468 14.453 14.47 14.487 14.5 14.528 14.57 14.575 14.538 14.52 14.543 14.595 14.662 14.692 14.665 14.61 14.54 14.473 14.445 14.448 14.458 14.495 14.535 14.555 14.58 14.605 14.625 14.643 14.67 14.72 14.747 14.705 14.625 14.48 14.263 14.05 13.872 13.615 12.95 12.893 13.335 13.508 13.905 14.5 15.097 15.37 15.425 15.48 15.447 15.215 14.835 14.468 14.268 14.18 14.078 13.978 13.905 13.865 13.84 13.807 13.77 13.743 13.748 13.805 13.837 13.785 13.725 13.693 13.685 13.693 13.705 13.735 13.78 13.832 13.887 13.932 13.957 13.957 13.937 13.915 13.89 13.868 13.85 13.835 13.825 13.84 13.875 13.91 13.947 13.962 13.947 13.907 13.847 13.78 13.73 13.718 13.725 13.74 13.76 13.785 13.812 13.825 13.83 13.863 13.918 13.993 14.085 14.162 14.228 14.333 14.492 14.628 15.313 15.95 15.937 15.317 14.63 14.503 14.397 14.27 14.115 14.03 14.05 14.085 14.12 14.135 14.102 14.058 14.025 14.01 14.028
16.125 16.058 16.008 15.975 15.93 15.865 15.815 15.785 15.75 15.715 15.695 15.703 15.733 15.775 15.825 15.862 15.86 15.795 15.685 15.568 15.51 15.51 15.475 15.41 15.35 15.298 15.267 15.185 15.103 15.057 14.937 14.772 14.605 14.448 14.393 14.433 14.478 14.528 14.58 14.602 14.605 14.625 14.675 14.747 14.822 14.887 14.935 14.96 14.967 14.972 14.975 14.97 14.945 14.897 14.835 14.768 14.7 14.63 14.61 14.65 14.647 14.592 14.532 14.473 14.438 14.435 14.458 14.505 14.545 14.542 14.538 14.552 14.565 14.575 14.595 14.615 14.597 14.552 14.508 14.478 14.478 14.518 14.555 14.55 14.52 14.475 14.433 14.418 14.425 14.44 14.515 14.617 14.665 14.688 14.712 14.732 14.745 14.77 14.79 14.752 14.675 14.592 14.465 14.27 14.08 13.93 13.7 12.988 12.908 13.55 13.997 14.627 15.115 15.275 15.33 15.355 15.282 14.997 14.623 14.363 14.218 14.133 14.048 13.963 13.898 13.85 13.82 13.805 13.785 13.762 13.735 13.732 13.747 13.728 13.69 13.683 13.69 13.695 13.713 13.745 13.785 13.83 13.882 13.927 13.955 13.972 13.972 13.95 13.925 13.9 13.875 13.855 13.838 13.825 13.84 13.875 13.908 13.942 13.957 13.95 13.932 13.892 13.83 13.768 13.735 13.73 13.735 13.745 13.763 13.788 13.81 13.808 13.798 13.82 13.893 13.998 14.092 14.17 14.308 14.477 14.593 15.295 15.95 15.95 15.32 14.683 14.617 14.485 14.325 14.155 14.07 14.088 14.122 14.157 14.162 14.12 14.068 14.03 14.015 14.015
16.07 16.002 15.95 15.912 15.877 15.845 15.817 15.787 15.75 15.715 15.698 15.703 15.73 15.772 15.792 15.777 15.772 15.74 15.652 15.555 15.468 15.418 15.373 15.31 15.25 15.188 15.135 15.085 15.048 15.025 14.937 14.78 14.615 14.463 14.413 14.463 14.515 14.565 14.612 14.635 14.635 14.64 14.678 14.745 14.815 14.885 14.945 14.977 14.987 14.995 15.002 14.992 14.96 14.917 14.862 14.798 14.73 14.663 14.635 14.637 14.617 14.582 14.545 14.495 14.445 14.423 14.443 14.495 14.55 14.585 14.605 14.617 14.625 14.632 14.64 14.635 14.602 14.56 14.517 14.475 14.435 14.42 14.425 14.423 14.418 14.415 14.41 14.41 14.42 14.43 14.503 14.637 14.745 14.795 14.817 14.835 14.845 14.842 14.8 14.725 14.645 14.56 14.447 14.293 14.135 13.995 13.79 13.283 13.163 13.71 14.272 14.76 15.095 15.235 15.22 15.077 14.805 14.47 14.26 14.17 14.088 14.013 13.943 13.89 13.847 13.8 13.77 13.755 13.74 13.727 13.705 13.698 13.69 13.68 13.688 13.695 13.705 13.723 13.755 13.795 13.837 13.88 13.917 13.945 13.965 13.985 13.985 13.96 13.932 13.908 13.885 13.865 13.845 13.828 13.84 13.875 13.905 13.937 13.95 13.943 13.937 13.92 13.875 13.813 13.763 13.745 13.743 13.74 13.748 13.765 13.787 13.802 13.785 13.765 13.818 13.923 14.025 14.118 14.28 14.455 14.593 15.302 15.94 15.95 15.315 14.725 14.692 14.53 14.357 14.185 14.1 14.115 14.147 14.182 14.182 14.137 14.083 14.04 14.023 14.02
15.932 15.88 15.855 15.835 15.795 15.77 15.77 15.765 15.742 15.715 15.7 15.702 15.707 15.705 15.67 15.61 15.615 15.625 15.565 15.49 15.405 15.34 15.295 15.24 15.18 15.123 15.065 15.025 15.005 14.987 14.927 14.795 14.635 14.483 14.438 14.492 14.547 14.6 14.642 14.66 14.657 14.653 14.673 14.727 14.792 14.857 14.92 14.97 14.995 15.007 15.02 15.012 14.98 14.942 14.897 14.835 14.765 14.687 14.62 14.59 14.572 14.54 14.503 14.467 14.432 14.413 14.42 14.455 14.507 14.56 14.597 14.61 14.615 14.622 14.62 14.602 14.567 14.525 14.485 14.445 14.405 14.38 14.37 14.373 14.39 14.408 14.418 14.423 14.43 14.44 14.503 14.628 14.765 14.875 14.912 14.907 14.887 14.835 14.76 14.68 14.6 14.517 14.437 14.342 14.215 14.075 13.892 13.528 13.305 13.59 14.075 14.513 14.91 15.052 14.865 14.603 14.373 14.223 14.138 14.055 13.98 13.92 13.872 13.827 13.777 13.735 13.715 13.7 13.683 13.67 13.665 13.678 13.695 13.708 13.72 13.73 13.74 13.763 13.8 13.84 13.882 13.912 13.93 13.95 13.97 13.99 13.987 13.962 13.935 13.913 13.895 13.875 13.855 13.835 13.84 13.873 13.905 13.932 13.947 13.948 13.943 13.935 13.905 13.852 13.798 13.763 13.755 13.753 13.748 13.753 13.768 13.787 13.787 13.758 13.79 13.895 13.998 14.088 14.245 14.427 14.6 15.247 15.87 15.95 15.37 14.798 14.72 14.547 14.372 14.2 14.113 14.125 14.155 14.19 14.19 14.145 14.095 14.063 14.053 14.05
15.743 15.67 15.687 15.72 15.705 15.67 15.67 15.695 15.7 15.692 15.692 15.685 15.63 15.553 15.49 15.43 15.445 15.495 15.465 15.39 15.315 15.26 15.227 15.195 15.145 15.09 15.038 14.998 14.975 14.952 14.902 14.805 14.667 14.513 14.463 14.517 14.572 14.607 14.625 14.645 14.652 14.645 14.655 14.698 14.76 14.825 14.885 14.942 14.985 15.01 15.022 15.015 14.99 14.962 14.927 14.872 14.802 14.7 14.598 14.55 14.527 14.497 14.46 14.425 14.405 14.408 14.415 14.42 14.443 14.488 14.532 14.552 14.557 14.56 14.55 14.53 14.5 14.46 14.42 14.38 14.365 14.38 14.385 14.39 14.41 14.425 14.432 14.435 14.44 14.45 14.508 14.625 14.76 14.897 14.95 14.912 14.85 14.775 14.7 14.62 14.54 14.47 14.425 14.387 14.302 14.17 13.992 13.67 13.295 13.465 13.97 14.348 14.687 14.695 14.435 14.268 14.19 14.11 14.033 13.96 13.895 13.845 13.797 13.742 13.693 13.665 13.655 13.64 13.628 13.633 13.653 13.693 13.735 13.757 13.77 13.78 13.79 13.808 13.84 13.88 13.91 13.92 13.93 13.95 13.97 13.987 13.982 13.96 13.938 13.92 13.905 13.885 13.865 13.845 13.843 13.87 13.902 13.922 13.942 13.957 13.957 13.952 13.925 13.877 13.828 13.788 13.77 13.77 13.768 13.76 13.76 13.768 13.78 13.765 13.795 13.897 13.992 14.073 14.208 14.403 14.605 15.14 15.76 15.95 15.482 14.91 14.725 14.557 14.383 14.21 14.123 14.133 14.158 14.19 14.192 14.15 14.118 14.11 14.11 14.107
15.658 15.503 15.49 15.545 15.582 15.57 15.565 15.597 15.625 15.642 15.655 15.63 15.53 15.408 15.318 15.253 15.278 15.365 15.365 15.293 15.225 15.17 15.14 15.127 15.102 15.06 15.01 14.973 14.945 14.915 14.865 14.785 14.68 14.543 14.49 14.532 14.557 14.557 14.558 14.587 14.62 14.625 14.635 14.675 14.733 14.795 14.852 14.908 14.962 15.005 15.017 15.005 14.987 14.97 14.945 14.902 14.82 14.697 14.588 14.52 14.483 14.452 14.418 14.398 14.4 14.415 14.43 14.43 14.423 14.433 14.468 14.495 14.497 14.487 14.47 14.45 14.428 14.398 14.363 14.353 14.388 14.415 14.41 14.413 14.427 14.44 14.447 14.45 14.453 14.458 14.508 14.623 14.765 14.895 14.925 14.862 14.788 14.715 14.64 14.56 14.488 14.44 14.41 14.395 14.367 14.272 14.08 13.777 13.17 13.243 13.887 14.23 14.42 14.282 14.093 14.06 14.072 14.015 13.938 13.873 13.815 13.755 13.695 13.648 13.62 13.603 13.6 13.6 13.605 13.63 13.663 13.71 13.77 13.81 13.825 13.832 13.838 13.848 13.875 13.907 13.92 13.92 13.93 13.95 13.967 13.982 13.98 13.963 13.945 13.93 13.915 13.895 13.875 13.853 13.845 13.867 13.892 13.908 13.928 13.952 13.967 13.967 13.94 13.895 13.863 13.84 13.82 13.805 13.793 13.78 13.77 13.765 13.773 13.77 13.805 13.895 13.98 14.055 14.173 14.375 14.59 15.043 15.675 15.95 15.595 15.018 14.728 14.572 14.398 14.223 14.135 14.145 14.165 14.192 14.197 14.173 14.163 14.167 14.167 14.155
15.623 15.435 15.388 15.41 15.443 15.453 15.463 15.503 15.552 15.585 15.595 15.55 15.435 15.3 15.175 15.09 15.115 15.222 15.252 15.198 15.135 15.08 15.05 15.04 15.03 15.01 14.975 14.942 14.91 14.875 14.825 14.748 14.66 14.555 14.503 14.507 14.495 14.48 14.485 14.52 14.568 14.595 14.615 14.655 14.708 14.765 14.823 14.88 14.94 14.987 15.002 14.99 14.975 14.96 14.942 14.915 14.815 14.68 14.583 14.5 14.445 14.413 14.39 14.395 14.41 14.425 14.44 14.447 14.442 14.428 14.428 14.438 14.433 14.415 14.395 14.378 14.363 14.343 14.343 14.392 14.442 14.45 14.44 14.435 14.443 14.455 14.462 14.465 14.465 14.465 14.51 14.617 14.742 14.84 14.85 14.792 14.725 14.655 14.58 14.505 14.453 14.423 14.398 14.383 14.38 14.345 14.165 13.862 13.195 13.175 13.787 14.027 14.045 13.835 13.725 13.788 13.882 13.897 13.845 13.78 13.712 13.645 13.598 13.573 13.568 13.56 13.565 13.588 13.61 13.638 13.675 13.733 13.797 13.85 13.875 13.88 13.882 13.887 13.9 13.915 13.92 13.92 13.928 13.945 13.962 13.98 13.982 13.967 13.952 13.94 13.922 13.9 13.88 13.858 13.848 13.86 13.877 13.895 13.915 13.938 13.962 13.977 13.965 13.94 13.927 13.92 13.905 13.88 13.85 13.83 13.81 13.785 13.773 13.77 13.805 13.88 13.96 14.035 14.14 14.335 14.558 14.958 15.605 15.95 15.692 15.11 14.733 14.59 14.413 14.238 14.148 14.155 14.175 14.197 14.207 14.207 14.21 14.215 14.21 14.187
15.57 15.408 15.388 15.408 15.433 15.458 15.44 15.433 15.482 15.52 15.527 15.46 15.33 15.198 15.073 14.983 14.995 15.093 15.155 15.14 15.088 15.035 15 14.983 14.97 14.96 14.94 14.91 14.875 14.848 14.812 14.745 14.66 14.57 14.515 14.495 14.478 14.463 14.465 14.495 14.535 14.57 14.603 14.645 14.698 14.755 14.813 14.87 14.927 14.96 14.967 14.965 14.952 14.937 14.922 14.897 14.795 14.663 14.575 14.49 14.418 14.388 14.39 14.405 14.42 14.435 14.45 14.46 14.465 14.455 14.435 14.433 14.433 14.418 14.403 14.39 14.375 14.345 14.363 14.432 14.47 14.472 14.465 14.455 14.46 14.472 14.475 14.478 14.48 14.485 14.493 14.543 14.635 14.71 14.722 14.682 14.635 14.582 14.52 14.465 14.435 14.415 14.398 14.388 14.393 14.402 14.277 13.985 13.483 13.353 13.66 13.765 13.715 13.605 13.585 13.673 13.76 13.782 13.735 13.66 13.593 13.55 13.538 13.533 13.533 13.543 13.56 13.59 13.625 13.658 13.695 13.753 13.817 13.877 13.907 13.912 13.917 13.917 13.912 13.915 13.92 13.92 13.923 13.933 13.95 13.97 13.975 13.962 13.947 13.937 13.922 13.9 13.88 13.86 13.845 13.845 13.858 13.875 13.897 13.922 13.947 13.97 13.975 13.965 13.96 13.965 13.975 13.967 13.94 13.913 13.883 13.843 13.808 13.783 13.81 13.888 13.965 14.043 14.133 14.298 14.518 14.873 15.535 15.95 15.777 15.188 14.735 14.61 14.43 14.253 14.155 14.155 14.175 14.195 14.21 14.22 14.225 14.23 14.22 14.195
15.518 15.355 15.365 15.452 15.545 15.617 15.557 15.43 15.413 15.45 15.445 15.357 15.225 15.11 15.018 14.948 14.935 15 15.075 15.1 15.077 15.032 14.993 14.963 14.943 14.93 14.91 14.88 14.855 14.848 14.827 14.767 14.687 14.6 14.545 14.525 14.507 14.493 14.495 14.52 14.55 14.58 14.613 14.653 14.703 14.76 14.817 14.872 14.91 14.915 14.915 14.922 14.922 14.912 14.892 14.857 14.765 14.653 14.575 14.51 14.453 14.425 14.423 14.42 14.428 14.443 14.458 14.47 14.48 14.48 14.478 14.495 14.51 14.505 14.495 14.48 14.445 14.388 14.385 14.435 14.465 14.477 14.482 14.48 14.48 14.488 14.49 14.5 14.518 14.532 14.49 14.438 14.48 14.56 14.575 14.538 14.503 14.478 14.473 14.49 14.498 14.483 14.47 14.46 14.468 14.487 14.392 14.15 13.762 13.37 13.403 13.597 13.64 13.662 13.682 13.712 13.712 13.675 13.605 13.538 13.508 13.5 13.498 13.505 13.52 13.548 13.585 13.625 13.665 13.698 13.73 13.775 13.833 13.897 13.93 13.935 13.935 13.925 13.918 13.918 13.92 13.92 13.92 13.923 13.933 13.95 13.955 13.945 13.935 13.928 13.915 13.895 13.878 13.86 13.843 13.833 13.833 13.845 13.87 13.902 13.93 13.95 13.955 13.95 13.958 13.975 14.005 14.03 14.025 14 13.967 13.927 13.877 13.823 13.815 13.9 14.005 14.085 14.163 14.288 14.485 14.788 15.465 15.95 15.862 15.263 14.733 14.625 14.445 14.265 14.155 14.145 14.165 14.185 14.2 14.21 14.215 14.22 14.21 14.185
15.47 15.3 15.32 15.447 15.57 15.665 15.637 15.507 15.403 15.383 15.357 15.26 15.155 15.07 15.003 14.945 14.905 14.93 14.987 15.025 15.042 15.022 14.987 14.953 14.923 14.903 14.88 14.86 14.858 14.862 14.842 14.785 14.71 14.628 14.575 14.555 14.535 14.518 14.523 14.55 14.583 14.615 14.643 14.673 14.713 14.765 14.822 14.86 14.865 14.858 14.86 14.87 14.88 14.88 14.855 14.81 14.748 14.68 14.628 14.59 14.557 14.53 14.51 14.49 14.478 14.47 14.473 14.488 14.503 14.515 14.54 14.575 14.6 14.605 14.587 14.55 14.492 14.425 14.405 14.43 14.45 14.467 14.482 14.492 14.497 14.51 14.527 14.55 14.58 14.59 14.522 14.405 14.363 14.41 14.427 14.393 14.375 14.393 14.448 14.527 14.59 14.61 14.605 14.59 14.58 14.58 14.47 14.22 13.837 13.135 13.065 13.512 13.622 13.687 13.69 13.652 13.598 13.54 13.495 13.475 13.47 13.47 13.475 13.505 13.552 13.595 13.64 13.685 13.717 13.743 13.775 13.815 13.86 13.915 13.95 13.952 13.942 13.93 13.923 13.92 13.92 13.92 13.92 13.92 13.923 13.933 13.935 13.928 13.925 13.922 13.91 13.89 13.875 13.86 13.845 13.83 13.815 13.818 13.843 13.877 13.91 13.932 13.94 13.948 13.965 13.985 14.015 14.055 14.082 14.082 14.052 14.002 13.94 13.875 13.825 13.855 14 14.132 14.208 14.31 14.475 14.708 15.395 15.95 15.927 15.317 14.73 14.64 14.46 14.28 14.158 14.135 14.155 14.175 14.19 14.198 14.203 14.21 14.2 14.18
15.498 15.32 15.285 15.37 15.48 15.57 15.575 15.507 15.407 15.34 15.29 15.205 15.133 15.065 15 14.945 14.895 14.878 14.9 14.938 14.977 14.995 14.98 14.945 14.91 14.883 14.865 14.863 14.87 14.877 14.857 14.8 14.727 14.653 14.605 14.585 14.565 14.545 14.55 14.58 14.615 14.65 14.678 14.703 14.733 14.775 14.812 14.817 14.805 14.8 14.805 14.818 14.838 14.858 14.843 14.798 14.76 14.727 14.697 14.672 14.647 14.627 14.61 14.587 14.56 14.533 14.52 14.528 14.545 14.565 14.6 14.642 14.68 14.69 14.652 14.59 14.52 14.45 14.413 14.418 14.435 14.452 14.468 14.485 14.492 14.502 14.53 14.562 14.597 14.6 14.53 14.412 14.31 14.285 14.285 14.275 14.305 14.36 14.43 14.515 14.602 14.652 14.66 14.66 14.66 14.647 14.492 14.172 13.8 13.063 12.965 13.455 13.54 13.602 13.6 13.545 13.495 13.46 13.448 13.448 13.443 13.448 13.473 13.522 13.59 13.655 13.705 13.737 13.762 13.787 13.82 13.86 13.9 13.94 13.965 13.962 13.95 13.938 13.928 13.925 13.923 13.92 13.92 13.92 13.92 13.922 13.92 13.915 13.912 13.91 13.902 13.887 13.872 13.857 13.845 13.83 13.81 13.798 13.815 13.85 13.885 13.917 13.938 13.955 13.978 14 14.03 14.07 14.11 14.137 14.12 14.06 13.993 13.928 13.865 13.823 13.895 14.097 14.255 14.35 14.485 14.655 15.347 15.95 15.95 15.33 14.72 14.642 14.467 14.293 14.163 14.13 14.148 14.17 14.188 14.193 14.198 14.203 14.197 14.188
15.572 15.388 15.285 15.29 15.37 15.46 15.462 15.398 15.343 15.302 15.252 15.187 15.125 15.06 14.998 14.948 14.905 14.868 14.853 14.88 14.925 14.96 14.96 14.927 14.895 14.87 14.868 14.877 14.885 14.892 14.872 14.815 14.745 14.68 14.638 14.615 14.595 14.575 14.58 14.613 14.648 14.695 14.74 14.765 14.788 14.81 14.81 14.783 14.755 14.745 14.76 14.793 14.83 14.867 14.862 14.82 14.785 14.755 14.73 14.71 14.687 14.677 14.677 14.66 14.633 14.608 14.59 14.588 14.598 14.615 14.65 14.697 14.732 14.722 14.665 14.595 14.522 14.455 14.408 14.403 14.422 14.438 14.455 14.47 14.462 14.455 14.47 14.5 14.54 14.547 14.487 14.385 14.275 14.2 14.188 14.225 14.285 14.353 14.415 14.483 14.565 14.6 14.582 14.58 14.597 14.56 14.38 14.107 13.795 13.223 13.1 13.4 13.453 13.495 13.505 13.485 13.468 13.465 13.46 13.445 13.438 13.453 13.48 13.52 13.59 13.677 13.735 13.762 13.787 13.812 13.842 13.88 13.92 13.952 13.967 13.967 13.96 13.948 13.938 13.935 13.93 13.923 13.92 13.92 13.92 13.915 13.902 13.892 13.887 13.882 13.875 13.865 13.85 13.84 13.835 13.82 13.8 13.78 13.79 13.825 13.86 13.903 13.947 13.98 14.003 14.028 14.06 14.1 14.135 14.157 14.145 14.1 14.045 13.982 13.917 13.855 13.82 13.933 14.195 14.387 14.495 14.638 15.335 15.95 15.95 15.32 14.698 14.62 14.45 14.278 14.153 14.125 14.15 14.198 14.23 14.235 14.237 14.205 14.187 14.197
15.628 15.45 15.34 15.285 15.293 15.35 15.347 15.298 15.27 15.255 15.22 15.162 15.105 15.045 15.005 14.977 14.945 14.91 14.878 14.87 14.895 14.932 14.935 14.903 14.873 14.858 14.865 14.885 14.9 14.907 14.887 14.832 14.767 14.71 14.672 14.647 14.625 14.605 14.61 14.648 14.698 14.768 14.832 14.862 14.88 14.892 14.873 14.828 14.788 14.765 14.77 14.805 14.853 14.892 14.887 14.843 14.805 14.775 14.75 14.727 14.703 14.698 14.715 14.722 14.707 14.683 14.665 14.655 14.655 14.668 14.7 14.745 14.752 14.71 14.645 14.575 14.51 14.455 14.405 14.388 14.405 14.425 14.442 14.445 14.425 14.408 14.41 14.428 14.46 14.47 14.412 14.315 14.228 14.16 14.158 14.215 14.283 14.37 14.43 14.465 14.522 14.53 14.46 14.425 14.41 14.315 14.145 13.955 13.767 13.443 13.295 13.37 13.385 13.423 13.458 13.48 13.49 13.495 13.49 13.475 13.463 13.47 13.495 13.533 13.593 13.672 13.73 13.762 13.79 13.815 13.847 13.882 13.915 13.942 13.96 13.967 13.967 13.96 13.95 13.945 13.94 13.93 13.925 13.925 13.917 13.897 13.878 13.863 13.853 13.845 13.835 13.825 13.818 13.82 13.817 13.8 13.78 13.76 13.77 13.808 13.848 13.895 13.952 14.007 14.04 14.065 14.1 14.132 14.15 14.155 14.14 14.11 14.077 14.03 13.967 13.905 13.845 13.82 13.973 14.295 14.507 14.625 15.285 15.907 15.95 15.31 14.673 14.59 14.417 14.243 14.13 14.125 14.183 14.265 14.312 14.312 14.277 14.185 14.15 14.187
15.683 15.513 15.41 15.34 15.288 15.273 15.258 15.235 15.225 15.215 15.182 15.128 15.07 15.015 15 15.01 14.997 14.967 14.933 14.9 14.885 14.905 14.91 14.88 14.855 14.845 14.858 14.882 14.902 14.917 14.905 14.845 14.765 14.687 14.655 14.66 14.652 14.635 14.645 14.698 14.773 14.855 14.927 14.965 14.98 14.995 14.977 14.938 14.903 14.875 14.86 14.865 14.888 14.917 14.912 14.865 14.825 14.795 14.77 14.745 14.72 14.71 14.728 14.76 14.77 14.757 14.742 14.727 14.72 14.725 14.752 14.772 14.745 14.69 14.627 14.565 14.507 14.455 14.405 14.373 14.383 14.41 14.422 14.412 14.385 14.363 14.36 14.37 14.385 14.39 14.342 14.265 14.205 14.158 14.155 14.213 14.3 14.402 14.467 14.49 14.475 14.332 14.245 14.257 14.177 14.042 13.878 13.733 13.66 13.56 13.462 13.41 13.383 13.415 13.465 13.5 13.517 13.527 13.522 13.507 13.493 13.49 13.513 13.555 13.605 13.667 13.722 13.757 13.787 13.815 13.85 13.882 13.905 13.927 13.947 13.96 13.967 13.967 13.962 13.957 13.947 13.935 13.93 13.922 13.902 13.875 13.853 13.837 13.823 13.81 13.8 13.795 13.8 13.81 13.805 13.785 13.763 13.74 13.75 13.793 13.84 13.89 13.948 14.012 14.065 14.102 14.13 14.142 14.145 14.145 14.132 14.108 14.09 14.057 14 13.945 13.893 13.843 13.825 14.018 14.387 14.623 15.193 15.83 15.95 15.355 14.703 14.56 14.385 14.208 14.12 14.16 14.25 14.345 14.387 14.35 14.252 14.135 14.105 14.155
15.738 15.578 15.488 15.423 15.355 15.293 15.255 15.235 15.215 15.195 15.158 15.1 15.04 14.983 14.97 14.997 15.012 15.01 14.987 14.952 14.917 14.9 14.888 14.865 14.845 14.838 14.853 14.875 14.897 14.912 14.877 14.785 14.677 14.575 14.545 14.58 14.602 14.638 14.69 14.757 14.842 14.927 15.01 15.055 15.067 15.08 15.077 15.057 15.032 15.007 14.99 14.98 14.97 14.968 14.94 14.888 14.848 14.815 14.79 14.765 14.74 14.725 14.738 14.775 14.807 14.81 14.797 14.792 14.787 14.785 14.787 14.767 14.72 14.667 14.607 14.547 14.492 14.44 14.387 14.355 14.365 14.393 14.397 14.375 14.345 14.318 14.31 14.32 14.328 14.327 14.295 14.243 14.197 14.155 14.16 14.233 14.333 14.437 14.505 14.43 14.165 13.798 13.655 13.882 13.97 13.793 13.663 13.613 13.595 13.573 13.525 13.475 13.44 13.44 13.482 13.515 13.535 13.552 13.552 13.537 13.52 13.505 13.523 13.57 13.617 13.667 13.715 13.75 13.78 13.812 13.845 13.87 13.892 13.915 13.932 13.947 13.96 13.967 13.97 13.965 13.95 13.935 13.925 13.905 13.878 13.853 13.83 13.813 13.798 13.783 13.775 13.78 13.79 13.797 13.79 13.77 13.75 13.73 13.743 13.788 13.835 13.885 13.942 14.005 14.065 14.115 14.135 14.135 14.135 14.135 14.127 14.112 14.097 14.075 14.032 13.985 13.943 13.898 13.86 13.903 14.205 14.483 15.042 15.76 15.95 15.46 14.795 14.533 14.355 14.2 14.168 14.248 14.342 14.42 14.415 14.32 14.197 14.088 14.065 14.115
15.833 15.67 15.58 15.52 15.452 15.378 15.325 15.295 15.265 15.235 15.19 15.13 15.06 14.988 14.968 14.993 15.015 15.022 15.005 14.97 14.935 14.915 14.888 14.855 14.833 14.828 14.845 14.865 14.877 14.872 14.805 14.675 14.543 14.43 14.398 14.44 14.52 14.653 14.74 14.785 14.862 14.947 15.032 15.085 15.1 15.107 15.135 15.157 15.147 15.127 15.107 15.092 15.072 15.045 14.99 14.92 14.87 14.835 14.81 14.8 14.793 14.768 14.768 14.802 14.812 14.785 14.767 14.772 14.777 14.777 14.772 14.745 14.695 14.647 14.575 14.493 14.435 14.382 14.328 14.33 14.378 14.405 14.395 14.355 14.313 14.275 14.263 14.273 14.285 14.287 14.262 14.218 14.178 14.155 14.188 14.275 14.375 14.477 14.485 14.225 13.733 13.353 13.23 13.508 13.795 13.683 13.6 13.63 13.64 13.627 13.513 13.478 13.515 13.483 13.498 13.522 13.537 13.555 13.557 13.54 13.52 13.5 13.515 13.562 13.61 13.655 13.692 13.725 13.757 13.797 13.827 13.845 13.867 13.892 13.91 13.922 13.935 13.945 13.952 13.95 13.937 13.922 13.91 13.895 13.87 13.843 13.818 13.795 13.78 13.765 13.76 13.77 13.777 13.782 13.782 13.773 13.758 13.743 13.76 13.805 13.847 13.885 13.93 13.99 14.05 14.1 14.117 14.115 14.115 14.117 14.115 14.105 14.092 14.082 14.07 14.04 13.997 13.95 13.918 13.983 14.18 14.418 14.665 15.275 15.849 15.57 14.893 14.513 14.368 14.273 14.285 14.375 14.45 14.452 14.365 14.245 14.125 14.09 14.088 14.083
15.967 15.793 15.685 15.622 15.545 15.46 15.405 15.375 15.345 15.312 15.267 15.202 15.097 15.008 14.995 15.015 15.022 15.01 14.985 14.95 14.913 14.92 14.907 14.85 14.818 14.815 14.832 14.84 14.83 14.81 14.74 14.6 14.445 14.303 14.28 14.388 14.54 14.717 14.81 14.815 14.853 14.932 15.01 15.06 15.082 15.093 15.14 15.21 15.235 15.225 15.205 15.182 15.157 15.13 15.07 14.98 14.905 14.875 14.88 14.892 14.875 14.82 14.81 14.822 14.772 14.703 14.675 14.68 14.687 14.69 14.702 14.707 14.675 14.63 14.547 14.438 14.36 14.3 14.265 14.32 14.412 14.445 14.42 14.368 14.313 14.268 14.24 14.235 14.245 14.25 14.225 14.188 14.173 14.18 14.235 14.33 14.43 14.53 14.5 14.255 13.7 13.293 13.248 13.27 13.585 13.717 13.62 13.68 13.722 13.71 13.468 13.425 13.572 13.528 13.51 13.518 13.528 13.542 13.54 13.52 13.5 13.48 13.493 13.537 13.58 13.62 13.655 13.688 13.728 13.775 13.805 13.818 13.835 13.857 13.875 13.885 13.895 13.905 13.915 13.917 13.91 13.898 13.89 13.887 13.872 13.847 13.818 13.788 13.768 13.753 13.75 13.757 13.763 13.767 13.777 13.79 13.785 13.77 13.79 13.832 13.862 13.878 13.913 13.972 14.027 14.075 14.092 14.09 14.093 14.1 14.1 14.09 14.078 14.073 14.082 14.082 14.052 14.005 13.975 14.068 14.263 14.505 14.598 14.696 15.013 15.37 15.08 14.545 14.453 14.398 14.425 14.502 14.505 14.405 14.275 14.155 14.098 14.195 14.21 14.105
16.075 15.913 15.793 15.72 15.63 15.54 15.485 15.455 15.425 15.39 15.337 15.24 15.093 15.013 15.02 15.022 15.01 14.99 14.962 14.928 14.903 14.932 14.932 14.863 14.815 14.8 14.797 14.787 14.77 14.75 14.677 14.535 14.393 14.285 14.305 14.45 14.618 14.792 14.902 14.9 14.875 14.918 14.987 15.03 15.06 15.08 15.13 15.22 15.29 15.31 15.292 15.265 15.24 15.217 15.157 15.07 15.008 14.993 15.01 15 14.935 14.86 14.832 14.792 14.698 14.613 14.583 14.587 14.59 14.59 14.605 14.635 14.642 14.612 14.532 14.415 14.305 14.225 14.233 14.335 14.447 14.485 14.45 14.4 14.353 14.31 14.27 14.238 14.218 14.21 14.198 14.188 14.2 14.225 14.29 14.39 14.49 14.59 14.59 14.445 13.88 13.358 13.265 13.13 13.505 13.802 13.605 13.62 13.717 13.74 13.453 13.413 13.602 13.555 13.528 13.523 13.523 13.527 13.52 13.5 13.48 13.46 13.468 13.507 13.547 13.583 13.618 13.658 13.708 13.76 13.787 13.795 13.805 13.82 13.835 13.845 13.855 13.865 13.875 13.88 13.88 13.875 13.87 13.87 13.865 13.85 13.822 13.788 13.758 13.74 13.74 13.745 13.747 13.748 13.758 13.785 13.802 13.8 13.817 13.847 13.857 13.863 13.895 13.952 14.005 14.05 14.07 14.073 14.08 14.087 14.085 14.075 14.063 14.058 14.073 14.092 14.095 14.065 14.068 14.19 14.377 14.555 14.762 15.045 14.921 14.761 14.848 14.707 14.565 14.523 14.552 14.557 14.457 14.315 14.185 14.11 14.178 14.355 14.387 14.235
16.135 16.01 15.897 15.807 15.71 15.62 15.565 15.532 15.497 15.457 15.375 15.23 15.08 15.023 15.025 15.01 14.99 14.97 14.94 14.905 14.91 14.962 14.96 14.89 14.828 14.785 14.755 14.728 14.708 14.69 14.615 14.508 14.44 14.41 14.455 14.575 14.723 14.88 14.997 15.007 14.953 14.933 14.963 15 15.035 15.068 15.125 15.215 15.302 15.36 15.365 15.342 15.32 15.3 15.257 15.203 15.17 15.152 15.127 15.067 14.98 14.898 14.82 14.725 14.615 14.523 14.49 14.493 14.49 14.49 14.505 14.54 14.572 14.577 14.517 14.403 14.288 14.21 14.245 14.368 14.485 14.525 14.487 14.445 14.405 14.365 14.325 14.285 14.248 14.223 14.22 14.235 14.253 14.275 14.345 14.45 14.55 14.65 14.657 14.515 14.122 13.58 13.283 13.138 13.243 13.597 13.612 13.485 13.637 13.737 13.485 13.445 13.6 13.57 13.55 13.537 13.522 13.512 13.505 13.488 13.463 13.44 13.443 13.475 13.513 13.548 13.588 13.635 13.69 13.745 13.772 13.778 13.783 13.79 13.8 13.808 13.815 13.825 13.835 13.84 13.845 13.847 13.845 13.845 13.845 13.84 13.822 13.79 13.755 13.733 13.728 13.73 13.73 13.728 13.738 13.768 13.8 13.817 13.83 13.84 13.843 13.85 13.88 13.933 13.985 14.03 14.052 14.057 14.065 14.072 14.07 14.06 14.05 14.045 14.058 14.08 14.102 14.108 14.153 14.285 14.442 14.587 14.705 15.507 15.909 15.333 14.903 14.578 14.547 14.637 14.61 14.51 14.365 14.225 14.125 14.158 14.32 14.515 14.582 14.44
