ncols         200
nrows         80
xllcorner     545000
yllcorner     259460
cellsize      5
NODATA_value  -9999.0
12.665 12.662 12.657 12.653 12.658 12.67 12.667 12.645 12.62 12.608 12.602 12.59 12.56 12.525 12.493 12.458 12.425 12.403 12.393 12.4 12.425 12.452 12.43 12.353 12.28 12.217 12.153 12.088 12.025 11.96 11.895 11.82 11.717 11.623 11.555 11.495 11.43 11.365 11.328 11.32 11.335 11.367 11.365 11.317 11.252 11.18 11.11 11.043 10.983 10.925 10.862 10.797 10.732 10.665 10.59 10.513 10.465 10.465 10.505 10.59 10.677 10.705 10.685 10.658 10.64 10.63 10.65 10.692 10.72 10.745 10.773 10.813 10.873 10.94 11.005 11.068 11.13 11.19 11.25 11.313 11.378 11.44 11.503 11.565 11.63 11.703 11.745 11.738 11.748 11.795 11.755 11.607 11.43 11.248 11.125 11.06 11 10.953 10.93 10.943 10.983 11.027 11.062 11.087 11.11 11.12 11.08 11.018 11.003 10.985 10.915 10.817 10.71 10.597 10.462 10.248 10.04 9.925 9.82 9.697 9.557 9.4 9.293 9.253 9.23 9.205 9.122 8.993 8.878 8.823 8.843 8.888 8.935 8.988 9.043 9.095 9.13 9.127 9.082 9.01 8.943 8.89 8.85 8.825 8.805 8.793 8.79 8.787 8.778 8.77 8.775 8.788 8.808 8.84 8.865 8.845 8.798 8.755 8.708 8.65 8.59 8.535 8.475 8.418 8.395 8.408 8.415 8.402 8.39 8.375 8.355 8.345 8.358 8.39 8.42 8.445 8.465 8.462 8.463 8.488 8.522 8.555 8.582 8.575 8.555 8.558 8.565 8.57 8.57 8.57 8.57 8.567 8.545 8.493 8.438 8.405 8.385 8.365 8.355 8.355
12.672 12.667 12.663 12.658 12.658 12.665 12.665 12.645 12.615 12.588 12.565 12.538 12.505 12.48 12.45 12.41 12.373 12.343 12.338 12.36 12.39 12.42 12.407 12.345 12.278 12.213 12.158 12.093 12.018 11.95 11.875 11.777 11.663 11.57 11.505 11.442 11.378 11.318 11.29 11.3 11.327 11.362 11.365 11.317 11.247 11.172 11.102 11.042 10.987 10.93 10.872 10.812 10.75 10.685 10.61 10.558 10.555 10.575 10.592 10.62 10.64 10.63 10.605 10.575 10.545 10.523 10.538 10.583 10.617 10.645 10.683 10.74 10.808 10.875 10.943 11.007 11.07 11.133 11.2 11.268 11.335 11.4 11.465 11.52 11.555 11.59 11.623 11.665 11.722 11.775 11.742 11.612 11.46 11.32 11.228 11.165 11.102 11.043 11.005 11.015 11.058 11.105 11.14 11.162 11.185 11.197 11.16 11.08 11.025 10.97 10.875 10.765 10.655 10.542 10.407 10.192 9.938 9.768 9.655 9.538 9.433 9.338 9.268 9.23 9.2 9.17 9.095 8.975 8.858 8.81 8.84 8.88 8.923 8.968 9.018 9.068 9.113 9.14 9.107 9.03 8.953 8.885 8.84 8.813 8.795 8.787 8.785 8.782 8.775 8.77 8.775 8.785 8.792 8.807 8.807 8.773 8.73 8.685 8.625 8.555 8.488 8.423 8.378 8.37 8.39 8.42 8.43 8.407 8.382 8.367 8.35 8.328 8.315 8.333 8.36 8.385 8.41 8.422 8.438 8.465 8.498 8.533 8.568 8.583 8.58 8.57 8.555 8.55 8.55 8.553 8.555 8.552 8.542 8.51 8.45 8.393 8.358 8.343 8.343 8.345
12.677 12.673 12.668 12.665 12.663 12.663 12.66 12.64 12.607 12.567 12.528 12.495 12.465 12.44 12.41 12.37 12.335 12.32 12.33 12.35 12.37 12.39 12.385 12.343 12.29 12.243 12.198 12.122 12.023 11.932 11.837 11.73 11.62 11.523 11.45 11.387 11.325 11.273 11.257 11.275 11.297 11.325 11.337 11.3 11.227 11.152 11.085 11.03 10.977 10.93 10.882 10.825 10.765 10.7 10.65 10.635 10.632 10.627 10.62 10.6 10.575 10.552 10.525 10.495 10.463 10.44 10.45 10.485 10.518 10.553 10.608 10.675 10.745 10.817 10.887 10.95 11.013 11.078 11.152 11.23 11.297 11.363 11.427 11.48 11.515 11.542 11.568 11.613 11.677 11.732 11.71 11.595 11.465 11.373 11.31 11.25 11.192 11.137 11.088 11.085 11.13 11.182 11.215 11.225 11.24 11.25 11.21 11.12 11.015 10.907 10.802 10.7 10.595 10.485 10.352 10.137 9.865 9.66 9.543 9.455 9.383 9.32 9.27 9.233 9.197 9.152 9.085 8.987 8.883 8.85 8.88 8.913 8.948 8.983 9.025 9.07 9.11 9.147 9.125 9.045 8.968 8.903 8.86 8.823 8.788 8.77 8.765 8.762 8.755 8.747 8.742 8.745 8.752 8.757 8.745 8.71 8.67 8.625 8.565 8.49 8.415 8.35 8.33 8.355 8.385 8.407 8.407 8.377 8.35 8.34 8.327 8.31 8.29 8.288 8.308 8.333 8.358 8.38 8.42 8.468 8.503 8.538 8.58 8.625 8.645 8.63 8.603 8.58 8.558 8.543 8.54 8.535 8.525 8.512 8.472 8.403 8.355 8.348 8.353 8.355
12.682 12.677 12.673 12.67 12.667 12.662 12.65 12.622 12.585 12.542 12.497 12.458 12.425 12.4 12.37 12.335 12.323 12.343 12.365 12.375 12.385 12.393 12.395 12.38 12.35 12.32 12.262 12.16 12.032 11.91 11.803 11.698 11.59 11.485 11.398 11.33 11.27 11.21 11.183 11.192 11.21 11.23 11.247 11.242 11.192 11.12 11.055 11 10.96 10.935 10.895 10.838 10.78 10.718 10.672 10.647 10.62 10.59 10.56 10.53 10.502 10.475 10.445 10.42 10.403 10.398 10.41 10.433 10.46 10.503 10.558 10.618 10.685 10.76 10.832 10.895 10.955 11.018 11.095 11.18 11.257 11.327 11.39 11.44 11.47 11.48 11.5 11.55 11.61 11.66 11.657 11.573 11.473 11.415 11.365 11.305 11.25 11.2 11.15 11.153 11.205 11.257 11.285 11.283 11.282 11.267 11.192 11.067 10.925 10.795 10.695 10.605 10.51 10.407 10.295 10.112 9.868 9.65 9.523 9.458 9.395 9.338 9.288 9.245 9.202 9.137 9.075 9.005 8.918 8.895 8.925 8.955 8.985 9.015 9.05 9.09 9.13 9.162 9.135 9.06 8.995 8.948 8.915 8.857 8.778 8.738 8.733 8.727 8.72 8.707 8.69 8.678 8.678 8.682 8.675 8.647 8.61 8.565 8.505 8.433 8.368 8.32 8.313 8.337 8.355 8.357 8.347 8.32 8.3 8.292 8.28 8.27 8.257 8.253 8.268 8.293 8.32 8.348 8.408 8.485 8.535 8.57 8.62 8.685 8.715 8.705 8.687 8.667 8.63 8.59 8.563 8.533 8.513 8.507 8.475 8.415 8.38 8.378 8.382 8.385
12.687 12.682 12.675 12.667 12.66 12.647 12.627 12.59 12.545 12.502 12.457 12.415 12.382 12.36 12.335 12.323 12.343 12.38 12.405 12.415 12.422 12.428 12.432 12.435 12.427 12.392 12.302 12.17 12.027 11.893 11.778 11.67 11.56 11.453 11.355 11.278 11.212 11.138 11.078 11.07 11.09 11.107 11.122 11.137 11.132 11.087 11.025 10.98 10.96 10.947 10.91 10.855 10.805 10.752 10.678 10.598 10.55 10.52 10.49 10.458 10.428 10.408 10.385 10.368 10.368 10.373 10.385 10.41 10.45 10.498 10.54 10.585 10.638 10.703 10.775 10.84 10.893 10.955 11.038 11.122 11.207 11.285 11.35 11.395 11.41 11.408 11.433 11.485 11.532 11.575 11.602 11.572 11.51 11.465 11.417 11.36 11.3 11.242 11.195 11.213 11.28 11.335 11.357 11.347 11.31 11.23 11.105 10.955 10.805 10.673 10.57 10.48 10.39 10.297 10.202 10.077 9.905 9.698 9.545 9.473 9.41 9.353 9.3 9.25 9.19 9.113 9.053 9.007 8.95 8.935 8.965 8.995 9.025 9.055 9.085 9.117 9.152 9.177 9.152 9.093 9.043 9.005 8.975 8.892 8.765 8.705 8.7 8.692 8.685 8.67 8.65 8.63 8.615 8.61 8.602 8.58 8.547 8.505 8.448 8.388 8.34 8.3 8.293 8.307 8.305 8.292 8.28 8.26 8.248 8.245 8.235 8.225 8.215 8.218 8.235 8.26 8.288 8.323 8.395 8.49 8.56 8.605 8.668 8.747 8.785 8.775 8.76 8.75 8.727 8.692 8.645 8.58 8.525 8.503 8.47 8.43 8.415 8.413 8.415 8.418
12.682 12.675 12.662 12.647 12.63 12.612 12.592 12.557 12.505 12.45 12.405 12.363 12.333 12.32 12.32 12.343 12.38 12.42 12.445 12.453 12.458 12.465 12.465 12.462 12.465 12.405 12.287 12.155 12.01 11.872 11.75 11.64 11.53 11.42 11.318 11.23 11.153 11.07 10.988 10.955 10.968 10.983 10.998 11.013 11.028 11.025 10.997 10.977 10.97 10.96 10.927 10.877 10.832 10.785 10.702 10.59 10.505 10.465 10.448 10.428 10.41 10.403 10.385 10.363 10.35 10.345 10.36 10.4 10.455 10.505 10.542 10.58 10.62 10.668 10.723 10.783 10.833 10.895 10.98 11.065 11.15 11.23 11.297 11.33 11.332 11.333 11.357 11.4 11.44 11.49 11.552 11.577 11.55 11.512 11.47 11.412 11.34 11.26 11.213 11.25 11.335 11.405 11.405 11.342 11.255 11.132 10.99 10.838 10.685 10.548 10.44 10.35 10.26 10.167 10.075 9.977 9.862 9.717 9.575 9.485 9.427 9.37 9.315 9.253 9.173 9.088 9.028 9 8.973 8.97 8.997 9.025 9.055 9.082 9.11 9.137 9.165 9.185 9.177 9.14 9.095 9.06 9.022 8.917 8.758 8.675 8.665 8.655 8.645 8.632 8.613 8.59 8.57 8.552 8.535 8.513 8.485 8.45 8.405 8.36 8.32 8.28 8.263 8.258 8.243 8.228 8.213 8.198 8.193 8.195 8.195 8.195 8.195 8.208 8.235 8.268 8.3 8.328 8.388 8.485 8.572 8.642 8.72 8.807 8.852 8.845 8.83 8.82 8.805 8.785 8.737 8.66 8.583 8.525 8.483 8.458 8.45 8.445 8.448 8.452
12.657 12.645 12.63 12.61 12.59 12.575 12.555 12.525 12.48 12.415 12.355 12.308 12.278 12.29 12.33 12.367 12.405 12.442 12.482 12.51 12.52 12.53 12.512 12.472 12.44 12.332 12.182 12.065 11.947 11.832 11.72 11.61 11.5 11.39 11.282 11.183 11.103 11.023 10.928 10.868 10.863 10.883 10.905 10.925 10.945 10.955 10.947 10.937 10.93 10.925 10.912 10.877 10.83 10.78 10.697 10.583 10.5 10.47 10.463 10.458 10.453 10.445 10.425 10.395 10.365 10.345 10.363 10.415 10.47 10.505 10.532 10.57 10.61 10.65 10.69 10.735 10.773 10.828 10.91 10.992 11.075 11.155 11.215 11.235 11.235 11.237 11.258 11.298 11.355 11.435 11.52 11.572 11.57 11.54 11.5 11.43 11.335 11.235 11.2 11.265 11.35 11.392 11.35 11.245 11.135 11.015 10.875 10.722 10.57 10.425 10.307 10.21 10.11 10.007 9.932 9.867 9.772 9.667 9.562 9.483 9.427 9.37 9.322 9.285 9.228 9.145 9.09 9.048 8.995 8.985 9 9.018 9.042 9.067 9.095 9.12 9.142 9.157 9.16 9.147 9.115 9.07 9.005 8.882 8.728 8.645 8.628 8.615 8.605 8.595 8.577 8.552 8.525 8.495 8.473 8.465 8.45 8.42 8.385 8.345 8.308 8.275 8.255 8.24 8.22 8.205 8.193 8.19 8.205 8.215 8.22 8.23 8.24 8.255 8.285 8.325 8.357 8.355 8.388 8.483 8.572 8.655 8.755 8.86 8.915 8.915 8.903 8.898 8.888 8.87 8.812 8.72 8.64 8.565 8.513 8.495 8.485 8.48 8.482 8.485
12.62 12.605 12.59 12.57 12.55 12.535 12.515 12.485 12.452 12.397 12.323 12.26 12.243 12.288 12.345 12.382 12.415 12.443 12.495 12.565 12.605 12.62 12.577 12.475 12.375 12.225 12.033 11.895 11.797 11.722 11.642 11.537 11.43 11.327 11.232 11.14 11.078 11.01 10.91 10.835 10.815 10.835 10.865 10.89 10.907 10.897 10.868 10.853 10.848 10.848 10.852 10.842 10.805 10.75 10.663 10.57 10.53 10.517 10.508 10.502 10.497 10.487 10.465 10.435 10.408 10.388 10.403 10.457 10.495 10.495 10.508 10.545 10.585 10.625 10.662 10.692 10.713 10.753 10.825 10.905 10.985 11.065 11.112 11.122 11.125 11.125 11.155 11.223 11.31 11.41 11.497 11.555 11.57 11.55 11.502 11.412 11.303 11.203 11.19 11.255 11.287 11.27 11.212 11.125 11.02 10.9 10.76 10.607 10.455 10.29 10.148 10.037 9.925 9.818 9.76 9.74 9.685 9.59 9.508 9.46 9.41 9.35 9.315 9.315 9.307 9.265 9.205 9.115 9.025 8.998 9 9.005 9.018 9.033 9.055 9.08 9.095 9.1 9.095 9.08 9.05 8.997 8.91 8.778 8.665 8.62 8.6 8.583 8.57 8.555 8.527 8.492 8.457 8.42 8.4 8.42 8.435 8.415 8.38 8.343 8.313 8.29 8.275 8.26 8.243 8.23 8.22 8.235 8.275 8.302 8.312 8.32 8.33 8.34 8.363 8.4 8.412 8.378 8.395 8.485 8.56 8.623 8.73 8.862 8.962 9 8.995 8.992 8.98 8.955 8.882 8.77 8.675 8.595 8.545 8.53 8.522 8.517 8.512 8.507
12.58 12.565 12.55 12.53 12.51 12.495 12.475 12.445 12.412 12.372 12.31 12.248 12.248 12.305 12.357 12.392 12.417 12.435 12.488 12.58 12.662 12.705 12.642 12.452 12.195 12.002 11.88 11.73 11.618 11.578 11.52 11.42 11.325 11.243 11.168 11.098 11.06 11.01 10.92 10.848 10.81 10.815 10.842 10.865 10.862 10.825 10.785 10.77 10.77 10.773 10.78 10.787 10.772 10.72 10.648 10.598 10.578 10.563 10.553 10.547 10.542 10.527 10.5 10.475 10.458 10.443 10.455 10.5 10.515 10.495 10.488 10.51 10.55 10.59 10.622 10.645 10.66 10.685 10.743 10.818 10.893 10.967 11.005 11.008 11.03 11.07 11.123 11.198 11.29 11.39 11.475 11.53 11.56 11.557 11.5 11.392 11.273 11.18 11.162 11.175 11.15 11.11 11.062 10.995 10.902 10.785 10.645 10.487 10.315 10.123 9.963 9.845 9.73 9.625 9.57 9.565 9.552 9.505 9.455 9.425 9.385 9.333 9.308 9.315 9.317 9.297 9.24 9.142 9.053 9.02 9.02 9.02 9.025 9.03 9.035 9.04 9.037 9.027 9.002 8.965 8.925 8.877 8.788 8.678 8.623 8.605 8.585 8.563 8.545 8.52 8.473 8.418 8.373 8.338 8.318 8.345 8.392 8.405 8.38 8.35 8.33 8.313 8.298 8.283 8.27 8.26 8.255 8.28 8.33 8.375 8.402 8.415 8.422 8.43 8.445 8.467 8.455 8.403 8.41 8.487 8.54 8.565 8.655 8.82 9 9.097 9.102 9.09 9.065 9.035 8.96 8.838 8.723 8.628 8.578 8.562 8.55 8.537 8.517 8.495
12.54 12.525 12.51 12.49 12.47 12.455 12.435 12.405 12.37 12.335 12.305 12.285 12.293 12.33 12.367 12.392 12.41 12.425 12.483 12.58 12.68 12.692 12.512 12.132 11.597 11.31 11.375 11.45 11.462 11.45 11.402 11.318 11.24 11.173 11.105 11.053 11.035 11.002 10.935 10.87 10.818 10.803 10.82 10.825 10.795 10.745 10.705 10.69 10.693 10.7 10.707 10.715 10.717 10.697 10.667 10.645 10.625 10.61 10.6 10.592 10.585 10.565 10.54 10.525 10.512 10.498 10.508 10.53 10.525 10.502 10.48 10.483 10.513 10.547 10.575 10.593 10.608 10.628 10.67 10.735 10.805 10.873 10.925 10.965 11.025 11.105 11.17 11.225 11.29 11.373 11.452 11.505 11.542 11.555 11.495 11.375 11.245 11.138 11.073 11.03 10.99 10.95 10.907 10.85 10.772 10.667 10.52 10.34 10.148 9.955 9.793 9.66 9.54 9.435 9.383 9.385 9.4 9.407 9.395 9.375 9.35 9.317 9.297 9.292 9.28 9.25 9.205 9.14 9.07 9.037 9.03 9.022 9.017 9.012 9.002 8.977 8.96 8.942 8.9 8.85 8.803 8.755 8.688 8.63 8.608 8.59 8.57 8.547 8.525 8.487 8.428 8.363 8.303 8.255 8.23 8.255 8.315 8.365 8.38 8.368 8.353 8.338 8.323 8.31 8.303 8.295 8.298 8.33 8.377 8.422 8.462 8.49 8.502 8.512 8.525 8.52 8.482 8.43 8.428 8.48 8.51 8.51 8.598 8.797 9.02 9.17 9.2 9.175 9.145 9.112 9.035 8.912 8.787 8.67 8.603 8.58 8.56 8.54 8.51 8.475
12.5 12.483 12.467 12.45 12.432 12.417 12.395 12.365 12.345 12.337 12.337 12.335 12.327 12.343 12.367 12.385 12.4 12.415 12.475 12.562 12.552 12.387 12.055 11.465 10.7 10.316 10.688 11.192 11.327 10.955 10.935 11.255 11.193 11.128 11.063 11.01 10.993 10.982 10.945 10.892 10.837 10.8 10.787 10.765 10.725 10.685 10.648 10.628 10.63 10.635 10.628 10.625 10.635 10.64 10.637 10.627 10.615 10.62 10.635 10.637 10.627 10.61 10.595 10.582 10.568 10.555 10.555 10.55 10.527 10.5 10.475 10.468 10.483 10.508 10.533 10.553 10.57 10.593 10.645 10.725 10.805 10.878 10.945 11.02 11.1 11.177 11.242 11.295 11.34 11.393 11.437 11.47 11.51 11.527 11.46 11.327 11.192 11.065 10.963 10.888 10.835 10.795 10.752 10.697 10.627 10.537 10.395 10.208 10.02 9.838 9.673 9.53 9.395 9.283 9.243 9.265 9.3 9.325 9.32 9.305 9.29 9.275 9.26 9.24 9.22 9.187 9.14 9.09 9.042 9.012 8.995 8.977 8.962 8.947 8.92 8.883 8.873 8.865 8.822 8.765 8.71 8.67 8.638 8.61 8.59 8.572 8.552 8.53 8.507 8.463 8.395 8.328 8.26 8.198 8.158 8.18 8.25 8.32 8.375 8.392 8.385 8.37 8.355 8.345 8.338 8.33 8.335 8.367 8.407 8.445 8.487 8.53 8.557 8.575 8.587 8.562 8.51 8.458 8.443 8.462 8.465 8.453 8.515 8.68 8.89 9.1 9.185 9.162 9.137 9.102 9.045 8.947 8.817 8.685 8.593 8.555 8.537 8.522 8.495 8.46
12.457 12.44 12.425 12.41 12.392 12.377 12.357 12.335 12.327 12.332 12.327 12.307 12.313 12.35 12.37 12.378 12.39 12.407 12.415 12.355 12.172 11.895 11.367 10.653 10.085 9.848 10.13 10.812 10.862 10.133 10.128 10.847 11.16 11.102 11.04 10.978 10.945 10.942 10.92 10.875 10.825 10.782 10.75 10.718 10.683 10.65 10.618 10.59 10.58 10.572 10.553 10.535 10.535 10.54 10.54 10.543 10.565 10.62 10.665 10.677 10.672 10.66 10.65 10.637 10.625 10.612 10.587 10.55 10.518 10.49 10.465 10.46 10.475 10.498 10.523 10.548 10.57 10.613 10.705 10.813 10.905 10.985 11.045 11.103 11.175 11.252 11.32 11.372 11.41 11.432 11.433 11.435 11.465 11.477 11.395 11.253 11.118 10.993 10.885 10.788 10.705 10.648 10.597 10.532 10.455 10.37 10.257 10.11 9.937 9.753 9.59 9.448 9.315 9.21 9.173 9.198 9.235 9.252 9.24 9.225 9.21 9.195 9.19 9.182 9.162 9.125 9.075 9.028 8.985 8.95 8.925 8.905 8.887 8.865 8.815 8.778 8.785 8.79 8.755 8.698 8.658 8.643 8.623 8.593 8.57 8.555 8.535 8.51 8.492 8.46 8.4 8.33 8.26 8.203 8.163 8.16 8.215 8.29 8.355 8.402 8.42 8.41 8.395 8.385 8.375 8.36 8.358 8.385 8.42 8.455 8.5 8.55 8.592 8.622 8.63 8.595 8.54 8.485 8.445 8.427 8.407 8.385 8.415 8.515 8.683 8.917 9.037 9.02 8.992 8.942 8.902 8.857 8.777 8.667 8.56 8.51 8.498 8.49 8.467 8.433
12.41 12.397 12.382 12.367 12.345 12.312 12.287 12.277 12.27 12.257 12.238 12.245 12.313 12.375 12.377 12.373 12.385 12.357 12.24 12.035 11.775 11.275 10.64 10.2 9.948 9.855 9.843 10.14 10.088 9.69 9.685 10.075 10.757 11.055 11.007 10.955 10.905 10.887 10.862 10.818 10.78 10.753 10.725 10.693 10.657 10.623 10.59 10.56 10.533 10.51 10.488 10.463 10.445 10.44 10.46 10.505 10.573 10.657 10.705 10.712 10.712 10.705 10.695 10.685 10.675 10.657 10.612 10.553 10.508 10.475 10.458 10.465 10.488 10.515 10.54 10.565 10.603 10.683 10.805 10.925 11.025 11.105 11.16 11.205 11.263 11.33 11.395 11.437 11.452 11.447 11.43 11.418 11.425 11.425 11.332 11.18 11.04 10.918 10.815 10.715 10.615 10.528 10.44 10.348 10.263 10.177 10.085 9.975 9.837 9.67 9.508 9.378 9.275 9.185 9.133 9.138 9.167 9.177 9.16 9.145 9.13 9.11 9.108 9.117 9.105 9.065 9.018 8.975 8.935 8.893 8.855 8.833 8.812 8.77 8.708 8.683 8.7 8.712 8.688 8.65 8.643 8.64 8.617 8.583 8.553 8.533 8.513 8.493 8.48 8.462 8.422 8.36 8.305 8.278 8.25 8.213 8.21 8.26 8.325 8.385 8.43 8.445 8.437 8.425 8.41 8.385 8.375 8.398 8.43 8.465 8.51 8.56 8.61 8.652 8.655 8.607 8.545 8.482 8.42 8.375 8.343 8.315 8.345 8.425 8.53 8.732 8.86 8.837 8.787 8.713 8.668 8.65 8.627 8.575 8.505 8.47 8.465 8.46 8.44 8.405
12.363 12.355 12.34 12.312 12.272 12.22 12.185 12.18 12.175 12.17 12.185 12.25 12.35 12.402 12.382 12.367 12.335 12.202 12.002 11.752 11.305 10.725 10.408 10.252 10.013 9.868 9.845 9.78 9.673 9.585 9.603 9.668 10.03 10.677 10.95 10.91 10.865 10.835 10.805 10.768 10.745 10.725 10.702 10.67 10.633 10.598 10.563 10.527 10.488 10.455 10.43 10.403 10.378 10.38 10.43 10.51 10.605 10.697 10.74 10.737 10.73 10.72 10.71 10.7 10.69 10.667 10.62 10.562 10.508 10.465 10.458 10.478 10.505 10.532 10.558 10.59 10.663 10.778 10.905 11.03 11.14 11.225 11.28 11.325 11.372 11.422 11.457 11.465 11.46 11.447 11.43 11.415 11.405 11.38 11.275 11.113 10.965 10.845 10.745 10.632 10.518 10.43 10.323 10.193 10.08 9.983 9.893 9.795 9.69 9.568 9.44 9.34 9.255 9.168 9.105 9.088 9.1 9.1 9.08 9.065 9.05 9.03 9.023 9.038 9.04 9.008 8.965 8.923 8.88 8.838 8.795 8.763 8.725 8.658 8.6 8.595 8.62 8.645 8.645 8.64 8.65 8.642 8.613 8.578 8.545 8.515 8.493 8.478 8.465 8.452 8.432 8.402 8.385 8.382 8.352 8.295 8.243 8.253 8.313 8.368 8.42 8.462 8.472 8.455 8.432 8.405 8.395 8.415 8.443 8.475 8.52 8.567 8.605 8.632 8.622 8.565 8.497 8.432 8.378 8.333 8.29 8.253 8.273 8.343 8.408 8.53 8.642 8.637 8.56 8.475 8.433 8.415 8.41 8.435 8.45 8.44 8.435 8.43 8.41 8.383
12.323 12.312 12.297 12.26 12.205 12.153 12.133 12.145 12.153 12.168 12.218 12.3 12.392 12.43 12.377 12.3 12.175 11.98 11.727 11.26 10.72 10.513 10.485 10.33 10.08 9.898 9.842 9.75 9.59 9.475 9.53 9.617 9.64 10.043 10.637 10.84 10.798 10.775 10.757 10.732 10.715 10.698 10.678 10.648 10.613 10.582 10.537 10.488 10.443 10.403 10.377 10.35 10.35 10.4 10.448 10.493 10.58 10.68 10.735 10.74 10.725 10.71 10.7 10.69 10.677 10.652 10.61 10.557 10.503 10.458 10.46 10.495 10.522 10.548 10.575 10.638 10.753 10.88 11.005 11.13 11.25 11.345 11.4 11.44 11.465 11.475 11.455 11.417 11.397 11.385 11.372 11.36 11.345 11.31 11.205 11.045 10.895 10.762 10.637 10.508 10.405 10.347 10.25 10.1 9.958 9.83 9.74 9.673 9.598 9.525 9.448 9.365 9.28 9.183 9.105 9.065 9.048 9.038 9.023 9.01 8.998 8.985 8.975 8.985 8.992 8.965 8.925 8.88 8.835 8.795 8.758 8.72 8.655 8.575 8.543 8.56 8.593 8.628 8.65 8.658 8.662 8.65 8.618 8.585 8.555 8.515 8.483 8.468 8.455 8.442 8.427 8.42 8.422 8.425 8.392 8.327 8.283 8.305 8.365 8.415 8.465 8.5 8.5 8.475 8.45 8.425 8.415 8.432 8.457 8.485 8.515 8.54 8.555 8.565 8.542 8.482 8.42 8.37 8.34 8.308 8.265 8.223 8.23 8.288 8.343 8.403 8.463 8.438 8.328 8.245 8.24 8.28 8.333 8.393 8.425 8.422 8.41 8.4 8.385 8.373
12.29 12.268 12.255 12.242 12.203 12.15 12.15 12.19 12.215 12.24 12.29 12.367 12.407 12.357 12.245 12.112 11.95 11.667 11.185 10.658 10.425 10.43 10.422 10.327 10.132 9.938 9.827 9.705 9.518 9.378 9.443 9.587 9.6 9.65 10.123 10.64 10.727 10.688 10.673 10.673 10.678 10.685 10.67 10.635 10.605 10.575 10.507 10.445 10.4 10.35 10.325 10.32 10.373 10.46 10.495 10.498 10.535 10.61 10.685 10.72 10.715 10.7 10.69 10.677 10.66 10.637 10.597 10.543 10.488 10.44 10.46 10.515 10.54 10.565 10.615 10.725 10.872 11.005 11.125 11.243 11.36 11.45 11.482 11.487 11.48 11.455 11.402 11.33 11.285 11.27 11.257 11.245 11.23 11.202 11.112 10.962 10.802 10.635 10.483 10.378 10.323 10.28 10.18 10.03 9.882 9.735 9.65 9.63 9.61 9.575 9.512 9.432 9.332 9.215 9.13 9.083 9.045 9.02 9.005 8.995 8.988 8.98 8.968 8.97 8.967 8.935 8.892 8.848 8.805 8.775 8.758 8.72 8.645 8.575 8.558 8.585 8.62 8.655 8.68 8.685 8.682 8.668 8.64 8.61 8.572 8.52 8.478 8.46 8.447 8.43 8.41 8.4 8.4 8.402 8.375 8.318 8.32 8.395 8.465 8.515 8.547 8.545 8.522 8.495 8.467 8.43 8.4 8.402 8.42 8.437 8.455 8.467 8.475 8.485 8.46 8.4 8.355 8.333 8.317 8.292 8.255 8.215 8.22 8.272 8.317 8.355 8.375 8.313 8.195 8.148 8.2 8.293 8.367 8.4 8.41 8.41 8.395 8.38 8.373 8.37
12.247 12.218 12.21 12.22 12.212 12.178 12.185 12.24 12.282 12.313 12.362 12.395 12.325 12.18 12.025 11.88 11.535 11.013 10.565 10.36 10.355 10.353 10.35 10.28 10.13 9.955 9.803 9.65 9.458 9.293 9.333 9.542 9.607 9.553 9.695 10.287 10.685 10.615 10.6 10.667 10.732 10.757 10.725 10.653 10.605 10.55 10.45 10.395 10.357 10.3 10.29 10.333 10.425 10.52 10.555 10.55 10.55 10.573 10.623 10.675 10.697 10.69 10.677 10.66 10.64 10.62 10.582 10.527 10.47 10.42 10.453 10.525 10.558 10.598 10.693 10.84 10.997 11.145 11.27 11.38 11.48 11.545 11.54 11.495 11.455 11.417 11.36 11.27 11.19 11.155 11.14 11.122 11.105 11.082 11.005 10.865 10.69 10.493 10.353 10.295 10.26 10.212 10.11 9.96 9.807 9.655 9.578 9.58 9.59 9.585 9.555 9.477 9.352 9.238 9.165 9.12 9.08 9.043 9.013 8.995 8.987 8.977 8.965 8.957 8.937 8.9 8.858 8.82 8.795 8.788 8.79 8.752 8.68 8.615 8.59 8.613 8.648 8.685 8.71 8.712 8.707 8.697 8.672 8.63 8.575 8.515 8.473 8.45 8.43 8.41 8.393 8.383 8.38 8.38 8.358 8.335 8.385 8.487 8.562 8.592 8.59 8.565 8.535 8.495 8.445 8.388 8.338 8.32 8.323 8.33 8.35 8.375 8.393 8.402 8.38 8.34 8.323 8.315 8.302 8.277 8.242 8.208 8.21 8.247 8.275 8.292 8.302 8.25 8.178 8.19 8.265 8.34 8.377 8.39 8.4 8.4 8.385 8.373 8.37 8.37
12.19 12.165 12.165 12.178 12.19 12.19 12.215 12.275 12.332 12.377 12.385 12.312 12.173 12.02 11.867 11.47 10.84 10.415 10.298 10.29 10.285 10.28 10.277 10.215 10.083 9.942 9.787 9.608 9.413 9.225 9.228 9.44 9.605 9.585 9.508 9.78 10.34 10.58 10.553 10.642 10.777 10.83 10.787 10.695 10.617 10.512 10.375 10.337 10.312 10.26 10.29 10.378 10.482 10.577 10.617 10.61 10.597 10.59 10.605 10.643 10.673 10.675 10.66 10.64 10.62 10.6 10.568 10.513 10.45 10.4 10.435 10.525 10.58 10.66 10.798 10.955 11.112 11.267 11.41 11.515 11.582 11.625 11.605 11.537 11.472 11.37 11.257 11.175 11.092 11.04 11.02 10.998 10.975 10.955 10.892 10.762 10.578 10.395 10.288 10.238 10.202 10.147 10.035 9.882 9.728 9.578 9.508 9.518 9.533 9.545 9.535 9.472 9.357 9.258 9.202 9.16 9.12 9.077 9.03 8.998 8.982 8.97 8.957 8.945 8.92 8.875 8.838 8.823 8.82 8.825 8.83 8.8 8.732 8.66 8.623 8.637 8.675 8.712 8.732 8.73 8.722 8.715 8.682 8.622 8.56 8.5 8.46 8.435 8.41 8.388 8.373 8.365 8.36 8.36 8.353 8.383 8.465 8.557 8.617 8.62 8.6 8.57 8.527 8.473 8.41 8.35 8.303 8.278 8.265 8.265 8.275 8.295 8.32 8.335 8.328 8.313 8.305 8.298 8.287 8.26 8.222 8.193 8.19 8.205 8.218 8.228 8.235 8.223 8.215 8.255 8.315 8.352 8.365 8.375 8.385 8.387 8.378 8.37 8.37 8.37
12.138 12.138 12.15 12.163 12.18 12.205 12.248 12.305 12.365 12.397 12.332 12.195 12.05 11.897 11.51 10.845 10.4 10.28 10.245 10.235 10.228 10.22 10.215 10.162 10.05 9.935 9.787 9.595 9.4 9.25 9.23 9.355 9.555 9.622 9.528 9.453 9.705 10.245 10.482 10.525 10.677 10.755 10.717 10.642 10.547 10.405 9.98 9.705 9.992 10.247 10.328 10.435 10.542 10.635 10.672 10.66 10.64 10.63 10.64 10.66 10.685 10.703 10.693 10.67 10.648 10.613 10.585 10.558 10.503 10.44 10.458 10.548 10.628 10.74 10.89 11.042 11.195 11.345 11.487 11.58 11.625 11.66 11.64 11.547 11.402 11.207 11.058 10.982 10.93 10.913 10.902 10.875 10.848 10.825 10.78 10.657 10.485 10.35 10.255 10.188 10.147 10.075 9.945 9.793 9.65 9.525 9.465 9.475 9.495 9.497 9.462 9.41 9.34 9.27 9.22 9.172 9.125 9.075 9.022 8.988 8.97 8.955 8.94 8.93 8.925 8.888 8.853 8.853 8.855 8.857 8.852 8.817 8.755 8.687 8.643 8.643 8.672 8.705 8.72 8.715 8.705 8.692 8.652 8.59 8.53 8.48 8.448 8.42 8.393 8.365 8.35 8.347 8.343 8.34 8.35 8.405 8.487 8.56 8.6 8.602 8.59 8.56 8.515 8.46 8.403 8.345 8.303 8.28 8.268 8.275 8.278 8.275 8.288 8.305 8.312 8.305 8.295 8.285 8.267 8.235 8.195 8.168 8.165 8.178 8.193 8.2 8.205 8.225 8.257 8.297 8.33 8.342 8.35 8.36 8.37 8.375 8.37 8.365 8.367 8.365
12.11 12.138 12.16 12.175 12.203 12.24 12.285 12.338 12.39 12.37 12.25 12.1 11.945 11.552 10.863 10.478 10.425 10.315 10.225 10.195 10.185 10.18 10.185 10.145 10.047 9.94 9.795 9.608 9.453 9.388 9.37 9.388 9.493 9.625 9.595 9.458 9.383 9.663 10.185 10.432 10.542 10.605 10.55 10.47 10.352 9.93 9.28 9.006 9.37 10.025 10.397 10.505 10.605 10.687 10.712 10.697 10.68 10.668 10.678 10.703 10.735 10.772 10.78 10.75 10.702 10.645 10.628 10.645 10.637 10.588 10.578 10.645 10.73 10.825 10.943 11.083 11.227 11.375 11.5 11.575 11.625 11.665 11.597 11.402 11.172 10.96 10.823 10.76 10.753 10.785 10.79 10.76 10.73 10.703 10.67 10.567 10.43 10.328 10.23 10.145 10.087 9.995 9.858 9.728 9.613 9.51 9.448 9.445 9.452 9.427 9.38 9.335 9.297 9.255 9.2 9.145 9.09 9.035 8.99 8.965 8.952 8.938 8.923 8.913 8.925 8.912 8.885 8.885 8.882 8.872 8.847 8.802 8.745 8.685 8.64 8.628 8.64 8.665 8.68 8.675 8.665 8.65 8.607 8.548 8.498 8.465 8.442 8.415 8.385 8.355 8.338 8.333 8.328 8.325 8.338 8.388 8.462 8.522 8.55 8.56 8.562 8.55 8.512 8.457 8.397 8.338 8.3 8.288 8.295 8.32 8.325 8.31 8.303 8.305 8.307 8.297 8.282 8.265 8.24 8.202 8.16 8.14 8.145 8.16 8.177 8.19 8.202 8.223 8.26 8.305 8.327 8.335 8.343 8.35 8.36 8.365 8.362 8.355 8.347 8.343
12.113 12.145 12.173 12.2 12.24 12.28 12.325 12.372 12.387 12.302 12.145 11.982 11.602 10.913 10.415 10.463 10.537 10.385 10.25 10.17 10.15 10.17 10.185 10.135 10.045 9.947 9.808 9.658 9.583 9.565 9.552 9.538 9.543 9.62 9.647 9.52 9.393 9.36 9.683 10.167 10.407 10.447 10.377 10.182 9.792 9.258 8.965 8.933 8.953 9.683 10.407 10.512 10.607 10.692 10.732 10.732 10.72 10.705 10.715 10.747 10.787 10.827 10.832 10.79 10.722 10.668 10.665 10.7 10.732 10.735 10.742 10.8 10.88 10.953 11.03 11.128 11.25 11.392 11.497 11.55 11.552 11.507 11.365 11.13 10.915 10.725 10.6 10.58 10.62 10.672 10.68 10.65 10.62 10.59 10.557 10.49 10.392 10.3 10.205 10.11 10.027 9.927 9.81 9.705 9.605 9.505 9.43 9.407 9.39 9.35 9.313 9.28 9.25 9.215 9.165 9.108 9.053 8.998 8.96 8.945 8.935 8.922 8.908 8.898 8.912 8.922 8.915 8.91 8.895 8.872 8.835 8.785 8.73 8.67 8.628 8.618 8.623 8.635 8.642 8.635 8.622 8.605 8.565 8.515 8.483 8.458 8.435 8.41 8.382 8.355 8.335 8.325 8.318 8.315 8.325 8.365 8.432 8.48 8.497 8.51 8.52 8.525 8.502 8.452 8.39 8.333 8.308 8.315 8.34 8.37 8.375 8.36 8.342 8.317 8.297 8.278 8.255 8.235 8.207 8.165 8.123 8.113 8.125 8.14 8.155 8.17 8.19 8.213 8.253 8.305 8.33 8.335 8.343 8.35 8.36 8.36 8.342 8.32 8.308 8.318
12.16 12.178 12.205 12.245 12.29 12.333 12.377 12.395 12.33 12.185 12.015 11.652 10.978 10.443 10.378 10.575 10.62 10.465 10.312 10.175 10.14 10.197 10.197 10.12 10.032 9.942 9.845 9.778 9.757 9.75 9.737 9.72 9.7 9.698 9.707 9.622 9.458 9.335 9.355 9.725 10.175 10.282 10.02 9.578 9.173 8.998 9.017 8.98 8.885 9.542 10.322 10.447 10.552 10.65 10.71 10.732 10.742 10.742 10.757 10.787 10.815 10.832 10.815 10.77 10.715 10.688 10.705 10.74 10.775 10.805 10.855 10.94 11.035 11.115 11.182 11.247 11.33 11.405 11.42 11.395 11.327 11.218 11.078 10.9 10.708 10.525 10.438 10.46 10.51 10.56 10.57 10.54 10.507 10.472 10.437 10.395 10.33 10.245 10.152 10.057 9.962 9.867 9.772 9.677 9.582 9.487 9.405 9.36 9.33 9.295 9.265 9.235 9.208 9.18 9.135 9.075 9.018 8.963 8.93 8.922 8.915 8.905 8.89 8.88 8.895 8.922 8.932 8.917 8.89 8.862 8.82 8.765 8.71 8.655 8.62 8.613 8.618 8.622 8.617 8.603 8.583 8.56 8.533 8.503 8.477 8.452 8.427 8.402 8.377 8.353 8.335 8.325 8.313 8.303 8.313 8.348 8.397 8.43 8.445 8.46 8.47 8.485 8.485 8.442 8.378 8.335 8.335 8.36 8.39 8.42 8.425 8.402 8.37 8.322 8.285 8.26 8.233 8.208 8.175 8.13 8.093 8.09 8.105 8.12 8.135 8.15 8.17 8.2 8.25 8.307 8.337 8.345 8.355 8.365 8.37 8.355 8.318 8.283 8.28 8.31
12.253 12.26 12.283 12.325 12.37 12.387 12.382 12.342 12.22 12.05 11.702 11.043 10.488 10.305 10.493 10.735 10.677 10.505 10.33 10.173 10.128 10.192 10.195 10.11 10.023 9.943 9.888 9.862 9.855 9.852 9.84 9.82 9.8 9.777 9.747 9.66 9.507 9.36 9.26 9.348 9.682 9.74 9.385 9.103 9.03 9.052 9.07 9.027 8.933 9.18 9.902 10.382 10.5 10.605 10.66 10.69 10.72 10.752 10.775 10.787 10.8 10.792 10.76 10.728 10.708 10.715 10.745 10.778 10.813 10.85 10.92 11.03 11.147 11.252 11.315 11.345 11.375 11.372 11.298 11.19 11.1 11.015 10.905 10.743 10.558 10.413 10.363 10.395 10.44 10.467 10.457 10.422 10.387 10.35 10.315 10.28 10.232 10.162 10.072 9.977 9.882 9.79 9.702 9.615 9.525 9.438 9.365 9.323 9.295 9.265 9.235 9.208 9.182 9.15 9.1 9.04 8.983 8.928 8.893 8.885 8.885 8.88 8.87 8.863 8.875 8.897 8.915 8.91 8.88 8.847 8.802 8.748 8.695 8.65 8.618 8.608 8.612 8.612 8.6 8.577 8.553 8.53 8.51 8.49 8.465 8.44 8.417 8.392 8.368 8.348 8.335 8.325 8.31 8.308 8.328 8.35 8.373 8.393 8.413 8.433 8.448 8.465 8.462 8.417 8.36 8.343 8.367 8.4 8.43 8.462 8.46 8.417 8.37 8.318 8.278 8.25 8.22 8.203 8.183 8.138 8.093 8.078 8.085 8.1 8.115 8.13 8.155 8.198 8.258 8.322 8.36 8.368 8.378 8.387 8.377 8.35 8.318 8.29 8.288 8.308
12.36 12.37 12.387 12.397 12.39 12.355 12.305 12.227 12.085 11.757 11.11 10.528 10.32 10.343 10.597 10.782 10.667 10.475 10.28 10.148 10.115 10.148 10.165 10.105 10.023 9.963 9.92 9.885 9.865 9.86 9.85 9.83 9.8 9.755 9.697 9.615 9.497 9.357 9.248 9.18 9.2 9.14 9.043 9.065 9.085 9.105 9.117 9.072 8.98 8.868 9.533 10.317 10.45 10.562 10.61 10.643 10.685 10.745 10.767 10.76 10.765 10.745 10.72 10.72 10.735 10.758 10.785 10.815 10.848 10.898 10.98 11.092 11.21 11.3 11.33 11.322 11.317 11.302 11.22 11.088 10.973 10.875 10.762 10.608 10.463 10.363 10.325 10.352 10.382 10.372 10.335 10.298 10.265 10.23 10.195 10.16 10.122 10.075 9.992 9.895 9.8 9.705 9.618 9.53 9.448 9.378 9.325 9.298 9.275 9.245 9.215 9.19 9.16 9.115 9.062 9.005 8.947 8.89 8.843 8.825 8.83 8.835 8.835 8.835 8.84 8.843 8.865 8.887 8.872 8.835 8.788 8.738 8.69 8.65 8.615 8.603 8.605 8.597 8.577 8.553 8.53 8.507 8.488 8.47 8.447 8.423 8.4 8.377 8.355 8.343 8.335 8.325 8.325 8.35 8.38 8.388 8.38 8.385 8.41 8.435 8.452 8.457 8.432 8.385 8.345 8.338 8.362 8.397 8.435 8.475 8.465 8.41 8.36 8.31 8.27 8.24 8.225 8.235 8.23 8.187 8.135 8.095 8.075 8.08 8.095 8.113 8.15 8.21 8.283 8.355 8.395 8.4 8.408 8.41 8.39 8.365 8.34 8.323 8.318 8.318
12.467 12.472 12.445 12.372 12.3 12.248 12.205 12.11 11.807 11.175 10.57 10.34 10.28 10.388 10.6 10.682 10.602 10.417 10.228 10.128 10.12 10.125 10.137 10.105 10.038 9.995 9.96 9.92 9.887 9.867 9.842 9.805 9.755 9.695 9.632 9.552 9.45 9.325 9.223 9.162 9.063 9.03 9.085 9.11 9.133 9.157 9.167 9.12 9.03 8.92 9.333 10.067 10.41 10.52 10.568 10.615 10.675 10.742 10.785 10.765 10.733 10.728 10.735 10.757 10.78 10.8 10.823 10.853 10.89 10.948 11.04 11.145 11.222 11.26 11.265 11.255 11.245 11.232 11.155 11.015 10.877 10.752 10.632 10.513 10.413 10.325 10.283 10.295 10.292 10.255 10.208 10.17 10.14 10.108 10.08 10.05 10.013 9.977 9.915 9.82 9.72 9.623 9.535 9.458 9.393 9.338 9.293 9.27 9.252 9.225 9.197 9.17 9.13 9.078 9.025 8.97 8.91 8.853 8.798 8.763 8.76 8.77 8.775 8.78 8.782 8.783 8.808 8.845 8.855 8.825 8.778 8.733 8.69 8.65 8.613 8.598 8.595 8.577 8.553 8.53 8.507 8.482 8.465 8.45 8.43 8.407 8.383 8.363 8.348 8.34 8.335 8.338 8.368 8.412 8.445 8.445 8.42 8.405 8.42 8.442 8.447 8.435 8.4 8.36 8.335 8.325 8.34 8.378 8.425 8.47 8.46 8.403 8.35 8.3 8.263 8.25 8.263 8.285 8.28 8.24 8.19 8.14 8.095 8.073 8.075 8.103 8.16 8.238 8.32 8.395 8.432 8.437 8.442 8.435 8.415 8.395 8.373 8.358 8.353 8.348
12.562 12.532 12.43 12.298 12.2 12.153 12.102 11.86 11.245 10.615 10.365 10.305 10.265 10.345 10.462 10.52 10.505 10.362 10.195 10.125 10.125 10.125 10.13 10.102 10.05 10.01 9.97 9.93 9.89 9.855 9.807 9.745 9.685 9.625 9.565 9.485 9.387 9.282 9.197 9.142 9.09 9.088 9.125 9.153 9.183 9.215 9.222 9.17 9.08 8.973 8.99 9.663 10.357 10.482 10.532 10.585 10.637 10.693 10.76 10.752 10.705 10.72 10.75 10.777 10.805 10.835 10.862 10.892 10.94 11.005 11.082 11.147 11.18 11.197 11.195 11.175 11.152 11.13 11.05 10.907 10.762 10.617 10.493 10.412 10.352 10.28 10.233 10.212 10.177 10.13 10.083 10.048 10.025 10.005 9.993 9.977 9.933 9.878 9.83 9.752 9.648 9.553 9.478 9.415 9.358 9.303 9.26 9.24 9.227 9.205 9.177 9.142 9.095 9.042 8.988 8.933 8.875 8.818 8.76 8.71 8.693 8.698 8.703 8.708 8.713 8.723 8.75 8.79 8.817 8.81 8.772 8.73 8.69 8.65 8.61 8.593 8.582 8.555 8.53 8.507 8.477 8.445 8.427 8.422 8.41 8.39 8.368 8.353 8.345 8.34 8.35 8.382 8.43 8.48 8.51 8.5 8.47 8.443 8.435 8.438 8.425 8.41 8.39 8.37 8.36 8.355 8.37 8.403 8.438 8.47 8.455 8.398 8.343 8.295 8.275 8.29 8.315 8.337 8.335 8.295 8.242 8.19 8.14 8.095 8.078 8.115 8.19 8.275 8.36 8.435 8.47 8.473 8.475 8.465 8.445 8.425 8.405 8.393 8.39 8.388
12.622 12.532 12.413 12.313 12.188 12.082 11.887 11.31 10.66 10.39 10.327 10.265 10.248 10.268 10.29 10.335 10.372 10.295 10.17 10.13 10.13 10.13 10.125 10.08 10.02 9.975 9.93 9.89 9.85 9.812 9.755 9.683 9.62 9.56 9.497 9.415 9.32 9.217 9.135 9.098 9.11 9.155 9.19 9.22 9.252 9.265 9.25 9.207 9.13 9.025 8.873 9.495 10.277 10.385 10.45 10.495 10.543 10.643 10.72 10.7 10.665 10.67 10.705 10.74 10.775 10.812 10.847 10.88 10.932 11.005 11.065 11.1 11.12 11.12 11.07 11.015 10.985 10.955 10.872 10.732 10.587 10.442 10.313 10.24 10.215 10.195 10.162 10.113 10.063 10.015 9.97 9.948 9.94 9.93 9.925 9.92 9.88 9.81 9.748 9.678 9.59 9.515 9.453 9.393 9.335 9.278 9.238 9.218 9.203 9.185 9.155 9.11 9.057 9 8.953 8.91 8.858 8.803 8.745 8.69 8.665 8.665 8.668 8.67 8.673 8.678 8.695 8.73 8.767 8.775 8.747 8.712 8.677 8.645 8.61 8.583 8.562 8.535 8.507 8.475 8.432 8.388 8.365 8.367 8.367 8.362 8.352 8.342 8.337 8.333 8.357 8.415 8.472 8.53 8.562 8.55 8.52 8.49 8.468 8.453 8.438 8.43 8.428 8.425 8.425 8.425 8.438 8.463 8.485 8.49 8.457 8.405 8.35 8.303 8.295 8.32 8.347 8.377 8.382 8.345 8.292 8.24 8.19 8.143 8.128 8.173 8.248 8.328 8.408 8.475 8.507 8.51 8.505 8.49 8.467 8.445 8.435 8.435 8.435 8.435
12.64 12.548 12.483 12.412 12.25 11.957 11.37 10.7 10.408 10.335 10.258 10.22 10.243 10.25 10.225 10.223 10.235 10.2 10.148 10.135 10.135 10.135 10.117 10.05 9.97 9.918 9.873 9.833 9.805 9.772 9.71 9.633 9.56 9.495 9.43 9.347 9.237 9.118 9.05 9.068 9.148 9.23 9.275 9.305 9.317 9.282 9.243 9.222 9.172 9.077 8.928 9.2 9.882 10.247 10.32 10.375 10.483 10.647 10.705 10.658 10.623 10.61 10.635 10.67 10.705 10.74 10.768 10.8 10.86 10.935 10.995 11.032 11.055 11.027 10.928 10.825 10.768 10.735 10.657 10.525 10.385 10.245 10.14 10.095 10.095 10.12 10.102 10.028 9.963 9.915 9.875 9.863 9.865 9.862 9.857 9.85 9.83 9.775 9.695 9.62 9.555 9.5 9.442 9.38 9.32 9.265 9.228 9.205 9.185 9.162 9.117 9.057 8.997 8.943 8.925 8.907 8.86 8.81 8.755 8.7 8.673 8.67 8.67 8.672 8.67 8.66 8.66 8.678 8.71 8.72 8.698 8.67 8.643 8.62 8.597 8.57 8.542 8.507 8.465 8.42 8.37 8.32 8.293 8.293 8.3 8.312 8.32 8.32 8.317 8.31 8.335 8.4 8.47 8.552 8.61 8.602 8.57 8.54 8.518 8.505 8.498 8.495 8.495 8.495 8.495 8.495 8.505 8.527 8.535 8.51 8.467 8.42 8.367 8.318 8.308 8.333 8.365 8.41 8.422 8.387 8.34 8.29 8.24 8.208 8.21 8.255 8.327 8.4 8.467 8.517 8.54 8.54 8.52 8.49 8.463 8.453 8.467 8.482 8.485 8.475
12.703 12.655 12.63 12.53 12.322 11.615 10.74 10.415 10.335 10.245 10.188 10.21 10.27 10.292 10.268 10.233 10.195 10.158 10.14 10.14 10.14 10.14 10.112 10.032 9.933 9.863 9.818 9.785 9.767 9.732 9.665 9.585 9.505 9.433 9.365 9.27 9.13 9.02 9.018 9.098 9.202 9.3 9.36 9.372 9.335 9.268 9.23 9.22 9.197 9.127 8.983 8.858 9.51 10.175 10.198 10.32 10.522 10.667 10.667 10.625 10.59 10.563 10.568 10.6 10.635 10.665 10.685 10.72 10.783 10.852 10.91 10.955 10.98 10.93 10.813 10.685 10.58 10.52 10.442 10.315 10.208 10.143 10.118 10.098 10.073 10.087 10.067 9.975 9.883 9.818 9.785 9.78 9.783 9.785 9.785 9.78 9.772 9.735 9.66 9.593 9.54 9.49 9.435 9.37 9.303 9.252 9.217 9.185 9.157 9.125 9.062 8.983 8.918 8.9 8.92 8.91 8.867 8.82 8.765 8.71 8.678 8.67 8.672 8.672 8.662 8.648 8.643 8.648 8.663 8.667 8.653 8.633 8.613 8.598 8.58 8.555 8.525 8.478 8.415 8.355 8.3 8.25 8.22 8.22 8.233 8.248 8.262 8.277 8.285 8.28 8.305 8.378 8.47 8.58 8.665 8.667 8.625 8.59 8.573 8.568 8.565 8.565 8.565 8.565 8.565 8.563 8.572 8.58 8.555 8.512 8.47 8.427 8.382 8.333 8.32 8.353 8.398 8.452 8.465 8.43 8.387 8.34 8.3 8.29 8.298 8.333 8.4 8.462 8.52 8.557 8.557 8.535 8.5 8.465 8.453 8.47 8.5 8.525 8.532 8.497
12.845 12.817 12.772 12.627 11.95 10.933 10.44 10.353 10.268 10.188 10.173 10.23 10.29 10.327 10.32 10.28 10.23 10.175 10.145 10.143 10.14 10.14 10.105 10.015 9.907 9.818 9.768 9.748 9.73 9.69 9.62 9.54 9.46 9.383 9.302 9.188 9.043 8.97 9.028 9.14 9.25 9.36 9.422 9.395 9.31 9.243 9.22 9.21 9.2 9.162 9.037 8.855 9.412 10.09 10.18 10.363 10.585 10.67 10.635 10.595 10.558 10.523 10.508 10.528 10.56 10.577 10.6 10.645 10.703 10.765 10.82 10.872 10.9 10.837 10.71 10.578 10.448 10.34 10.26 10.193 10.158 10.165 10.175 10.145 10.095 10.077 10.035 9.935 9.828 9.735 9.703 9.708 9.703 9.7 9.703 9.703 9.703 9.685 9.63 9.575 9.53 9.482 9.427 9.36 9.285 9.225 9.185 9.145 9.11 9.075 9.02 8.945 8.888 8.898 8.927 8.91 8.87 8.825 8.772 8.72 8.683 8.67 8.672 8.665 8.648 8.63 8.625 8.63 8.633 8.633 8.628 8.618 8.603 8.59 8.57 8.543 8.517 8.47 8.398 8.325 8.258 8.195 8.158 8.158 8.173 8.188 8.205 8.223 8.238 8.248 8.293 8.388 8.5 8.62 8.71 8.717 8.672 8.64 8.63 8.63 8.63 8.63 8.63 8.63 8.63 8.627 8.625 8.602 8.56 8.515 8.47 8.43 8.39 8.348 8.343 8.385 8.44 8.495 8.507 8.472 8.43 8.39 8.368 8.37 8.375 8.4 8.452 8.507 8.557 8.57 8.54 8.498 8.463 8.453 8.47 8.502 8.535 8.565 8.565 8.502
13.008 12.982 12.89 12.69 12.023 10.981 10.453 10.38 10.308 10.243 10.208 10.228 10.287 10.355 10.362 10.307 10.245 10.185 10.155 10.15 10.145 10.137 10.077 9.97 9.862 9.763 9.718 9.71 9.692 9.65 9.575 9.495 9.415 9.338 9.262 9.155 9.023 8.958 9.003 9.127 9.262 9.372 9.417 9.362 9.265 9.197 9.165 9.14 9.137 9.15 9.08 8.913 9.04 9.735 10.262 10.44 10.62 10.655 10.613 10.57 10.528 10.49 10.46 10.46 10.478 10.485 10.515 10.565 10.62 10.678 10.735 10.792 10.817 10.767 10.655 10.523 10.388 10.255 10.168 10.148 10.152 10.157 10.142 10.105 10.07 10.04 9.977 9.877 9.767 9.658 9.628 9.662 9.67 9.663 9.658 9.655 9.655 9.642 9.605 9.557 9.512 9.47 9.41 9.332 9.252 9.18 9.133 9.095 9.06 9.03 9.005 8.967 8.915 8.915 8.935 8.91 8.87 8.825 8.777 8.73 8.688 8.673 8.67 8.655 8.635 8.613 8.603 8.607 8.61 8.61 8.61 8.607 8.597 8.58 8.56 8.54 8.515 8.485 8.435 8.368 8.3 8.2 8.123 8.12 8.138 8.153 8.17 8.188 8.203 8.245 8.328 8.428 8.54 8.66 8.73 8.725 8.69 8.668 8.672 8.68 8.68 8.68 8.68 8.68 8.68 8.675 8.65 8.608 8.563 8.518 8.478 8.443 8.408 8.375 8.383 8.43 8.483 8.535 8.552 8.522 8.48 8.445 8.433 8.437 8.44 8.458 8.503 8.557 8.592 8.58 8.538 8.493 8.455 8.455 8.485 8.517 8.55 8.577 8.56 8.482
13.183 13.15 13.005 12.74 12.507 11.947 10.98 10.45 10.4 10.35 10.29 10.248 10.263 10.33 10.36 10.315 10.255 10.195 10.163 10.157 10.145 10.112 10.027 9.903 9.785 9.685 9.65 9.66 9.655 9.61 9.53 9.45 9.37 9.295 9.24 9.157 9.04 8.97 8.965 9.048 9.187 9.28 9.295 9.247 9.172 9.1 9.05 9.038 9.063 9.107 9.1 8.977 8.768 9.478 10.347 10.492 10.63 10.645 10.603 10.56 10.518 10.475 10.435 10.42 10.428 10.443 10.473 10.51 10.553 10.605 10.67 10.715 10.72 10.697 10.625 10.505 10.372 10.238 10.133 10.095 10.1 10.095 10.057 10.013 9.98 9.952 9.895 9.8 9.692 9.58 9.55 9.605 9.647 9.662 9.66 9.655 9.645 9.612 9.567 9.522 9.48 9.442 9.38 9.293 9.21 9.133 9.08 9.048 9.018 8.998 8.992 8.987 8.955 8.943 8.942 8.91 8.87 8.825 8.78 8.737 8.693 8.67 8.66 8.64 8.62 8.595 8.58 8.582 8.585 8.585 8.585 8.585 8.58 8.56 8.532 8.505 8.47 8.467 8.492 8.47 8.377 8.208 8.095 8.103 8.122 8.138 8.155 8.173 8.198 8.285 8.395 8.48 8.583 8.687 8.73 8.717 8.69 8.673 8.695 8.717 8.72 8.72 8.72 8.72 8.712 8.692 8.657 8.615 8.573 8.53 8.5 8.477 8.45 8.42 8.428 8.477 8.527 8.575 8.595 8.575 8.54 8.505 8.493 8.497 8.503 8.515 8.555 8.6 8.612 8.602 8.575 8.527 8.468 8.448 8.475 8.505 8.532 8.552 8.525 8.45
13.375 13.305 13.112 12.808 12.535 12.387 11.925 11.003 10.465 10.398 10.355 10.307 10.278 10.288 10.305 10.292 10.257 10.205 10.17 10.155 10.12 10.065 9.972 9.843 9.713 9.608 9.575 9.595 9.607 9.57 9.49 9.41 9.33 9.253 9.202 9.147 9.06 9.003 8.978 8.98 9.048 9.105 9.105 9.078 9.03 8.968 8.95 8.988 9.028 9.07 9.1 9.027 8.808 9.31 10.202 10.515 10.612 10.632 10.595 10.555 10.515 10.473 10.443 10.438 10.45 10.473 10.498 10.518 10.528 10.558 10.607 10.625 10.613 10.6 10.567 10.48 10.355 10.22 10.098 10.045 10.045 10.02 9.965 9.92 9.893 9.87 9.815 9.72 9.615 9.508 9.468 9.513 9.575 9.625 9.655 9.662 9.635 9.58 9.525 9.48 9.443 9.41 9.35 9.26 9.17 9.085 9.03 9.005 8.988 8.973 8.968 8.975 8.975 8.97 8.95 8.91 8.87 8.825 8.78 8.74 8.695 8.663 8.642 8.62 8.6 8.575 8.558 8.555 8.555 8.555 8.555 8.555 8.55 8.522 8.468 8.41 8.365 8.412 8.525 8.542 8.402 8.168 8.055 8.082 8.107 8.125 8.142 8.158 8.218 8.348 8.465 8.545 8.632 8.7 8.715 8.705 8.685 8.678 8.71 8.747 8.76 8.76 8.76 8.752 8.73 8.697 8.665 8.63 8.59 8.553 8.528 8.512 8.495 8.47 8.475 8.52 8.567 8.615 8.635 8.62 8.595 8.562 8.548 8.555 8.565 8.572 8.597 8.62 8.617 8.615 8.607 8.562 8.483 8.443 8.458 8.482 8.505 8.52 8.497 8.448
13.49 13.372 13.172 12.88 12.59 12.365 12.347 11.992 11.08 10.491 10.365 10.335 10.305 10.278 10.265 10.258 10.238 10.205 10.168 10.128 10.075 10.015 9.92 9.787 9.65 9.545 9.53 9.568 9.585 9.547 9.47 9.383 9.293 9.21 9.163 9.135 9.08 9.035 9.007 8.965 8.943 8.945 8.945 8.935 8.898 8.853 8.885 8.957 9 9.038 9.077 9.04 8.835 8.88 9.768 10.505 10.585 10.615 10.585 10.545 10.505 10.485 10.49 10.5 10.513 10.53 10.545 10.545 10.527 10.522 10.528 10.52 10.508 10.493 10.477 10.435 10.335 10.203 10.07 10 9.98 9.935 9.875 9.83 9.805 9.787 9.732 9.635 9.533 9.43 9.383 9.418 9.48 9.54 9.595 9.625 9.597 9.537 9.485 9.443 9.413 9.385 9.322 9.23 9.138 9.048 8.993 8.973 8.96 8.948 8.943 8.95 8.96 8.965 8.945 8.902 8.86 8.815 8.77 8.727 8.685 8.653 8.628 8.603 8.58 8.558 8.538 8.53 8.53 8.53 8.53 8.53 8.522 8.487 8.415 8.333 8.26 8.285 8.465 8.572 8.422 8.158 8.038 8.06 8.09 8.112 8.128 8.163 8.27 8.422 8.535 8.612 8.682 8.715 8.708 8.693 8.675 8.68 8.72 8.765 8.792 8.8 8.79 8.762 8.73 8.695 8.67 8.647 8.613 8.578 8.55 8.535 8.525 8.51 8.515 8.552 8.6 8.65 8.667 8.65 8.63 8.602 8.585 8.585 8.585 8.582 8.59 8.595 8.59 8.587 8.582 8.557 8.495 8.44 8.435 8.452 8.47 8.485 8.46 8.427
13.505 13.362 13.192 12.937 12.65 12.415 12.275 12.365 12.087 11.19 10.523 10.335 10.305 10.275 10.253 10.245 10.233 10.21 10.173 10.118 10.062 9.982 9.862 9.728 9.598 9.52 9.535 9.59 9.592 9.535 9.462 9.38 9.288 9.193 9.138 9.125 9.09 9.037 8.99 8.93 8.87 8.835 8.823 8.815 8.793 8.78 8.833 8.92 8.985 9.033 9.08 9.095 8.917 8.631 9.495 10.497 10.555 10.595 10.575 10.535 10.518 10.538 10.562 10.575 10.572 10.55 10.525 10.507 10.485 10.465 10.46 10.448 10.42 10.39 10.37 10.355 10.297 10.185 10.05 9.955 9.902 9.842 9.783 9.743 9.72 9.702 9.647 9.55 9.45 9.355 9.305 9.318 9.365 9.425 9.48 9.527 9.527 9.477 9.435 9.405 9.38 9.355 9.295 9.205 9.115 9.028 8.973 8.95 8.933 8.92 8.918 8.922 8.927 8.927 8.912 8.88 8.84 8.795 8.75 8.705 8.665 8.638 8.615 8.59 8.565 8.543 8.52 8.51 8.51 8.51 8.51 8.507 8.492 8.46 8.392 8.3 8.208 8.228 8.42 8.542 8.407 8.165 8.055 8.06 8.075 8.095 8.118 8.195 8.347 8.5 8.6 8.667 8.72 8.732 8.715 8.698 8.688 8.703 8.743 8.785 8.82 8.825 8.795 8.755 8.718 8.683 8.665 8.657 8.635 8.6 8.57 8.555 8.545 8.55 8.548 8.548 8.585 8.632 8.645 8.625 8.6 8.567 8.54 8.525 8.515 8.507 8.517 8.525 8.517 8.51 8.502 8.497 8.472 8.42 8.398 8.412 8.427 8.432 8.382 8.315
13.495 13.345 13.192 12.977 12.708 12.47 12.263 12.233 12.43 12.184 11.303 10.553 10.3 10.27 10.24 10.235 10.245 10.232 10.197 10.145 10.067 9.945 9.8 9.665 9.565 9.533 9.565 9.61 9.59 9.518 9.445 9.375 9.297 9.21 9.143 9.105 9.06 8.995 8.928 8.858 8.788 8.745 8.725 8.715 8.723 8.745 8.808 8.905 8.992 9.06 9.122 9.18 9.092 8.761 9.538 10.53 10.545 10.575 10.565 10.55 10.58 10.617 10.63 10.612 10.562 10.49 10.438 10.422 10.407 10.39 10.4 10.412 10.385 10.338 10.3 10.27 10.23 10.152 10.03 9.903 9.81 9.745 9.693 9.66 9.64 9.62 9.565 9.468 9.373 9.293 9.25 9.248 9.268 9.303 9.348 9.405 9.432 9.4 9.368 9.357 9.337 9.307 9.255 9.182 9.097 9.013 8.96 8.935 8.913 8.895 8.89 8.89 8.89 8.882 8.867 8.847 8.817 8.775 8.73 8.685 8.648 8.625 8.602 8.578 8.555 8.53 8.505 8.493 8.49 8.49 8.49 8.48 8.457 8.43 8.367 8.275 8.185 8.277 8.437 8.447 8.327 8.153 8.085 8.085 8.083 8.088 8.13 8.245 8.407 8.547 8.64 8.705 8.745 8.748 8.735 8.73 8.735 8.75 8.78 8.822 8.852 8.837 8.79 8.745 8.705 8.67 8.655 8.655 8.647 8.62 8.59 8.575 8.58 8.612 8.6 8.548 8.54 8.568 8.575 8.55 8.515 8.472 8.43 8.408 8.4 8.393 8.415 8.44 8.435 8.425 8.418 8.415 8.412 8.382 8.353 8.362 8.38 8.367 8.295 8.188
13.475 13.325 13.175 12.997 12.762 12.525 12.38 12.348 12.458 12.59 12.282 11.41 10.578 10.265 10.235 10.215 10.227 10.245 10.225 10.157 10.035 9.883 9.738 9.625 9.565 9.558 9.595 9.617 9.575 9.503 9.43 9.357 9.282 9.215 9.155 9.093 9.033 8.963 8.875 8.785 8.703 8.66 8.653 8.66 8.69 8.725 8.795 8.9 8.997 9.087 9.165 9.225 9.242 8.968 9.575 10.51 10.567 10.573 10.585 10.617 10.665 10.667 10.625 10.56 10.477 10.393 10.34 10.33 10.325 10.315 10.325 10.355 10.365 10.335 10.288 10.24 10.185 10.112 10 9.86 9.743 9.675 9.635 9.6 9.568 9.54 9.485 9.395 9.315 9.245 9.21 9.213 9.218 9.225 9.245 9.283 9.325 9.32 9.298 9.302 9.292 9.257 9.205 9.145 9.075 9 8.95 8.925 8.9 8.875 8.858 8.85 8.847 8.837 8.822 8.805 8.782 8.75 8.71 8.668 8.633 8.61 8.587 8.565 8.542 8.518 8.495 8.478 8.473 8.475 8.47 8.45 8.423 8.395 8.34 8.255 8.163 8.257 8.387 8.352 8.248 8.14 8.115 8.115 8.115 8.115 8.16 8.28 8.425 8.55 8.647 8.727 8.772 8.777 8.778 8.785 8.795 8.803 8.825 8.86 8.875 8.855 8.802 8.743 8.695 8.66 8.645 8.645 8.645 8.635 8.613 8.608 8.645 8.687 8.667 8.6 8.545 8.52 8.497 8.46 8.42 8.375 8.325 8.295 8.285 8.275 8.3 8.342 8.35 8.34 8.333 8.33 8.332 8.325 8.303 8.305 8.327 8.302 8.215 8.1
13.392 13.267 13.142 13.002 12.812 12.663 12.647 12.687 12.715 12.732 12.75 12.414 11.52 10.611 10.235 10.205 10.2 10.23 10.227 10.132 9.98 9.82 9.693 9.623 9.588 9.585 9.622 9.622 9.56 9.487 9.415 9.332 9.243 9.19 9.16 9.103 9.058 8.998 8.893 8.79 8.69 8.618 8.608 8.638 8.673 8.71 8.783 8.885 8.985 9.087 9.182 9.24 9.18 8.878 9.413 10.39 10.6 10.59 10.615 10.665 10.69 10.647 10.558 10.47 10.383 10.295 10.24 10.23 10.23 10.23 10.245 10.275 10.305 10.315 10.285 10.225 10.147 10.06 9.947 9.822 9.708 9.638 9.607 9.57 9.523 9.475 9.415 9.34 9.27 9.205 9.175 9.178 9.182 9.188 9.193 9.203 9.225 9.233 9.23 9.24 9.24 9.207 9.15 9.09 9.03 8.977 8.942 8.917 8.893 8.865 8.838 8.818 8.805 8.793 8.775 8.755 8.738 8.717 8.687 8.65 8.618 8.595 8.572 8.55 8.527 8.505 8.485 8.465 8.458 8.457 8.442 8.415 8.387 8.36 8.312 8.232 8.135 8.205 8.307 8.265 8.195 8.15 8.153 8.158 8.163 8.168 8.193 8.285 8.422 8.542 8.64 8.727 8.785 8.805 8.817 8.83 8.842 8.855 8.872 8.885 8.88 8.862 8.82 8.757 8.698 8.65 8.63 8.632 8.635 8.635 8.632 8.66 8.727 8.755 8.705 8.62 8.535 8.467 8.413 8.363 8.32 8.277 8.228 8.185 8.165 8.158 8.185 8.24 8.262 8.255 8.25 8.25 8.25 8.25 8.242 8.24 8.247 8.222 8.14 8.025
13.225 13.125 13.027 12.925 12.812 12.767 12.79 12.802 12.802 12.8 12.8 12.757 12.439 11.615 10.641 10.2 10.178 10.192 10.2 10.102 9.94 9.788 9.688 9.64 9.613 9.618 9.64 9.615 9.545 9.47 9.382 9.275 9.193 9.175 9.167 9.123 9.11 9.075 8.97 8.865 8.755 8.673 8.65 8.665 8.683 8.708 8.77 8.865 8.965 9.065 9.172 9.255 9.115 8.783 9.103 10.11 10.61 10.59 10.607 10.632 10.637 10.595 10.508 10.413 10.318 10.225 10.16 10.14 10.143 10.15 10.17 10.2 10.23 10.252 10.235 10.167 10.08 9.99 9.882 9.77 9.665 9.598 9.572 9.542 9.5 9.443 9.37 9.295 9.225 9.165 9.143 9.145 9.148 9.153 9.158 9.163 9.165 9.158 9.155 9.165 9.175 9.152 9.095 9.035 8.978 8.938 8.922 8.91 8.89 8.865 8.835 8.803 8.778 8.758 8.735 8.715 8.698 8.68 8.657 8.625 8.592 8.567 8.54 8.512 8.49 8.477 8.467 8.452 8.442 8.43 8.405 8.378 8.353 8.325 8.282 8.205 8.13 8.18 8.232 8.203 8.2 8.215 8.23 8.238 8.238 8.235 8.243 8.31 8.43 8.537 8.63 8.712 8.775 8.81 8.827 8.842 8.86 8.875 8.88 8.872 8.857 8.842 8.807 8.75 8.687 8.633 8.608 8.605 8.605 8.605 8.613 8.66 8.725 8.727 8.655 8.55 8.46 8.398 8.333 8.27 8.223 8.18 8.13 8.078 8.048 8.04 8.07 8.132 8.172 8.175 8.168 8.167 8.17 8.17 8.157 8.145 8.137 8.117 8.06 7.955
13.05 12.96 12.875 12.795 12.732 12.702 12.69 12.68 12.678 12.682 12.682 12.677 12.657 12.424 11.68 10.666 10.166 10.16 10.17 10.087 9.925 9.793 9.71 9.66 9.638 9.65 9.65 9.6 9.522 9.427 9.315 9.208 9.165 9.175 9.175 9.155 9.172 9.152 9.048 8.943 8.858 8.813 8.79 8.775 8.77 8.785 8.805 8.848 8.935 9.04 9.18 9.307 9.192 8.878 8.803 9.39 10.222 10.554 10.562 10.562 10.56 10.542 10.475 10.38 10.285 10.185 10.108 10.073 10.07 10.08 10.103 10.132 10.15 10.152 10.13 10.08 10.007 9.92 9.817 9.713 9.625 9.56 9.525 9.502 9.475 9.422 9.34 9.258 9.185 9.128 9.108 9.112 9.115 9.118 9.123 9.127 9.122 9.093 9.075 9.085 9.102 9.095 9.045 8.988 8.933 8.89 8.88 8.887 8.882 8.862 8.832 8.8 8.773 8.745 8.718 8.695 8.675 8.655 8.63 8.585 8.54 8.51 8.48 8.453 8.438 8.443 8.442 8.43 8.422 8.405 8.375 8.35 8.325 8.3 8.262 8.185 8.13 8.153 8.185 8.21 8.26 8.31 8.33 8.325 8.315 8.302 8.303 8.363 8.457 8.535 8.615 8.695 8.762 8.805 8.823 8.84 8.855 8.855 8.845 8.83 8.815 8.802 8.767 8.71 8.655 8.608 8.58 8.57 8.563 8.558 8.56 8.587 8.617 8.61 8.545 8.45 8.38 8.33 8.262 8.185 8.125 8.08 8.032 7.978 7.938 7.925 7.955 8.017 8.072 8.09 8.083 8.082 8.082 8.065 8.033 8.025 8.022 8 7.965 7.882
12.91 12.833 12.758 12.683 12.618 12.578 12.56 12.555 12.558 12.565 12.565 12.56 12.555 12.53 12.382 11.765 10.723 10.153 10.143 10.07 9.923 9.818 9.745 9.685 9.66 9.672 9.652 9.572 9.47 9.352 9.233 9.163 9.16 9.175 9.182 9.19 9.23 9.22 9.13 9.055 9.01 8.98 8.953 8.93 8.918 8.932 8.943 8.93 8.943 9.048 9.222 9.352 9.25 8.983 8.823 8.926 9.385 9.69 10.022 10.425 10.48 10.475 10.432 10.35 10.252 10.145 10.065 10.023 10.005 10.012 10.03 10.045 10.045 10.035 10.012 9.972 9.92 9.847 9.752 9.655 9.582 9.523 9.48 9.457 9.435 9.387 9.307 9.225 9.145 9.088 9.073 9.077 9.08 9.083 9.087 9.09 9.067 9.018 8.995 9.008 9.027 9.03 8.992 8.94 8.885 8.84 8.83 8.845 8.855 8.85 8.827 8.8 8.775 8.748 8.72 8.693 8.668 8.645 8.61 8.535 8.47 8.44 8.41 8.395 8.4 8.415 8.417 8.405 8.397 8.385 8.36 8.335 8.318 8.305 8.268 8.21 8.17 8.155 8.178 8.232 8.295 8.352 8.385 8.382 8.37 8.355 8.358 8.42 8.492 8.535 8.598 8.675 8.745 8.795 8.817 8.83 8.832 8.82 8.805 8.79 8.775 8.76 8.727 8.678 8.63 8.585 8.555 8.545 8.535 8.52 8.503 8.493 8.49 8.487 8.44 8.365 8.313 8.265 8.197 8.11 8.035 7.983 7.935 7.882 7.833 7.81 7.84 7.903 7.965 7.997 8 7.992 7.967 7.92 7.89 7.905 7.91 7.888 7.86 7.8
12.8 12.718 12.643 12.568 12.5 12.458 12.438 12.435 12.443 12.448 12.448 12.45 12.455 12.458 12.447 12.434 11.852 10.768 10.193 10.05 9.935 9.855 9.782 9.708 9.677 9.677 9.62 9.51 9.387 9.265 9.173 9.148 9.163 9.175 9.19 9.225 9.285 9.295 9.245 9.205 9.177 9.15 9.12 9.093 9.073 9.075 9.112 9.117 9.088 9.153 9.28 9.377 9.335 9.208 9.165 9.157 9.12 9.066 9.358 9.703 9.935 10.265 10.377 10.317 10.21 10.085 10.005 9.972 9.945 9.938 9.938 9.933 9.925 9.915 9.895 9.858 9.813 9.76 9.685 9.598 9.528 9.473 9.435 9.41 9.385 9.337 9.26 9.18 9.1 9.045 9.035 9.042 9.045 9.047 9.052 9.042 9 8.94 8.915 8.933 8.955 8.962 8.935 8.885 8.833 8.79 8.78 8.795 8.81 8.817 8.817 8.805 8.78 8.752 8.725 8.695 8.665 8.637 8.587 8.493 8.408 8.368 8.353 8.358 8.373 8.387 8.39 8.38 8.373 8.365 8.35 8.333 8.322 8.317 8.292 8.262 8.237 8.205 8.19 8.22 8.282 8.342 8.385 8.405 8.412 8.405 8.413 8.465 8.512 8.538 8.585 8.655 8.725 8.782 8.807 8.805 8.795 8.785 8.778 8.77 8.76 8.737 8.698 8.653 8.607 8.563 8.533 8.52 8.507 8.48 8.443 8.415 8.395 8.383 8.35 8.295 8.248 8.2 8.132 8.045 7.96 7.89 7.835 7.785 7.73 7.695 7.723 7.788 7.85 7.897 7.903 7.87 7.823 7.77 7.755 7.78 7.795 7.78 7.75 7.71
12.73 12.625 12.533 12.453 12.385 12.35 12.365 12.393 12.405 12.413 12.418 12.43 12.445 12.453 12.463 12.5 12.497 11.917 10.908 10.221 9.955 9.877 9.797 9.71 9.665 9.642 9.552 9.425 9.3 9.19 9.143 9.15 9.168 9.185 9.22 9.278 9.342 9.38 9.372 9.347 9.327 9.307 9.282 9.257 9.232 9.218 9.255 9.302 9.292 9.277 9.32 9.397 9.42 9.397 9.38 9.352 9.34 9.327 9.275 9.203 9.365 9.685 9.857 9.875 9.86 9.895 9.905 9.885 9.868 9.868 9.87 9.868 9.858 9.843 9.818 9.773 9.718 9.663 9.603 9.535 9.473 9.423 9.388 9.36 9.332 9.28 9.2 9.123 9.05 8.998 8.985 8.995 9.002 9.007 9.015 8.995 8.943 8.885 8.858 8.87 8.888 8.9 8.88 8.83 8.783 8.74 8.725 8.74 8.755 8.773 8.795 8.797 8.772 8.737 8.705 8.672 8.64 8.607 8.542 8.442 8.35 8.308 8.315 8.33 8.345 8.36 8.363 8.355 8.35 8.347 8.34 8.33 8.32 8.318 8.317 8.302 8.272 8.24 8.215 8.22 8.268 8.327 8.37 8.4 8.427 8.442 8.46 8.49 8.517 8.538 8.588 8.668 8.738 8.793 8.815 8.81 8.803 8.798 8.795 8.79 8.77 8.727 8.675 8.628 8.583 8.538 8.508 8.492 8.467 8.425 8.388 8.365 8.34 8.315 8.285 8.24 8.19 8.137 8.07 7.987 7.9 7.815 7.75 7.698 7.643 7.605 7.63 7.7 7.77 7.833 7.838 7.79 7.738 7.675 7.645 7.66 7.677 7.67 7.635 7.597
12.698 12.575 12.46 12.358 12.28 12.275 12.35 12.425 12.455 12.465 12.477 12.487 12.492 12.492 12.5 12.547 12.6 12.557 12.035 11.12 10.301 9.883 9.79 9.703 9.63 9.585 9.492 9.345 9.213 9.14 9.14 9.163 9.188 9.22 9.273 9.335 9.395 9.447 9.467 9.455 9.437 9.422 9.405 9.385 9.362 9.355 9.4 9.452 9.41 9.328 9.34 9.41 9.45 9.442 9.408 9.388 9.405 9.412 9.39 9.365 9.34 9.318 9.353 9.39 9.478 9.68 9.782 9.773 9.785 9.817 9.832 9.837 9.835 9.825 9.802 9.753 9.688 9.618 9.55 9.488 9.43 9.383 9.343 9.31 9.277 9.22 9.143 9.07 9.003 8.945 8.925 8.935 8.945 8.96 8.972 8.957 8.915 8.863 8.835 8.84 8.848 8.85 8.83 8.785 8.74 8.69 8.665 8.68 8.703 8.735 8.762 8.762 8.732 8.69 8.652 8.615 8.58 8.542 8.47 8.38 8.315 8.293 8.305 8.32 8.333 8.345 8.348 8.34 8.333 8.33 8.325 8.315 8.31 8.315 8.325 8.327 8.307 8.273 8.245 8.235 8.258 8.31 8.355 8.385 8.415 8.442 8.467 8.492 8.515 8.533 8.595 8.697 8.78 8.835 8.855 8.855 8.855 8.852 8.84 8.81 8.762 8.707 8.653 8.603 8.56 8.515 8.483 8.46 8.417 8.368 8.335 8.315 8.292 8.27 8.24 8.195 8.142 8.075 8.002 7.932 7.852 7.768 7.698 7.643 7.6 7.58 7.605 7.673 7.75 7.82 7.83 7.78 7.71 7.62 7.56 7.558 7.562 7.537 7.492 7.45
12.683 12.545 12.425 12.305 12.23 12.263 12.358 12.45 12.507 12.522 12.53 12.532 12.528 12.525 12.538 12.59 12.66 12.697 12.605 12.177 11.375 10.391 9.82 9.708 9.61 9.55 9.455 9.3 9.19 9.163 9.183 9.205 9.228 9.268 9.325 9.385 9.445 9.5 9.537 9.542 9.525 9.508 9.492 9.475 9.465 9.493 9.56 9.587 9.492 9.365 9.355 9.412 9.452 9.46 9.435 9.435 9.47 9.487 9.472 9.448 9.425 9.408 9.39 9.38 9.425 9.565 9.662 9.68 9.725 9.77 9.787 9.793 9.797 9.8 9.79 9.75 9.685 9.61 9.535 9.463 9.398 9.348 9.303 9.263 9.222 9.162 9.09 9.023 8.957 8.893 8.865 8.878 8.895 8.92 8.932 8.917 8.887 8.845 8.823 8.825 8.82 8.805 8.782 8.747 8.697 8.635 8.608 8.63 8.665 8.705 8.73 8.72 8.68 8.635 8.593 8.55 8.513 8.468 8.405 8.35 8.32 8.308 8.313 8.327 8.34 8.347 8.345 8.333 8.32 8.315 8.31 8.305 8.31 8.318 8.325 8.335 8.332 8.307 8.28 8.263 8.26 8.293 8.335 8.365 8.39 8.41 8.438 8.475 8.507 8.53 8.598 8.71 8.812 8.882 8.905 8.905 8.905 8.89 8.852 8.8 8.74 8.685 8.63 8.578 8.535 8.492 8.452 8.412 8.36 8.313 8.285 8.265 8.245 8.225 8.197 8.152 8.085 7.995 7.92 7.867 7.802 7.73 7.67 7.63 7.61 7.605 7.63 7.688 7.755 7.82 7.825 7.755 7.66 7.56 7.48 7.458 7.44 7.393 7.343 7.293
12.69 12.525 12.395 12.3 12.263 12.3 12.385 12.477 12.547 12.57 12.568 12.565 12.562 12.558 12.57 12.625 12.705 12.757 12.735 12.61 12.319 11.562 10.428 9.778 9.645 9.54 9.438 9.328 9.258 9.24 9.245 9.255 9.28 9.325 9.378 9.433 9.49 9.545 9.592 9.62 9.615 9.595 9.578 9.568 9.59 9.65 9.722 9.717 9.585 9.423 9.37 9.41 9.45 9.472 9.475 9.495 9.535 9.56 9.555 9.537 9.522 9.507 9.49 9.48 9.477 9.515 9.57 9.615 9.675 9.722 9.742 9.747 9.752 9.755 9.75 9.715 9.65 9.577 9.505 9.432 9.365 9.313 9.268 9.225 9.175 9.11 9.043 8.977 8.91 8.843 8.815 8.833 8.86 8.89 8.897 8.875 8.85 8.823 8.803 8.79 8.77 8.75 8.733 8.707 8.653 8.583 8.563 8.593 8.63 8.672 8.695 8.673 8.628 8.585 8.543 8.503 8.465 8.418 8.375 8.352 8.337 8.322 8.32 8.332 8.342 8.345 8.34 8.327 8.312 8.303 8.3 8.305 8.315 8.322 8.33 8.34 8.345 8.335 8.315 8.295 8.28 8.288 8.313 8.335 8.353 8.37 8.4 8.445 8.49 8.528 8.6 8.71 8.817 8.897 8.925 8.927 8.925 8.892 8.837 8.78 8.72 8.663 8.608 8.555 8.507 8.46 8.407 8.352 8.298 8.258 8.235 8.215 8.195 8.175 8.152 8.1 8.01 7.91 7.835 7.79 7.743 7.7 7.673 7.655 7.645 7.638 7.663 7.717 7.772 7.817 7.795 7.702 7.6 7.5 7.405 7.355 7.328 7.293 7.243 7.175
12.7 12.52 12.393 12.343 12.33 12.353 12.425 12.515 12.582 12.607 12.605 12.598 12.595 12.59 12.603 12.66 12.732 12.755 12.715 12.657 12.54 12.302 11.572 10.41 9.756 9.608 9.48 9.388 9.325 9.295 9.29 9.303 9.348 9.4 9.443 9.488 9.538 9.59 9.637 9.677 9.695 9.685 9.67 9.685 9.74 9.787 9.815 9.777 9.637 9.463 9.388 9.42 9.457 9.475 9.485 9.51 9.535 9.54 9.53 9.52 9.512 9.502 9.492 9.492 9.49 9.477 9.503 9.565 9.625 9.675 9.695 9.7 9.705 9.705 9.7 9.662 9.597 9.53 9.46 9.39 9.33 9.285 9.243 9.2 9.137 9.063 8.997 8.93 8.865 8.81 8.79 8.808 8.833 8.857 8.86 8.838 8.818 8.803 8.79 8.77 8.745 8.725 8.705 8.68 8.643 8.59 8.56 8.575 8.61 8.652 8.67 8.645 8.605 8.565 8.528 8.493 8.45 8.395 8.355 8.337 8.325 8.312 8.312 8.322 8.327 8.33 8.322 8.31 8.297 8.285 8.28 8.285 8.297 8.312 8.325 8.337 8.35 8.355 8.345 8.32 8.292 8.285 8.303 8.32 8.335 8.355 8.388 8.433 8.478 8.528 8.598 8.693 8.797 8.882 8.915 8.917 8.91 8.877 8.825 8.765 8.705 8.645 8.587 8.527 8.467 8.41 8.35 8.29 8.243 8.215 8.198 8.18 8.16 8.14 8.112 8.052 7.96 7.863 7.783 7.73 7.69 7.673 7.675 7.675 7.675 7.672 7.692 7.727 7.75 7.757 7.705 7.605 7.505 7.413 7.335 7.28 7.25 7.227 7.177 7.105
12.645 12.465 12.38 12.392 12.397 12.408 12.465 12.55 12.61 12.642 12.647 12.633 12.625 12.623 12.64 12.695 12.722 12.677 12.61 12.565 12.53 12.385 12.187 11.542 10.503 9.853 9.593 9.46 9.375 9.338 9.33 9.358 9.42 9.477 9.52 9.558 9.598 9.642 9.685 9.725 9.76 9.77 9.775 9.8 9.825 9.827 9.812 9.76 9.64 9.478 9.405 9.437 9.452 9.437 9.435 9.45 9.447 9.422 9.4 9.39 9.385 9.388 9.395 9.407 9.412 9.4 9.43 9.507 9.572 9.622 9.647 9.652 9.655 9.657 9.65 9.607 9.545 9.48 9.41 9.343 9.293 9.26 9.222 9.177 9.102 9.018 8.95 8.885 8.835 8.795 8.78 8.795 8.815 8.832 8.833 8.815 8.803 8.795 8.787 8.775 8.755 8.735 8.71 8.68 8.66 8.637 8.6 8.585 8.61 8.65 8.662 8.645 8.617 8.58 8.542 8.5 8.442 8.375 8.325 8.303 8.29 8.28 8.283 8.295 8.305 8.31 8.3 8.283 8.27 8.26 8.25 8.245 8.255 8.272 8.287 8.305 8.322 8.335 8.33 8.302 8.265 8.265 8.302 8.33 8.35 8.368 8.4 8.445 8.488 8.54 8.603 8.678 8.773 8.862 8.902 8.9 8.885 8.857 8.81 8.752 8.695 8.627 8.555 8.482 8.413 8.35 8.288 8.228 8.203 8.197 8.183 8.165 8.145 8.115 8.067 8.01 7.937 7.847 7.758 7.693 7.65 7.635 7.645 7.655 7.662 7.66 7.657 7.657 7.65 7.635 7.575 7.475 7.39 7.328 7.28 7.235 7.195 7.165 7.115 7.037
12.538 12.36 12.318 12.397 12.447 12.46 12.505 12.58 12.63 12.672 12.692 12.68 12.665 12.658 12.675 12.69 12.647 12.573 12.513 12.483 12.467 12.39 12.26 12.137 11.615 10.765 10.013 9.578 9.453 9.385 9.38 9.425 9.495 9.552 9.595 9.632 9.667 9.692 9.722 9.765 9.807 9.832 9.837 9.832 9.817 9.802 9.787 9.732 9.622 9.485 9.418 9.422 9.402 9.368 9.36 9.36 9.332 9.298 9.273 9.265 9.268 9.28 9.298 9.312 9.322 9.32 9.355 9.437 9.512 9.572 9.602 9.605 9.608 9.612 9.6 9.555 9.492 9.427 9.36 9.303 9.265 9.235 9.202 9.152 9.062 8.97 8.908 8.86 8.823 8.785 8.773 8.788 8.805 8.82 8.82 8.808 8.798 8.79 8.78 8.772 8.762 8.745 8.72 8.69 8.668 8.657 8.64 8.613 8.615 8.647 8.657 8.642 8.622 8.592 8.55 8.492 8.425 8.355 8.295 8.265 8.255 8.245 8.248 8.265 8.282 8.29 8.282 8.265 8.248 8.233 8.22 8.21 8.208 8.218 8.235 8.252 8.262 8.267 8.26 8.24 8.223 8.245 8.3 8.337 8.362 8.383 8.413 8.458 8.505 8.56 8.62 8.683 8.758 8.842 8.887 8.88 8.86 8.837 8.795 8.735 8.667 8.587 8.505 8.43 8.36 8.298 8.24 8.19 8.18 8.187 8.175 8.152 8.12 8.072 8.015 7.957 7.9 7.825 7.738 7.66 7.61 7.6 7.605 7.602 7.597 7.585 7.565 7.545 7.528 7.508 7.455 7.38 7.325 7.285 7.245 7.198 7.148 7.107 7.047 6.952
12.485 12.303 12.268 12.36 12.447 12.5 12.55 12.607 12.653 12.697 12.732 12.735 12.715 12.697 12.685 12.64 12.563 12.485 12.438 12.428 12.418 12.375 12.285 12.172 12.06 11.732 11.087 10.178 9.568 9.453 9.438 9.5 9.57 9.627 9.67 9.707 9.73 9.73 9.748 9.792 9.83 9.847 9.845 9.82 9.793 9.778 9.762 9.705 9.595 9.48 9.413 9.38 9.34 9.298 9.273 9.253 9.218 9.183 9.158 9.158 9.17 9.185 9.203 9.215 9.228 9.238 9.283 9.365 9.445 9.52 9.555 9.558 9.562 9.565 9.547 9.5 9.438 9.375 9.315 9.27 9.24 9.21 9.18 9.122 9.02 8.933 8.885 8.847 8.812 8.775 8.765 8.78 8.795 8.81 8.81 8.8 8.79 8.783 8.775 8.768 8.765 8.752 8.727 8.7 8.675 8.663 8.657 8.642 8.63 8.642 8.65 8.635 8.612 8.582 8.535 8.467 8.395 8.325 8.263 8.23 8.22 8.21 8.213 8.233 8.255 8.267 8.265 8.25 8.23 8.21 8.195 8.183 8.17 8.17 8.18 8.188 8.19 8.19 8.183 8.185 8.208 8.245 8.297 8.34 8.367 8.392 8.427 8.475 8.525 8.58 8.64 8.7 8.765 8.837 8.87 8.852 8.83 8.807 8.762 8.692 8.61 8.525 8.445 8.383 8.33 8.275 8.223 8.185 8.175 8.175 8.16 8.122 8.072 8.017 7.96 7.903 7.847 7.785 7.71 7.63 7.57 7.55 7.542 7.525 7.51 7.495 7.475 7.45 7.425 7.41 7.38 7.335 7.295 7.255 7.212 7.163 7.108 7.055 6.97 6.855
12.51 12.338 12.303 12.375 12.458 12.535 12.595 12.64 12.683 12.725 12.765 12.777 12.755 12.722 12.677 12.615 12.54 12.46 12.42 12.418 12.4 12.345 12.252 12.147 12.045 11.937 11.782 11.202 10.175 9.563 9.523 9.578 9.64 9.702 9.747 9.77 9.77 9.76 9.775 9.817 9.832 9.823 9.842 9.84 9.795 9.76 9.737 9.68 9.575 9.478 9.413 9.368 9.32 9.27 9.225 9.19 9.16 9.128 9.105 9.105 9.118 9.133 9.143 9.15 9.165 9.188 9.24 9.32 9.4 9.47 9.502 9.51 9.515 9.515 9.495 9.445 9.388 9.333 9.283 9.245 9.215 9.185 9.155 9.092 8.985 8.905 8.865 8.825 8.787 8.753 8.758 8.785 8.8 8.817 8.815 8.8 8.79 8.783 8.775 8.773 8.783 8.77 8.735 8.708 8.683 8.668 8.663 8.657 8.647 8.642 8.635 8.61 8.58 8.545 8.497 8.43 8.355 8.283 8.223 8.195 8.185 8.175 8.178 8.198 8.223 8.243 8.245 8.233 8.228 8.228 8.215 8.195 8.178 8.165 8.155 8.148 8.14 8.133 8.14 8.178 8.223 8.26 8.303 8.343 8.367 8.385 8.422 8.477 8.535 8.595 8.65 8.702 8.757 8.807 8.82 8.795 8.767 8.737 8.685 8.61 8.527 8.443 8.375 8.345 8.317 8.27 8.218 8.188 8.18 8.162 8.127 8.075 8.018 7.962 7.905 7.847 7.787 7.722 7.652 7.577 7.508 7.47 7.455 7.435 7.418 7.402 7.385 7.363 7.35 7.357 7.345 7.305 7.265 7.225 7.183 7.14 7.095 7.03 6.923 6.8
12.58 12.428 12.4 12.465 12.533 12.6 12.66 12.705 12.745 12.782 12.802 12.795 12.765 12.722 12.675 12.62 12.555 12.48 12.438 12.422 12.375 12.297 12.2 12.095 11.99 11.857 11.688 11.6 11.157 10.168 9.643 9.68 9.727 9.777 9.807 9.81 9.8 9.788 9.803 9.832 9.82 9.79 9.82 9.865 9.84 9.78 9.73 9.665 9.575 9.487 9.425 9.377 9.325 9.275 9.225 9.185 9.153 9.123 9.105 9.1 9.105 9.117 9.125 9.128 9.14 9.175 9.237 9.305 9.365 9.412 9.44 9.457 9.465 9.465 9.447 9.405 9.355 9.305 9.26 9.225 9.195 9.165 9.127 9.057 8.953 8.875 8.835 8.795 8.755 8.718 8.735 8.79 8.82 8.84 8.835 8.813 8.8 8.79 8.788 8.8 8.82 8.807 8.758 8.718 8.69 8.673 8.667 8.662 8.655 8.637 8.605 8.565 8.53 8.495 8.45 8.387 8.315 8.24 8.183 8.16 8.15 8.14 8.143 8.163 8.195 8.243 8.268 8.263 8.275 8.295 8.282 8.25 8.225 8.208 8.19 8.175 8.16 8.16 8.21 8.255 8.273 8.305 8.345 8.372 8.368 8.36 8.395 8.455 8.517 8.575 8.62 8.662 8.705 8.737 8.74 8.712 8.677 8.637 8.585 8.512 8.43 8.355 8.315 8.312 8.302 8.265 8.218 8.195 8.177 8.132 8.077 8.022 7.965 7.902 7.84 7.78 7.717 7.65 7.577 7.503 7.43 7.383 7.363 7.345 7.325 7.308 7.295 7.29 7.3 7.32 7.31 7.27 7.233 7.203 7.175 7.145 7.11 7.03 6.913 6.81
12.67 12.523 12.5 12.563 12.628 12.695 12.755 12.8 12.827 12.835 12.822 12.795 12.76 12.718 12.67 12.618 12.56 12.495 12.447 12.405 12.33 12.242 12.147 12.04 11.907 11.737 11.553 11.403 11.472 10.68 9.728 9.71 9.74 9.775 9.805 9.822 9.827 9.815 9.822 9.827 9.795 9.758 9.78 9.847 9.852 9.79 9.712 9.637 9.56 9.472 9.412 9.375 9.325 9.275 9.223 9.18 9.15 9.125 9.11 9.103 9.098 9.103 9.11 9.113 9.123 9.16 9.217 9.265 9.303 9.335 9.368 9.397 9.412 9.41 9.39 9.36 9.327 9.285 9.24 9.205 9.175 9.142 9.09 9.01 8.913 8.84 8.8 8.76 8.72 8.683 8.698 8.765 8.822 8.857 8.857 8.833 8.813 8.808 8.82 8.837 8.855 8.85 8.8 8.743 8.703 8.678 8.67 8.66 8.642 8.615 8.57 8.523 8.48 8.443 8.402 8.345 8.275 8.2 8.145 8.125 8.115 8.11 8.143 8.22 8.298 8.375 8.417 8.405 8.395 8.387 8.36 8.318 8.283 8.263 8.247 8.232 8.218 8.265 8.375 8.402 8.365 8.375 8.415 8.427 8.388 8.348 8.368 8.422 8.472 8.515 8.555 8.595 8.635 8.662 8.655 8.617 8.575 8.53 8.482 8.417 8.338 8.285 8.273 8.277 8.277 8.255 8.22 8.19 8.145 8.085 8.025 7.962 7.892 7.815 7.743 7.692 7.642 7.575 7.5 7.425 7.355 7.298 7.27 7.255 7.243 7.235 7.235 7.248 7.263 7.28 7.272 7.243 7.22 7.203 7.185 7.162 7.12 7.033 6.93 6.85
12.758 12.618 12.6 12.66 12.725 12.792 12.845 12.867 12.862 12.843 12.82 12.795 12.76 12.718 12.67 12.62 12.568 12.507 12.44 12.362 12.277 12.19 12.09 11.957 11.787 11.602 11.417 11.233 11.23 10.535 9.688 9.635 9.658 9.7 9.75 9.79 9.817 9.83 9.832 9.807 9.765 9.725 9.728 9.76 9.762 9.725 9.647 9.557 9.467 9.37 9.312 9.295 9.27 9.242 9.212 9.177 9.15 9.13 9.115 9.107 9.1 9.095 9.092 9.09 9.1 9.135 9.178 9.213 9.245 9.275 9.31 9.345 9.363 9.355 9.333 9.308 9.285 9.257 9.218 9.18 9.147 9.112 9.052 8.965 8.873 8.805 8.765 8.723 8.68 8.645 8.663 8.73 8.797 8.855 8.875 8.855 8.828 8.823 8.842 8.865 8.885 8.887 8.847 8.782 8.725 8.682 8.657 8.635 8.607 8.587 8.555 8.503 8.448 8.4 8.358 8.303 8.233 8.158 8.11 8.1 8.1 8.105 8.173 8.312 8.45 8.57 8.61 8.552 8.482 8.43 8.41 8.387 8.348 8.32 8.303 8.288 8.305 8.413 8.552 8.565 8.473 8.445 8.482 8.48 8.425 8.363 8.343 8.373 8.41 8.445 8.485 8.525 8.565 8.575 8.547 8.51 8.467 8.422 8.377 8.318 8.26 8.235 8.235 8.24 8.242 8.235 8.202 8.147 8.082 8.02 7.955 7.877 7.793 7.708 7.633 7.595 7.562 7.497 7.423 7.35 7.28 7.22 7.195 7.19 7.19 7.198 7.208 7.222 7.235 7.247 7.25 7.242 7.235 7.218 7.195 7.175 7.13 7.055 6.975 6.9
12.848 12.71 12.695 12.755 12.817 12.877 12.915 12.912 12.89 12.87 12.848 12.818 12.783 12.743 12.695 12.645 12.595 12.507 12.392 12.298 12.215 12.135 12.01 11.83 11.645 11.46 11.272 11.088 11.105 10.42 9.58 9.545 9.578 9.635 9.69 9.73 9.765 9.805 9.817 9.78 9.733 9.703 9.678 9.655 9.65 9.635 9.547 9.423 9.317 9.213 9.15 9.14 9.135 9.127 9.132 9.14 9.137 9.127 9.11 9.092 9.077 9.062 9.047 9.043 9.065 9.11 9.157 9.195 9.225 9.255 9.29 9.325 9.337 9.323 9.3 9.278 9.253 9.233 9.2 9.155 9.115 9.077 9.015 8.925 8.835 8.77 8.73 8.687 8.643 8.605 8.628 8.7 8.767 8.835 8.877 8.87 8.843 8.828 8.838 8.865 8.88 8.87 8.832 8.772 8.707 8.65 8.61 8.58 8.558 8.55 8.545 8.515 8.46 8.403 8.345 8.278 8.203 8.128 8.093 8.1 8.11 8.12 8.195 8.345 8.497 8.612 8.632 8.557 8.452 8.385 8.402 8.432 8.41 8.38 8.36 8.36 8.438 8.587 8.73 8.727 8.58 8.513 8.542 8.525 8.462 8.385 8.32 8.318 8.35 8.38 8.415 8.457 8.48 8.447 8.4 8.37 8.335 8.297 8.26 8.225 8.202 8.192 8.185 8.172 8.16 8.142 8.095 8.025 7.97 7.932 7.872 7.788 7.703 7.623 7.56 7.523 7.485 7.425 7.355 7.288 7.22 7.173 7.165 7.17 7.173 7.178 7.185 7.198 7.21 7.222 7.235 7.24 7.245 7.242 7.228 7.213 7.178 7.115 7.043 6.97
12.98 12.855 12.813 12.838 12.893 12.947 12.977 12.97 12.95 12.925 12.895 12.862 12.827 12.787 12.74 12.69 12.617 12.475 12.323 12.225 12.158 12.1 11.935 11.688 11.485 11.3 11.11 10.97 11.127 10.435 9.493 9.46 9.508 9.575 9.63 9.67 9.71 9.76 9.777 9.735 9.7 9.707 9.677 9.608 9.578 9.56 9.455 9.29 9.163 9.058 8.993 8.978 8.973 8.98 9.015 9.065 9.092 9.09 9.067 9.037 9.012 8.99 8.973 8.985 9.03 9.085 9.14 9.187 9.225 9.258 9.292 9.322 9.327 9.307 9.283 9.26 9.238 9.22 9.195 9.148 9.095 9.045 8.975 8.885 8.795 8.73 8.69 8.65 8.605 8.568 8.593 8.665 8.737 8.81 8.87 8.882 8.857 8.835 8.827 8.83 8.817 8.787 8.75 8.705 8.645 8.585 8.545 8.52 8.508 8.5 8.505 8.512 8.487 8.435 8.37 8.285 8.195 8.115 8.088 8.107 8.12 8.133 8.218 8.36 8.465 8.515 8.52 8.472 8.375 8.318 8.36 8.435 8.457 8.437 8.418 8.465 8.6 8.762 8.907 8.89 8.708 8.6 8.597 8.565 8.49 8.395 8.3 8.273 8.3 8.323 8.35 8.38 8.36 8.29 8.235 8.205 8.172 8.14 8.113 8.11 8.115 8.097 8.067 8.035 8.005 7.97 7.915 7.86 7.838 7.83 7.79 7.713 7.635 7.575 7.53 7.487 7.433 7.368 7.3 7.233 7.18 7.16 7.165 7.17 7.167 7.163 7.165 7.175 7.185 7.197 7.21 7.223 7.247 7.272 7.28 7.277 7.252 7.195 7.125 7.055
13.185 13.095 13.025 12.985 12.983 13.015 13.042 13.027 13.002 12.972 12.938 12.905 12.87 12.832 12.79 12.727 12.602 12.415 12.255 12.17 12.145 12.107 11.91 11.603 11.338 11.128 10.985 10.943 11.2 10.452 9.408 9.385 9.445 9.515 9.572 9.617 9.66 9.695 9.702 9.69 9.7 9.735 9.71 9.615 9.538 9.495 9.387 9.2 9.033 8.905 8.835 8.82 8.833 8.873 8.93 8.99 9.025 9.025 9 8.965 8.935 8.91 8.908 8.945 9 9.055 9.112 9.167 9.217 9.26 9.295 9.315 9.31 9.29 9.265 9.243 9.225 9.21 9.192 9.15 9.09 9.02 8.935 8.845 8.758 8.693 8.65 8.61 8.565 8.533 8.56 8.63 8.702 8.772 8.837 8.862 8.84 8.812 8.787 8.757 8.725 8.692 8.66 8.625 8.577 8.523 8.483 8.468 8.46 8.45 8.448 8.462 8.477 8.46 8.397 8.3 8.198 8.11 8.085 8.11 8.127 8.15 8.222 8.312 8.36 8.385 8.395 8.372 8.298 8.255 8.31 8.4 8.47 8.487 8.505 8.613 8.775 8.937 9.08 9.045 8.85 8.708 8.652 8.597 8.502 8.395 8.29 8.238 8.247 8.265 8.282 8.272 8.21 8.13 8.073 8.04 8.008 7.975 7.958 7.968 7.982 7.96 7.913 7.87 7.83 7.793 7.755 7.733 7.728 7.723 7.7 7.648 7.593 7.55 7.507 7.455 7.39 7.32 7.25 7.193 7.165 7.16 7.162 7.162 7.155 7.145 7.145 7.155 7.163 7.173 7.185 7.21 7.25 7.287 7.315 7.327 7.317 7.272 7.205 7.13
13.407 13.34 13.272 13.205 13.145 13.117 13.105 13.077 13.045 13.015 12.98 12.945 12.91 12.875 12.835 12.732 12.552 12.348 12.203 12.165 12.185 12.135 11.907 11.58 11.258 11.028 10.958 10.975 11.202 10.425 9.403 9.363 9.39 9.46 9.515 9.552 9.587 9.595 9.575 9.602 9.68 9.752 9.737 9.642 9.545 9.46 9.33 9.138 8.948 8.778 8.688 8.693 8.735 8.79 8.85 8.91 8.952 8.962 8.94 8.9 8.863 8.838 8.855 8.91 8.967 9.025 9.085 9.14 9.195 9.247 9.29 9.305 9.29 9.27 9.248 9.23 9.217 9.205 9.19 9.147 9.077 8.99 8.895 8.805 8.72 8.655 8.61 8.57 8.525 8.495 8.523 8.585 8.647 8.707 8.765 8.792 8.775 8.745 8.707 8.663 8.625 8.595 8.565 8.532 8.495 8.453 8.425 8.418 8.41 8.403 8.398 8.398 8.417 8.435 8.385 8.285 8.187 8.1 8.072 8.092 8.11 8.127 8.16 8.2 8.23 8.255 8.267 8.26 8.21 8.193 8.26 8.35 8.43 8.472 8.555 8.727 8.92 9.105 9.245 9.195 8.992 8.812 8.697 8.607 8.5 8.392 8.287 8.21 8.19 8.2 8.19 8.135 8.055 7.975 7.913 7.875 7.845 7.815 7.81 7.83 7.847 7.83 7.78 7.73 7.69 7.665 7.653 7.648 7.643 7.638 7.622 7.59 7.555 7.522 7.475 7.41 7.34 7.27 7.208 7.175 7.165 7.16 7.158 7.15 7.14 7.133 7.133 7.138 7.143 7.15 7.17 7.208 7.25 7.293 7.332 7.355 7.362 7.345 7.285 7.203
13.53 13.452 13.382 13.317 13.252 13.187 13.142 13.112 13.08 13.05 13.017 12.982 12.947 12.915 12.86 12.72 12.52 12.32 12.2 12.2 12.232 12.145 11.87 11.527 11.193 11 10.988 11.015 11.007 10.252 9.49 9.408 9.368 9.415 9.465 9.48 9.48 9.457 9.415 9.435 9.542 9.657 9.695 9.652 9.57 9.462 9.31 9.118 8.917 8.708 8.575 8.59 8.655 8.71 8.77 8.83 8.88 8.897 8.877 8.84 8.803 8.783 8.803 8.855 8.915 8.972 9.03 9.087 9.145 9.202 9.252 9.272 9.265 9.25 9.232 9.217 9.202 9.187 9.17 9.12 9.035 8.94 8.845 8.755 8.673 8.613 8.568 8.525 8.483 8.453 8.463 8.508 8.562 8.617 8.672 8.702 8.69 8.66 8.62 8.57 8.528 8.495 8.465 8.435 8.408 8.395 8.388 8.378 8.37 8.363 8.355 8.335 8.32 8.332 8.297 8.205 8.12 8.048 8.018 8.027 8.042 8.047 8.033 8.043 8.09 8.125 8.142 8.137 8.1 8.09 8.135 8.195 8.247 8.282 8.345 8.51 8.735 8.95 9.11 9.072 8.872 8.685 8.592 8.525 8.415 8.307 8.2 8.13 8.12 8.13 8.095 8.013 7.928 7.843 7.778 7.73 7.685 7.658 7.665 7.69 7.71 7.697 7.653 7.618 7.603 7.595 7.59 7.588 7.582 7.575 7.56 7.527 7.488 7.457 7.412 7.345 7.278 7.235 7.21 7.19 7.183 7.178 7.17 7.16 7.153 7.148 7.145 7.148 7.153 7.155 7.18 7.228 7.273 7.318 7.357 7.382 7.397 7.402 7.367 7.295
13.59 13.495 13.408 13.33 13.26 13.195 13.155 13.132 13.105 13.077 13.05 13.015 12.98 12.95 12.87 12.715 12.528 12.335 12.23 12.238 12.265 12.182 11.848 11.435 11.1 10.958 11.01 11.052 10.692 9.98 9.59 9.48 9.383 9.375 9.42 9.422 9.373 9.303 9.248 9.248 9.338 9.445 9.515 9.552 9.55 9.48 9.32 9.112 8.89 8.655 8.473 8.46 8.547 8.622 8.69 8.75 8.807 8.832 8.812 8.78 8.753 8.74 8.755 8.79 8.84 8.898 8.955 9.015 9.072 9.13 9.177 9.202 9.212 9.207 9.19 9.17 9.15 9.13 9.107 9.057 8.972 8.875 8.783 8.7 8.625 8.568 8.522 8.478 8.435 8.408 8.405 8.428 8.47 8.523 8.577 8.61 8.602 8.572 8.53 8.478 8.43 8.395 8.365 8.348 8.353 8.377 8.37 8.343 8.337 8.33 8.312 8.275 8.233 8.213 8.172 8.098 8.028 7.968 7.933 7.935 7.95 7.955 7.915 7.875 7.91 7.967 8.005 7.997 7.948 7.905 7.895 7.915 7.947 7.975 7.985 8.06 8.245 8.47 8.637 8.632 8.465 8.313 8.302 8.322 8.255 8.145 8.04 8.005 8.035 8.055 8.015 7.925 7.845 7.785 7.74 7.685 7.61 7.55 7.54 7.56 7.575 7.57 7.55 7.54 7.538 7.533 7.53 7.53 7.525 7.517 7.5 7.46 7.413 7.373 7.328 7.285 7.263 7.263 7.26 7.238 7.223 7.215 7.205 7.195 7.188 7.182 7.18 7.183 7.187 7.19 7.21 7.257 7.31 7.357 7.395 7.417 7.43 7.44 7.437 7.397
13.665 13.565 13.465 13.372 13.287 13.21 13.165 13.145 13.12 13.095 13.072 13.042 13.01 12.977 12.88 12.715 12.54 12.355 12.26 12.273 12.295 12.267 11.93 11.403 11.01 10.905 11.022 11.09 10.525 9.845 9.68 9.557 9.433 9.365 9.373 9.367 9.295 9.193 9.103 9.063 9.12 9.205 9.265 9.335 9.415 9.437 9.327 9.103 8.838 8.583 8.358 8.303 8.4 8.498 8.585 8.663 8.73 8.765 8.752 8.725 8.705 8.698 8.713 8.738 8.773 8.825 8.885 8.942 8.997 9.05 9.087 9.112 9.132 9.137 9.12 9.093 9.068 9.045 9.022 8.982 8.905 8.808 8.723 8.653 8.585 8.523 8.475 8.432 8.393 8.368 8.365 8.375 8.395 8.433 8.485 8.517 8.512 8.485 8.44 8.385 8.333 8.295 8.283 8.303 8.343 8.382 8.367 8.32 8.303 8.29 8.257 8.212 8.167 8.123 8.07 8.013 7.955 7.895 7.85 7.843 7.857 7.865 7.825 7.75 7.723 7.765 7.842 7.862 7.79 7.703 7.648 7.63 7.645 7.667 7.67 7.68 7.78 7.98 8.125 8.135 8.02 7.93 7.968 8.032 8.05 7.98 7.9 7.898 7.942 7.972 7.938 7.87 7.828 7.805 7.78 7.712 7.605 7.493 7.443 7.458 7.498 7.52 7.498 7.48 7.475 7.47 7.47 7.47 7.467 7.462 7.44 7.395 7.348 7.31 7.29 7.298 7.325 7.335 7.32 7.295 7.27 7.258 7.247 7.235 7.223 7.215 7.218 7.22 7.223 7.225 7.238 7.278 7.338 7.402 7.44 7.45 7.46 7.47 7.48 7.475
13.72 13.607 13.495 13.387 13.277 13.185 13.145 13.13 13.11 13.092 13.075 13.055 13.032 12.995 12.885 12.712 12.54 12.363 12.278 12.297 12.32 12.332 12.047 11.47 10.985 10.87 11.025 11.12 10.54 9.88 9.757 9.633 9.51 9.4 9.348 9.32 9.24 9.13 9.02 8.933 8.935 9.008 9.083 9.165 9.255 9.317 9.302 9.177 8.94 8.658 8.398 8.308 8.375 8.445 8.518 8.588 8.645 8.69 8.697 8.678 8.66 8.655 8.67 8.695 8.723 8.758 8.81 8.868 8.922 8.967 8.995 9.02 9.045 9.057 9.045 9.015 8.988 8.962 8.937 8.9 8.832 8.75 8.675 8.61 8.545 8.48 8.428 8.385 8.353 8.333 8.33 8.338 8.345 8.363 8.398 8.423 8.422 8.397 8.35 8.295 8.243 8.225 8.255 8.305 8.355 8.367 8.335 8.3 8.27 8.235 8.19 8.142 8.095 8.045 7.99 7.935 7.88 7.822 7.77 7.75 7.763 7.772 7.735 7.655 7.583 7.57 7.658 7.747 7.707 7.593 7.493 7.408 7.365 7.363 7.36 7.35 7.373 7.503 7.612 7.61 7.578 7.585 7.643 7.703 7.763 7.775 7.773 7.808 7.858 7.9 7.893 7.863 7.847 7.832 7.807 7.725 7.593 7.46 7.39 7.42 7.507 7.555 7.515 7.46 7.425 7.41 7.41 7.41 7.41 7.405 7.377 7.333 7.305 7.305 7.325 7.357 7.392 7.402 7.382 7.355 7.325 7.305 7.29 7.278 7.268 7.26 7.265 7.273 7.278 7.283 7.295 7.328 7.39 7.47 7.502 7.493 7.495 7.505 7.515 7.522
13.685 13.562 13.437 13.315 13.2 13.115 13.085 13.077 13.065 13.052 13.037 13.025 13.012 12.975 12.862 12.69 12.515 12.345 12.27 12.292 12.317 12.347 12.082 11.505 11.03 10.898 11.02 11.137 10.597 9.958 9.835 9.71 9.6 9.498 9.395 9.31 9.223 9.115 9.01 8.9 8.84 8.885 8.975 9.065 9.137 9.177 9.202 9.202 9.115 8.892 8.648 8.57 8.613 8.655 8.677 8.675 8.665 8.66 8.65 8.632 8.618 8.618 8.635 8.658 8.68 8.705 8.743 8.795 8.845 8.877 8.903 8.93 8.957 8.972 8.962 8.935 8.907 8.88 8.847 8.807 8.76 8.702 8.635 8.57 8.505 8.438 8.383 8.34 8.31 8.295 8.295 8.302 8.308 8.315 8.335 8.353 8.35 8.317 8.265 8.213 8.188 8.223 8.282 8.33 8.335 8.272 8.21 8.19 8.177 8.155 8.115 8.065 8.015 7.965 7.91 7.853 7.797 7.742 7.693 7.673 7.68 7.687 7.658 7.59 7.515 7.463 7.495 7.607 7.642 7.55 7.428 7.305 7.208 7.153 7.118 7.088 7.065 7.095 7.17 7.238 7.333 7.425 7.483 7.538 7.598 7.658 7.715 7.77 7.825 7.87 7.88 7.865 7.847 7.832 7.812 7.75 7.63 7.493 7.413 7.455 7.552 7.597 7.57 7.503 7.435 7.398 7.38 7.36 7.35 7.343 7.323 7.31 7.325 7.355 7.385 7.415 7.45 7.467 7.45 7.42 7.39 7.378 7.383 7.383 7.378 7.375 7.375 7.38 7.39 7.4 7.413 7.435 7.483 7.555 7.582 7.553 7.538 7.545 7.555 7.56
13.577 13.457 13.333 13.213 13.118 13.05 13.018 13.012 13.005 12.99 12.975 12.965 12.955 12.917 12.807 12.645 12.475 12.313 12.245 12.268 12.298 12.327 12.047 11.513 11.153 11.023 11.065 11.17 10.693 10.118 10.018 9.918 9.83 9.728 9.615 9.44 9.253 9.138 9.032 8.913 8.798 8.788 8.87 8.952 9.005 9.035 9.06 9.082 9.1 9.037 8.922 8.87 8.862 8.855 8.825 8.77 8.71 8.65 8.608 8.585 8.578 8.588 8.605 8.625 8.645 8.668 8.693 8.725 8.76 8.788 8.813 8.84 8.87 8.887 8.88 8.855 8.825 8.792 8.755 8.72 8.695 8.655 8.592 8.527 8.462 8.395 8.338 8.298 8.273 8.258 8.255 8.265 8.275 8.29 8.313 8.322 8.297 8.248 8.195 8.155 8.178 8.257 8.31 8.3 8.222 8.11 8.03 8 8.007 8.025 8.02 7.985 7.935 7.885 7.83 7.77 7.713 7.658 7.623 7.618 7.625 7.633 7.62 7.58 7.523 7.46 7.43 7.47 7.542 7.515 7.395 7.275 7.18 7.108 7.035 6.97 6.92 6.893 6.96 7.118 7.295 7.417 7.478 7.538 7.6 7.665 7.725 7.78 7.835 7.87 7.867 7.85 7.833 7.817 7.8 7.77 7.692 7.565 7.485 7.52 7.597 7.632 7.617 7.565 7.5 7.45 7.41 7.373 7.345 7.33 7.328 7.348 7.38 7.41 7.44 7.473 7.51 7.532 7.52 7.49 7.475 7.49 7.522 7.542 7.542 7.54 7.538 7.538 7.543 7.548 7.558 7.575 7.6 7.65 7.667 7.625 7.59 7.585 7.593 7.603
13.46 13.352 13.23 13.123 13.045 12.985 12.948 12.943 12.942 12.93 12.915 12.905 12.897 12.855 12.74 12.587 12.427 12.275 12.218 12.248 12.285 12.3 12.027 11.613 11.365 11.198 11.17 11.215 10.962 10.543 10.343 10.265 10.162 10.012 9.885 9.66 9.343 9.16 9.052 8.922 8.78 8.715 8.763 8.827 8.862 8.89 8.915 8.938 8.963 8.995 9.002 8.972 8.922 8.857 8.795 8.735 8.673 8.61 8.565 8.545 8.548 8.563 8.578 8.595 8.615 8.635 8.652 8.665 8.678 8.7 8.725 8.75 8.78 8.802 8.797 8.77 8.74 8.705 8.668 8.643 8.63 8.597 8.54 8.477 8.415 8.352 8.293 8.255 8.238 8.223 8.22 8.235 8.258 8.287 8.307 8.292 8.242 8.183 8.13 8.125 8.18 8.207 8.19 8.147 8.057 7.942 7.848 7.81 7.825 7.855 7.88 7.885 7.855 7.805 7.75 7.69 7.628 7.58 7.568 7.578 7.593 7.602 7.6 7.582 7.547 7.495 7.445 7.418 7.44 7.445 7.36 7.26 7.198 7.135 7.055 6.975 6.903 6.865 6.948 7.13 7.315 7.43 7.485 7.545 7.61 7.675 7.735 7.79 7.842 7.865 7.852 7.835 7.817 7.8 7.783 7.765 7.725 7.633 7.568 7.595 7.645 7.667 7.665 7.627 7.57 7.52 7.475 7.443 7.418 7.403 7.405 7.42 7.44 7.465 7.495 7.53 7.57 7.597 7.59 7.575 7.59 7.62 7.655 7.69 7.705 7.705 7.705 7.705 7.705 7.705 7.713 7.73 7.745 7.765 7.755 7.705 7.655 7.63 7.635 7.658
13.332 13.245 13.133 13.045 12.98 12.923 12.888 12.88 12.878 12.87 12.857 12.845 12.837 12.795 12.677 12.525 12.37 12.238 12.203 12.238 12.275 12.272 12.077 11.797 11.58 11.362 11.242 11.202 11.147 10.957 10.727 10.577 10.385 10.16 9.955 9.735 9.42 9.183 9.065 8.927 8.785 8.67 8.653 8.693 8.718 8.745 8.77 8.798 8.833 8.877 8.905 8.902 8.882 8.842 8.787 8.723 8.653 8.583 8.53 8.513 8.522 8.537 8.552 8.568 8.585 8.602 8.612 8.612 8.61 8.618 8.637 8.663 8.69 8.715 8.712 8.682 8.65 8.618 8.588 8.57 8.56 8.535 8.485 8.425 8.365 8.305 8.248 8.215 8.202 8.188 8.187 8.212 8.25 8.285 8.285 8.24 8.18 8.117 8.055 8.017 7.992 7.915 7.817 7.767 7.752 7.735 7.67 7.625 7.645 7.675 7.705 7.735 7.745 7.722 7.673 7.61 7.568 7.54 7.533 7.548 7.565 7.575 7.57 7.56 7.542 7.515 7.48 7.44 7.403 7.38 7.335 7.275 7.23 7.168 7.093 7.02 6.948 6.913 7.015 7.217 7.385 7.477 7.528 7.575 7.63 7.688 7.748 7.802 7.842 7.852 7.837 7.82 7.8 7.783 7.767 7.75 7.727 7.68 7.648 7.667 7.692 7.702 7.7 7.67 7.622 7.582 7.55 7.525 7.507 7.5 7.505 7.515 7.525 7.538 7.558 7.59 7.628 7.66 7.673 7.688 7.72 7.752 7.787 7.825 7.857 7.87 7.87 7.873 7.878 7.88 7.885 7.9 7.912 7.9 7.855 7.798 7.74 7.688 7.68 7.712
13.198 13.13 13.043 12.975 12.92 12.878 12.855 12.845 12.835 12.82 12.798 12.78 12.77 12.735 12.625 12.47 12.325 12.223 12.208 12.243 12.277 12.26 12.12 11.9 11.665 11.427 11.238 11.115 11.038 10.982 10.877 10.68 10.432 10.17 9.915 9.688 9.435 9.213 9.06 8.907 8.752 8.6 8.545 8.575 8.595 8.615 8.638 8.673 8.723 8.77 8.79 8.792 8.795 8.79 8.767 8.722 8.657 8.585 8.523 8.49 8.493 8.507 8.525 8.54 8.547 8.55 8.547 8.537 8.527 8.522 8.542 8.577 8.602 8.617 8.612 8.59 8.56 8.535 8.515 8.5 8.49 8.472 8.43 8.37 8.31 8.25 8.2 8.178 8.167 8.147 8.12 8.125 8.17 8.185 8.125 8.047 7.99 7.93 7.847 7.73 7.603 7.473 7.343 7.243 7.225 7.285 7.403 7.49 7.513 7.538 7.565 7.593 7.618 7.633 7.623 7.6 7.6 7.585 7.55 7.535 7.538 7.545 7.54 7.533 7.53 7.53 7.51 7.47 7.427 7.383 7.353 7.325 7.283 7.225 7.155 7.088 7.038 7.028 7.133 7.32 7.462 7.545 7.595 7.635 7.68 7.728 7.777 7.815 7.832 7.835 7.82 7.803 7.785 7.768 7.75 7.73 7.713 7.695 7.695 7.715 7.73 7.732 7.715 7.683 7.653 7.632 7.615 7.595 7.58 7.577 7.585 7.595 7.605 7.61 7.623 7.655 7.693 7.73 7.762 7.792 7.825 7.86 7.9 7.94 7.98 8.007 8.027 8.045 8.055 8.06 8.065 8.08 8.075 8.03 7.965 7.89 7.812 7.735 7.713 7.745
13.11 13.04 12.965 12.915 12.878 12.85 12.833 12.82 12.81 12.785 12.745 12.713 12.695 12.67 12.572 12.425 12.31 12.24 12.225 12.255 12.265 12.215 12.085 11.875 11.635 11.405 11.215 11.055 10.92 10.825 10.742 10.58 10.34 10.113 9.908 9.703 9.488 9.263 9.023 8.815 8.647 8.483 8.43 8.482 8.512 8.525 8.54 8.57 8.618 8.66 8.675 8.678 8.68 8.68 8.682 8.675 8.647 8.597 8.538 8.49 8.468 8.473 8.49 8.502 8.495 8.475 8.458 8.438 8.418 8.405 8.43 8.482 8.51 8.513 8.508 8.498 8.483 8.468 8.453 8.438 8.425 8.41 8.372 8.315 8.255 8.195 8.15 8.135 8.13 8.105 8.038 7.993 8.017 7.995 7.87 7.745 7.67 7.61 7.51 7.37 7.228 7.083 6.943 6.83 6.808 6.968 7.313 7.51 7.508 7.525 7.545 7.568 7.59 7.615 7.645 7.675 7.7 7.682 7.625 7.573 7.538 7.525 7.528 7.533 7.545 7.555 7.535 7.495 7.452 7.405 7.385 7.38 7.352 7.302 7.235 7.175 7.153 7.163 7.258 7.41 7.527 7.612 7.665 7.707 7.752 7.782 7.797 7.805 7.81 7.81 7.797 7.785 7.772 7.755 7.735 7.718 7.705 7.7 7.715 7.742 7.76 7.755 7.728 7.7 7.688 7.68 7.665 7.648 7.64 7.64 7.645 7.655 7.665 7.668 7.685 7.727 7.77 7.807 7.842 7.875 7.902 7.935 7.977 8.02 8.057 8.08 8.115 8.165 8.205 8.232 8.245 8.242 8.195 8.117 8.035 7.942 7.85 7.763 7.738 7.77
13.082 12.988 12.913 12.88 12.855 12.83 12.81 12.795 12.782 12.755 12.71 12.665 12.63 12.605 12.522 12.403 12.328 12.273 12.248 12.245 12.2 12.12 12.01 11.832 11.605 11.383 11.2 11.042 10.885 10.735 10.61 10.455 10.255 10.073 9.918 9.76 9.575 9.35 9.055 8.755 8.528 8.35 8.305 8.375 8.43 8.462 8.48 8.493 8.52 8.552 8.565 8.565 8.565 8.565 8.57 8.578 8.58 8.57 8.542 8.502 8.463 8.445 8.452 8.455 8.432 8.4 8.375 8.35 8.328 8.323 8.353 8.403 8.43 8.435 8.435 8.433 8.428 8.418 8.403 8.388 8.373 8.355 8.317 8.26 8.2 8.14 8.1 8.09 8.082 8.047 7.972 7.89 7.865 7.802 7.645 7.483 7.363 7.28 7.17 7.028 6.905 6.828 6.773 6.738 6.823 7.12 7.502 7.645 7.6 7.6 7.615 7.633 7.647 7.667 7.705 7.742 7.775 7.762 7.702 7.637 7.573 7.535 7.54 7.557 7.572 7.582 7.562 7.52 7.475 7.425 7.405 7.41 7.405 7.375 7.318 7.283 7.285 7.298 7.37 7.487 7.59 7.677 7.735 7.767 7.785 7.785 7.775 7.773 7.777 7.777 7.77 7.76 7.752 7.742 7.727 7.715 7.705 7.71 7.735 7.765 7.782 7.77 7.745 7.733 7.73 7.727 7.718 7.708 7.705 7.705 7.708 7.715 7.722 7.725 7.75 7.8 7.845 7.882 7.917 7.95 7.975 8.003 8.04 8.082 8.107 8.1 8.125 8.195 8.265 8.325 8.36 8.335 8.252 8.16 8.065 7.97 7.878 7.788 7.763 7.795
13.053 12.958 12.893 12.858 12.833 12.81 12.79 12.775 12.757 12.722 12.677 12.632 12.587 12.55 12.49 12.418 12.363 12.308 12.257 12.193 12.105 12.02 11.915 11.77 11.57 11.358 11.185 11.027 10.857 10.667 10.49 10.348 10.222 10.085 9.935 9.79 9.635 9.447 9.175 8.83 8.51 8.258 8.188 8.265 8.34 8.4 8.427 8.433 8.445 8.46 8.468 8.47 8.473 8.478 8.485 8.493 8.498 8.515 8.52 8.492 8.457 8.43 8.415 8.398 8.368 8.335 8.315 8.31 8.315 8.333 8.37 8.403 8.408 8.398 8.388 8.385 8.38 8.373 8.36 8.343 8.325 8.307 8.267 8.205 8.145 8.085 8.035 8.002 7.967 7.917 7.855 7.777 7.73 7.633 7.45 7.265 7.095 6.98 6.915 6.86 6.825 6.835 6.865 6.915 7.1 7.425 7.707 7.78 7.715 7.688 7.695 7.702 7.687 7.685 7.72 7.755 7.792 7.8 7.752 7.685 7.615 7.565 7.56 7.58 7.597 7.607 7.587 7.542 7.495 7.445 7.425 7.432 7.437 7.432 7.41 7.397 7.402 7.407 7.44 7.522 7.63 7.725 7.772 7.777 7.765 7.75 7.74 7.74 7.747 7.747 7.742 7.735 7.728 7.722 7.717 7.712 7.71 7.725 7.755 7.782 7.795 7.787 7.778 7.775 7.775 7.775 7.772 7.77 7.77 7.77 7.77 7.772 7.775 7.783 7.815 7.867 7.917 7.957 7.99 8.017 8.043 8.07 8.105 8.142 8.142 8.11 8.13 8.2 8.27 8.33 8.362 8.347 8.28 8.187 8.092 7.997 7.903 7.813 7.785 7.812
13.033 12.958 12.895 12.843 12.808 12.785 12.772 12.757 12.72 12.67 12.622 12.577 12.532 12.485 12.452 12.432 12.397 12.347 12.275 12.172 12.06 11.93 11.797 11.68 11.517 11.327 11.137 10.93 10.725 10.525 10.35 10.23 10.14 10.03 9.895 9.76 9.625 9.477 9.257 8.935 8.575 8.263 8.17 8.255 8.33 8.372 8.385 8.388 8.395 8.4 8.4 8.4 8.405 8.415 8.425 8.43 8.44 8.472 8.482 8.455 8.43 8.402 8.375 8.353 8.323 8.29 8.298 8.338 8.37 8.4 8.44 8.457 8.435 8.405 8.383 8.373 8.365 8.358 8.338 8.31 8.29 8.272 8.232 8.17 8.11 8.063 7.968 7.853 7.788 7.732 7.675 7.615 7.607 7.59 7.455 7.26 7.065 6.94 6.925 6.955 6.985 7.015 7.048 7.155 7.415 7.705 7.857 7.87 7.825 7.785 7.767 7.747 7.703 7.678 7.7 7.735 7.777 7.807 7.78 7.717 7.65 7.593 7.58 7.6 7.62 7.632 7.612 7.565 7.515 7.465 7.445 7.455 7.463 7.472 7.482 7.48 7.475 7.477 7.485 7.53 7.627 7.725 7.767 7.762 7.748 7.733 7.723 7.725 7.722 7.705 7.705 7.712 7.705 7.7 7.697 7.697 7.702 7.72 7.75 7.78 7.8 7.805 7.805 7.807 7.81 7.81 7.812 7.817 7.82 7.82 7.822 7.827 7.828 7.84 7.88 7.933 7.985 8.03 8.062 8.085 8.11 8.138 8.17 8.19 8.165 8.12 8.135 8.205 8.272 8.307 8.313 8.32 8.295 8.215 8.12 8.025 7.93 7.84 7.81 7.827
13.035 12.972 12.908 12.845 12.793 12.76 12.75 12.735 12.68 12.608 12.55 12.503 12.455 12.41 12.393 12.395 12.39 12.37 12.3 12.16 11.987 11.79 11.627 11.517 11.372 11.182 10.96 10.733 10.535 10.36 10.21 10.1 10.007 9.902 9.78 9.652 9.53 9.407 9.23 8.96 8.62 8.323 8.25 8.317 8.352 8.357 8.355 8.353 8.353 8.357 8.355 8.345 8.345 8.355 8.362 8.368 8.39 8.435 8.445 8.417 8.39 8.352 8.323 8.317 8.302 8.27 8.3 8.38 8.435 8.47 8.505 8.507 8.475 8.445 8.418 8.4 8.39 8.377 8.342 8.298 8.27 8.25 8.21 8.15 8.103 8.082 7.957 7.75 7.62 7.548 7.49 7.43 7.468 7.6 7.602 7.44 7.253 7.143 7.125 7.14 7.168 7.2 7.25 7.433 7.685 7.835 7.882 7.88 7.862 7.832 7.802 7.762 7.71 7.673 7.68 7.718 7.765 7.81 7.797 7.74 7.68 7.62 7.6 7.62 7.643 7.66 7.637 7.585 7.535 7.485 7.465 7.475 7.488 7.507 7.525 7.527 7.525 7.53 7.538 7.555 7.615 7.697 7.742 7.75 7.742 7.728 7.722 7.715 7.677 7.635 7.64 7.67 7.68 7.68 7.675 7.675 7.67 7.675 7.708 7.747 7.785 7.81 7.82 7.822 7.825 7.827 7.832 7.84 7.847 7.852 7.863 7.88 7.888 7.905 7.95 8 8.05 8.1 8.137 8.16 8.182 8.205 8.227 8.222 8.18 8.133 8.143 8.21 8.257 8.262 8.26 8.275 8.28 8.235 8.15 8.055 7.96 7.87 7.835 7.84
13.047 12.985 12.922 12.857 12.787 12.733 12.712 12.702 12.655 12.573 12.493 12.43 12.38 12.34 12.325 12.327 12.32 12.287 12.185 12 11.792 11.585 11.41 11.27 11.115 10.933 10.735 10.55 10.38 10.21 10.068 9.965 9.872 9.77 9.65 9.528 9.425 9.3 9.11 8.882 8.615 8.378 8.308 8.33 8.33 8.325 8.322 8.318 8.315 8.318 8.315 8.303 8.295 8.298 8.3 8.313 8.35 8.397 8.405 8.375 8.337 8.29 8.255 8.26 8.272 8.258 8.293 8.387 8.472 8.532 8.562 8.552 8.517 8.485 8.458 8.435 8.42 8.4 8.355 8.3 8.255 8.227 8.188 8.14 8.12 8.115 7.992 7.748 7.533 7.388 7.308 7.25 7.313 7.517 7.67 7.617 7.455 7.363 7.34 7.343 7.358 7.385 7.487 7.667 7.787 7.827 7.845 7.847 7.837 7.82 7.792 7.755 7.715 7.673 7.665 7.703 7.755 7.81 7.81 7.757 7.702 7.645 7.623 7.642 7.67 7.692 7.672 7.615 7.558 7.505 7.488 7.503 7.52 7.543 7.562 7.572 7.577 7.585 7.592 7.6 7.625 7.675 7.71 7.725 7.732 7.725 7.71 7.67 7.605 7.555 7.56 7.6 7.632 7.652 7.655 7.647 7.625 7.623 7.663 7.71 7.758 7.802 7.83 7.835 7.835 7.84 7.845 7.853 7.865 7.877 7.897 7.925 7.945 7.97 8.015 8.067 8.12 8.17 8.21 8.235 8.252 8.267 8.272 8.245 8.195 8.148 8.155 8.202 8.215 8.205 8.208 8.222 8.237 8.235 8.177 8.082 7.99 7.9 7.853 7.847
13.055 12.995 12.935 12.86 12.767 12.69 12.663 12.662 12.635 12.562 12.468 12.383 12.313 12.268 12.242 12.212 12.162 12.072 11.92 11.725 11.548 11.388 11.223 11.06 10.898 10.733 10.568 10.4 10.23 10.06 9.925 9.828 9.735 9.638 9.528 9.43 9.342 9.19 8.973 8.755 8.553 8.388 8.313 8.305 8.3 8.293 8.288 8.285 8.285 8.295 8.305 8.295 8.273 8.253 8.245 8.268 8.315 8.36 8.36 8.32 8.275 8.225 8.19 8.193 8.218 8.235 8.288 8.383 8.48 8.565 8.6 8.587 8.557 8.525 8.5 8.475 8.45 8.422 8.375 8.315 8.258 8.213 8.175 8.155 8.152 8.147 8.027 7.785 7.538 7.315 7.155 7.075 7.165 7.39 7.615 7.717 7.662 7.587 7.557 7.555 7.557 7.572 7.652 7.735 7.765 7.792 7.807 7.81 7.805 7.792 7.767 7.735 7.705 7.67 7.658 7.69 7.745 7.805 7.817 7.772 7.718 7.673 7.643 7.65 7.69 7.722 7.715 7.66 7.587 7.525 7.513 7.537 7.56 7.58 7.6 7.615 7.622 7.63 7.637 7.645 7.655 7.673 7.69 7.705 7.72 7.71 7.662 7.595 7.525 7.475 7.48 7.52 7.56 7.6 7.625 7.618 7.598 7.605 7.645 7.695 7.745 7.795 7.83 7.84 7.843 7.847 7.853 7.862 7.872 7.882 7.905 7.937 7.967 8.01 8.065 8.117 8.17 8.22 8.257 8.277 8.29 8.3 8.295 8.26 8.21 8.163 8.155 8.167 8.158 8.148 8.155 8.17 8.185 8.205 8.17 8.075 7.975 7.885 7.843 7.842
13.05 12.99 12.92 12.83 12.725 12.638 12.608 12.617 12.61 12.555 12.463 12.368 12.275 12.195 12.11 12.015 11.93 11.81 11.653 11.493 11.348 11.223 11.077 10.915 10.75 10.58 10.415 10.25 10.08 9.938 9.855 9.79 9.693 9.578 9.465 9.37 9.26 9.095 8.903 8.713 8.53 8.375 8.3 8.285 8.273 8.26 8.255 8.258 8.27 8.3 8.335 8.332 8.298 8.263 8.243 8.26 8.305 8.35 8.34 8.283 8.225 8.168 8.128 8.133 8.17 8.215 8.288 8.382 8.477 8.552 8.587 8.585 8.562 8.537 8.52 8.5 8.47 8.455 8.445 8.403 8.34 8.28 8.22 8.188 8.185 8.182 8.065 7.825 7.575 7.328 7.098 6.96 7.05 7.29 7.528 7.735 7.79 7.72 7.682 7.677 7.675 7.677 7.69 7.71 7.733 7.757 7.77 7.765 7.752 7.74 7.717 7.685 7.653 7.64 7.658 7.693 7.745 7.805 7.82 7.78 7.74 7.715 7.675 7.645 7.673 7.72 7.73 7.68 7.592 7.533 7.535 7.565 7.592 7.617 7.64 7.655 7.66 7.663 7.67 7.68 7.682 7.682 7.693 7.708 7.72 7.697 7.615 7.523 7.448 7.393 7.398 7.44 7.485 7.54 7.593 7.613 7.618 7.635 7.663 7.7 7.743 7.79 7.827 7.842 7.847 7.853 7.86 7.867 7.867 7.868 7.888 7.922 7.958 8.015 8.09 8.15 8.2 8.25 8.282 8.292 8.3 8.31 8.305 8.27 8.223 8.178 8.153 8.143 8.128 8.113 8.115 8.133 8.15 8.152 8.1 8 7.89 7.815 7.8 7.81
13.01 12.94 12.862 12.777 12.677 12.585 12.553 12.565 12.57 12.54 12.46 12.365 12.267 12.155 12.023 11.888 11.755 11.605 11.46 11.333 11.205 11.077 10.932 10.767 10.6 10.43 10.265 10.1 9.95 9.863 9.835 9.81 9.752 9.657 9.548 9.443 9.285 9.098 8.93 8.752 8.56 8.388 8.303 8.28 8.26 8.24 8.233 8.248 8.28 8.32 8.362 8.377 8.352 8.32 8.303 8.308 8.335 8.377 8.365 8.293 8.22 8.145 8.093 8.105 8.155 8.21 8.29 8.382 8.457 8.505 8.537 8.552 8.537 8.515 8.507 8.5 8.478 8.473 8.502 8.525 8.492 8.427 8.335 8.248 8.218 8.215 8.1 7.86 7.612 7.365 7.118 6.933 7.01 7.275 7.525 7.75 7.817 7.748 7.708 7.7 7.692 7.685 7.69 7.707 7.722 7.727 7.717 7.695 7.67 7.652 7.628 7.608 7.608 7.635 7.683 7.725 7.768 7.815 7.827 7.803 7.785 7.767 7.725 7.668 7.648 7.68 7.697 7.652 7.568 7.528 7.55 7.583 7.618 7.652 7.677 7.69 7.695 7.695 7.7 7.71 7.695 7.683 7.7 7.717 7.73 7.702 7.595 7.47 7.38 7.33 7.353 7.413 7.473 7.54 7.605 7.645 7.665 7.688 7.71 7.733 7.76 7.793 7.827 7.847 7.852 7.858 7.865 7.867 7.858 7.85 7.87 7.907 7.943 8.003 8.09 8.167 8.225 8.275 8.302 8.305 8.31 8.32 8.315 8.282 8.238 8.195 8.168 8.15 8.127 8.095 8.085 8.105 8.115 8.08 7.992 7.885 7.793 7.75 7.75 7.76
12.933 12.855 12.78 12.71 12.625 12.533 12.495 12.505 12.515 12.512 12.457 12.36 12.257 12.147 12.01 11.842 11.653 11.475 11.33 11.195 11.065 10.935 10.787 10.62 10.45 10.28 10.115 9.968 9.86 9.81 9.795 9.777 9.75 9.705 9.652 9.585 9.405 9.165 8.97 8.78 8.58 8.4 8.308 8.282 8.255 8.223 8.22 8.258 8.3 8.34 8.38 8.412 8.407 8.385 8.38 8.38 8.388 8.412 8.397 8.32 8.227 8.13 8.083 8.11 8.16 8.215 8.29 8.365 8.412 8.448 8.482 8.512 8.512 8.49 8.485 8.49 8.48 8.465 8.495 8.562 8.6 8.572 8.477 8.358 8.275 8.247 8.132 7.895 7.647 7.4 7.148 6.933 7.003 7.297 7.562 7.77 7.82 7.758 7.72 7.71 7.7 7.69 7.692 7.702 7.7 7.682 7.655 7.62 7.588 7.568 7.563 7.583 7.625 7.675 7.725 7.767 7.8 7.83 7.847 7.85 7.842 7.82 7.775 7.715 7.663 7.648 7.64 7.598 7.545 7.538 7.573 7.61 7.65 7.69 7.715 7.722 7.725 7.728 7.732 7.73 7.7 7.685 7.705 7.725 7.74 7.71 7.595 7.445 7.33 7.305 7.365 7.443 7.517 7.59 7.655 7.697 7.72 7.742 7.765 7.785 7.802 7.817 7.837 7.852 7.858 7.862 7.865 7.86 7.845 7.833 7.85 7.89 7.93 7.993 8.08 8.167 8.242 8.297 8.32 8.32 8.323 8.33 8.325 8.295 8.253 8.215 8.19 8.165 8.125 8.075 8.06 8.077 8.055 7.98 7.88 7.78 7.723 7.705 7.705 7.715
12.873 12.775 12.695 12.627 12.557 12.475 12.435 12.445 12.452 12.452 12.417 12.332 12.227 12.115 11.96 11.762 11.555 11.365 11.21 11.073 10.938 10.805 10.653 10.48 10.308 10.133 9.983 9.873 9.798 9.755 9.725 9.69 9.65 9.625 9.612 9.577 9.412 9.15 8.96 8.795 8.595 8.408 8.305 8.27 8.23 8.188 8.198 8.265 8.32 8.36 8.4 8.44 8.447 8.432 8.43 8.43 8.43 8.435 8.412 8.335 8.225 8.105 8.065 8.11 8.16 8.212 8.27 8.32 8.355 8.39 8.425 8.46 8.477 8.465 8.46 8.47 8.472 8.46 8.48 8.545 8.617 8.65 8.592 8.485 8.377 8.3 8.167 7.932 7.68 7.427 7.17 6.928 6.975 7.287 7.582 7.787 7.82 7.765 7.733 7.72 7.71 7.698 7.685 7.673 7.65 7.623 7.6 7.578 7.558 7.548 7.563 7.605 7.657 7.712 7.757 7.787 7.812 7.837 7.86 7.877 7.887 7.872 7.825 7.762 7.697 7.643 7.6 7.558 7.535 7.56 7.605 7.645 7.685 7.727 7.755 7.76 7.76 7.76 7.755 7.73 7.695 7.69 7.71 7.73 7.747 7.717 7.605 7.463 7.348 7.338 7.413 7.488 7.565 7.64 7.702 7.742 7.762 7.78 7.797 7.812 7.825 7.837 7.85 7.857 7.863 7.867 7.862 7.848 7.83 7.818 7.835 7.875 7.915 7.975 8.06 8.15 8.235 8.3 8.332 8.34 8.34 8.342 8.337 8.31 8.272 8.237 8.205 8.165 8.112 8.058 8.037 8.027 7.962 7.87 7.77 7.695 7.67 7.66 7.66 7.673
12.85 12.727 12.62 12.532 12.462 12.387 12.34 12.332 12.327 12.315 12.295 12.247 12.155 12.035 11.87 11.665 11.458 11.258 11.093 10.957 10.823 10.69 10.537 10.365 10.19 10.01 9.87 9.777 9.707 9.655 9.605 9.555 9.523 9.507 9.485 9.45 9.31 9.06 8.903 8.79 8.605 8.413 8.298 8.25 8.203 8.16 8.178 8.257 8.327 8.377 8.417 8.432 8.412 8.39 8.382 8.38 8.38 8.38 8.367 8.322 8.232 8.108 8.043 8.072 8.125 8.162 8.207 8.26 8.297 8.332 8.368 8.402 8.432 8.435 8.43 8.44 8.45 8.452 8.468 8.523 8.597 8.655 8.63 8.542 8.447 8.33 8.177 7.962 7.707 7.45 7.193 6.938 6.955 7.258 7.572 7.785 7.807 7.763 7.748 7.74 7.73 7.715 7.69 7.663 7.635 7.608 7.588 7.575 7.57 7.575 7.593 7.628 7.68 7.735 7.77 7.79 7.81 7.835 7.86 7.88 7.905 7.9 7.85 7.785 7.712 7.64 7.588 7.55 7.535 7.573 7.632 7.68 7.72 7.762 7.78 7.77 7.757 7.742 7.722 7.69 7.675 7.692 7.715 7.735 7.755 7.745 7.67 7.558 7.448 7.428 7.498 7.57 7.642 7.697 7.725 7.755 7.78 7.792 7.805 7.815 7.828 7.842 7.855 7.862 7.867 7.872 7.862 7.84 7.82 7.808 7.825 7.865 7.892 7.925 7.995 8.082 8.17 8.25 8.295 8.307 8.32 8.337 8.342 8.317 8.275 8.232 8.187 8.14 8.09 8.04 8 7.94 7.85 7.76 7.675 7.63 7.62 7.61 7.61 7.633
12.815 12.667 12.52 12.398 12.315 12.24 12.183 12.155 12.137 12.123 12.112 12.105 12.052 11.935 11.765 11.563 11.36 11.155 10.98 10.84 10.708 10.58 10.435 10.267 10.09 9.908 9.758 9.66 9.58 9.515 9.463 9.42 9.397 9.375 9.345 9.307 9.195 8.97 8.82 8.76 8.615 8.42 8.298 8.245 8.195 8.163 8.188 8.258 8.327 8.385 8.405 8.375 8.325 8.288 8.27 8.265 8.263 8.26 8.262 8.257 8.22 8.125 8.02 8.008 8.06 8.075 8.113 8.187 8.235 8.272 8.31 8.345 8.38 8.4 8.405 8.415 8.425 8.432 8.45 8.503 8.58 8.645 8.625 8.537 8.42 8.242 8.075 7.922 7.717 7.472 7.217 6.963 6.95 7.225 7.53 7.747 7.785 7.75 7.76 7.767 7.76 7.742 7.715 7.688 7.66 7.633 7.61 7.595 7.593 7.608 7.63 7.655 7.7 7.747 7.775 7.795 7.815 7.838 7.86 7.88 7.9 7.885 7.832 7.775 7.707 7.635 7.585 7.55 7.538 7.58 7.65 7.712 7.76 7.795 7.782 7.733 7.698 7.675 7.648 7.633 7.653 7.687 7.72 7.745 7.765 7.775 7.75 7.685 7.585 7.545 7.602 7.67 7.71 7.71 7.703 7.737 7.78 7.795 7.808 7.82 7.833 7.847 7.86 7.867 7.873 7.877 7.865 7.84 7.818 7.8 7.815 7.85 7.862 7.863 7.9 7.978 8.075 8.175 8.222 8.228 8.24 8.265 8.285 8.277 8.237 8.187 8.14 8.095 8.047 7.995 7.932 7.845 7.75 7.66 7.6 7.58 7.57 7.563 7.568 7.603
