ncols         200
nrows         71
xllcorner     546000
yllcorner     254450
cellsize      5
NODATA_value  -9999.0
15.03 14.972 14.827 14.093 13.975 14.58 14.735 14.797 14.797 14.775 14.763 14.755 14.737 14.71 14.675 14.638 14.623 14.64 14.657 14.662 14.665 14.665 14.67 14.675 14.693 14.757 14.795 14.778 14.78 14.8 14.77 14.687 14.597 14.495 14.375 14.335 14.432 14.512 14.525 14.535 14.552 14.445 14.518 14.77 14.865 14.732 14.603 14.645 14.65 14.673 14.727 14.782 14.81 14.82 14.88 15.002 15.105 15.147 15.127 15.07 15.048 15.078 15.12 15.165 15.212 15.257 15.272 15.25 15.23 15.23 15.253 15.298 15.37 15.462 15.507 15.497 15.467 15.402 15.355 15.342 15.315 15.27 15.202 15.12 15.042 14.798 14.595 14.575 14.57 14.703 14.865 14.97 15.085 15.2 15.275 15.325 15.423 15.567 15.665 15.685 15.677 15.67 15.685 15.617 15.387 15.138 15.025 15.055 15.198 15.395 15.502 15.462 15.315 15.205 15.195 15.21 15.26 15.403 15.562 15.62 15.623 15.63 15.642 15.657 15.67 15.5 15.443 15.59 15.64 15.695 15.722 15.667 15.58 15.505 15.41 15.31 15.275 15.325 15.387 15.41 15.42 15.39 15.36 15.405 15.492 15.54 15.517 15.49 15.472 15.425 15.428 15.513 15.605 15.69 15.737 15.737 15.72 15.7 15.695 15.705 15.707 15.66 15.525 15.355 15.233 15.18 15.16 15.122 15.008 14.933 15.003 15.12 15.24 15.39 15.562 15.677 15.717 15.675 15.695 15.86 16.055 16.257 16.325 16.278 16.285 16.338 16.43 16.545 16.65 16.74 16.757 16.71 16.668 16.648 16.683 16.755 16.792 16.792 16.775 16.742
14.962 14.917 14.847 14.088 13.91 14.54 14.652 14.695 14.712 14.702 14.69 14.685 14.677 14.657 14.625 14.605 14.62 14.65 14.67 14.675 14.675 14.678 14.683 14.69 14.735 14.822 14.86 14.837 14.823 14.827 14.795 14.702 14.59 14.465 14.335 14.298 14.38 14.45 14.473 14.498 14.543 14.575 14.445 14.64 14.975 14.72 14.485 14.55 14.595 14.63 14.693 14.757 14.807 14.83 14.9 15.045 15.195 15.295 15.282 15.182 15.088 15.07 15.11 15.153 15.193 15.233 15.255 15.25 15.25 15.268 15.295 15.325 15.375 15.457 15.502 15.48 15.417 15.33 15.27 15.232 15.18 15.112 15.04 14.788 14.61 14.585 14.57 14.745 14.875 14.885 14.93 15.02 15.123 15.232 15.307 15.335 15.375 15.47 15.557 15.595 15.612 15.613 15.64 15.68 15.602 15.423 15.363 15.49 15.647 15.77 15.795 15.665 15.493 15.423 15.435 15.447 15.462 15.517 15.592 15.62 15.622 15.63 15.64 15.65 15.66 15.53 15.448 15.547 15.583 15.58 15.6 15.567 15.495 15.43 15.358 15.33 15.38 15.465 15.542 15.57 15.457 15.327 15.35 15.47 15.582 15.587 15.54 15.51 15.485 15.45 15.468 15.552 15.64 15.727 15.78 15.795 15.795 15.78 15.775 15.78 15.777 15.72 15.575 15.4 15.233 15.11 15.06 14.995 14.933 14.97 15.068 15.18 15.308 15.475 15.675 15.827 15.842 15.743 15.713 15.85 16.06 16.26 16.342 16.345 16.38 16.427 16.507 16.607 16.692 16.765 16.772 16.735 16.725 16.73 16.765 16.807 16.82 16.817 16.805 16.778
14.87 14.855 14.807 14.058 13.883 14.485 14.555 14.588 14.618 14.628 14.62 14.615 14.61 14.6 14.59 14.6 14.63 14.66 14.68 14.685 14.688 14.692 14.695 14.713 14.782 14.88 14.912 14.887 14.865 14.85 14.797 14.685 14.555 14.425 14.298 14.268 14.338 14.4 14.445 14.495 14.555 14.59 14.408 14.662 15.02 14.645 14.343 14.42 14.535 14.593 14.658 14.723 14.785 14.83 14.92 15.078 15.245 15.387 15.387 15.272 15.155 15.095 15.113 15.15 15.188 15.228 15.26 15.273 15.282 15.305 15.335 15.367 15.405 15.462 15.49 15.44 15.347 15.247 15.172 15.11 15.045 14.803 14.635 14.598 14.588 14.792 14.947 14.972 14.967 14.965 15.01 15.093 15.18 15.275 15.337 15.36 15.375 15.408 15.455 15.493 15.525 15.545 15.58 15.645 15.682 15.655 15.672 15.78 15.86 15.897 15.885 15.792 15.69 15.647 15.64 15.63 15.622 15.615 15.615 15.62 15.62 15.623 15.63 15.64 15.65 15.56 15.453 15.522 15.58 15.535 15.515 15.483 15.423 15.383 15.378 15.422 15.497 15.575 15.65 15.647 15.373 15.115 15.118 15.18 15.432 15.625 15.585 15.548 15.515 15.485 15.508 15.588 15.675 15.762 15.82 15.842 15.855 15.852 15.85 15.85 15.845 15.78 15.625 15.45 15.275 15.105 14.99 14.925 14.945 15.04 15.133 15.24 15.385 15.57 15.755 15.895 15.887 15.758 15.71 15.833 16.042 16.245 16.355 16.39 16.43 16.465 16.527 16.617 16.702 16.782 16.807 16.797 16.802 16.81 16.827 16.842 16.842 16.84 16.835 16.822
14.773 14.77 14.75 14.02 13.863 14.445 14.495 14.528 14.563 14.58 14.578 14.573 14.568 14.57 14.585 14.61 14.64 14.67 14.692 14.7 14.702 14.705 14.702 14.698 14.75 14.85 14.87 14.832 14.807 14.777 14.707 14.595 14.475 14.357 14.258 14.255 14.33 14.393 14.45 14.51 14.57 14.605 14.585 14.585 14.758 14.97 15.212 14.99 14.565 14.573 14.638 14.703 14.765 14.833 14.958 15.133 15.307 15.457 15.462 15.35 15.235 15.138 15.118 15.155 15.195 15.248 15.295 15.31 15.3 15.29 15.31 15.352 15.395 15.442 15.432 15.342 15.235 15.137 15.065 14.825 14.665 14.63 14.62 14.827 14.985 15.037 15.067 15.065 15.053 15.048 15.09 15.17 15.252 15.31 15.342 15.367 15.38 15.393 15.413 15.44 15.47 15.508 15.563 15.63 15.695 15.747 15.795 15.84 15.88 15.92 15.91 15.845 15.79 15.757 15.73 15.7 15.67 15.64 15.623 15.62 15.62 15.62 15.623 15.63 15.64 15.59 15.455 15.495 15.59 15.54 15.498 15.458 15.408 15.38 15.408 15.467 15.535 15.605 15.672 15.64 15.313 15.015 14.945 14.878 15.275 15.692 15.663 15.628 15.593 15.565 15.588 15.658 15.733 15.807 15.86 15.88 15.892 15.897 15.905 15.915 15.915 15.84 15.675 15.495 15.312 15.125 14.978 14.965 15.045 15.125 15.208 15.31 15.452 15.615 15.762 15.875 15.855 15.743 15.723 15.815 15.993 16.202 16.32 16.36 16.395 16.41 16.458 16.552 16.647 16.72 16.755 16.765 16.765 16.77 16.777 16.787 16.792 16.792 16.795 16.792
14.76 14.72 14.69 14.035 13.895 14.425 14.475 14.51 14.545 14.562 14.562 14.558 14.56 14.575 14.598 14.625 14.653 14.68 14.705 14.715 14.718 14.725 14.71 14.655 14.66 14.742 14.752 14.698 14.663 14.627 14.552 14.448 14.348 14.273 14.24 14.28 14.357 14.415 14.47 14.528 14.587 14.625 14.602 14.433 14.67 15.2 15.972 16.159 15.113 14.55 14.632 14.697 14.743 14.838 15.015 15.202 15.382 15.532 15.537 15.422 15.302 15.178 15.13 15.165 15.215 15.285 15.337 15.34 15.3 15.25 15.23 15.243 15.28 15.33 15.302 15.195 15.097 14.838 14.685 14.663 14.658 14.87 15.027 15.062 15.082 15.137 15.17 15.15 15.135 15.128 15.168 15.25 15.305 15.305 15.315 15.352 15.37 15.385 15.408 15.435 15.47 15.52 15.585 15.652 15.705 15.743 15.792 15.852 15.9 15.94 15.927 15.847 15.783 15.755 15.73 15.702 15.675 15.645 15.625 15.62 15.62 15.62 15.62 15.623 15.63 15.62 15.458 15.465 15.597 15.553 15.515 15.482 15.442 15.408 15.415 15.46 15.52 15.588 15.657 15.667 15.317 14.998 14.973 14.915 15.325 15.76 15.75 15.73 15.7 15.675 15.7 15.765 15.807 15.827 15.85 15.88 15.897 15.902 15.92 15.942 15.95 15.862 15.68 15.487 15.295 15.1 15 15.098 15.227 15.29 15.33 15.37 15.46 15.582 15.71 15.83 15.817 15.75 15.778 15.835 15.958 16.147 16.265 16.3 16.317 16.318 16.358 16.447 16.525 16.562 16.585 16.607 16.615 16.62 16.633 16.65 16.665 16.672 16.675 16.667
14.82 14.758 14.69 14.123 13.928 14.355 14.457 14.492 14.525 14.545 14.55 14.555 14.57 14.59 14.613 14.64 14.668 14.695 14.717 14.728 14.74 14.745 14.702 14.628 14.593 14.635 14.645 14.58 14.525 14.478 14.405 14.33 14.278 14.25 14.265 14.322 14.387 14.44 14.493 14.545 14.602 14.64 14.617 14.565 14.575 14.815 15.877 16.741 15.74 14.656 14.62 14.675 14.715 14.858 15.07 15.262 15.452 15.605 15.61 15.49 15.36 15.228 15.158 15.183 15.253 15.335 15.375 15.352 15.302 15.247 15.195 15.158 15.143 15.162 15.14 14.863 14.708 14.688 14.688 14.915 15.077 15.117 15.125 15.11 15.133 15.23 15.275 15.245 15.22 15.205 15.243 15.302 15.302 15.268 15.275 15.32 15.355 15.377 15.4 15.438 15.488 15.545 15.607 15.662 15.7 15.728 15.775 15.845 15.907 15.957 15.935 15.838 15.768 15.74 15.718 15.695 15.672 15.645 15.625 15.62 15.62 15.62 15.62 15.62 15.623 15.645 15.46 15.44 15.602 15.565 15.535 15.505 15.472 15.44 15.44 15.473 15.515 15.573 15.642 15.64 15.287 15.008 15.03 15.125 15.497 15.777 15.795 15.797 15.792 15.785 15.792 15.81 15.802 15.77 15.773 15.822 15.865 15.887 15.907 15.922 15.925 15.847 15.658 15.44 15.238 15.045 15.035 15.237 15.392 15.432 15.415 15.398 15.438 15.523 15.645 15.782 15.8 15.78 15.83 15.88 15.955 16.097 16.207 16.227 16.227 16.223 16.258 16.327 16.37 16.388 16.41 16.44 16.46 16.47 16.485 16.505 16.525 16.54 16.545 16.535
14.87 14.83 14.74 14.225 13.893 14.217 14.442 14.475 14.505 14.533 14.553 14.57 14.59 14.61 14.63 14.655 14.685 14.715 14.738 14.753 14.77 14.75 14.68 14.603 14.538 14.54 14.537 14.473 14.413 14.368 14.33 14.303 14.29 14.278 14.3 14.357 14.413 14.465 14.518 14.57 14.622 14.655 14.635 14.582 14.415 14.673 15.647 16.539 16.337 15.223 14.645 14.638 14.698 14.902 15.11 15.302 15.505 15.672 15.675 15.537 15.395 15.255 15.175 15.205 15.292 15.38 15.4 15.352 15.297 15.24 15.182 15.13 15.075 14.843 14.718 14.698 14.72 14.965 15.125 15.172 15.187 15.167 15.123 15.125 15.22 15.33 15.36 15.337 15.312 15.292 15.3 15.3 15.263 15.225 15.235 15.28 15.325 15.365 15.403 15.455 15.512 15.57 15.622 15.66 15.69 15.715 15.758 15.83 15.91 15.967 15.932 15.825 15.755 15.73 15.71 15.688 15.665 15.643 15.625 15.62 15.62 15.62 15.623 15.625 15.628 15.657 15.475 15.433 15.595 15.58 15.555 15.525 15.495 15.465 15.468 15.5 15.53 15.57 15.522 15.35 15.14 15.2 15.422 15.572 15.702 15.76 15.792 15.81 15.835 15.842 15.815 15.77 15.72 15.675 15.683 15.74 15.802 15.855 15.882 15.885 15.88 15.835 15.667 15.43 15.203 15.033 15.08 15.282 15.432 15.465 15.428 15.418 15.445 15.495 15.58 15.695 15.777 15.827 15.88 15.932 15.987 16.072 16.135 16.138 16.133 16.125 16.143 16.18 16.205 16.225 16.25 16.28 16.308 16.328 16.348 16.373 16.398 16.423 16.43 16.413
14.885 14.86 14.757 14.317 13.835 14.058 14.427 14.47 14.518 14.563 14.595 14.615 14.635 14.648 14.663 14.69 14.72 14.75 14.775 14.798 14.82 14.785 14.693 14.598 14.508 14.465 14.438 14.395 14.365 14.348 14.338 14.325 14.315 14.305 14.33 14.387 14.44 14.49 14.545 14.597 14.63 14.65 14.637 14.59 14.54 14.473 14.943 16.24 16.949 15.942 14.878 14.693 14.725 14.92 15.092 15.26 15.46 15.605 15.59 15.452 15.305 15.17 15.123 15.18 15.26 15.33 15.337 15.28 15.22 15.16 15.1 14.85 14.718 14.713 14.74 14.992 15.172 15.252 15.275 15.232 15.177 15.135 15.123 15.152 15.247 15.357 15.39 15.375 15.357 15.342 15.32 15.283 15.24 15.213 15.228 15.273 15.318 15.355 15.4 15.46 15.517 15.58 15.635 15.67 15.698 15.725 15.773 15.85 15.927 15.965 15.925 15.825 15.765 15.748 15.725 15.703 15.68 15.642 15.61 15.607 15.612 15.622 15.632 15.637 15.643 15.662 15.503 15.43 15.592 15.642 15.62 15.59 15.56 15.545 15.567 15.607 15.525 15.368 15.255 15.31 15.463 15.652 15.842 15.855 15.795 15.77 15.793 15.83 15.857 15.842 15.793 15.735 15.675 15.623 15.623 15.675 15.74 15.805 15.85 15.862 15.857 15.825 15.675 15.432 15.198 15.06 15.103 15.253 15.41 15.47 15.445 15.443 15.463 15.505 15.56 15.615 15.702 15.79 15.847 15.902 15.96 16.045 16.097 16.093 16.088 16.08 16.08 16.095 16.118 16.143 16.17 16.2 16.225 16.243 16.265 16.295 16.323 16.345 16.342 16.315
14.888 14.847 14.755 14.397 13.76 13.915 14.45 14.505 14.573 14.63 14.665 14.685 14.697 14.693 14.703 14.74 14.772 14.8 14.825 14.85 14.882 14.857 14.76 14.65 14.54 14.44 14.388 14.38 14.378 14.372 14.362 14.35 14.34 14.335 14.363 14.418 14.47 14.522 14.565 14.585 14.59 14.605 14.607 14.575 14.54 14.345 14.623 15.9 16.944 16.652 15.513 14.846 14.828 14.933 15.03 15.138 15.28 15.36 15.347 15.243 15.108 15.02 15.013 15.06 15.157 15.22 15.192 15.135 15.075 14.823 14.69 14.695 14.743 15.02 15.21 15.3 15.372 15.41 15.38 15.273 15.15 15.213 15.205 15.11 15.213 15.335 15.38 15.365 15.353 15.347 15.325 15.285 15.25 15.233 15.253 15.297 15.332 15.35 15.383 15.44 15.505 15.583 15.655 15.7 15.728 15.76 15.818 15.892 15.94 15.947 15.912 15.838 15.795 15.782 15.76 15.737 15.697 15.628 15.583 15.585 15.59 15.602 15.625 15.645 15.657 15.667 15.515 15.41 15.58 15.717 15.732 15.71 15.692 15.717 15.622 15.473 15.383 15.395 15.5 15.69 15.87 15.877 15.852 15.825 15.8 15.798 15.833 15.877 15.877 15.832 15.778 15.722 15.665 15.61 15.6 15.635 15.69 15.755 15.81 15.847 15.855 15.817 15.662 15.428 15.23 15.125 15.14 15.233 15.375 15.465 15.465 15.468 15.485 15.52 15.57 15.585 15.605 15.665 15.725 15.785 15.875 16.017 16.102 16.1 16.095 16.09 16.085 16.093 16.108 16.13 16.16 16.185 16.197 16.205 16.225 16.252 16.27 16.28 16.27 16.24
14.91 14.842 14.75 14.455 13.695 13.838 14.542 14.593 14.643 14.698 14.735 14.745 14.74 14.728 14.74 14.782 14.822 14.852 14.878 14.905 14.937 14.93 14.85 14.73 14.59 14.448 14.385 14.392 14.397 14.395 14.387 14.38 14.373 14.37 14.398 14.452 14.497 14.525 14.532 14.522 14.523 14.547 14.567 14.553 14.538 14.532 14.468 15.128 16.499 17.117 16.6 15.933 15.753 15.78 15.778 15.73 15.585 15.298 15.103 15.061 15.158 15.462 15.255 14.928 15.067 15.105 15.047 14.778 14.645 14.665 14.72 15.015 15.22 15.325 15.42 15.49 15.517 15.52 15.505 15.375 15.133 15.35 15.315 15.03 15.202 15.327 15.37 15.36 15.353 15.35 15.33 15.295 15.27 15.258 15.278 15.315 15.335 15.345 15.373 15.428 15.503 15.59 15.675 15.73 15.765 15.805 15.862 15.915 15.927 15.92 15.9 15.855 15.825 15.817 15.795 15.75 15.675 15.595 15.557 15.56 15.557 15.558 15.585 15.62 15.645 15.662 15.505 15.368 15.535 15.74 15.822 15.792 15.613 15.543 15.515 15.473 15.56 15.735 15.862 15.845 15.825 15.802 15.775 15.768 15.79 15.843 15.9 15.91 15.872 15.818 15.762 15.707 15.653 15.6 15.59 15.615 15.65 15.705 15.76 15.807 15.84 15.81 15.66 15.463 15.305 15.225 15.233 15.278 15.36 15.45 15.485 15.495 15.512 15.537 15.565 15.55 15.518 15.54 15.6 15.693 15.84 16.01 16.105 16.11 16.105 16.1 16.095 16.1 16.108 16.123 16.142 16.155 16.16 16.163 16.18 16.2 16.205 16.207 16.197 16.175
14.935 14.85 14.747 14.497 13.683 13.8 14.632 14.73 14.755 14.788 14.802 14.793 14.78 14.77 14.783 14.82 14.865 14.905 14.935 14.965 14.995 15.002 14.922 14.767 14.592 14.44 14.38 14.38 14.377 14.377 14.387 14.4 14.407 14.407 14.427 14.462 14.477 14.47 14.455 14.448 14.46 14.492 14.522 14.545 14.567 14.575 14.408 14.648 15.66 16.707 17.214 17.084 16.897 16.915 16.865 16.7 16.442 16.1 15.87 15.828 15.94 16.257 15.627 14.895 14.99 14.738 14.61 14.62 14.673 14.995 15.215 15.332 15.435 15.535 15.602 15.617 15.605 15.59 15.577 15.452 15.168 15.135 15.197 15.075 15.125 15.295 15.362 15.36 15.355 15.35 15.335 15.31 15.29 15.28 15.295 15.317 15.33 15.34 15.365 15.425 15.51 15.603 15.695 15.76 15.805 15.852 15.89 15.905 15.9 15.892 15.885 15.865 15.845 15.837 15.802 15.725 15.635 15.562 15.452 15.452 15.522 15.515 15.535 15.568 15.6 15.647 15.462 15.308 15.55 15.685 15.61 15.603 15.535 15.518 15.63 15.752 15.825 15.805 15.79 15.773 15.75 15.73 15.733 15.778 15.847 15.917 15.942 15.907 15.855 15.802 15.747 15.692 15.637 15.588 15.58 15.605 15.628 15.663 15.71 15.758 15.805 15.802 15.692 15.54 15.398 15.325 15.34 15.375 15.418 15.468 15.502 15.517 15.532 15.55 15.547 15.508 15.455 15.44 15.508 15.658 15.838 16.015 16.115 16.12 16.115 16.11 16.105 16.107 16.112 16.12 16.125 16.128 16.13 16.13 16.135 16.138 16.135 16.135 16.128 16.118
14.955 14.872 14.762 14.53 13.695 13.758 14.677 14.88 14.912 14.902 14.868 14.848 14.835 14.833 14.853 14.89 14.93 14.955 14.977 15.01 15.04 15.035 14.925 14.742 14.56 14.418 14.348 14.325 14.31 14.308 14.33 14.36 14.385 14.412 14.427 14.417 14.405 14.392 14.378 14.378 14.402 14.43 14.46 14.54 14.61 14.615 14.59 14.473 14.881 16.182 17.087 17.145 17.142 17.23 17.22 17.08 16.957 16.892 16.822 16.739 16.547 16.079 15.285 14.63 14.578 14.58 14.633 14.955 15.172 15.297 15.4 15.5 15.597 15.667 15.67 15.64 15.617 15.592 15.567 15.435 15.197 14.915 15.16 15.215 14.975 15.22 15.35 15.347 15.342 15.335 15.32 15.302 15.287 15.285 15.302 15.32 15.333 15.345 15.373 15.44 15.53 15.623 15.712 15.767 15.805 15.855 15.852 15.805 15.782 15.777 15.772 15.762 15.762 15.8 15.76 15.635 15.532 15.005 14.445 14.445 15 15.48 15.492 15.522 15.575 15.557 15.315 15.31 15.577 15.55 15.46 15.57 15.715 15.79 15.802 15.782 15.763 15.738 15.728 15.728 15.725 15.725 15.733 15.775 15.85 15.915 15.917 15.867 15.815 15.762 15.707 15.655 15.605 15.575 15.583 15.605 15.628 15.658 15.7 15.75 15.795 15.805 15.725 15.59 15.48 15.45 15.483 15.52 15.547 15.537 15.515 15.518 15.532 15.547 15.532 15.48 15.425 15.423 15.53 15.708 15.89 16.07 16.152 16.138 16.128 16.12 16.113 16.11 16.113 16.117 16.12 16.12 16.12 16.12 16.115 16.105 16.098 16.095 16.09 16.085
14.988 14.917 14.787 14.562 13.715 13.725 14.675 14.98 15.052 14.992 14.93 14.913 14.908 14.918 14.945 14.982 15.002 14.995 15.003 15.035 15.04 14.995 14.867 14.683 14.52 14.4 14.313 14.258 14.233 14.228 14.245 14.275 14.325 14.4 14.407 14.355 14.328 14.315 14.305 14.315 14.337 14.343 14.383 14.517 14.635 14.655 14.63 14.455 14.588 15.508 16.575 17.01 17.09 17.237 17.295 17.212 17.105 17.032 16.714 16.18 15.715 14.958 14.518 14.518 14.588 14.912 15.127 15.255 15.362 15.437 15.515 15.61 15.677 15.695 15.665 15.618 15.583 15.555 15.515 15.335 15.112 14.93 15.055 15.105 14.945 15.153 15.33 15.325 15.312 15.295 15.275 15.26 15.255 15.265 15.3 15.335 15.355 15.37 15.403 15.473 15.56 15.65 15.727 15.76 15.775 15.815 15.79 15.695 15.623 15.58 15.565 15.578 15.64 15.747 15.712 15.54 15.192 14.228 13.531 13.531 14.248 15.192 15.424 15.3 15.247 15.248 15.17 15.422 15.69 15.653 15.665 15.767 15.812 15.81 15.785 15.76 15.743 15.73 15.733 15.75 15.77 15.787 15.763 15.743 15.793 15.845 15.84 15.797 15.75 15.698 15.645 15.603 15.578 15.58 15.6 15.62 15.648 15.685 15.73 15.777 15.807 15.807 15.732 15.615 15.575 15.613 15.66 15.682 15.66 15.595 15.538 15.515 15.515 15.53 15.515 15.463 15.448 15.515 15.648 15.813 15.992 16.155 16.202 16.165 16.143 16.132 16.123 16.113 16.11 16.113 16.115 16.115 16.115 16.115 16.112 16.105 16.095 16.088 16.083 16.08
15.047 14.987 14.815 14.6 13.78 13.738 14.63 15.017 15.145 15.055 14.993 14.988 14.997 15.012 15.037 15.055 15.045 15.025 15.027 15.03 14.987 14.922 14.8 14.638 14.51 14.403 14.308 14.228 14.17 14.15 14.165 14.22 14.318 14.407 14.4 14.325 14.268 14.238 14.235 14.242 14.24 14.228 14.295 14.472 14.64 14.695 14.665 14.625 14.43 14.801 16.027 16.86 17.083 17.227 17.345 17.272 16.795 16.242 15.695 14.893 14.526 14.48 14.543 14.87 15.072 15.197 15.315 15.417 15.495 15.552 15.622 15.682 15.7 15.695 15.672 15.62 15.56 15.52 15.457 15.24 14.98 14.825 14.726 15.03 15.147 15.118 15.307 15.295 15.27 15.245 15.225 15.215 15.22 15.235 15.28 15.337 15.377 15.4 15.438 15.51 15.593 15.68 15.742 15.76 15.76 15.78 15.75 15.65 15.545 15.455 15.418 15.468 15.598 15.727 15.687 15.497 14.952 14.018 13.53 13.53 13.765 14.225 14.453 14.313 14.605 15.045 15.133 15.417 15.747 15.807 15.747 15.77 15.8 15.807 15.793 15.78 15.778 15.785 15.798 15.815 15.835 15.855 15.825 15.76 15.753 15.775 15.76 15.72 15.68 15.635 15.595 15.578 15.583 15.598 15.615 15.64 15.675 15.715 15.757 15.792 15.805 15.805 15.745 15.685 15.72 15.787 15.817 15.785 15.712 15.63 15.573 15.538 15.513 15.513 15.498 15.488 15.55 15.655 15.778 15.925 16.097 16.23 16.247 16.203 16.165 16.148 16.137 16.123 16.113 16.11 16.11 16.11 16.11 16.11 16.108 16.1 16.09 16.08 16.075 16.075
14.987 15.057 14.855 14.65 13.875 13.73 14.532 14.99 15.152 15.087 15.048 15.06 15.077 15.092 15.105 15.095 15.07 15.05 15.027 14.982 14.918 14.85 14.748 14.625 14.517 14.41 14.313 14.225 14.14 14.088 14.115 14.22 14.347 14.425 14.4 14.32 14.243 14.183 14.16 14.15 14.133 14.125 14.223 14.423 14.622 14.72 14.7 14.66 14.493 14.62 15.453 16.542 17.142 17.137 16.75 16.247 15.61 14.776 14.516 14.468 14.478 14.797 14.99 15.107 15.227 15.342 15.45 15.532 15.59 15.642 15.687 15.702 15.7 15.695 15.677 15.63 15.563 15.505 15.405 15.16 14.863 14.918 15.105 15.1 15 15.098 15.275 15.25 15.22 15.195 15.18 15.183 15.198 15.215 15.258 15.32 15.377 15.423 15.475 15.55 15.63 15.71 15.755 15.757 15.753 15.755 15.72 15.633 15.538 15.445 15.39 15.45 15.595 15.707 15.65 15.455 15.002 14.09 13.53 13.53 13.53 13.783 14.183 14.326 14.705 15.107 15.16 15.303 15.545 15.682 15.693 15.72 15.762 15.792 15.807 15.82 15.835 15.85 15.865 15.885 15.905 15.922 15.892 15.815 15.755 15.723 15.693 15.658 15.625 15.598 15.585 15.59 15.603 15.615 15.633 15.665 15.705 15.742 15.772 15.79 15.795 15.8 15.785 15.792 15.847 15.902 15.897 15.822 15.74 15.665 15.613 15.578 15.54 15.515 15.523 15.588 15.69 15.795 15.912 16.05 16.207 16.302 16.292 16.247 16.202 16.168 16.15 16.135 16.12 16.113 16.11 16.11 16.11 16.11 16.105 16.095 16.085 16.075 16.07 16.068
14.64 15.092 14.91 14.705 13.953 13.65 14.372 14.92 15.092 15.08 15.065 15.085 15.102 15.117 15.117 15.097 15.072 15.045 15 14.938 14.87 14.793 14.712 14.625 14.522 14.415 14.315 14.225 14.14 14.083 14.125 14.25 14.38 14.44 14.397 14.32 14.24 14.17 14.128 14.105 14.088 14.083 14.19 14.397 14.59 14.71 14.725 14.695 14.66 14.478 14.856 15.95 16.417 16.152 15.473 14.706 14.546 14.45 14.488 14.782 14.875 14.99 15.09 15.153 15.255 15.375 15.472 15.525 15.565 15.612 15.637 15.64 15.642 15.642 15.642 15.632 15.587 15.522 15.405 15.173 14.973 15.02 15.172 14.93 14.773 15.102 15.277 15.245 15.213 15.175 15.165 15.185 15.205 15.228 15.27 15.328 15.385 15.443 15.505 15.58 15.657 15.725 15.755 15.753 15.75 15.712 15.675 15.645 15.572 15.488 15.425 15.473 15.61 15.67 15.562 15.372 14.995 14.12 13.53 13.53 13.96 14.627 15.025 15.172 15.162 15.183 15.233 15.305 15.418 15.548 15.625 15.668 15.718 15.765 15.797 15.822 15.847 15.87 15.89 15.907 15.925 15.947 15.927 15.852 15.77 15.705 15.665 15.635 15.61 15.605 15.615 15.625 15.635 15.645 15.66 15.688 15.722 15.757 15.78 15.788 15.793 15.798 15.817 15.852 15.89 15.93 15.912 15.835 15.758 15.703 15.683 15.66 15.623 15.588 15.6 15.68 15.782 15.887 16.002 16.142 16.287 16.35 16.32 16.272 16.227 16.188 16.165 16.153 16.137 16.118 16.105 16.105 16.105 16.105 16.1 16.09 16.08 16.073 16.07 16.067
14.53 15.09 14.932 14.687 13.975 13.558 14.2 14.847 15.027 15.057 15.05 15.07 15.088 15.105 15.102 15.08 15.052 15.015 14.97 14.91 14.835 14.743 14.665 14.605 14.52 14.415 14.315 14.23 14.168 14.135 14.173 14.285 14.412 14.452 14.392 14.317 14.24 14.18 14.145 14.118 14.095 14.083 14.183 14.382 14.552 14.682 14.73 14.71 14.685 14.535 14.645 15.212 15.213 14.793 14.65 14.455 14.533 14.79 14.852 14.922 14.995 15.1 15.165 15.165 15.218 15.325 15.407 15.43 15.448 15.487 15.512 15.515 15.52 15.527 15.548 15.592 15.607 15.562 15.45 15.243 15.135 15.028 14.93 14.94 14.935 15.145 15.322 15.287 15.242 15.183 15.17 15.207 15.237 15.263 15.305 15.362 15.415 15.463 15.523 15.597 15.665 15.72 15.747 15.75 15.717 15.615 15.575 15.615 15.6 15.532 15.46 15.498 15.612 15.605 15.437 15.242 14.647 13.833 13.538 13.94 14.795 15.222 15.215 15.252 15.257 15.263 15.305 15.378 15.463 15.54 15.593 15.633 15.685 15.735 15.765 15.788 15.813 15.837 15.86 15.878 15.9 15.932 15.92 15.852 15.775 15.708 15.665 15.64 15.633 15.643 15.655 15.665 15.675 15.688 15.698 15.708 15.73 15.765 15.787 15.792 15.797 15.803 15.823 15.857 15.893 15.93 15.915 15.843 15.785 15.76 15.762 15.765 15.745 15.71 15.705 15.75 15.83 15.933 16.05 16.187 16.31 16.357 16.33 16.28 16.238 16.205 16.185 16.175 16.155 16.118 16.095 16.093 16.09 16.09 16.085 16.078 16.073 16.073 16.073 16.07
14.73 15.022 14.917 14.63 13.985 13.49 14.04 14.765 14.96 15.032 15.035 15.055 15.075 15.092 15.087 15.06 15.025 14.985 14.942 14.88 14.785 14.68 14.605 14.555 14.495 14.412 14.32 14.253 14.22 14.203 14.228 14.323 14.442 14.465 14.39 14.313 14.243 14.195 14.165 14.135 14.108 14.088 14.175 14.35 14.5 14.64 14.712 14.708 14.698 14.692 14.655 14.778 14.738 14.525 14.628 14.775 14.837 14.903 14.97 15.043 15.118 15.212 15.255 15.225 15.22 15.283 15.345 15.348 15.343 15.365 15.385 15.388 15.393 15.4 15.43 15.5 15.572 15.587 15.49 15.335 15.275 15.273 15.265 15.235 15.165 15.255 15.365 15.322 15.257 15.183 15.168 15.215 15.262 15.297 15.338 15.39 15.435 15.478 15.538 15.607 15.662 15.71 15.74 15.72 15.627 15.49 15.45 15.515 15.562 15.555 15.495 15.523 15.587 15.517 15.31 14.76 14.148 14.078 14.21 14.652 15.16 15.21 15.215 15.275 15.332 15.35 15.38 15.452 15.53 15.592 15.617 15.625 15.66 15.705 15.735 15.755 15.778 15.802 15.823 15.845 15.88 15.917 15.905 15.845 15.777 15.71 15.67 15.66 15.67 15.685 15.695 15.705 15.717 15.732 15.74 15.74 15.748 15.775 15.795 15.798 15.8 15.805 15.825 15.86 15.897 15.935 15.917 15.86 15.835 15.825 15.828 15.842 15.847 15.827 15.825 15.855 15.9 15.98 16.092 16.207 16.3 16.352 16.34 16.295 16.26 16.23 16.207 16.187 16.155 16.11 16.085 16.08 16.075 16.075 16.07 16.068 16.07 16.075 16.077 16.08
14.785 14.907 14.9 14.65 14.075 13.456 13.9 14.67 14.88 14.995 15.02 15.04 15.06 15.075 15.065 15.03 14.992 14.955 14.912 14.837 14.72 14.615 14.55 14.5 14.45 14.395 14.343 14.31 14.29 14.273 14.293 14.38 14.48 14.477 14.395 14.313 14.25 14.215 14.185 14.155 14.125 14.098 14.163 14.315 14.465 14.615 14.725 14.763 14.77 14.78 14.79 14.783 14.77 14.78 14.82 14.885 14.953 15.017 15.09 15.165 15.24 15.32 15.34 15.305 15.275 15.273 15.285 15.278 15.265 15.263 15.265 15.265 15.268 15.273 15.313 15.395 15.485 15.56 15.555 15.52 15.532 15.55 15.532 15.48 15.417 15.405 15.4 15.338 15.26 15.18 15.165 15.218 15.272 15.32 15.365 15.41 15.45 15.493 15.548 15.607 15.655 15.7 15.712 15.64 15.513 15.378 15.335 15.393 15.458 15.507 15.51 15.525 15.525 15.43 15.24 14.748 14.543 14.827 14.937 14.972 15.083 15.175 15.217 15.27 15.352 15.412 15.457 15.52 15.582 15.632 15.652 15.648 15.655 15.677 15.702 15.725 15.745 15.767 15.793 15.825 15.865 15.905 15.895 15.832 15.768 15.713 15.688 15.693 15.707 15.72 15.73 15.742 15.757 15.77 15.777 15.78 15.78 15.787 15.797 15.802 15.805 15.808 15.828 15.863 15.9 15.94 15.937 15.91 15.9 15.89 15.895 15.91 15.922 15.925 15.935 15.965 15.995 16.04 16.112 16.197 16.28 16.345 16.35 16.315 16.285 16.255 16.225 16.188 16.145 16.1 16.075 16.073 16.07 16.07 16.068 16.07 16.075 16.078 16.085 16.1
14.76 14.79 14.882 14.702 14.202 13.495 13.828 14.577 14.792 14.94 14.99 15.01 15.027 15.035 15.02 14.987 14.952 14.915 14.865 14.775 14.658 14.563 14.5 14.45 14.403 14.383 14.39 14.39 14.375 14.355 14.378 14.465 14.53 14.502 14.423 14.345 14.298 14.27 14.24 14.21 14.18 14.168 14.218 14.345 14.505 14.665 14.8 14.88 14.91 14.92 14.93 14.932 14.925 14.915 14.943 15.01 15.07 15.11 15.162 15.237 15.312 15.36 15.35 15.315 15.285 15.27 15.273 15.268 15.255 15.24 15.215 15.198 15.198 15.208 15.26 15.353 15.445 15.54 15.61 15.637 15.652 15.667 15.647 15.595 15.542 15.487 15.435 15.378 15.305 15.225 15.19 15.22 15.272 15.325 15.372 15.417 15.46 15.508 15.558 15.605 15.653 15.7 15.697 15.603 15.47 15.34 15.298 15.348 15.405 15.46 15.513 15.533 15.503 15.43 15.288 15.187 15.167 15.11 15.06 15.055 15.085 15.145 15.203 15.27 15.353 15.44 15.507 15.555 15.605 15.65 15.667 15.662 15.652 15.645 15.657 15.68 15.703 15.73 15.77 15.815 15.855 15.895 15.882 15.818 15.763 15.733 15.718 15.718 15.73 15.742 15.75 15.757 15.77 15.782 15.792 15.795 15.792 15.765 15.767 15.802 15.81 15.81 15.83 15.865 15.9 15.94 15.957 15.95 15.942 15.94 15.947 15.96 15.967 15.975 15.995 16.025 16.055 16.077 16.098 16.14 16.212 16.292 16.312 16.28 16.253 16.25 16.25 16.215 16.17 16.125 16.09 16.08 16.08 16.08 16.083 16.088 16.09 16.083 16.083 16.1
14.678 14.67 14.865 14.71 14.292 13.593 13.823 14.51 14.712 14.88 14.95 14.967 14.975 14.97 14.955 14.932 14.902 14.865 14.807 14.713 14.608 14.52 14.455 14.405 14.383 14.41 14.447 14.465 14.462 14.445 14.475 14.542 14.567 14.537 14.468 14.408 14.382 14.36 14.33 14.3 14.29 14.318 14.37 14.46 14.6 14.757 14.887 14.985 15.047 15.072 15.082 15.08 15.065 15.05 15.075 15.135 15.165 15.158 15.188 15.262 15.312 15.317 15.29 15.258 15.248 15.27 15.305 15.312 15.3 15.285 15.24 15.195 15.185 15.208 15.275 15.37 15.465 15.56 15.63 15.655 15.668 15.68 15.662 15.615 15.565 15.51 15.467 15.435 15.382 15.31 15.255 15.243 15.27 15.32 15.368 15.418 15.47 15.53 15.58 15.613 15.655 15.705 15.702 15.62 15.5 15.373 15.333 15.38 15.43 15.49 15.56 15.587 15.565 15.515 15.39 15.278 15.25 15.213 15.18 15.182 15.188 15.193 15.228 15.303 15.393 15.49 15.552 15.575 15.603 15.642 15.66 15.647 15.622 15.595 15.598 15.625 15.658 15.695 15.745 15.797 15.842 15.882 15.867 15.81 15.783 15.778 15.763 15.745 15.745 15.757 15.76 15.758 15.765 15.777 15.785 15.785 15.757 15.688 15.693 15.77 15.805 15.813 15.833 15.867 15.902 15.937 15.957 15.958 15.958 15.97 15.982 15.988 15.993 16 16.018 16.045 16.067 16.075 16.075 16.083 16.118 16.19 16.215 16.193 16.203 16.248 16.29 16.277 16.233 16.188 16.145 16.115 16.105 16.105 16.108 16.11 16.102 16.08 16.068 16.078
14.55 14.553 14.847 14.692 14.357 13.675 13.82 14.472 14.648 14.817 14.905 14.915 14.91 14.903 14.888 14.865 14.842 14.812 14.752 14.66 14.565 14.478 14.413 14.39 14.413 14.46 14.5 14.525 14.537 14.533 14.557 14.59 14.59 14.572 14.52 14.478 14.465 14.447 14.42 14.41 14.443 14.497 14.553 14.615 14.713 14.847 14.97 15.07 15.157 15.215 15.235 15.225 15.2 15.18 15.202 15.232 15.217 15.188 15.21 15.26 15.267 15.252 15.23 15.22 15.245 15.287 15.33 15.352 15.35 15.337 15.287 15.215 15.18 15.213 15.295 15.39 15.485 15.58 15.65 15.675 15.685 15.692 15.675 15.63 15.582 15.533 15.493 15.465 15.432 15.385 15.337 15.305 15.293 15.318 15.37 15.43 15.493 15.56 15.607 15.633 15.665 15.707 15.697 15.62 15.52 15.408 15.37 15.418 15.485 15.577 15.645 15.657 15.645 15.61 15.5 15.393 15.358 15.325 15.305 15.305 15.305 15.305 15.323 15.38 15.47 15.565 15.612 15.615 15.618 15.635 15.64 15.615 15.583 15.553 15.555 15.588 15.625 15.665 15.715 15.77 15.823 15.867 15.858 15.825 15.83 15.835 15.817 15.79 15.77 15.773 15.775 15.768 15.765 15.77 15.777 15.755 15.682 15.595 15.6 15.692 15.77 15.81 15.835 15.868 15.902 15.935 15.955 15.965 15.98 16.002 16.015 16.015 16.018 16.025 16.04 16.06 16.07 16.067 16.065 16.065 16.07 16.098 16.125 16.15 16.205 16.27 16.327 16.337 16.298 16.255 16.212 16.17 16.14 16.133 16.132 16.122 16.1 16.07 16.055 16.06
14.423 14.438 14.83 14.665 14.412 13.793 13.853 14.445 14.608 14.772 14.857 14.858 14.85 14.843 14.828 14.805 14.785 14.765 14.712 14.625 14.533 14.44 14.393 14.415 14.462 14.51 14.55 14.572 14.59 14.597 14.605 14.612 14.607 14.6 14.577 14.555 14.545 14.532 14.533 14.565 14.617 14.675 14.732 14.79 14.858 14.948 15.047 15.145 15.242 15.33 15.365 15.347 15.322 15.302 15.3 15.285 15.247 15.215 15.212 15.217 15.205 15.193 15.193 15.22 15.26 15.302 15.345 15.382 15.398 15.39 15.343 15.258 15.193 15.215 15.307 15.405 15.502 15.597 15.665 15.69 15.7 15.705 15.682 15.637 15.592 15.55 15.517 15.49 15.462 15.435 15.4 15.365 15.335 15.338 15.388 15.453 15.52 15.587 15.632 15.66 15.687 15.717 15.697 15.615 15.525 15.433 15.408 15.465 15.555 15.645 15.702 15.725 15.72 15.7 15.617 15.53 15.482 15.427 15.397 15.4 15.41 15.415 15.43 15.48 15.557 15.632 15.662 15.657 15.65 15.645 15.635 15.61 15.58 15.553 15.558 15.59 15.623 15.66 15.705 15.755 15.808 15.855 15.867 15.87 15.89 15.892 15.87 15.84 15.812 15.797 15.79 15.782 15.775 15.77 15.75 15.682 15.588 15.503 15.51 15.6 15.695 15.777 15.83 15.868 15.903 15.935 15.963 15.988 16.015 16.037 16.045 16.045 16.045 16.05 16.058 16.063 16.065 16.063 16.063 16.065 16.065 16.06 16.078 16.135 16.207 16.282 16.355 16.387 16.365 16.322 16.277 16.235 16.195 16.168 16.148 16.12 16.09 16.06 16.045 16.05
14.295 14.32 14.812 14.653 14.475 13.953 13.875 14.362 14.582 14.747 14.835 14.838 14.83 14.813 14.79 14.773 14.755 14.737 14.692 14.61 14.518 14.433 14.408 14.443 14.49 14.54 14.577 14.597 14.612 14.617 14.615 14.612 14.607 14.605 14.61 14.617 14.615 14.608 14.633 14.687 14.75 14.822 14.89 14.95 15.002 15.048 15.118 15.212 15.31 15.392 15.412 15.39 15.37 15.35 15.322 15.287 15.25 15.223 15.205 15.185 15.17 15.158 15.158 15.19 15.237 15.285 15.335 15.388 15.488 15.53 15.433 15.293 15.193 15.205 15.295 15.392 15.49 15.592 15.662 15.68 15.685 15.69 15.667 15.622 15.577 15.543 15.53 15.517 15.49 15.462 15.432 15.4 15.37 15.368 15.413 15.478 15.545 15.617 15.66 15.678 15.702 15.73 15.702 15.615 15.522 15.433 15.415 15.477 15.57 15.612 15.6 15.64 15.72 15.767 15.73 15.652 15.582 15.505 15.458 15.458 15.475 15.49 15.515 15.567 15.63 15.672 15.685 15.68 15.67 15.66 15.652 15.637 15.61 15.58 15.585 15.62 15.65 15.685 15.725 15.77 15.817 15.845 15.862 15.887 15.9 15.882 15.847 15.812 15.79 15.785 15.782 15.777 15.77 15.755 15.702 15.613 15.515 15.428 15.438 15.533 15.63 15.73 15.815 15.875 15.915 15.948 15.983 16.015 16.045 16.072 16.09 16.098 16.1 16.103 16.09 16.07 16.065 16.065 16.068 16.072 16.07 16.055 16.058 16.1 16.17 16.255 16.337 16.397 16.405 16.367 16.322 16.277 16.238 16.22 16.203 16.168 16.135 16.09 16.058 16.06
14.188 14.22 14.792 14.658 14.527 14.078 13.83 14.215 14.555 14.722 14.832 14.852 14.835 14.8 14.773 14.757 14.74 14.72 14.675 14.6 14.513 14.448 14.438 14.46 14.5 14.55 14.585 14.602 14.61 14.605 14.6 14.598 14.595 14.595 14.613 14.642 14.66 14.67 14.708 14.778 14.863 14.955 15.03 15.09 15.122 15.128 15.18 15.275 15.357 15.407 15.402 15.373 15.348 15.327 15.3 15.265 15.238 15.225 15.21 15.183 15.163 15.145 15.11 15.108 15.158 15.213 15.428 15.878 16.205 16.227 15.987 15.488 15.17 15.185 15.263 15.358 15.463 15.582 15.655 15.655 15.648 15.65 15.63 15.588 15.548 15.518 15.518 15.53 15.517 15.49 15.46 15.43 15.4 15.393 15.435 15.503 15.573 15.655 15.697 15.698 15.713 15.737 15.705 15.612 15.507 15.408 15.39 15.453 15.542 15.542 15.423 15.388 15.505 15.68 15.777 15.74 15.655 15.575 15.525 15.51 15.51 15.525 15.56 15.615 15.652 15.657 15.67 15.685 15.68 15.67 15.665 15.657 15.637 15.61 15.613 15.647 15.68 15.713 15.753 15.8 15.83 15.825 15.83 15.85 15.83 15.775 15.728 15.708 15.715 15.74 15.755 15.75 15.735 15.707 15.652 15.567 15.473 15.383 15.39 15.49 15.59 15.69 15.787 15.872 15.93 15.97 16.005 16.038 16.073 16.11 16.142 16.165 16.175 16.175 16.15 16.105 16.08 16.075 16.075 16.077 16.067 16.045 16.045 16.07 16.118 16.193 16.277 16.352 16.395 16.385 16.34 16.293 16.275 16.3 16.307 16.277 16.227 16.148 16.098 16.098
14.203 14.235 14.782 14.67 14.555 14.175 13.768 14.053 14.525 14.697 14.83 14.86 14.825 14.78 14.755 14.74 14.723 14.702 14.655 14.587 14.51 14.465 14.473 14.49 14.515 14.555 14.59 14.602 14.6 14.59 14.585 14.585 14.585 14.585 14.605 14.64 14.678 14.733 14.813 14.905 14.997 15.092 15.17 15.217 15.225 15.21 15.248 15.327 15.382 15.407 15.397 15.363 15.328 15.303 15.278 15.253 15.24 15.235 15.22 15.19 15.162 15.137 15.088 15.04 15.283 15.778 16.205 16.627 16.845 16.802 16.622 15.792 15.135 15.165 15.228 15.333 15.455 15.585 15.655 15.645 15.623 15.613 15.59 15.555 15.525 15.495 15.495 15.52 15.532 15.52 15.49 15.46 15.428 15.415 15.458 15.533 15.613 15.697 15.74 15.735 15.735 15.745 15.7 15.592 15.47 15.37 15.365 15.435 15.52 15.532 15.4 15.235 15.225 15.523 15.795 15.795 15.722 15.643 15.595 15.575 15.56 15.56 15.59 15.627 15.63 15.613 15.63 15.667 15.685 15.685 15.677 15.67 15.66 15.64 15.64 15.675 15.71 15.74 15.78 15.815 15.812 15.793 15.792 15.775 15.715 15.658 15.63 15.643 15.678 15.712 15.727 15.717 15.692 15.655 15.6 15.52 15.43 15.343 15.35 15.45 15.55 15.65 15.75 15.847 15.93 15.987 16.028 16.065 16.105 16.145 16.182 16.215 16.24 16.25 16.222 16.165 16.115 16.09 16.085 16.077 16.057 16.035 16.035 16.055 16.083 16.135 16.212 16.287 16.352 16.38 16.35 16.328 16.353 16.395 16.412 16.377 16.292 16.19 16.14 16.14
14.378 14.398 14.785 14.697 14.58 14.27 13.703 13.89 14.497 14.675 14.825 14.857 14.81 14.768 14.743 14.725 14.71 14.688 14.638 14.575 14.515 14.493 14.51 14.527 14.543 14.568 14.592 14.595 14.585 14.575 14.57 14.57 14.57 14.575 14.6 14.65 14.72 14.813 14.92 15.027 15.13 15.227 15.302 15.327 15.317 15.302 15.317 15.36 15.39 15.402 15.39 15.355 15.318 15.288 15.265 15.253 15.247 15.245 15.212 15.155 15.105 15.05 15.11 15.138 15.725 16.619 16.875 16.862 16.815 16.662 16.197 15.455 15.083 15.133 15.205 15.325 15.455 15.587 15.655 15.64 15.61 15.585 15.56 15.533 15.505 15.475 15.473 15.498 15.525 15.537 15.52 15.49 15.455 15.443 15.49 15.573 15.66 15.74 15.772 15.767 15.762 15.752 15.682 15.555 15.425 15.335 15.345 15.42 15.497 15.55 15.437 15.303 15.373 15.637 15.825 15.817 15.777 15.708 15.66 15.64 15.62 15.605 15.61 15.61 15.59 15.57 15.58 15.623 15.665 15.69 15.69 15.68 15.675 15.665 15.67 15.702 15.737 15.77 15.797 15.8 15.777 15.758 15.745 15.71 15.66 15.633 15.625 15.638 15.658 15.685 15.7 15.677 15.64 15.6 15.547 15.47 15.39 15.325 15.34 15.43 15.523 15.618 15.713 15.813 15.915 16 16.055 16.095 16.135 16.177 16.217 16.25 16.285 16.31 16.287 16.227 16.165 16.118 16.093 16.073 16.048 16.025 16.025 16.045 16.065 16.095 16.15 16.22 16.29 16.347 16.37 16.392 16.432 16.47 16.5 16.455 16.345 16.238 16.188 16.19
14.665 14.663 14.785 14.705 14.587 14.357 13.708 13.803 14.475 14.665 14.83 14.865 14.813 14.77 14.753 14.74 14.725 14.703 14.655 14.593 14.535 14.518 14.535 14.552 14.57 14.58 14.582 14.58 14.567 14.555 14.553 14.555 14.555 14.578 14.633 14.713 14.808 14.905 15.013 15.127 15.242 15.345 15.395 15.385 15.36 15.335 15.322 15.335 15.355 15.377 15.39 15.373 15.34 15.308 15.278 15.258 15.25 15.25 15.182 15.055 15.078 15.393 15.707 15.408 15.905 16.807 16.832 16.802 16.739 16.15 15.276 14.998 15.06 15.115 15.2 15.32 15.45 15.582 15.645 15.625 15.595 15.57 15.553 15.533 15.505 15.475 15.473 15.5 15.53 15.562 15.565 15.535 15.503 15.498 15.553 15.64 15.725 15.772 15.775 15.767 15.76 15.737 15.652 15.52 15.4 15.35 15.378 15.425 15.473 15.515 15.49 15.518 15.677 15.81 15.847 15.835 15.815 15.767 15.725 15.705 15.688 15.67 15.658 15.645 15.625 15.603 15.608 15.648 15.687 15.68 15.65 15.64 15.632 15.645 15.675 15.707 15.742 15.767 15.767 15.747 15.725 15.733 15.74 15.718 15.695 15.68 15.67 15.665 15.668 15.683 15.68 15.643 15.598 15.555 15.51 15.45 15.393 15.35 15.37 15.45 15.535 15.623 15.715 15.823 15.933 16.032 16.1 16.14 16.177 16.21 16.235 16.26 16.29 16.317 16.302 16.242 16.182 16.138 16.108 16.083 16.058 16.038 16.03 16.038 16.055 16.075 16.105 16.158 16.225 16.295 16.367 16.43 16.47 16.505 16.54 16.52 16.43 16.323 16.273 16.278
14.84 14.82 14.782 14.692 14.57 14.407 13.76 13.788 14.457 14.68 14.86 14.885 14.83 14.783 14.77 14.772 14.762 14.742 14.7 14.637 14.575 14.543 14.55 14.567 14.575 14.56 14.545 14.547 14.547 14.54 14.54 14.57 14.623 14.683 14.738 14.808 14.903 15 15.108 15.22 15.325 15.4 15.405 15.357 15.312 15.277 15.255 15.26 15.29 15.335 15.382 15.405 15.39 15.355 15.313 15.275 15.255 15.25 15.167 14.993 15.4 16.157 16.367 15.952 15.78 16.36 16.752 16.625 16.115 15.33 14.948 15.005 15.065 15.125 15.205 15.315 15.44 15.57 15.627 15.605 15.58 15.565 15.557 15.547 15.525 15.495 15.495 15.528 15.565 15.61 15.622 15.595 15.575 15.58 15.635 15.725 15.78 15.772 15.75 15.74 15.727 15.702 15.617 15.485 15.415 15.445 15.488 15.505 15.525 15.55 15.595 15.662 15.745 15.835 15.88 15.87 15.847 15.812 15.79 15.78 15.765 15.75 15.74 15.74 15.732 15.713 15.718 15.745 15.725 15.63 15.558 15.545 15.55 15.6 15.655 15.69 15.715 15.715 15.697 15.675 15.683 15.745 15.782 15.765 15.743 15.728 15.72 15.71 15.708 15.712 15.69 15.643 15.595 15.55 15.51 15.47 15.43 15.39 15.41 15.49 15.573 15.658 15.755 15.872 15.987 16.09 16.16 16.195 16.215 16.222 16.23 16.245 16.265 16.29 16.275 16.22 16.178 16.15 16.13 16.108 16.085 16.07 16.055 16.043 16.05 16.07 16.088 16.113 16.165 16.235 16.322 16.417 16.477 16.515 16.55 16.57 16.53 16.438 16.39 16.395
14.847 14.822 14.775 14.673 14.54 14.407 13.78 13.778 14.46 14.73 14.902 14.902 14.848 14.798 14.78 14.787 14.787 14.777 14.74 14.68 14.62 14.573 14.565 14.57 14.55 14.513 14.493 14.5 14.515 14.55 14.61 14.7 14.81 14.9 14.935 14.955 15.01 15.095 15.2 15.295 15.357 15.385 15.365 15.305 15.243 15.195 15.175 15.193 15.24 15.297 15.352 15.402 15.422 15.402 15.36 15.313 15.273 15.25 15.17 14.995 15.707 16.544 16.285 15.79 15.343 15.528 15.95 15.835 15.305 14.935 15.002 15.04 15.08 15.135 15.215 15.32 15.435 15.557 15.61 15.59 15.575 15.565 15.56 15.555 15.54 15.518 15.52 15.558 15.608 15.66 15.677 15.663 15.66 15.673 15.722 15.782 15.782 15.747 15.723 15.707 15.69 15.665 15.583 15.485 15.493 15.572 15.622 15.64 15.663 15.692 15.715 15.738 15.783 15.855 15.91 15.907 15.875 15.833 15.822 15.84 15.84 15.827 15.822 15.827 15.83 15.822 15.815 15.782 15.68 15.545 15.465 15.455 15.495 15.575 15.635 15.657 15.657 15.64 15.623 15.633 15.695 15.782 15.822 15.81 15.788 15.773 15.767 15.76 15.755 15.753 15.723 15.67 15.618 15.57 15.533 15.5 15.467 15.43 15.45 15.53 15.61 15.695 15.795 15.915 16.037 16.147 16.21 16.222 16.222 16.218 16.223 16.235 16.248 16.265 16.255 16.22 16.195 16.175 16.155 16.135 16.118 16.105 16.09 16.07 16.06 16.068 16.08 16.093 16.12 16.178 16.268 16.375 16.467 16.525 16.56 16.595 16.605 16.552 16.513 16.523
14.832 14.815 14.773 14.68 14.565 14.457 14.115 14.11 14.535 14.815 14.95 14.917 14.862 14.81 14.79 14.795 14.797 14.795 14.77 14.72 14.66 14.605 14.573 14.545 14.503 14.458 14.448 14.49 14.553 14.643 14.765 14.892 15.017 15.112 15.147 15.152 15.167 15.207 15.265 15.307 15.322 15.34 15.33 15.273 15.205 15.14 15.105 15.128 15.187 15.25 15.307 15.365 15.415 15.432 15.405 15.355 15.307 15.267 15.197 15.068 15.378 15.805 15.585 15.148 15.01 15.098 15.15 15.163 15.1 15.035 15.057 15.087 15.115 15.15 15.223 15.33 15.44 15.55 15.597 15.585 15.575 15.565 15.56 15.555 15.545 15.538 15.555 15.6 15.653 15.705 15.735 15.745 15.752 15.757 15.772 15.767 15.73 15.705 15.693 15.675 15.655 15.63 15.568 15.545 15.61 15.695 15.752 15.777 15.795 15.805 15.817 15.837 15.865 15.91 15.947 15.932 15.885 15.835 15.825 15.86 15.885 15.895 15.895 15.885 15.875 15.862 15.82 15.722 15.595 15.465 15.38 15.39 15.465 15.555 15.605 15.61 15.608 15.603 15.6 15.645 15.737 15.822 15.857 15.847 15.833 15.82 15.815 15.813 15.808 15.818 15.8 15.74 15.678 15.618 15.573 15.535 15.5 15.468 15.49 15.575 15.668 15.765 15.85 15.948 16.07 16.185 16.24 16.235 16.228 16.215 16.213 16.225 16.235 16.247 16.247 16.232 16.217 16.2 16.183 16.168 16.155 16.142 16.125 16.108 16.09 16.078 16.078 16.088 16.103 16.138 16.218 16.325 16.432 16.512 16.56 16.6 16.64 16.645 16.637 16.657
14.76 14.785 14.815 14.775 14.685 14.595 14.53 14.53 14.683 14.907 14.97 14.915 14.865 14.817 14.792 14.787 14.782 14.772 14.762 14.737 14.687 14.632 14.578 14.525 14.475 14.45 14.488 14.58 14.688 14.798 14.923 15.055 15.152 15.172 15.155 15.155 15.167 15.18 15.187 15.19 15.215 15.29 15.317 15.265 15.2 15.133 15.078 15.065 15.095 15.145 15.207 15.27 15.33 15.382 15.4 15.37 15.322 15.275 15.242 15.197 15.108 15.075 15.073 15.055 15.07 15.085 15.098 15.122 15.122 15.087 15.082 15.105 15.13 15.155 15.22 15.33 15.442 15.552 15.61 15.61 15.598 15.585 15.583 15.58 15.573 15.573 15.6 15.65 15.702 15.745 15.745 15.717 15.702 15.692 15.667 15.628 15.615 15.653 15.67 15.65 15.628 15.6 15.583 15.615 15.685 15.757 15.807 15.822 15.82 15.81 15.807 15.825 15.86 15.897 15.927 15.925 15.885 15.835 15.825 15.857 15.887 15.87 15.837 15.825 15.802 15.777 15.71 15.595 15.475 15.375 15.34 15.39 15.48 15.56 15.598 15.605 15.618 15.63 15.64 15.69 15.782 15.855 15.877 15.872 15.875 15.875 15.87 15.87 15.878 15.917 15.932 15.88 15.81 15.745 15.693 15.645 15.603 15.593 15.62 15.693 15.8 15.907 15.96 15.998 16.095 16.21 16.262 16.255 16.242 16.215 16.198 16.205 16.215 16.232 16.24 16.23 16.22 16.22 16.218 16.205 16.193 16.18 16.168 16.155 16.14 16.123 16.108 16.103 16.113 16.135 16.203 16.31 16.407 16.465 16.502 16.547 16.6 16.662 16.707 16.732
14.69 14.778 14.867 14.895 14.845 14.755 14.7 14.703 14.847 14.99 14.965 14.9 14.848 14.805 14.773 14.755 14.742 14.728 14.722 14.72 14.695 14.645 14.588 14.533 14.503 14.53 14.618 14.732 14.845 14.955 15.08 15.17 15.155 15.07 15.008 14.988 14.983 14.99 14.995 15.03 15.128 15.262 15.317 15.272 15.212 15.148 15.085 15.043 15.028 15.035 15.07 15.128 15.19 15.255 15.317 15.337 15.305 15.255 15.253 15.285 15.252 15.202 15.14 15.063 15.048 15.062 15.07 15.083 15.092 15.078 15.075 15.095 15.12 15.145 15.213 15.325 15.44 15.555 15.625 15.645 15.642 15.63 15.628 15.627 15.625 15.625 15.653 15.705 15.74 15.747 15.7 15.603 15.523 15.488 15.468 15.47 15.53 15.625 15.66 15.633 15.608 15.588 15.588 15.607 15.65 15.707 15.745 15.755 15.75 15.74 15.728 15.723 15.743 15.78 15.827 15.875 15.877 15.833 15.823 15.852 15.827 15.712 15.645 15.655 15.65 15.632 15.565 15.455 15.375 15.348 15.375 15.45 15.53 15.59 15.625 15.642 15.66 15.675 15.685 15.735 15.815 15.865 15.88 15.885 15.91 15.932 15.933 15.938 15.973 16.037 16.08 16.047 15.98 15.925 15.875 15.828 15.81 15.855 15.89 15.908 15.985 16.092 16.132 16.11 16.14 16.237 16.29 16.277 16.252 16.21 16.18 16.18 16.195 16.22 16.232 16.225 16.228 16.253 16.262 16.248 16.238 16.245 16.243 16.223 16.205 16.19 16.17 16.148 16.143 16.155 16.218 16.317 16.377 16.385 16.4 16.453 16.533 16.635 16.71 16.74
14.69 14.802 14.89 14.95 14.97 14.915 14.868 14.875 14.972 15.027 14.96 14.89 14.825 14.775 14.74 14.715 14.698 14.685 14.68 14.682 14.68 14.652 14.603 14.57 14.595 14.665 14.765 14.882 14.997 15.112 15.182 15.168 15.098 15.005 14.935 14.893 14.853 14.83 14.863 14.97 15.115 15.26 15.315 15.275 15.222 15.162 15.1 15.048 15.015 14.998 14.993 15.008 15.05 15.118 15.192 15.252 15.267 15.235 15.24 15.31 15.352 15.33 15.242 15.125 15.05 15.038 15.048 15.055 15.063 15.063 15.068 15.085 15.11 15.138 15.208 15.323 15.44 15.555 15.627 15.66 15.677 15.675 15.672 15.675 15.675 15.678 15.705 15.735 15.73 15.707 15.65 15.533 15.405 15.343 15.35 15.415 15.515 15.612 15.645 15.623 15.608 15.6 15.59 15.578 15.585 15.613 15.64 15.66 15.672 15.67 15.655 15.64 15.64 15.663 15.713 15.782 15.835 15.825 15.82 15.8 15.675 15.508 15.435 15.455 15.47 15.475 15.445 15.395 15.385 15.405 15.445 15.51 15.57 15.62 15.655 15.675 15.695 15.712 15.725 15.77 15.832 15.867 15.883 15.903 15.945 15.985 16 16.025 16.085 16.16 16.225 16.215 16.155 16.105 16.055 16.035 16.083 16.172 16.21 16.19 16.203 16.278 16.325 16.285 16.24 16.275 16.315 16.292 16.25 16.198 16.16 16.158 16.18 16.21 16.225 16.233 16.26 16.297 16.308 16.303 16.315 16.342 16.34 16.305 16.278 16.26 16.24 16.21 16.188 16.183 16.235 16.297 16.3 16.283 16.308 16.39 16.498 16.61 16.697 16.747
14.722 14.825 14.902 14.967 15.03 15.047 15.037 15.045 15.052 15.02 14.95 14.88 14.81 14.758 14.718 14.683 14.66 14.645 14.64 14.64 14.643 14.64 14.635 14.665 14.732 14.81 14.91 15.012 15.1 15.195 15.252 15.24 15.183 15.105 15.035 14.963 14.875 14.793 14.815 14.95 15.102 15.255 15.315 15.275 15.225 15.172 15.115 15.058 15.015 14.993 14.978 14.963 14.968 15.013 15.075 15.135 15.187 15.203 15.23 15.305 15.382 15.407 15.332 15.212 15.103 15.038 15.035 15.055 15.08 15.135 15.123 15.08 15.123 15.153 15.205 15.32 15.438 15.552 15.63 15.665 15.695 15.707 15.707 15.71 15.712 15.72 15.727 15.715 15.688 15.66 15.6 15.485 15.368 15.325 15.365 15.443 15.528 15.607 15.637 15.627 15.622 15.62 15.61 15.592 15.575 15.565 15.573 15.585 15.598 15.605 15.595 15.578 15.565 15.563 15.6 15.673 15.748 15.792 15.772 15.665 15.505 15.345 15.268 15.288 15.32 15.353 15.388 15.415 15.437 15.46 15.497 15.55 15.6 15.65 15.685 15.702 15.72 15.74 15.757 15.792 15.84 15.87 15.895 15.935 15.985 16.033 16.072 16.122 16.19 16.262 16.332 16.352 16.325 16.285 16.26 16.302 16.4 16.497 16.532 16.515 16.495 16.505 16.522 16.485 16.41 16.365 16.34 16.293 16.24 16.185 16.143 16.143 16.173 16.205 16.23 16.26 16.303 16.345 16.365 16.38 16.41 16.437 16.432 16.397 16.362 16.335 16.31 16.28 16.25 16.23 16.245 16.258 16.245 16.228 16.253 16.348 16.462 16.575 16.672 16.745
14.757 14.832 14.887 14.95 15.02 15.117 15.182 15.19 15.152 15.05 14.935 14.845 14.778 14.783 14.785 14.725 14.673 14.623 14.605 14.613 14.618 14.625 14.663 14.737 14.82 14.887 14.955 15.025 15.085 15.157 15.265 15.357 15.352 15.275 15.185 15.085 14.97 14.85 14.805 14.9 15.06 15.23 15.307 15.272 15.227 15.18 15.128 15.07 15.018 14.988 14.975 14.965 14.958 14.968 15.005 15.055 15.11 15.163 15.223 15.3 15.375 15.417 15.365 15.25 15.14 15.073 15.075 15.105 15.173 15.297 15.35 15.353 15.35 15.248 15.218 15.323 15.438 15.552 15.63 15.667 15.695 15.702 15.7 15.7 15.705 15.732 15.74 15.71 15.68 15.65 15.59 15.48 15.398 15.395 15.445 15.515 15.58 15.607 15.602 15.597 15.595 15.602 15.607 15.595 15.575 15.555 15.55 15.558 15.568 15.583 15.578 15.555 15.54 15.525 15.548 15.615 15.688 15.76 15.765 15.663 15.515 15.365 15.245 15.215 15.25 15.295 15.365 15.432 15.467 15.49 15.525 15.577 15.627 15.667 15.682 15.687 15.702 15.72 15.742 15.778 15.825 15.883 15.935 15.983 16.035 16.085 16.135 16.19 16.252 16.32 16.382 16.412 16.415 16.425 16.445 16.5 16.592 16.677 16.715 16.71 16.7 16.69 16.68 16.64 16.565 16.482 16.4 16.33 16.273 16.218 16.175 16.175 16.208 16.243 16.28 16.32 16.363 16.4 16.427 16.455 16.48 16.485 16.465 16.435 16.407 16.395 16.392 16.375 16.348 16.323 16.308 16.305 16.295 16.268 16.258 16.31 16.413 16.527 16.63 16.71
14.77 14.82 14.852 14.9 15.01 15.19 15.297 15.31 15.295 15.185 15.018 14.875 14.755 14.838 14.94 14.857 14.768 14.675 14.615 14.608 14.62 14.63 14.673 14.755 14.832 14.877 14.905 14.943 14.995 15.075 15.193 15.325 15.402 15.36 15.247 15.137 15.027 14.91 14.813 14.848 15.013 15.197 15.29 15.267 15.225 15.183 15.145 15.093 15.028 14.993 14.98 14.97 14.963 14.958 14.975 15.02 15.073 15.14 15.22 15.297 15.362 15.4 15.352 15.24 15.16 15.14 15.158 15.208 15.317 15.44 15.552 15.657 15.592 15.345 15.248 15.338 15.443 15.557 15.635 15.667 15.675 15.663 15.655 15.655 15.675 15.737 15.765 15.737 15.71 15.68 15.617 15.525 15.48 15.488 15.528 15.592 15.617 15.572 15.53 15.528 15.535 15.553 15.572 15.58 15.57 15.55 15.545 15.555 15.573 15.595 15.592 15.568 15.55 15.535 15.553 15.61 15.675 15.745 15.797 15.782 15.677 15.53 15.368 15.24 15.215 15.255 15.33 15.422 15.485 15.515 15.55 15.6 15.64 15.665 15.665 15.653 15.653 15.663 15.69 15.758 15.865 15.983 16.038 16.053 16.095 16.145 16.19 16.235 16.288 16.35 16.407 16.43 16.46 16.542 16.587 16.593 16.638 16.705 16.747 16.757 16.76 16.757 16.75 16.725 16.67 16.59 16.5 16.418 16.35 16.293 16.258 16.263 16.288 16.32 16.36 16.4 16.435 16.458 16.48 16.505 16.507 16.48 16.445 16.42 16.418 16.44 16.467 16.477 16.467 16.447 16.435 16.425 16.395 16.355 16.32 16.315 16.37 16.473 16.575 16.657
14.762 14.74 14.64 14.775 15.082 15.305 15.415 15.43 15.44 15.37 15.21 15.06 14.965 15.035 15.092 14.995 14.887 14.783 14.693 14.635 14.628 14.64 14.688 14.762 14.81 14.835 14.855 14.88 14.915 14.995 15.12 15.25 15.365 15.367 15.267 15.162 15.055 14.945 14.833 14.83 14.993 15.177 15.265 15.257 15.22 15.188 15.172 15.127 15.068 15.038 15.018 15 14.983 14.968 14.963 14.99 15.053 15.135 15.22 15.29 15.345 15.382 15.34 15.255 15.225 15.228 15.253 15.32 15.415 15.497 15.585 15.657 15.607 15.395 15.288 15.368 15.458 15.562 15.64 15.655 15.64 15.618 15.605 15.618 15.668 15.75 15.785 15.762 15.735 15.705 15.65 15.595 15.58 15.58 15.607 15.63 15.587 15.51 15.468 15.473 15.49 15.51 15.53 15.55 15.557 15.545 15.543 15.558 15.58 15.607 15.61 15.585 15.563 15.545 15.56 15.613 15.67 15.733 15.782 15.812 15.797 15.695 15.53 15.355 15.23 15.215 15.29 15.39 15.482 15.54 15.577 15.615 15.637 15.655 15.667 15.653 15.628 15.628 15.693 15.83 16 16.155 16.2 16.175 16.175 16.205 16.25 16.29 16.33 16.383 16.43 16.48 16.575 16.69 16.735 16.715 16.715 16.743 16.775 16.792 16.795 16.792 16.785 16.775 16.752 16.695 16.61 16.52 16.438 16.37 16.345 16.36 16.378 16.403 16.44 16.477 16.502 16.515 16.527 16.527 16.5 16.458 16.428 16.428 16.455 16.49 16.52 16.545 16.557 16.56 16.55 16.52 16.48 16.44 16.405 16.375 16.37 16.428 16.518 16.6
14.785 14.488 14.318 14.748 15.165 15.41 15.535 15.553 15.567 15.537 15.445 15.355 15.312 15.292 15.225 15.112 14.997 14.882 14.79 14.715 14.66 14.65 14.693 14.745 14.77 14.79 14.81 14.838 14.873 14.938 15.05 15.18 15.31 15.35 15.272 15.167 15.06 14.953 14.85 14.818 14.955 15.15 15.235 15.24 15.218 15.207 15.197 15.137 15.1 15.107 15.1 15.078 15.053 15.03 15.008 15.008 15.063 15.148 15.22 15.275 15.325 15.367 15.35 15.315 15.315 15.313 15.332 15.382 15.438 15.495 15.552 15.562 15.527 15.407 15.33 15.4 15.487 15.575 15.627 15.622 15.6 15.575 15.565 15.603 15.677 15.762 15.802 15.785 15.757 15.727 15.69 15.665 15.655 15.645 15.647 15.617 15.545 15.473 15.44 15.453 15.468 15.483 15.498 15.515 15.53 15.535 15.545 15.568 15.593 15.62 15.625 15.602 15.578 15.555 15.568 15.618 15.675 15.733 15.775 15.805 15.835 15.807 15.675 15.5 15.325 15.225 15.265 15.365 15.47 15.547 15.582 15.605 15.622 15.64 15.66 15.683 15.698 15.72 15.825 15.993 16.163 16.325 16.38 16.343 16.308 16.295 16.32 16.36 16.395 16.43 16.485 16.587 16.722 16.842 16.882 16.857 16.835 16.82 16.82 16.825 16.825 16.822 16.817 16.81 16.8 16.775 16.715 16.627 16.532 16.458 16.44 16.46 16.475 16.493 16.52 16.545 16.56 16.57 16.567 16.54 16.498 16.453 16.438 16.465 16.505 16.537 16.562 16.585 16.602 16.617 16.612 16.585 16.555 16.52 16.485 16.455 16.425 16.423 16.47 16.545
14.837 14.31 14.23 14.882 15.21 15.485 15.65 15.697 15.717 15.712 15.66 15.585 15.515 15.44 15.345 15.23 15.092 14.93 14.822 14.767 14.702 14.668 14.693 14.733 14.76 14.788 14.808 14.828 14.865 14.92 14.998 15.11 15.24 15.317 15.277 15.172 15.065 14.958 14.868 14.82 14.898 15.08 15.192 15.215 15.22 15.227 15.197 15.123 15.098 15.13 15.155 15.165 15.157 15.132 15.108 15.088 15.113 15.185 15.248 15.29 15.333 15.378 15.398 15.4 15.405 15.385 15.38 15.42 15.47 15.505 15.502 15.47 15.43 15.368 15.343 15.4 15.477 15.55 15.582 15.57 15.55 15.53 15.535 15.59 15.677 15.77 15.812 15.787 15.745 15.7 15.67 15.66 15.647 15.635 15.627 15.6 15.54 15.47 15.45 15.475 15.49 15.498 15.5 15.508 15.523 15.538 15.558 15.583 15.608 15.632 15.637 15.62 15.595 15.57 15.58 15.633 15.695 15.753 15.795 15.823 15.845 15.822 15.7 15.525 15.363 15.28 15.328 15.43 15.533 15.582 15.558 15.545 15.565 15.585 15.615 15.743 15.882 15.943 16.048 16.203 16.36 16.505 16.55 16.51 16.467 16.428 16.428 16.465 16.5 16.5 16.538 16.655 16.79 16.912 16.96 16.94 16.91 16.885 16.865 16.853 16.85 16.845 16.84 16.835 16.825 16.81 16.777 16.705 16.605 16.53 16.522 16.55 16.567 16.585 16.597 16.6 16.605 16.615 16.61 16.58 16.538 16.493 16.488 16.525 16.557 16.575 16.587 16.605 16.62 16.63 16.63 16.615 16.597 16.577 16.552 16.522 16.487 16.455 16.458 16.508
14.89 14.415 14.315 14.927 15.27 15.552 15.74 15.83 15.885 15.897 15.832 15.728 15.64 15.56 15.465 15.327 15.14 14.93 14.8 14.75 14.702 14.673 14.698 14.76 14.807 14.842 14.855 14.845 14.865 14.918 14.973 15.053 15.17 15.282 15.28 15.175 15.068 14.965 14.893 14.86 14.865 14.985 15.12 15.17 15.212 15.227 15.182 15.108 15.08 15.11 15.15 15.192 15.22 15.225 15.212 15.188 15.188 15.24 15.302 15.34 15.378 15.425 15.467 15.487 15.48 15.435 15.42 15.462 15.495 15.497 15.465 15.418 15.375 15.335 15.325 15.358 15.413 15.477 15.512 15.505 15.49 15.5 15.535 15.58 15.64 15.725 15.767 15.735 15.68 15.623 15.595 15.592 15.585 15.575 15.575 15.575 15.54 15.478 15.468 15.51 15.535 15.54 15.535 15.53 15.538 15.553 15.573 15.597 15.622 15.645 15.652 15.638 15.618 15.605 15.618 15.665 15.725 15.785 15.83 15.855 15.84 15.76 15.617 15.448 15.35 15.373 15.463 15.567 15.64 15.63 15.548 15.48 15.475 15.495 15.573 15.808 16.07 16.187 16.285 16.437 16.58 16.685 16.702 16.66 16.617 16.575 16.565 16.595 16.607 16.558 16.56 16.66 16.785 16.905 16.962 16.962 16.94 16.915 16.895 16.878 16.868 16.863 16.858 16.852 16.837 16.807 16.782 16.74 16.655 16.578 16.575 16.62 16.65 16.67 16.672 16.655 16.65 16.657 16.655 16.635 16.6 16.558 16.553 16.587 16.602 16.598 16.603 16.618 16.63 16.64 16.64 16.625 16.61 16.597 16.582 16.562 16.53 16.495 16.485 16.505
14.945 14.643 14.408 14.845 15.33 15.63 15.81 15.915 16.007 16.062 16.017 15.903 15.793 15.693 15.565 15.377 15.157 14.935 14.785 14.723 14.683 14.665 14.685 14.765 14.862 14.91 14.907 14.88 14.878 14.915 14.97 15.025 15.108 15.23 15.265 15.18 15.073 14.98 14.925 14.9 14.875 14.925 15.022 15.093 15.172 15.21 15.167 15.093 15.063 15.09 15.13 15.175 15.22 15.257 15.277 15.28 15.275 15.303 15.355 15.395 15.437 15.485 15.535 15.562 15.535 15.473 15.455 15.477 15.477 15.46 15.425 15.38 15.345 15.315 15.308 15.323 15.353 15.405 15.442 15.445 15.458 15.513 15.567 15.595 15.617 15.65 15.657 15.632 15.592 15.543 15.52 15.522 15.522 15.513 15.513 15.525 15.52 15.483 15.483 15.535 15.572 15.582 15.575 15.563 15.558 15.57 15.59 15.613 15.638 15.66 15.672 15.668 15.658 15.655 15.67 15.71 15.76 15.815 15.86 15.855 15.782 15.675 15.533 15.423 15.435 15.508 15.597 15.682 15.7 15.652 15.565 15.463 15.405 15.408 15.558 15.86 16.182 16.397 16.527 16.665 16.772 16.842 16.847 16.805 16.765 16.725 16.705 16.705 16.67 16.59 16.59 16.68 16.785 16.895 16.955 16.97 16.965 16.945 16.925 16.905 16.89 16.883 16.875 16.862 16.835 16.793 16.765 16.747 16.695 16.623 16.615 16.67 16.717 16.747 16.747 16.72 16.703 16.7 16.695 16.68 16.655 16.62 16.615 16.632 16.627 16.615 16.618 16.63 16.64 16.65 16.65 16.635 16.62 16.6 16.583 16.577 16.562 16.535 16.525 16.535
15.007 14.842 14.453 14.705 15.327 15.682 15.885 15.99 16.092 16.177 16.177 16.09 15.978 15.862 15.672 15.413 15.173 14.95 14.78 14.698 14.67 14.668 14.673 14.725 14.857 14.952 14.952 14.925 14.903 14.918 14.975 15.027 15.07 15.16 15.232 15.185 15.078 15 14.963 14.94 14.915 14.9 14.935 15.015 15.122 15.185 15.15 15.078 15.045 15.07 15.11 15.155 15.2 15.24 15.28 15.317 15.34 15.365 15.405 15.445 15.482 15.517 15.555 15.57 15.535 15.485 15.467 15.462 15.445 15.425 15.393 15.355 15.325 15.298 15.293 15.308 15.325 15.353 15.385 15.417 15.472 15.545 15.582 15.585 15.582 15.57 15.545 15.52 15.49 15.455 15.443 15.448 15.453 15.448 15.45 15.465 15.475 15.475 15.5 15.555 15.602 15.622 15.615 15.6 15.587 15.593 15.61 15.633 15.66 15.688 15.707 15.712 15.707 15.7 15.71 15.752 15.802 15.85 15.862 15.797 15.695 15.59 15.5 15.5 15.572 15.645 15.722 15.76 15.735 15.677 15.587 15.48 15.383 15.378 15.58 15.91 16.245 16.545 16.745 16.86 16.932 16.985 16.99 16.95 16.91 16.87 16.835 16.783 16.703 16.618 16.62 16.713 16.808 16.898 16.948 16.965 16.975 16.97 16.955 16.935 16.92 16.908 16.888 16.858 16.82 16.778 16.75 16.74 16.717 16.665 16.655 16.71 16.767 16.812 16.817 16.79 16.763 16.745 16.735 16.72 16.7 16.675 16.665 16.66 16.643 16.63 16.63 16.64 16.65 16.66 16.66 16.645 16.627 16.6 16.58 16.577 16.572 16.565 16.57 16.585
15.057 14.795 14.363 14.725 15.395 15.752 15.97 16.075 16.172 16.25 16.287 16.26 16.17 16.057 15.83 15.51 15.228 14.975 14.775 14.678 14.665 14.667 14.665 14.695 14.835 14.972 14.99 14.967 14.94 14.935 14.975 15.037 15.075 15.118 15.2 15.19 15.09 15.028 15 14.972 14.93 14.87 14.875 14.968 15.09 15.165 15.135 15.063 15.028 15.05 15.09 15.133 15.177 15.22 15.26 15.305 15.34 15.357 15.392 15.435 15.465 15.49 15.515 15.51 15.475 15.455 15.455 15.452 15.435 15.415 15.385 15.35 15.32 15.295 15.285 15.295 15.312 15.328 15.338 15.365 15.425 15.49 15.522 15.515 15.495 15.472 15.445 15.418 15.398 15.393 15.398 15.4 15.403 15.413 15.43 15.448 15.465 15.49 15.533 15.585 15.622 15.632 15.625 15.612 15.602 15.61 15.638 15.67 15.7 15.73 15.752 15.757 15.752 15.695 15.632 15.65 15.702 15.757 15.792 15.747 15.645 15.54 15.518 15.595 15.685 15.772 15.82 15.805 15.762 15.702 15.613 15.52 15.483 15.583 15.838 16.155 16.48 16.75 16.895 16.965 17.02 17.07 17.092 17.072 17.035 16.995 16.962 16.908 16.81 16.705 16.693 16.783 16.885 16.965 16.998 17.008 17.018 17.02 17.018 17.008 16.995 16.983 16.95 16.9 16.85 16.795 16.755 16.738 16.723 16.693 16.698 16.755 16.815 16.867 16.877 16.85 16.823 16.795 16.77 16.75 16.727 16.705 16.69 16.675 16.658 16.65 16.648 16.65 16.66 16.67 16.67 16.655 16.63 16.598 16.58 16.575 16.573 16.583 16.62 16.657
15.052 14.616 14.528 15.102 15.52 15.847 16.06 16.162 16.245 16.31 16.36 16.382 16.345 16.25 16.007 15.665 15.355 15.058 14.793 14.663 14.655 14.65 14.64 14.673 14.83 14.985 15.015 15.005 14.985 14.963 14.978 15.037 15.095 15.12 15.17 15.177 15.11 15.065 15.025 14.967 14.9 14.825 14.825 14.93 15.065 15.152 15.127 15.048 15.01 15.03 15.07 15.11 15.155 15.2 15.24 15.26 15.247 15.245 15.295 15.362 15.405 15.432 15.45 15.435 15.413 15.413 15.427 15.442 15.44 15.422 15.392 15.36 15.335 15.315 15.295 15.29 15.3 15.315 15.307 15.28 15.298 15.355 15.4 15.412 15.4 15.375 15.348 15.333 15.34 15.368 15.387 15.39 15.398 15.43 15.465 15.485 15.508 15.535 15.575 15.617 15.627 15.613 15.6 15.595 15.6 15.62 15.662 15.712 15.75 15.78 15.8 15.802 15.75 15.602 15.47 15.438 15.463 15.52 15.61 15.667 15.63 15.538 15.528 15.622 15.725 15.815 15.842 15.817 15.785 15.728 15.688 15.703 15.79 15.998 16.29 16.587 16.82 16.945 16.987 17.01 17.053 17.1 17.137 17.155 17.14 17.105 17.088 17.08 17.012 16.898 16.845 16.905 17.015 17.085 17.102 17.108 17.11 17.108 17.11 17.12 17.12 17.107 17.07 17.007 16.932 16.848 16.793 16.768 16.745 16.718 16.738 16.807 16.87 16.925 16.935 16.905 16.885 16.86 16.815 16.773 16.743 16.72 16.702 16.685 16.678 16.682 16.678 16.668 16.67 16.68 16.68 16.66 16.628 16.595 16.58 16.578 16.583 16.603 16.657 16.727
15.297 15.123 15.235 15.462 15.57 15.907 16.14 16.242 16.31 16.37 16.42 16.46 16.477 16.43 16.182 15.822 15.492 15.137 14.835 14.695 14.653 14.623 14.61 14.648 14.817 14.992 15.035 15.03 15.02 14.998 14.993 15.035 15.102 15.142 15.163 15.162 15.125 15.072 15.005 14.927 14.852 14.775 14.78 14.898 15.04 15.14 15.115 15.028 14.993 15.01 15.05 15.09 15.135 15.165 15.17 15.145 15.095 15.1 15.175 15.262 15.332 15.375 15.382 15.37 15.37 15.38 15.393 15.412 15.43 15.425 15.4 15.375 15.36 15.347 15.325 15.3 15.293 15.305 15.29 15.233 15.195 15.22 15.265 15.29 15.295 15.278 15.268 15.283 15.315 15.355 15.38 15.393 15.423 15.475 15.515 15.535 15.555 15.58 15.612 15.63 15.615 15.59 15.58 15.588 15.603 15.628 15.675 15.735 15.79 15.83 15.85 15.805 15.657 15.465 15.328 15.27 15.255 15.28 15.36 15.47 15.54 15.523 15.53 15.62 15.72 15.78 15.782 15.765 15.773 15.838 15.943 16.063 16.215 16.445 16.7 16.892 16.99 17.035 17.065 17.07 17.093 17.13 17.162 17.197 17.217 17.212 17.21 17.225 17.21 17.132 17.058 17.065 17.145 17.2 17.207 17.207 17.205 17.203 17.203 17.22 17.24 17.232 17.182 17.1 17.002 16.903 16.845 16.82 16.787 16.745 16.763 16.845 16.92 16.98 16.992 16.97 16.958 16.937 16.885 16.82 16.768 16.735 16.715 16.703 16.708 16.717 16.712 16.695 16.685 16.69 16.687 16.66 16.625 16.595 16.58 16.588 16.605 16.628 16.683 16.77
15.48 15.537 15.55 15.52 15.593 15.903 16.195 16.31 16.37 16.427 16.475 16.515 16.56 16.307 15.92 15.737 15.497 15.128 14.868 14.775 14.705 14.648 14.605 14.625 14.785 14.965 15.032 15.042 15.042 15.032 15.018 15.038 15.102 15.162 15.172 15.137 15.085 15.025 14.955 14.877 14.8 14.74 14.765 14.878 15.015 15.13 15.107 15.013 14.978 14.99 15.03 15.067 15.085 15.067 15.03 14.985 14.94 14.963 15.05 15.14 15.227 15.3 15.328 15.33 15.338 15.345 15.358 15.378 15.402 15.417 15.412 15.402 15.395 15.385 15.362 15.327 15.303 15.297 15.267 15.205 15.143 15.113 15.13 15.163 15.193 15.21 15.233 15.268 15.305 15.345 15.378 15.413 15.465 15.525 15.565 15.582 15.6 15.62 15.64 15.64 15.618 15.595 15.59 15.603 15.618 15.638 15.683 15.745 15.81 15.867 15.855 15.722 15.528 15.335 15.2 15.155 15.148 15.16 15.223 15.32 15.42 15.493 15.528 15.553 15.6 15.64 15.635 15.663 15.815 16.073 16.297 16.455 16.62 16.797 16.937 17.015 17.062 17.11 17.14 17.137 17.135 17.155 17.185 17.217 17.25 17.277 17.3 17.325 17.35 17.337 17.292 17.263 17.28 17.305 17.305 17.302 17.3 17.297 17.295 17.302 17.322 17.317 17.26 17.165 17.057 16.955 16.895 16.865 16.818 16.765 16.78 16.865 16.952 17.027 17.052 17.042 17.035 17.015 16.965 16.895 16.825 16.765 16.733 16.733 16.745 16.752 16.747 16.73 16.712 16.705 16.69 16.657 16.623 16.595 16.59 16.608 16.63 16.653 16.708 16.795
15.255 15.225 15.245 15.34 15.54 15.923 16.242 16.342 16.408 16.485 16.558 16.612 16.562 15.842 15.261 15.5 15.487 15.095 14.87 14.812 14.747 14.682 14.615 14.59 14.695 14.865 14.957 14.985 15.005 15.02 15.027 15.045 15.087 15.132 15.117 15.045 14.975 14.942 14.9 14.82 14.74 14.743 14.825 14.915 15.018 15.125 15.11 15 14.955 14.97 14.992 14.992 14.965 14.923 14.9 14.883 14.833 14.835 14.92 15.018 15.125 15.237 15.297 15.305 15.31 15.313 15.323 15.34 15.362 15.385 15.397 15.402 15.405 15.4 15.375 15.337 15.302 15.27 15.22 15.152 15.09 15.058 15.075 15.118 15.163 15.205 15.243 15.278 15.315 15.353 15.385 15.425 15.48 15.537 15.58 15.6 15.615 15.632 15.655 15.667 15.655 15.638 15.635 15.645 15.658 15.673 15.708 15.765 15.83 15.892 15.832 15.645 15.45 15.26 15.145 15.14 15.165 15.19 15.245 15.328 15.425 15.555 15.642 15.625 15.58 15.55 15.55 15.698 16.01 16.347 16.605 16.757 16.857 16.94 17.002 17.057 17.11 17.15 17.177 17.187 17.178 17.178 17.198 17.227 17.26 17.292 17.327 17.365 17.41 17.452 17.455 17.422 17.402 17.395 17.39 17.39 17.387 17.382 17.377 17.365 17.337 17.302 17.25 17.17 17.082 16.998 16.943 16.908 16.86 16.815 16.813 16.875 16.965 17.05 17.077 17.062 17.057 17.042 16.992 16.92 16.85 16.798 16.778 16.783 16.795 16.787 16.767 16.75 16.73 16.712 16.687 16.653 16.623 16.613 16.625 16.643 16.66 16.678 16.713 16.777
15.045 14.965 14.937 15.08 15.528 16.032 16.262 16.335 16.47 16.618 16.7 16.77 16.364 15.253 14.871 15.437 15.49 15.065 14.848 14.802 14.742 14.678 14.615 14.565 14.59 14.728 14.835 14.865 14.897 14.93 14.98 15.022 15.027 15.03 14.995 14.915 14.845 14.835 14.825 14.758 14.723 14.81 14.935 15.015 15.09 15.155 15.115 14.983 14.92 14.935 14.948 14.94 14.925 14.915 14.91 14.865 14.768 14.738 14.82 14.94 15.07 15.205 15.28 15.288 15.293 15.295 15.3 15.31 15.32 15.338 15.355 15.357 15.352 15.34 15.312 15.275 15.235 15.19 15.13 15.068 15.038 15.055 15.1 15.147 15.192 15.235 15.27 15.305 15.342 15.375 15.398 15.418 15.455 15.507 15.555 15.587 15.607 15.625 15.657 15.695 15.702 15.69 15.693 15.705 15.718 15.735 15.76 15.8 15.857 15.905 15.82 15.62 15.423 15.23 15.14 15.177 15.227 15.26 15.315 15.415 15.558 15.722 15.847 15.89 15.84 15.74 15.74 15.953 16.283 16.622 16.875 16.945 16.935 16.97 17.03 17.085 17.13 17.147 17.172 17.21 17.217 17.208 17.21 17.233 17.265 17.298 17.335 17.383 17.443 17.507 17.535 17.515 17.49 17.475 17.47 17.467 17.462 17.457 17.445 17.407 17.318 17.235 17.18 17.11 17.055 17.018 16.998 16.977 16.94 16.905 16.883 16.898 16.965 17.05 17.07 17.04 17.025 17.012 16.967 16.898 16.85 16.838 16.842 16.847 16.84 16.805 16.77 16.75 16.73 16.71 16.683 16.653 16.643 16.658 16.677 16.692 16.702 16.7 16.705 16.73
14.33 13.805 13.703 14.36 15.532 16.127 16.253 16.435 16.677 16.805 16.867 16.647 15.775 14.603 14.78 15.535 15.377 15.015 14.82 14.782 14.732 14.673 14.618 14.57 14.548 14.617 14.705 14.74 14.78 14.855 14.962 14.995 14.935 14.903 14.865 14.785 14.718 14.72 14.74 14.72 14.773 14.92 15.045 15.122 15.177 15.195 15.125 14.995 14.918 14.923 14.968 15.01 15.037 15.03 14.965 14.835 14.768 14.798 14.845 14.925 15.043 15.177 15.257 15.272 15.28 15.287 15.292 15.295 15.297 15.302 15.297 15.277 15.253 15.228 15.198 15.16 15.123 15.08 15.035 15.018 15.043 15.087 15.132 15.175 15.217 15.26 15.297 15.332 15.365 15.395 15.415 15.423 15.438 15.478 15.525 15.565 15.595 15.615 15.65 15.702 15.74 15.745 15.75 15.767 15.782 15.8 15.82 15.848 15.89 15.907 15.8 15.6 15.4 15.203 15.133 15.198 15.268 15.323 15.41 15.56 15.74 15.907 16.022 16.105 16.13 16.065 16.083 16.3 16.602 16.907 17.082 17.065 16.998 17.003 17.06 17.107 17.13 17.13 17.155 17.205 17.242 17.247 17.24 17.248 17.27 17.305 17.353 17.415 17.488 17.56 17.602 17.597 17.575 17.558 17.548 17.542 17.535 17.52 17.497 17.442 17.32 17.193 17.118 17.07 17.045 17.04 17.052 17.06 17.037 17.005 16.98 16.963 16.983 17.05 17.07 17.035 17.005 16.98 16.945 16.908 16.9 16.905 16.907 16.897 16.86 16.81 16.773 16.75 16.728 16.705 16.685 16.678 16.69 16.712 16.73 16.737 16.732 16.718 16.713 16.715
13.148 12.678 12.611 13.561 15.155 16.04 16.44 16.742 16.915 16.975 16.902 16.19 15.165 14.423 14.885 15.517 15.203 14.923 14.785 14.752 14.715 14.67 14.622 14.577 14.542 14.452 14.405 14.557 14.743 14.895 15.002 14.965 14.86 14.793 14.733 14.65 14.53 14.548 14.665 14.735 14.868 15.032 15.155 15.21 15.222 15.215 15.145 15.04 14.965 14.955 15.015 15.08 15.095 14.987 14.855 14.815 14.893 14.995 15.017 15.028 15.075 15.163 15.235 15.26 15.27 15.28 15.285 15.28 15.27 15.255 15.225 15.188 15.153 15.123 15.093 15.058 15.025 14.995 14.988 15.02 15.065 15.107 15.152 15.197 15.24 15.282 15.322 15.355 15.382 15.41 15.432 15.44 15.443 15.46 15.495 15.535 15.572 15.605 15.645 15.7 15.755 15.787 15.805 15.825 15.842 15.862 15.885 15.907 15.937 15.917 15.772 15.555 15.338 15.188 15.203 15.3 15.383 15.463 15.578 15.748 15.932 16.092 16.2 16.282 16.357 16.365 16.428 16.652 16.892 17.085 17.17 17.137 17.073 17.05 17.085 17.112 17.115 17.11 17.135 17.188 17.242 17.275 17.28 17.278 17.288 17.33 17.398 17.473 17.55 17.63 17.677 17.675 17.655 17.637 17.622 17.61 17.595 17.57 17.545 17.477 17.337 17.18 17.093 17.078 17.075 17.075 17.092 17.12 17.122 17.102 17.08 17.057 17.043 17.065 17.07 17.035 17.003 16.97 16.95 16.95 16.96 16.965 16.955 16.92 16.87 16.82 16.78 16.755 16.733 16.71 16.7 16.71 16.73 16.75 16.762 16.76 16.747 16.735 16.73 16.73
12.61 12.61 12.611 13.531 15.033 16.088 16.785 17.037 17.095 17.152 16.757 15.705 14.848 14.708 15.13 15.31 15.02 14.82 14.74 14.71 14.68 14.645 14.57 14.308 14.065 13.915 13.851 14.28 14.747 14.925 14.987 14.907 14.803 14.728 14.677 14.422 14.105 14.295 14.635 14.783 14.957 15.127 15.232 15.25 15.24 15.23 15.18 15.098 15.025 14.998 15.04 15.097 15.027 14.858 14.785 14.858 14.997 15.125 15.177 15.175 15.175 15.198 15.225 15.232 15.24 15.25 15.252 15.237 15.21 15.185 15.155 15.115 15.078 15.05 15.025 14.995 14.968 14.955 14.978 15.022 15.065 15.107 15.152 15.2 15.247 15.292 15.33 15.36 15.388 15.425 15.457 15.465 15.468 15.48 15.483 15.495 15.535 15.578 15.637 15.705 15.76 15.805 15.835 15.855 15.865 15.842 15.825 15.842 15.865 15.815 15.637 15.403 15.238 15.24 15.375 15.52 15.625 15.715 15.825 15.973 16.137 16.28 16.38 16.46 16.542 16.607 16.695 16.85 16.997 17.11 17.175 17.17 17.13 17.098 17.095 17.1 17.098 17.095 17.12 17.173 17.235 17.303 17.343 17.35 17.36 17.408 17.485 17.565 17.645 17.722 17.755 17.74 17.72 17.702 17.687 17.667 17.645 17.617 17.585 17.5 17.345 17.18 17.098 17.095 17.092 17.087 17.102 17.132 17.142 17.132 17.117 17.102 17.085 17.085 17.077 17.045 17.018 16.99 16.978 16.987 16.997 16.997 16.98 16.942 16.895 16.845 16.805 16.783 16.765 16.745 16.728 16.723 16.735 16.755 16.765 16.76 16.753 16.753 16.755 16.753
12.61 12.61 12.843 14.048 15.53 16.545 17.135 17.235 17.28 17.2 16.43 15.298 14.471 14.715 15.285 15.115 14.893 14.758 14.69 14.66 14.63 14.603 14.545 14.293 14.07 14.038 14.06 14.37 14.717 14.877 14.932 14.853 14.768 14.732 14.53 14.068 13.745 14.125 14.647 14.817 14.992 15.162 15.25 15.25 15.24 15.225 15.197 15.15 15.085 15.043 15.07 15.06 14.948 14.88 14.89 14.935 15.035 15.175 15.245 15.237 15.232 15.235 15.22 15.185 15.175 15.182 15.18 15.165 15.14 15.115 15.085 15.048 15.02 15.005 14.985 14.958 14.94 14.94 14.97 15.017 15.06 15.103 15.148 15.195 15.242 15.287 15.322 15.35 15.39 15.45 15.49 15.498 15.51 15.537 15.515 15.473 15.49 15.538 15.612 15.7 15.767 15.815 15.845 15.837 15.785 15.69 15.628 15.637 15.647 15.582 15.4 15.235 15.243 15.38 15.56 15.742 15.89 15.995 16.105 16.24 16.36 16.46 16.555 16.642 16.725 16.807 16.857 16.895 16.983 17.097 17.172 17.175 17.145 17.12 17.105 17.098 17.093 17.103 17.148 17.218 17.3 17.39 17.452 17.475 17.49 17.53 17.598 17.675 17.755 17.812 17.82 17.8 17.78 17.76 17.742 17.717 17.685 17.65 17.605 17.502 17.345 17.185 17.105 17.102 17.092 17.078 17.085 17.105 17.105 17.095 17.085 17.075 17.078 17.097 17.097 17.07 17.042 17.015 17.003 17.012 17.017 17.01 16.995 16.97 16.932 16.885 16.848 16.828 16.81 16.792 16.77 16.743 16.733 16.745 16.755 16.753 16.758 16.775 16.785 16.782
12.611 12.853 13.65 14.89 16.087 17.027 17.457 17.462 17.48 17.062 15.92 14.958 14.366 14.695 15.21 14.968 14.825 14.715 14.643 14.613 14.595 14.59 14.587 14.585 14.61 14.642 14.662 14.677 14.718 14.83 14.877 14.818 14.777 14.75 14.323 13.825 13.66 14.095 14.677 14.828 14.988 15.152 15.24 15.237 15.22 15.198 15.18 15.162 15.13 15.087 15.07 15.028 14.99 15.01 15.033 15.058 15.105 15.215 15.285 15.27 15.25 15.24 15.21 15.15 15.108 15.095 15.09 15.08 15.065 15.045 15.015 14.988 14.975 14.965 14.948 14.93 14.928 14.935 14.963 15.01 15.055 15.098 15.143 15.19 15.235 15.28 15.318 15.355 15.413 15.48 15.52 15.538 15.57 15.61 15.582 15.495 15.46 15.498 15.575 15.67 15.76 15.81 15.795 15.717 15.605 15.485 15.42 15.415 15.405 15.338 15.233 15.24 15.38 15.553 15.733 15.925 16.11 16.257 16.38 16.482 16.547 16.61 16.702 16.805 16.902 16.992 17.017 16.99 17.003 17.083 17.167 17.18 17.153 17.135 17.125 17.115 17.128 17.18 17.258 17.345 17.435 17.525 17.59 17.615 17.63 17.66 17.715 17.787 17.857 17.887 17.875 17.855 17.835 17.817 17.795 17.755 17.708 17.665 17.61 17.497 17.343 17.19 17.113 17.102 17.085 17.063 17.063 17.072 17.065 17.055 17.045 17.05 17.083 17.117 17.12 17.095 17.065 17.038 17.028 17.03 17.025 17.015 17 16.98 16.957 16.922 16.89 16.872 16.855 16.837 16.817 16.785 16.753 16.743 16.748 16.758 16.777 16.802 16.815 16.81
13.545 13.933 14.612 15.533 16.67 17.492 17.677 17.68 17.545 16.745 15.478 14.683 14.608 14.94 15.047 14.89 14.785 14.678 14.613 14.598 14.6 14.61 14.623 14.658 14.717 14.772 14.797 14.797 14.795 14.83 14.835 14.785 14.748 14.692 14.255 13.773 13.878 14.372 14.742 14.872 15.01 15.152 15.227 15.217 15.19 15.165 15.148 15.137 15.13 15.11 15.098 15.11 15.13 15.152 15.177 15.2 15.222 15.28 15.325 15.31 15.275 15.24 15.197 15.138 15.075 15.035 15.018 15.005 14.993 14.978 14.958 14.943 14.935 14.925 14.918 14.915 14.92 14.93 14.955 15 15.048 15.093 15.138 15.182 15.227 15.273 15.317 15.372 15.437 15.505 15.555 15.592 15.64 15.685 15.652 15.547 15.463 15.46 15.535 15.627 15.722 15.76 15.682 15.55 15.42 15.29 15.213 15.195 15.185 15.17 15.225 15.38 15.555 15.727 15.902 16.09 16.285 16.45 16.565 16.632 16.682 16.74 16.825 16.932 17.037 17.135 17.172 17.147 17.115 17.115 17.165 17.187 17.168 17.153 17.153 17.178 17.238 17.322 17.41 17.492 17.567 17.642 17.697 17.725 17.745 17.77 17.815 17.872 17.925 17.942 17.927 17.91 17.89 17.872 17.845 17.795 17.738 17.685 17.615 17.493 17.338 17.193 17.115 17.095 17.073 17.048 17.038 17.035 17.025 17.018 17.023 17.058 17.11 17.142 17.14 17.115 17.085 17.057 17.045 17.04 17.03 17.02 17.005 16.982 16.962 16.94 16.917 16.905 16.89 16.872 16.852 16.82 16.78 16.75 16.745 16.765 16.79 16.812 16.82 16.805
14.729 14.832 15.15 16.083 17.31 17.877 17.863 17.86 17.41 16.21 15.115 14.381 14.553 15.067 14.96 14.863 14.79 14.688 14.62 14.628 14.643 14.655 14.678 14.73 14.797 14.845 14.855 14.85 14.845 14.85 14.845 14.803 14.745 14.685 14.455 14.19 14.365 14.677 14.79 14.89 15.01 15.127 15.187 15.182 15.16 15.133 15.113 15.103 15.098 15.1 15.135 15.187 15.232 15.272 15.29 15.29 15.292 15.297 15.317 15.312 15.267 15.22 15.177 15.13 15.07 15.018 14.988 14.973 14.958 14.943 14.928 14.915 14.905 14.898 14.905 14.918 14.925 14.935 14.958 15 15.05 15.098 15.138 15.175 15.22 15.265 15.305 15.357 15.425 15.492 15.542 15.582 15.63 15.677 15.65 15.55 15.455 15.428 15.488 15.575 15.665 15.685 15.585 15.44 15.3 15.175 15.105 15.09 15.09 15.113 15.243 15.452 15.65 15.842 16.045 16.23 16.387 16.522 16.615 16.68 16.745 16.817 16.91 17.015 17.115 17.212 17.267 17.265 17.24 17.208 17.21 17.225 17.218 17.21 17.223 17.283 17.367 17.452 17.53 17.595 17.655 17.712 17.755 17.785 17.812 17.837 17.875 17.92 17.962 17.987 17.982 17.965 17.945 17.925 17.895 17.845 17.785 17.728 17.65 17.525 17.373 17.228 17.143 17.113 17.085 17.058 17.028 17.005 16.995 16.988 17.01 17.065 17.117 17.142 17.132 17.107 17.08 17.047 17.027 17.022 17.015 17.017 17.007 16.975 16.95 16.93 16.917 16.91 16.897 16.882 16.86 16.825 16.788 16.76 16.748 16.755 16.775 16.797 16.8 16.78
15.04 14.985 15.636 16.992 17.94 18.085 18.047 17.9 17.055 15.66 14.818 14.328 14.55 15.065 14.985 14.933 14.867 14.723 14.635 14.665 14.695 14.71 14.738 14.795 14.84 14.842 14.833 14.828 14.83 14.858 14.885 14.872 14.825 14.77 14.727 14.685 14.667 14.738 14.807 14.853 14.948 15.055 15.112 15.122 15.12 15.1 15.08 15.073 15.073 15.085 15.125 15.187 15.237 15.262 15.255 15.227 15.205 15.185 15.22 15.26 15.235 15.19 15.15 15.115 15.065 15.01 14.98 14.967 14.952 14.935 14.918 14.903 14.89 14.883 14.898 14.927 14.945 14.955 14.978 15.018 15.065 15.115 15.15 15.175 15.213 15.257 15.288 15.32 15.38 15.445 15.482 15.503 15.54 15.59 15.567 15.478 15.42 15.413 15.448 15.518 15.605 15.615 15.505 15.365 15.248 15.155 15.103 15.09 15.09 15.095 15.205 15.417 15.633 15.875 16.137 16.31 16.417 16.53 16.615 16.683 16.758 16.848 16.952 17.062 17.167 17.267 17.332 17.34 17.323 17.33 17.348 17.345 17.34 17.34 17.35 17.388 17.458 17.542 17.61 17.655 17.703 17.757 17.8 17.828 17.855 17.883 17.918 17.96 18 18.032 18.035 18.015 17.995 17.977 17.947 17.895 17.843 17.803 17.732 17.602 17.432 17.28 17.2 17.163 17.13 17.1 17.05 16.995 16.973 16.968 16.995 17.05 17.092 17.112 17.1 17.073 17.045 17.013 16.988 16.98 16.988 17.015 17.007 16.96 16.93 16.91 16.9 16.9 16.892 16.877 16.852 16.818 16.788 16.77 16.755 16.745 16.753 16.772 16.775 16.763
15.093 15.361 16.52 17.827 18.32 18.275 18.232 17.727 16.44 15.213 14.55 14.513 14.887 15.097 15.117 15.07 14.932 14.725 14.635 14.685 14.735 14.762 14.795 14.835 14.84 14.82 14.808 14.808 14.833 14.88 14.915 14.92 14.892 14.855 14.83 14.807 14.782 14.802 14.835 14.845 14.898 14.98 15.027 15.04 15.052 15.055 15.05 15.052 15.062 15.077 15.1 15.13 15.147 15.142 15.113 15.07 15.035 15.015 15.07 15.17 15.197 15.16 15.12 15.09 15.05 15 14.97 14.957 14.943 14.928 14.913 14.895 14.878 14.865 14.883 14.925 14.957 14.977 15.003 15.04 15.085 15.135 15.17 15.188 15.21 15.25 15.28 15.298 15.338 15.392 15.425 15.438 15.46 15.497 15.475 15.415 15.405 15.415 15.435 15.478 15.547 15.545 15.438 15.325 15.238 15.16 15.105 15.09 15.09 15.09 15.178 15.378 15.64 15.963 16.235 16.36 16.44 16.537 16.62 16.7 16.788 16.883 16.988 17.1 17.212 17.32 17.397 17.433 17.458 17.51 17.537 17.518 17.503 17.503 17.508 17.518 17.55 17.618 17.682 17.72 17.758 17.807 17.847 17.873 17.898 17.925 17.96 18 18.04 18.077 18.085 18.068 18.05 18.032 18 17.955 17.925 17.907 17.832 17.67 17.468 17.318 17.258 17.22 17.183 17.15 17.095 17.015 16.96 16.95 16.98 17.022 17.055 17.077 17.07 17.04 17.01 16.978 16.95 16.953 16.985 17.025 17.017 16.96 16.913 16.888 16.88 16.885 16.885 16.872 16.847 16.818 16.798 16.783 16.765 16.75 16.743 16.75 16.755 16.755
15.301 16.165 17.47 18.252 18.392 18.402 18.232 17.297 15.798 14.868 14.288 14.47 15.027 15.06 15.122 15.087 14.932 14.72 14.64 14.695 14.755 14.802 14.83 14.835 14.82 14.8 14.788 14.802 14.85 14.905 14.937 14.935 14.925 14.915 14.895 14.875 14.855 14.85 14.857 14.86 14.878 14.915 14.94 14.953 14.968 14.982 14.987 14.99 15.002 15.015 15.02 15.02 15.025 15.022 14.99 14.94 14.893 14.87 14.92 15.035 15.125 15.127 15.09 15.057 15.022 14.985 14.958 14.943 14.933 14.925 14.91 14.89 14.87 14.855 14.875 14.92 14.96 14.995 15.028 15.065 15.108 15.153 15.185 15.202 15.22 15.248 15.272 15.288 15.31 15.345 15.37 15.383 15.395 15.415 15.413 15.4 15.41 15.418 15.433 15.463 15.507 15.492 15.405 15.32 15.24 15.16 15.105 15.09 15.09 15.09 15.18 15.423 15.763 16.13 16.355 16.42 16.473 16.55 16.64 16.73 16.823 16.918 17.02 17.13 17.24 17.347 17.445 17.537 17.642 17.717 17.722 17.695 17.672 17.667 17.672 17.677 17.685 17.715 17.76 17.795 17.828 17.868 17.903 17.928 17.953 17.98 18.015 18.055 18.093 18.128 18.137 18.122 18.105 18.087 18.063 18.038 18.022 18.007 17.905 17.705 17.493 17.358 17.315 17.28 17.24 17.202 17.142 17.055 16.973 16.935 16.953 16.985 17.015 17.04 17.035 17.008 16.98 16.948 16.928 16.95 16.995 17.035 17.03 16.972 16.91 16.87 16.86 16.865 16.87 16.865 16.848 16.825 16.81 16.795 16.778 16.763 16.748 16.743 16.748 16.758
16.235 17.362 18.225 18.507 18.573 18.6 18.017 16.628 15.298 14.62 14.305 14.563 14.945 14.935 14.957 14.925 14.817 14.685 14.648 14.697 14.752 14.805 14.827 14.82 14.805 14.785 14.768 14.768 14.802 14.857 14.887 14.875 14.89 14.917 14.905 14.885 14.867 14.86 14.865 14.87 14.87 14.865 14.86 14.868 14.882 14.897 14.895 14.883 14.885 14.895 14.9 14.903 14.91 14.91 14.88 14.83 14.793 14.793 14.843 14.93 15.025 15.072 15.06 15.025 14.99 14.963 14.963 14.973 14.97 14.968 14.955 14.935 14.915 14.9 14.923 14.97 15.013 15.055 15.09 15.123 15.158 15.185 15.2 15.215 15.232 15.25 15.268 15.283 15.3 15.325 15.348 15.363 15.378 15.395 15.408 15.413 15.42 15.428 15.442 15.46 15.465 15.44 15.382 15.31 15.23 15.15 15.1 15.09 15.108 15.16 15.313 15.615 15.985 16.285 16.42 16.46 16.51 16.59 16.688 16.78 16.873 16.957 17.035 17.127 17.232 17.335 17.445 17.577 17.717 17.802 17.815 17.802 17.797 17.807 17.82 17.825 17.827 17.838 17.86 17.89 17.923 17.958 17.993 18.02 18.045 18.075 18.11 18.15 18.182 18.197 18.192 18.175 18.155 18.14 18.127 18.115 18.1 18.075 17.947 17.728 17.525 17.41 17.372 17.335 17.295 17.247 17.157 17.05 16.965 16.918 16.925 16.955 16.983 17.025 17.03 16.993 16.965 16.935 16.928 16.958 17 17.032 17.025 16.972 16.91 16.883 16.885 16.888 16.89 16.878 16.855 16.838 16.823 16.805 16.79 16.775 16.76 16.753 16.755 16.765
17.737 18.594 18.857 18.88 18.982 18.692 17.53 15.928 14.908 14.31 14.34 14.82 14.875 14.838 14.818 14.778 14.72 14.675 14.67 14.695 14.735 14.785 14.812 14.81 14.795 14.772 14.745 14.713 14.705 14.745 14.772 14.78 14.833 14.887 14.89 14.873 14.863 14.86 14.865 14.867 14.855 14.828 14.8 14.79 14.798 14.812 14.807 14.783 14.77 14.775 14.78 14.785 14.795 14.8 14.775 14.735 14.733 14.77 14.83 14.9 14.968 15.017 15.02 14.99 14.963 14.945 14.975 15.03 15.05 15.05 15.04 15.02 15.003 14.99 15.013 15.065 15.115 15.16 15.192 15.22 15.237 15.227 15.218 15.225 15.235 15.25 15.265 15.283 15.308 15.335 15.36 15.383 15.405 15.425 15.435 15.433 15.432 15.432 15.43 15.417 15.39 15.36 15.325 15.277 15.21 15.133 15.098 15.14 15.233 15.355 15.558 15.875 16.185 16.362 16.435 16.483 16.558 16.655 16.755 16.85 16.93 16.995 17.05 17.113 17.2 17.3 17.415 17.547 17.675 17.775 17.815 17.815 17.85 17.912 17.942 17.945 17.95 17.965 17.985 18.008 18.038 18.07 18.105 18.137 18.165 18.195 18.23 18.262 18.275 18.265 18.245 18.225 18.208 18.195 18.185 18.175 18.157 18.125 17.987 17.758 17.575 17.475 17.425 17.385 17.345 17.28 17.15 17.013 16.933 16.898 16.905 16.935 16.985 17.067 17.08 17.018 16.97 16.935 16.933 16.962 16.992 17.01 17.002 16.958 16.92 16.938 16.96 16.955 16.94 16.905 16.87 16.853 16.835 16.818 16.803 16.788 16.778 16.773 16.775 16.78
18.962 19.305 19.327 19.35 19.224 18.34 16.783 15.368 14.63 14.203 14.408 14.865 14.805 14.75 14.738 14.757 14.752 14.73 14.72 14.723 14.738 14.77 14.797 14.797 14.78 14.755 14.725 14.688 14.65 14.648 14.668 14.71 14.787 14.857 14.875 14.86 14.858 14.86 14.862 14.855 14.827 14.793 14.76 14.735 14.723 14.728 14.72 14.69 14.665 14.658 14.66 14.668 14.68 14.69 14.68 14.675 14.71 14.763 14.822 14.882 14.935 14.975 14.98 14.96 14.943 14.938 14.975 15.05 15.107 15.127 15.12 15.103 15.09 15.08 15.1 15.155 15.212 15.262 15.297 15.31 15.29 15.25 15.233 15.238 15.243 15.253 15.27 15.295 15.328 15.36 15.385 15.407 15.43 15.45 15.462 15.455 15.43 15.397 15.363 15.33 15.3 15.27 15.24 15.21 15.168 15.125 15.16 15.295 15.457 15.605 15.813 16.082 16.27 16.375 16.45 16.52 16.618 16.722 16.822 16.907 16.972 17.03 17.085 17.135 17.195 17.273 17.38 17.505 17.625 17.737 17.795 17.818 17.898 18.007 18.055 18.06 18.075 18.095 18.115 18.132 18.153 18.183 18.218 18.253 18.285 18.315 18.342 18.352 18.337 18.315 18.295 18.278 18.265 18.255 18.245 18.232 18.21 18.172 18.032 17.818 17.663 17.563 17.488 17.435 17.387 17.305 17.165 17.025 16.935 16.885 16.89 16.945 17.038 17.14 17.15 17.075 17.005 16.948 16.93 16.95 16.967 16.98 16.98 16.955 16.96 17.01 17.03 17.01 16.972 16.925 16.89 16.87 16.85 16.833 16.818 16.805 16.8 16.795 16.795 16.803
19.567 19.593 19.665 19.655 19.037 17.66 16.018 14.935 14.328 14.253 14.627 14.755 14.74 14.68 14.683 14.74 14.773 14.78 14.777 14.775 14.775 14.78 14.79 14.785 14.762 14.735 14.707 14.673 14.628 14.598 14.61 14.665 14.745 14.83 14.862 14.852 14.855 14.86 14.852 14.83 14.795 14.76 14.73 14.7 14.673 14.655 14.635 14.608 14.58 14.565 14.568 14.58 14.595 14.608 14.623 14.655 14.705 14.755 14.805 14.85 14.89 14.93 14.945 14.935 14.925 14.93 14.975 15.05 15.125 15.182 15.2 15.19 15.18 15.17 15.19 15.245 15.302 15.357 15.38 15.355 15.308 15.27 15.263 15.27 15.275 15.28 15.293 15.315 15.35 15.385 15.41 15.43 15.45 15.467 15.472 15.447 15.392 15.338 15.293 15.253 15.218 15.183 15.15 15.128 15.133 15.188 15.32 15.497 15.672 15.84 16.02 16.185 16.295 16.39 16.483 16.58 16.688 16.795 16.887 16.953 17.008 17.065 17.12 17.17 17.22 17.278 17.363 17.47 17.578 17.688 17.773 17.85 17.965 18.09 18.162 18.185 18.205 18.225 18.243 18.258 18.275 18.3 18.333 18.37 18.408 18.43 18.43 18.415 18.392 18.368 18.348 18.335 18.325 18.315 18.302 18.285 18.26 18.22 18.092 17.92 17.79 17.678 17.58 17.503 17.428 17.33 17.213 17.108 17.015 16.93 16.923 17.003 17.11 17.21 17.217 17.142 17.06 16.965 16.905 16.903 16.92 16.937 16.95 16.965 17.007 17.065 17.077 17.042 16.995 16.948 16.913 16.89 16.87 16.85 16.835 16.825 16.82 16.815 16.818 16.835
19.913 19.93 20 19.527 18.29 16.803 15.408 14.633 14.208 14.293 14.597 14.605 14.662 14.658 14.703 14.775 14.815 14.797 14.752 14.74 14.74 14.735 14.74 14.755 14.745 14.718 14.695 14.68 14.658 14.63 14.64 14.69 14.755 14.822 14.842 14.827 14.825 14.822 14.807 14.78 14.75 14.722 14.697 14.67 14.643 14.615 14.585 14.56 14.54 14.53 14.538 14.555 14.57 14.585 14.613 14.655 14.705 14.735 14.765 14.81 14.85 14.89 14.905 14.9 14.9 14.93 15 15.08 15.155 15.23 15.272 15.272 15.265 15.258 15.275 15.32 15.37 15.42 15.425 15.38 15.335 15.31 15.313 15.325 15.333 15.338 15.34 15.348 15.37 15.402 15.427 15.437 15.437 15.435 15.425 15.392 15.337 15.283 15.235 15.19 15.15 15.118 15.098 15.123 15.213 15.35 15.518 15.693 15.87 16.03 16.152 16.255 16.353 16.45 16.555 16.665 16.775 16.882 16.965 17.02 17.07 17.12 17.165 17.21 17.263 17.318 17.393 17.488 17.583 17.68 17.778 17.888 18.012 18.137 18.24 18.295 18.32 18.342 18.375 18.407 18.43 18.45 18.48 18.52 18.55 18.547 18.508 18.468 18.445 18.42 18.4 18.39 18.38 18.367 18.35 18.33 18.307 18.272 18.175 18.035 17.907 17.785 17.68 17.587 17.495 17.398 17.3 17.222 17.142 17.043 17.023 17.103 17.198 17.285 17.275 17.177 17.072 16.955 16.87 16.843 16.85 16.87 16.895 16.955 17.027 17.08 17.1 17.072 17.025 16.978 16.935 16.905 16.885 16.865 16.853 16.845 16.837 16.83 16.83 16.85
20.302 20.35 20.009 18.775 17.215 15.875 14.945 14.335 14.245 14.47 14.45 14.213 14.305 14.677 14.795 14.895 14.89 14.77 14.663 14.63 14.62 14.618 14.635 14.682 14.71 14.7 14.685 14.707 14.73 14.715 14.723 14.77 14.822 14.832 14.8 14.77 14.755 14.745 14.727 14.703 14.683 14.673 14.662 14.642 14.62 14.595 14.568 14.545 14.535 14.535 14.545 14.562 14.577 14.593 14.618 14.66 14.692 14.69 14.71 14.765 14.81 14.85 14.867 14.868 14.893 14.96 15.05 15.137 15.22 15.3 15.342 15.345 15.34 15.333 15.343 15.373 15.413 15.457 15.457 15.415 15.385 15.368 15.368 15.382 15.395 15.402 15.405 15.403 15.405 15.417 15.42 15.407 15.385 15.36 15.338 15.312 15.275 15.225 15.178 15.135 15.105 15.115 15.165 15.258 15.395 15.55 15.715 15.89 16.055 16.162 16.245 16.347 16.45 16.55 16.655 16.765 16.875 16.975 17.05 17.107 17.16 17.207 17.24 17.268 17.315 17.37 17.445 17.54 17.632 17.717 17.805 17.915 18.038 18.162 18.277 18.367 18.42 18.448 18.497 18.56 18.6 18.627 18.66 18.687 18.69 18.665 18.605 18.535 18.495 18.473 18.455 18.445 18.43 18.41 18.388 18.365 18.347 18.327 18.255 18.13 18 17.873 17.765 17.673 17.585 17.497 17.405 17.33 17.257 17.163 17.15 17.232 17.302 17.325 17.27 17.162 17.045 16.925 16.84 16.798 16.778 16.785 16.825 16.917 17.015 17.075 17.102 17.095 17.062 17.015 16.965 16.925 16.9 16.88 16.868 16.862 16.852 16.84 16.835 16.845
20.657 20.394 19.295 17.663 16.135 15.1 14.573 14.2 14.338 14.502 14.202 13.713 13.683 14.372 14.84 14.962 14.91 14.73 14.6 14.545 14.513 14.5 14.525 14.585 14.645 14.67 14.675 14.72 14.782 14.797 14.805 14.847 14.862 14.805 14.74 14.705 14.68 14.663 14.643 14.628 14.623 14.625 14.625 14.61 14.593 14.573 14.553 14.54 14.538 14.542 14.553 14.568 14.583 14.598 14.623 14.655 14.657 14.63 14.648 14.71 14.767 14.815 14.835 14.858 14.923 15.007 15.095 15.187 15.28 15.36 15.4 15.407 15.405 15.397 15.405 15.428 15.458 15.495 15.495 15.465 15.448 15.433 15.428 15.438 15.45 15.46 15.462 15.457 15.455 15.427 15.38 15.347 15.32 15.29 15.26 15.233 15.205 15.165 15.125 15.13 15.18 15.263 15.375 15.49 15.61 15.753 15.915 16.077 16.195 16.255 16.33 16.44 16.545 16.645 16.75 16.862 16.975 17.067 17.135 17.192 17.247 17.3 17.332 17.348 17.375 17.423 17.498 17.587 17.67 17.745 17.83 17.943 18.065 18.187 18.302 18.41 18.502 18.552 18.603 18.677 18.745 18.795 18.822 18.822 18.805 18.775 18.715 18.63 18.56 18.525 18.51 18.495 18.472 18.447 18.423 18.403 18.39 18.382 18.322 18.205 18.082 17.958 17.85 17.76 17.675 17.59 17.505 17.433 17.362 17.283 17.282 17.335 17.332 17.275 17.19 17.102 17.005 16.895 16.81 16.765 16.728 16.71 16.755 16.865 16.985 17.067 17.097 17.1 17.087 17.05 17.002 16.958 16.92 16.898 16.885 16.877 16.865 16.848 16.843 16.848
20.607 19.602 18.085 16.505 15.271 14.723 14.268 14.228 14.545 14.387 13.89 13.45 13.37 13.968 14.737 14.925 14.86 14.692 14.55 14.475 14.433 14.408 14.435 14.498 14.563 14.613 14.655 14.72 14.802 14.86 14.887 14.89 14.837 14.75 14.685 14.648 14.615 14.59 14.575 14.575 14.583 14.588 14.59 14.583 14.57 14.558 14.54 14.533 14.537 14.545 14.557 14.572 14.587 14.602 14.622 14.627 14.605 14.57 14.583 14.648 14.713 14.773 14.823 14.885 14.967 15.053 15.14 15.232 15.315 15.377 15.415 15.43 15.437 15.447 15.465 15.485 15.507 15.532 15.537 15.525 15.51 15.495 15.488 15.49 15.5 15.507 15.507 15.502 15.487 15.422 15.333 15.28 15.25 15.22 15.19 15.16 15.133 15.135 15.183 15.28 15.405 15.525 15.642 15.752 15.857 15.972 16.11 16.227 16.29 16.338 16.42 16.528 16.633 16.738 16.845 16.96 17.072 17.157 17.22 17.275 17.33 17.385 17.42 17.437 17.453 17.483 17.545 17.623 17.695 17.765 17.853 17.968 18.093 18.215 18.33 18.438 18.545 18.635 18.707 18.782 18.86 18.93 18.952 18.935 18.915 18.885 18.825 18.74 18.655 18.59 18.555 18.533 18.508 18.483 18.463 18.45 18.443 18.437 18.385 18.275 18.155 18.04 17.943 17.858 17.773 17.688 17.61 17.54 17.47 17.4 17.365 17.335 17.268 17.188 17.108 17.033 16.958 16.875 16.81 16.77 16.73 16.695 16.728 16.833 16.948 17.048 17.093 17.098 17.098 17.078 17.038 16.99 16.943 16.913 16.9 16.887 16.872 16.855 16.85 16.855
19.7 18.312 16.808 15.503 14.81 14.438 14.2 14.435 14.535 14.137 13.625 13.37 13.37 13.625 14.282 14.752 14.75 14.605 14.495 14.448 14.42 14.403 14.43 14.488 14.545 14.603 14.66 14.72 14.795 14.877 14.912 14.865 14.78 14.695 14.635 14.603 14.573 14.55 14.54 14.545 14.555 14.563 14.578 14.585 14.575 14.562 14.538 14.515 14.515 14.527 14.55 14.572 14.587 14.602 14.615 14.6 14.565 14.533 14.548 14.615 14.685 14.755 14.83 14.917 15.01 15.097 15.18 15.255 15.315 15.367 15.407 15.425 15.44 15.477 15.507 15.52 15.54 15.56 15.57 15.57 15.562 15.55 15.54 15.538 15.545 15.55 15.55 15.545 15.5 15.405 15.298 15.22 15.18 15.15 15.12 15.09 15.06 15.133 15.307 15.462 15.597 15.73 15.847 15.952 16.055 16.155 16.262 16.342 16.385 16.435 16.518 16.62 16.725 16.835 16.945 17.06 17.162 17.235 17.292 17.347 17.405 17.457 17.49 17.507 17.523 17.555 17.613 17.68 17.75 17.823 17.913 18.02 18.135 18.25 18.363 18.475 18.585 18.692 18.792 18.88 18.957 19.03 19.057 19.04 19.023 19.003 18.953 18.878 18.8 18.713 18.645 18.61 18.58 18.553 18.525 18.508 18.503 18.495 18.442 18.337 18.22 18.113 18.037 17.97 17.888 17.805 17.73 17.66 17.585 17.497 17.415 17.34 17.265 17.193 17.12 17.053 16.99 16.935 16.893 16.855 16.815 16.77 16.793 16.893 16.995 17.09 17.14 17.148 17.15 17.128 17.08 17.028 16.975 16.935 16.913 16.898 16.883 16.868 16.865 16.873
18.4 17.043 15.718 14.885 14.54 14.218 14.378 14.622 14.342 13.818 13.418 13.37 13.37 13.371 13.728 14.372 14.612 14.518 14.468 14.47 14.467 14.46 14.488 14.543 14.6 14.662 14.712 14.745 14.788 14.855 14.87 14.802 14.718 14.633 14.583 14.567 14.55 14.53 14.52 14.528 14.54 14.55 14.575 14.595 14.59 14.572 14.54 14.503 14.483 14.49 14.52 14.555 14.577 14.595 14.602 14.587 14.56 14.533 14.555 14.625 14.698 14.77 14.838 14.918 15.017 15.115 15.192 15.25 15.3 15.352 15.397 15.42 15.45 15.512 15.547 15.55 15.565 15.585 15.595 15.597 15.597 15.592 15.587 15.585 15.588 15.592 15.592 15.57 15.495 15.385 15.275 15.175 15.115 15.082 15.05 15.02 14.99 15.115 15.382 15.575 15.707 15.837 15.952 16.055 16.155 16.255 16.352 16.437 16.495 16.545 16.623 16.72 16.825 16.935 17.047 17.152 17.235 17.3 17.358 17.415 17.47 17.517 17.55 17.565 17.593 17.65 17.715 17.778 17.845 17.918 18.008 18.11 18.213 18.31 18.415 18.535 18.645 18.742 18.845 18.955 19.05 19.125 19.155 19.14 19.14 19.157 19.13 19.057 18.967 18.865 18.79 18.743 18.703 18.67 18.628 18.588 18.57 18.56 18.502 18.392 18.275 18.173 18.115 18.072 18.01 17.935 17.86 17.78 17.682 17.57 17.48 17.415 17.345 17.278 17.215 17.16 17.11 17.065 17.022 16.982 16.94 16.89 16.915 17.02 17.117 17.192 17.24 17.257 17.25 17.197 17.13 17.077 17.02 16.968 16.94 16.93 16.915 16.9 16.9 16.907
17.215 15.893 14.953 14.585 14.235 14.235 14.55 14.475 14.02 13.533 13.37 13.37 13.515 13.79 13.995 14.29 14.515 14.495 14.473 14.492 14.515 14.518 14.543 14.6 14.66 14.725 14.775 14.8 14.82 14.842 14.817 14.74 14.657 14.573 14.528 14.522 14.513 14.503 14.503 14.513 14.528 14.54 14.565 14.597 14.605 14.582 14.543 14.5 14.465 14.453 14.478 14.522 14.56 14.582 14.587 14.58 14.565 14.548 14.575 14.645 14.715 14.785 14.85 14.915 15 15.095 15.172 15.232 15.287 15.34 15.387 15.423 15.478 15.557 15.592 15.59 15.595 15.61 15.622 15.625 15.622 15.617 15.62 15.63 15.632 15.635 15.63 15.575 15.475 15.373 15.283 15.163 15.058 15.013 14.98 14.95 14.935 15.1 15.43 15.675 15.807 15.912 16.017 16.12 16.22 16.32 16.417 16.512 16.592 16.655 16.73 16.825 16.928 17.035 17.142 17.227 17.295 17.362 17.425 17.48 17.527 17.572 17.605 17.635 17.688 17.755 17.82 17.88 17.943 18.013 18.103 18.202 18.297 18.388 18.488 18.6 18.697 18.785 18.885 19.005 19.122 19.215 19.255 19.263 19.295 19.345 19.327 19.23 19.113 19.01 18.943 18.89 18.84 18.8 18.755 18.698 18.653 18.63 18.567 18.448 18.325 18.23 18.18 18.147 18.107 18.055 17.977 17.872 17.752 17.63 17.54 17.483 17.425 17.368 17.318 17.277 17.237 17.195 17.15 17.105 17.055 17.01 17.045 17.142 17.222 17.285 17.34 17.37 17.34 17.257 17.183 17.125 17.06 16.998 16.97 16.967 16.96 16.95 16.947 16.947
15.958 14.996 14.62 14.265 14.12 14.48 14.562 14.197 13.663 13.37 13.523 13.793 14.062 14.352 14.485 14.477 14.485 14.483 14.48 14.507 14.54 14.562 14.6 14.66 14.722 14.787 14.83 14.835 14.825 14.805 14.752 14.675 14.597 14.518 14.473 14.473 14.48 14.495 14.508 14.513 14.52 14.53 14.555 14.595 14.612 14.59 14.547 14.502 14.46 14.428 14.438 14.485 14.532 14.565 14.573 14.568 14.56 14.558 14.595 14.665 14.735 14.803 14.865 14.928 14.998 15.07 15.138 15.203 15.265 15.323 15.38 15.443 15.517 15.6 15.637 15.635 15.632 15.637 15.647 15.645 15.635 15.628 15.635 15.655 15.667 15.675 15.655 15.588 15.503 15.425 15.325 15.152 15 14.94 14.91 14.88 14.9 15.108 15.472 15.76 15.897 15.985 16.08 16.18 16.283 16.385 16.485 16.58 16.67 16.753 16.838 16.935 17.035 17.132 17.22 17.292 17.36 17.43 17.492 17.54 17.585 17.63 17.67 17.725 17.792 17.86 17.925 17.985 18.045 18.11 18.193 18.285 18.375 18.463 18.555 18.653 18.743 18.828 18.925 19.045 19.17 19.282 19.355 19.397 19.442 19.49 19.47 19.367 19.25 19.158 19.095 19.04 18.988 18.938 18.885 18.825 18.765 18.715 18.632 18.505 18.378 18.288 18.245 18.21 18.175 18.14 18.06 17.94 17.815 17.693 17.61 17.56 17.513 17.465 17.42 17.385 17.355 17.322 17.28 17.225 17.165 17.13 17.17 17.25 17.315 17.375 17.435 17.465 17.412 17.313 17.23 17.16 17.088 17.02 16.993 16.995 16.995 16.995 16.988 16.975
