ncols         200
nrows         73
xllcorner     546000
yllcorner     258390
cellsize      5
NODATA_value  -9999.0
13.54 13.59 13.62 13.61 13.55 13.452 13.348 13.243 13.14 13.045 12.97 12.943 12.932 12.875 12.762 12.633 12.515 12.402 12.288 12.2 12.175 12.183 12.188 12.19 12.188 12.185 12.185 12.187 12.19 12.19 12.14 12.05 11.967 11.88 11.785 11.685 11.585 11.48 11.375 11.275 11.175 11.143 11.218 11.333 11.458 11.585 11.642 11.652 11.677 11.702 11.727 11.818 12.005 12.222 12.39 12.485 12.557 12.62 12.66 12.69 12.738 12.82 12.922 13.015 13.097 13.212 13.362 13.515 13.665 13.805 13.837 13.722 13.557 13.385 13.253 13.27 13.393 13.52 13.648 13.742 13.627 13.325 13.123 13.103 13.16 13.205 13.235 13.265 13.293 13.302 13.185 13.059 12.86 12.82 12.955 12.925 12.895 12.865 12.84 12.655 12.453 12.412 12.32 12.16 12.005 11.885 11.805 11.743 11.685 11.633 11.572 11.498 11.428 11.352 11.257 11.148 11.018 10.873 10.75 10.645 10.54 10.437 10.332 10.22 10.095 9.968 9.865 9.863 9.94 10.017 10.037 10.055 10.127 10.2 10.257 10.285 10.295 10.305 10.342 10.38 10.385 10.385 10.395 10.47 10.632 10.708 10.797 10.827 10.695 10.41 9.958 9.695 9.605 9.512 9.377 9.2 9.017 8.807 8.67 8.683 8.75 8.82 8.9 8.955 8.95 8.92 8.85 8.708 8.535 8.4 8.313 8.25 8.195 8.14 8.085 8.093 8.22 7.802 7.29 7.283 7.285 7.293 7.293 7.288 7.283 7.28 7.303 7.345 7.372 7.377 7.367 7.352 7.34 7.312 7.27 7.23 7.19 7.178 7.2 7.223
13.538 13.585 13.605 13.59 13.547 13.465 13.36 13.255 13.15 13.038 12.945 12.903 12.898 12.887 12.83 12.727 12.615 12.5 12.385 12.278 12.213 12.205 12.21 12.21 12.207 12.2 12.195 12.2 12.205 12.21 12.215 12.187 12.132 12.065 11.975 11.875 11.772 11.667 11.565 11.465 11.368 11.32 11.38 11.495 11.592 11.642 11.63 11.605 11.61 11.63 11.65 11.778 12.01 12.235 12.407 12.505 12.57 12.62 12.655 12.687 12.72 12.77 12.858 12.96 13.055 13.117 13.183 13.305 13.457 13.597 13.659 13.595 13.552 13.48 13.305 13.278 13.39 13.513 13.637 13.682 13.555 13.33 13.22 13.26 13.322 13.365 13.392 13.42 13.445 13.367 12.7 12.063 11.87 12.372 13.007 12.99 12.96 12.927 12.859 12.622 12.425 12.405 12.32 12.165 12.008 11.865 11.773 11.723 11.675 11.627 11.567 11.49 11.413 11.328 11.228 11.125 11.025 10.92 10.815 10.71 10.605 10.5 10.397 10.295 10.177 10.053 9.96 9.968 10.045 10.125 10.19 10.235 10.28 10.33 10.365 10.382 10.4 10.412 10.425 10.43 10.42 10.412 10.438 10.563 10.805 10.957 11.022 11.19 11.425 11.39 11.087 10.658 10.096 9.723 9.533 9.332 9.062 8.833 8.75 8.748 8.8 8.875 8.942 8.962 8.935 8.905 8.825 8.665 8.478 8.348 8.283 8.23 8.175 8.12 8.068 8.04 8.147 7.787 7.315 7.308 7.303 7.293 7.28 7.273 7.268 7.265 7.288 7.33 7.362 7.38 7.38 7.37 7.357 7.33 7.29 7.247 7.215 7.228 7.258 7.273
13.565 13.597 13.592 13.565 13.537 13.472 13.372 13.267 13.155 13.028 12.935 12.903 12.887 12.872 12.847 12.79 12.705 12.6 12.485 12.375 12.278 12.233 12.23 12.23 12.227 12.215 12.205 12.21 12.22 12.238 12.26 12.257 12.23 12.19 12.125 12.032 11.925 11.82 11.717 11.628 11.553 11.5 11.543 11.635 11.672 11.65 11.6 11.55 11.525 11.535 11.568 11.733 12.007 12.25 12.412 12.495 12.547 12.59 12.625 12.657 12.69 12.723 12.785 12.88 12.97 13.01 13.008 12.965 13 12.835 12.553 12.495 12.628 13.125 13.38 13.308 13.39 13.51 13.607 13.577 13.49 13.42 13.388 13.435 13.485 13.52 13.545 13.567 13.577 13.477 12.226 11.071 11.138 11.77 12.687 12.947 12.45 12.03 11.965 12.19 12.435 12.385 12.317 12.192 12.022 11.835 11.73 11.707 11.67 11.62 11.562 11.49 11.41 11.323 11.225 11.138 11.062 10.972 10.868 10.76 10.655 10.55 10.45 10.355 10.252 10.135 10.053 10.075 10.152 10.212 10.252 10.292 10.335 10.37 10.397 10.422 10.44 10.432 10.415 10.407 10.397 10.383 10.435 10.56 10.68 10.727 11.077 11.497 11.66 11.87 12.084 11.974 11.557 11.115 10.231 9.333 8.978 8.873 8.855 8.83 8.838 8.895 8.957 8.96 8.923 8.887 8.835 8.695 8.49 8.353 8.283 8.223 8.165 8.11 8.06 8.008 8.117 7.8 7.34 7.332 7.325 7.31 7.295 7.288 7.283 7.28 7.298 7.325 7.335 7.332 7.325 7.315 7.302 7.282 7.25 7.218 7.228 7.288 7.332 7.347
13.607 13.62 13.6 13.56 13.525 13.472 13.382 13.27 13.145 13.01 12.923 12.897 12.877 12.855 12.83 12.792 12.735 12.652 12.56 12.467 12.365 12.28 12.25 12.247 12.24 12.225 12.218 12.228 12.248 12.273 12.297 12.302 12.28 12.247 12.202 12.125 12.02 11.928 11.85 11.782 11.727 11.675 11.68 11.705 11.675 11.625 11.575 11.52 11.468 11.448 11.505 11.705 11.995 12.24 12.377 12.442 12.492 12.54 12.58 12.61 12.64 12.673 12.72 12.798 12.885 12.965 13.015 12.902 12.517 11.953 11.608 11.588 11.706 12.665 13.45 13.35 13.39 13.517 13.557 13.515 13.548 13.582 13.585 13.582 13.547 13.53 13.53 13.547 13.56 13.5 12.742 11.653 11.295 11.356 12.205 12.949 11.993 11.101 11.081 11.828 12.507 12.395 12.325 12.222 12.02 11.775 11.663 11.657 11.64 11.607 11.562 11.495 11.413 11.327 11.243 11.17 11.105 11.025 10.925 10.813 10.705 10.6 10.5 10.408 10.313 10.21 10.15 10.167 10.212 10.24 10.258 10.298 10.35 10.392 10.422 10.44 10.427 10.385 10.355 10.35 10.347 10.343 10.385 10.41 10.31 10.153 10.4 10.827 11.485 12.139 12.342 12.547 12.749 12.732 12.062 10.24 8.988 8.99 8.96 8.933 8.913 8.928 8.965 8.957 8.915 8.875 8.835 8.72 8.528 8.39 8.308 8.23 8.163 8.103 8.05 7.99 8.122 7.83 7.365 7.357 7.347 7.327 7.31 7.302 7.298 7.298 7.3 7.298 7.29 7.28 7.268 7.255 7.245 7.233 7.213 7.22 7.283 7.362 7.407 7.405
13.632 13.635 13.627 13.59 13.535 13.477 13.382 13.255 13.125 13.005 12.925 12.883 12.853 12.827 12.8 12.77 12.72 12.65 12.58 12.507 12.425 12.338 12.283 12.263 12.25 12.238 12.238 12.258 12.285 12.31 12.332 12.337 12.312 12.275 12.232 12.18 12.105 12.032 11.977 11.917 11.857 11.775 11.72 11.697 11.65 11.6 11.55 11.497 11.435 11.38 11.445 11.673 11.955 12.19 12.315 12.375 12.432 12.487 12.53 12.562 12.595 12.63 12.668 12.723 12.8 12.88 12.96 12.82 12.175 11.62 11.55 11.598 11.65 12.605 13.484 13.383 13.39 13.497 13.538 13.575 13.67 13.74 13.71 13.572 13.425 13.367 13.378 13.408 13.417 13.375 13.257 12.24 11.373 11.305 12.085 13.014 12.07 11.098 11.08 11.67 12.38 12.45 12.365 12.25 12.022 11.74 11.61 11.6 11.59 11.578 11.552 11.497 11.417 11.333 11.26 11.202 11.142 11.075 10.985 10.87 10.758 10.653 10.555 10.468 10.38 10.293 10.235 10.215 10.215 10.228 10.255 10.303 10.358 10.407 10.435 10.425 10.38 10.325 10.298 10.295 10.295 10.285 10.257 10.173 10.04 9.908 9.795 9.808 10.345 11.23 12.147 12.756 12.947 13.132 13.026 10.949 9.096 9.105 9.075 9.045 9.018 9 8.993 8.97 8.933 8.898 8.86 8.747 8.56 8.425 8.343 8.26 8.183 8.11 8.045 7.99 8.145 7.86 7.39 7.38 7.365 7.343 7.323 7.315 7.318 7.328 7.325 7.308 7.29 7.27 7.253 7.24 7.228 7.215 7.213 7.26 7.345 7.427 7.46 7.425
13.65 13.65 13.65 13.625 13.562 13.482 13.372 13.238 13.113 13.023 12.953 12.885 12.835 12.8 12.773 12.747 12.705 12.64 12.57 12.5 12.43 12.368 12.32 12.288 12.27 12.265 12.275 12.3 12.322 12.335 12.345 12.335 12.297 12.255 12.215 12.195 12.167 12.107 12.045 11.982 11.89 11.745 11.66 11.642 11.605 11.565 11.522 11.475 11.417 11.36 11.41 11.615 11.882 12.127 12.262 12.318 12.375 12.432 12.477 12.51 12.54 12.57 12.602 12.653 12.723 12.802 12.842 12.532 11.963 11.65 11.615 11.645 11.678 12.165 13.045 13.405 13.42 13.503 13.543 13.585 13.627 13.662 13.14 12.468 12.435 12.892 13.27 13.295 13.267 13.21 13.149 12.108 11.323 11.418 11.658 12.52 12.502 11.543 11.08 11.265 12.008 12.512 12.427 12.295 12.067 11.775 11.608 11.588 11.573 11.563 11.557 11.507 11.42 11.338 11.27 11.22 11.167 11.112 11.04 10.943 10.84 10.745 10.658 10.575 10.495 10.413 10.335 10.285 10.265 10.25 10.265 10.318 10.375 10.415 10.41 10.367 10.315 10.28 10.27 10.27 10.27 10.247 10.158 10.035 9.93 9.825 9.715 9.603 9.486 9.758 10.545 11.287 12.307 13.176 12.027 9.938 9.185 9.222 9.195 9.165 9.135 9.085 9.053 9.04 9.01 8.98 8.917 8.775 8.59 8.46 8.38 8.3 8.215 8.125 8.038 8.018 8.2 7.89 7.415 7.4 7.38 7.36 7.34 7.333 7.348 7.37 7.37 7.35 7.327 7.303 7.283 7.27 7.255 7.24 7.245 7.3 7.387 7.472 7.492 7.445
13.617 13.622 13.627 13.62 13.565 13.47 13.355 13.22 13.115 13.055 12.99 12.913 12.845 12.79 12.75 12.72 12.685 12.63 12.56 12.49 12.43 12.388 12.358 12.328 12.303 12.3 12.31 12.322 12.33 12.33 12.327 12.3 12.253 12.208 12.165 12.165 12.18 12.142 12.077 11.99 11.827 11.643 11.568 11.562 11.54 11.51 11.477 11.437 11.392 11.38 11.443 11.583 11.803 12.06 12.215 12.27 12.325 12.382 12.425 12.445 12.463 12.488 12.523 12.58 12.65 12.73 12.645 12.268 11.865 11.715 11.73 11.745 11.76 11.768 12.605 13.36 13.417 13.567 13.565 13.545 13.523 13.47 12.463 11.394 11.408 12.34 13.167 13.154 12.66 12.188 12.232 11.803 11.473 11.522 11.281 12.06 12.931 11.982 11.078 11.06 11.86 12.602 12.492 12.34 12.11 11.84 11.648 11.6 11.59 11.588 11.597 11.545 11.433 11.34 11.275 11.225 11.178 11.135 11.092 11.042 10.972 10.888 10.807 10.727 10.642 10.555 10.468 10.407 10.367 10.313 10.3 10.345 10.377 10.377 10.345 10.298 10.268 10.265 10.27 10.27 10.27 10.255 10.155 10 9.875 9.765 9.655 9.537 9.412 9.29 9.216 9.436 10.353 11.127 10.188 9.183 9.27 9.332 9.32 9.29 9.235 9.138 9.123 9.15 9.12 9.072 8.955 8.78 8.6 8.465 8.375 8.285 8.19 8.09 8.015 8.068 8.272 7.922 7.435 7.415 7.4 7.393 7.38 7.373 7.388 7.41 7.412 7.392 7.365 7.338 7.318 7.303 7.288 7.273 7.278 7.335 7.422 7.507 7.53 7.483
13.482 13.535 13.55 13.557 13.53 13.45 13.335 13.215 13.14 13.095 13.03 12.948 12.875 12.81 12.75 12.703 12.665 12.617 12.553 12.495 12.458 12.43 12.403 12.373 12.343 12.32 12.31 12.31 12.307 12.305 12.295 12.257 12.208 12.163 12.123 12.13 12.17 12.165 12.087 11.93 11.705 11.525 11.47 11.472 11.465 11.44 11.407 11.37 11.33 11.353 11.475 11.615 11.765 11.985 12.155 12.222 12.28 12.34 12.387 12.388 12.38 12.405 12.45 12.515 12.585 12.642 12.482 12.15 11.915 11.835 11.85 11.862 11.857 11.83 12.37 12.965 13.102 13.435 13.657 13.642 13.617 13.499 12.408 11.373 11.285 11.863 12.36 12.272 11.905 11.501 11.543 11.613 11.6 11.51 11.361 12.108 12.904 11.965 11.071 11.058 11.528 12.302 12.545 12.37 12.132 11.89 11.69 11.618 11.623 11.63 11.642 11.592 11.465 11.35 11.28 11.235 11.2 11.173 11.148 11.125 11.09 11.03 10.955 10.867 10.772 10.68 10.587 10.512 10.45 10.38 10.34 10.337 10.327 10.305 10.278 10.255 10.255 10.265 10.27 10.27 10.27 10.265 10.175 10.005 9.845 9.71 9.59 9.463 9.33 9.2 9.123 9.113 9.116 9.121 9.153 9.235 9.347 9.432 9.442 9.385 9.28 9.168 9.19 9.252 9.222 9.13 8.985 8.83 8.635 8.44 8.31 8.21 8.107 8.005 7.983 8.112 8.28 7.912 7.478 7.473 7.465 7.458 7.448 7.438 7.438 7.453 7.457 7.435 7.405 7.375 7.353 7.338 7.323 7.308 7.313 7.37 7.455 7.54 7.565 7.52
13.28 13.373 13.442 13.47 13.472 13.425 13.323 13.233 13.18 13.135 13.07 12.985 12.908 12.84 12.775 12.715 12.66 12.607 12.56 12.527 12.502 12.477 12.45 12.42 12.39 12.33 12.285 12.285 12.283 12.28 12.26 12.212 12.16 12.115 12.085 12.1 12.145 12.142 12.025 11.81 11.565 11.405 11.373 11.378 11.382 11.362 11.317 11.272 11.228 11.243 11.387 11.58 11.747 11.932 12.092 12.18 12.24 12.3 12.36 12.355 12.313 12.325 12.38 12.447 12.51 12.555 12.425 12.135 11.97 11.955 11.96 11.95 11.915 11.87 11.985 12.393 12.583 13.147 13.794 13.2 12.873 13.309 12.602 11.536 11.303 11.488 11.658 11.62 11.67 11.667 11.593 11.508 11.685 12.075 12.233 12.595 12.915 12.387 11.485 11.05 11.096 11.903 12.587 12.395 12.16 11.935 11.738 11.65 11.655 11.667 11.682 11.635 11.505 11.375 11.303 11.27 11.245 11.225 11.2 11.175 11.155 11.122 11.052 10.955 10.857 10.762 10.672 10.595 10.525 10.455 10.375 10.315 10.285 10.26 10.245 10.245 10.255 10.265 10.27 10.27 10.267 10.262 10.187 10.03 9.858 9.7 9.565 9.43 9.295 9.178 9.115 9.125 9.16 9.193 9.245 9.33 9.435 9.535 9.532 9.423 9.295 9.208 9.258 9.342 9.307 9.198 9.09 8.94 8.7 8.425 8.235 8.128 8.018 7.913 7.88 8.005 8.152 7.915 7.605 7.572 7.56 7.537 7.52 7.512 7.505 7.505 7.497 7.47 7.44 7.41 7.388 7.372 7.358 7.343 7.348 7.403 7.485 7.57 7.6 7.565
13.183 13.235 13.303 13.355 13.395 13.382 13.325 13.265 13.22 13.175 13.11 13.025 12.943 12.87 12.805 12.745 12.675 12.593 12.532 12.505 12.48 12.477 12.487 12.47 12.437 12.363 12.283 12.26 12.257 12.252 12.222 12.168 12.115 12.068 12.045 12.07 12.082 12.012 11.845 11.622 11.408 11.295 11.29 11.3 11.302 11.27 11.213 11.16 11.113 11.105 11.225 11.435 11.647 11.85 12.027 12.14 12.203 12.265 12.327 12.342 12.29 12.26 12.295 12.353 12.407 12.465 12.377 12.155 12.06 12.06 12.035 11.997 11.953 11.908 11.863 12.083 12.193 12.403 12.7 12.013 11.571 12.66 13.109 12.005 11.325 11.473 11.67 11.653 11.556 11.558 11.953 12.293 12.54 12.985 13.169 13.102 12.978 12.854 11.92 11.04 11.033 11.702 12.465 12.445 12.225 12.015 11.828 11.708 11.673 11.68 11.7 11.657 11.527 11.393 11.335 11.32 11.295 11.275 11.25 11.225 11.202 11.17 11.105 11.01 10.913 10.823 10.745 10.675 10.605 10.53 10.425 10.33 10.283 10.255 10.245 10.248 10.255 10.265 10.26 10.25 10.245 10.235 10.19 10.065 9.895 9.738 9.6 9.478 9.365 9.27 9.203 9.193 9.227 9.263 9.325 9.42 9.522 9.625 9.612 9.48 9.34 9.265 9.33 9.438 9.425 9.343 9.237 9.027 8.725 8.388 8.168 8.063 7.946 7.831 7.766 7.803 7.905 7.847 7.698 7.648 7.625 7.605 7.588 7.58 7.575 7.562 7.538 7.505 7.475 7.445 7.423 7.408 7.392 7.37 7.368 7.42 7.502 7.577 7.605 7.58
13.208 13.223 13.238 13.275 13.288 13.303 13.327 13.3 13.26 13.215 13.15 13.065 12.978 12.9 12.835 12.77 12.685 12.575 12.47 12.413 12.388 12.433 12.53 12.535 12.483 12.42 12.315 12.245 12.232 12.217 12.177 12.125 12.072 12.02 12.005 11.995 11.92 11.785 11.595 11.4 11.265 11.218 11.225 11.24 11.227 11.175 11.113 11.053 11 10.968 11.065 11.275 11.485 11.7 11.915 12.077 12.167 12.23 12.297 12.352 12.29 12.205 12.22 12.26 12.303 12.352 12.312 12.203 12.155 12.125 12.08 12.038 11.995 11.955 11.915 11.968 12.042 11.89 11.646 11.443 11.181 12.297 13.461 12.35 11.391 11.505 11.516 11.905 12.342 12.42 12.89 13.304 13.345 13.342 13.297 13.195 13.058 12.925 11.948 11.031 11.025 11.275 12.08 12.535 12.333 12.13 11.943 11.803 11.718 11.688 11.7 11.657 11.527 11.398 11.355 11.362 11.347 11.325 11.302 11.275 11.242 11.205 11.15 11.067 10.973 10.89 10.822 10.755 10.685 10.6 10.485 10.365 10.293 10.265 10.255 10.255 10.258 10.262 10.245 10.218 10.203 10.192 10.172 10.085 9.935 9.793 9.678 9.58 9.493 9.407 9.323 9.278 9.293 9.328 9.393 9.493 9.597 9.7 9.71 9.595 9.46 9.38 9.43 9.662 9.712 9.533 9.343 9.065 8.702 8.32 8.1 8.008 8.863 9.47 8.831 8.318 8.008 7.796 7.72 7.703 7.683 7.668 7.653 7.643 7.635 7.617 7.585 7.548 7.513 7.48 7.458 7.442 7.417 7.375 7.368 7.425 7.497 7.55 7.575 7.56
13.235 13.245 13.26 13.275 13.26 13.268 13.3 13.302 13.29 13.255 13.187 13.102 13.015 12.933 12.862 12.782 12.677 12.562 12.44 12.34 12.295 12.388 12.587 12.632 12.548 12.482 12.375 12.255 12.208 12.182 12.135 12.082 12.027 11.967 11.907 11.812 11.68 11.535 11.373 11.248 11.185 11.163 11.165 11.172 11.145 11.082 11.018 10.955 10.895 10.843 10.915 11.115 11.328 11.545 11.765 11.972 12.115 12.19 12.27 12.34 12.247 12.145 12.17 12.2 12.23 12.268 12.28 12.255 12.22 12.178 12.135 12.095 12.058 12.023 11.988 11.973 12.037 12.03 11.855 11.61 11.32 11.71 12.817 12.762 12.21 12.335 12.383 12.855 13.367 13.432 13.495 13.53 13.515 13.47 13.397 13.28 13.135 12.99 12.41 11.458 11.015 10.991 11.815 12.607 12.447 12.245 12.058 11.918 11.81 11.728 11.705 11.652 11.523 11.403 11.365 11.385 11.39 11.375 11.352 11.32 11.28 11.24 11.195 11.125 11.04 10.965 10.898 10.833 10.765 10.67 10.545 10.415 10.318 10.278 10.268 10.265 10.265 10.262 10.24 10.203 10.17 10.15 10.132 10.082 9.99 9.887 9.797 9.712 9.628 9.543 9.46 9.388 9.365 9.393 9.458 9.56 9.67 9.777 9.817 9.75 9.652 9.568 9.693 10.007 10.015 9.885 9.695 9.178 8.64 8.248 8.033 8.038 10.062 11.698 10.937 10.09 9.338 8.788 8.383 8.075 7.858 7.745 7.718 7.705 7.695 7.675 7.638 7.595 7.555 7.518 7.493 7.465 7.417 7.363 7.363 7.42 7.47 7.507 7.54 7.54
13.265 13.27 13.283 13.297 13.31 13.28 13.25 13.265 13.277 13.267 13.212 13.13 13.047 12.965 12.88 12.777 12.663 12.548 12.43 12.308 12.243 12.365 12.617 12.722 12.647 12.557 12.447 12.302 12.197 12.127 12.055 11.98 11.907 11.837 11.75 11.623 11.473 11.333 11.23 11.175 11.135 11.108 11.105 11.097 11.055 10.99 10.925 10.862 10.798 10.738 10.78 10.958 11.175 11.395 11.613 11.83 12.025 12.147 12.212 12.225 12.148 12.103 12.138 12.173 12.208 12.245 12.282 12.302 12.285 12.245 12.205 12.165 12.13 12.098 12.068 12.06 12.075 12.097 12.01 11.76 11.462 11.168 12.19 13.229 13.15 13.297 13.432 13.51 13.59 13.667 13.702 13.675 13.62 13.562 13.472 13.335 13.18 13.03 12.879 11.902 11.005 10.965 11.508 12.345 12.53 12.36 12.173 12.03 11.923 11.818 11.74 11.652 11.525 11.415 11.378 11.395 11.412 11.415 11.392 11.355 11.312 11.27 11.23 11.18 11.118 11.05 10.98 10.915 10.842 10.732 10.6 10.47 10.35 10.29 10.283 10.278 10.275 10.267 10.24 10.198 10.155 10.12 10.095 10.07 10.027 9.97 9.907 9.84 9.762 9.68 9.597 9.513 9.455 9.458 9.525 9.63 9.737 9.837 9.892 9.86 9.78 9.698 10.017 10.33 10.3 10.372 10.277 9.89 9.347 8.538 8.05 8.181 10.342 12.251 11.949 11.444 10.869 10.409 9.9 9.317 8.828 8.533 8.33 8.143 7.945 7.78 7.698 7.655 7.618 7.58 7.535 7.478 7.41 7.348 7.345 7.39 7.43 7.468 7.505 7.525
13.297 13.303 13.31 13.323 13.337 13.27 13.2 13.213 13.222 13.227 13.197 13.125 13.045 12.982 12.9 12.78 12.66 12.538 12.418 12.303 12.298 12.455 12.665 12.76 12.682 12.55 12.382 12.177 12 11.892 11.835 11.777 11.707 11.633 11.587 11.497 11.333 11.208 11.153 11.12 11.08 11.05 11.042 11.02 10.962 10.898 10.833 10.768 10.708 10.675 10.703 10.843 11.058 11.273 11.485 11.698 11.912 12.087 12.152 12.13 12.103 12.103 12.13 12.17 12.21 12.25 12.287 12.322 12.337 12.315 12.275 12.238 12.205 12.178 12.153 12.145 12.145 12.125 12.052 11.852 11.585 11.31 12.172 13.222 13.31 13.405 13.497 13.592 13.685 13.76 13.765 13.71 13.65 13.59 13.497 13.357 13.2 13.05 12.917 12.108 11.178 10.948 11.063 11.898 12.55 12.452 12.285 12.143 12.037 11.925 11.807 11.685 11.558 11.443 11.395 11.41 11.43 11.422 11.385 11.342 11.297 11.26 11.233 11.225 11.207 11.152 11.085 11.017 10.92 10.785 10.65 10.52 10.393 10.313 10.295 10.29 10.282 10.27 10.24 10.198 10.155 10.115 10.085 10.06 10.025 9.982 9.94 9.897 9.845 9.785 9.722 9.65 9.57 9.538 9.595 9.692 9.777 9.867 9.93 9.9 9.82 9.813 10.248 10.617 10.632 10.652 10.595 10.545 10.042 8.755 8.058 8.296 10.402 12.241 11.939 11.607 11.295 11.045 10.787 10.402 10.025 9.727 9.427 9.12 8.752 8.395 8.138 7.92 7.758 7.685 7.625 7.563 7.485 7.378 7.343 7.38 7.42 7.46 7.5 7.527
13.33 13.335 13.34 13.35 13.362 13.29 13.195 13.168 13.158 13.165 13.152 13.095 13.028 12.997 12.932 12.808 12.68 12.55 12.425 12.33 12.378 12.54 12.697 12.72 12.577 12.41 12.202 11.933 11.67 11.513 11.495 11.527 11.505 11.43 11.415 11.37 11.215 11.11 11.08 11.055 11.022 10.993 10.972 10.932 10.868 10.808 10.748 10.688 10.645 10.688 10.723 10.788 10.98 11.19 11.4 11.61 11.817 12.007 12.125 12.152 12.148 12.13 12.135 12.175 12.215 12.253 12.29 12.327 12.36 12.37 12.347 12.315 12.287 12.26 12.23 12.197 12.152 12.088 12.015 11.843 11.605 11.383 11.653 12.652 13.31 13.405 13.5 13.595 13.68 13.727 13.72 13.68 13.627 13.567 13.482 13.362 13.217 13.073 12.947 12.57 11.615 10.928 10.86 11.645 12.479 12.485 12.382 12.255 12.137 12.007 11.872 11.74 11.61 11.483 11.42 11.43 11.432 11.39 11.335 11.295 11.26 11.238 11.228 11.25 11.277 11.257 11.2 11.122 10.997 10.84 10.7 10.573 10.45 10.348 10.305 10.297 10.282 10.265 10.237 10.2 10.16 10.123 10.098 10.063 10.013 9.968 9.925 9.887 9.85 9.812 9.775 9.725 9.665 9.623 9.647 9.717 9.79 9.897 9.972 9.937 9.855 10.103 10.615 10.847 10.82 10.747 10.683 10.63 9.725 8.345 7.945 8.198 9.295 10.322 10.822 11.326 11.249 10.972 10.76 10.567 10.387 10.182 9.95 9.705 9.41 9.085 8.757 8.42 8.135 7.943 7.805 7.7 7.582 7.433 7.37 7.405 7.445 7.485 7.52 7.54
13.363 13.368 13.373 13.38 13.387 13.342 13.26 13.193 13.148 13.12 13.103 13.068 13.035 13.03 12.965 12.84 12.718 12.605 12.5 12.418 12.415 12.52 12.655 12.62 12.428 12.24 12.037 11.773 11.495 11.273 11.193 11.252 11.28 11.228 11.225 11.22 11.105 11.02 11 10.98 10.957 10.932 10.898 10.845 10.788 10.733 10.678 10.625 10.64 10.775 10.81 10.78 10.915 11.125 11.335 11.54 11.735 11.917 12.082 12.182 12.202 12.178 12.158 12.18 12.22 12.257 12.295 12.332 12.367 12.397 12.39 12.352 12.322 12.29 12.25 12.207 12.145 12.065 11.985 11.902 11.683 11.418 11.234 12.201 13.312 13.407 13.502 13.595 13.662 13.685 13.67 13.635 13.595 13.542 13.46 13.35 13.225 13.095 12.97 12.852 11.875 10.903 10.805 11.25 12.105 12.465 12.41 12.29 12.147 12.025 11.932 11.813 11.665 11.53 11.455 11.44 11.405 11.355 11.313 11.275 11.25 11.233 11.23 11.26 11.305 11.33 11.307 11.215 11.065 10.898 10.75 10.625 10.505 10.388 10.32 10.3 10.28 10.26 10.235 10.2 10.165 10.14 10.125 10.103 10.063 10.003 9.93 9.875 9.835 9.798 9.76 9.72 9.685 9.652 9.658 9.718 9.815 9.942 10.012 9.972 9.88 10.37 10.957 10.975 10.907 10.833 10.77 10.597 9.28 7.946 7.81 7.915 7.981 8.136 8.823 9.532 9.682 9.907 10.372 10.512 10.367 10.179 9.96 9.725 9.485 9.242 8.987 8.715 8.435 8.175 7.965 7.788 7.623 7.465 7.4 7.432 7.47 7.51 7.537 7.55
13.395 13.4 13.407 13.412 13.415 13.377 13.307 13.242 13.18 13.118 13.073 13.053 13.062 13.075 13.017 12.91 12.805 12.71 12.628 12.55 12.488 12.518 12.587 12.5 12.295 12.093 11.89 11.67 11.395 11.128 11 10.998 11.03 11.02 11.025 11.06 11.005 10.94 10.92 10.903 10.89 10.877 10.837 10.778 10.723 10.668 10.615 10.608 10.715 10.897 10.917 10.795 10.85 11.06 11.267 11.462 11.642 11.82 12 12.157 12.24 12.242 12.2 12.188 12.225 12.262 12.3 12.335 12.367 12.4 12.392 12.348 12.305 12.267 12.223 12.192 12.157 12.085 12.003 12.06 11.825 11.438 11.785 12.725 13.31 13.4 13.487 13.567 13.62 13.635 13.62 13.585 13.55 13.515 13.455 13.365 13.268 13.158 13.035 12.915 12.355 11.343 10.778 10.858 11.708 12.417 12.347 12.225 12.115 12.035 11.99 11.92 11.778 11.608 11.493 11.448 11.415 11.388 11.355 11.308 11.265 11.23 11.23 11.268 11.313 11.36 11.38 11.292 11.125 10.953 10.803 10.683 10.568 10.453 10.383 10.355 10.323 10.29 10.258 10.22 10.19 10.178 10.17 10.165 10.155 10.117 10.04 9.95 9.873 9.798 9.74 9.7 9.665 9.64 9.653 9.733 9.858 9.99 10.052 10.01 9.978 10.523 11.047 11.02 10.975 10.915 10.847 10.28 8.823 7.798 7.675 7.663 7.685 7.72 7.785 7.868 7.981 8.378 8.952 9.18 9.115 9.155 9.262 9.305 9.347 9.254 9.017 8.76 8.5 8.267 8.06 7.865 7.683 7.508 7.43 7.455 7.49 7.527 7.55 7.56
13.427 13.433 13.44 13.445 13.422 13.352 13.275 13.215 13.155 13.1 13.068 13.06 13.075 13.092 13.055 12.977 12.897 12.82 12.752 12.685 12.61 12.565 12.52 12.388 12.203 12.018 11.835 11.657 11.285 10.945 10.87 10.828 10.813 10.805 10.825 10.89 10.898 10.868 10.855 10.845 10.838 10.832 10.795 10.728 10.663 10.605 10.585 10.668 10.83 10.99 10.997 10.843 10.823 10.993 11.187 11.37 11.548 11.725 11.903 12.08 12.23 12.295 12.257 12.213 12.23 12.265 12.297 12.33 12.36 12.39 12.387 12.345 12.295 12.245 12.193 12.165 12.157 12.112 12.035 12.19 12.277 12.193 12.662 13.162 13.26 13.345 13.425 13.49 13.543 13.598 13.622 13.603 13.57 13.543 13.523 13.483 13.41 13.31 13.19 13.062 12.902 11.857 10.813 10.748 11.46 12.242 12.287 12.2 12.14 12.088 12.04 12.007 11.925 11.755 11.593 11.513 11.488 11.472 11.437 11.38 11.32 11.275 11.27 11.293 11.33 11.38 11.422 11.355 11.185 11 10.86 10.767 10.66 10.55 10.49 10.482 10.458 10.415 10.373 10.333 10.295 10.26 10.23 10.215 10.215 10.215 10.19 10.12 10.02 9.908 9.813 9.738 9.665 9.655 9.705 9.783 9.903 10.037 10.097 10.04 10.28 10.822 11.062 11.04 11.012 10.972 10.897 9.772 8.228 7.685 7.608 7.603 7.605 7.603 7.615 7.663 7.725 7.773 7.778 7.746 7.703 7.798 7.993 8.148 8.318 8.38 8.287 8.143 8.077 8.145 8.127 7.96 7.765 7.555 7.445 7.47 7.51 7.542 7.56 7.57
13.46 13.465 13.47 13.462 13.397 13.29 13.203 13.14 13.09 13.068 13.078 13.08 13.073 13.082 13.055 12.987 12.912 12.847 12.815 12.772 12.705 12.632 12.518 12.358 12.19 12.025 11.86 11.69 11.208 10.79 10.748 10.703 10.668 10.67 10.715 10.79 10.848 10.845 10.82 10.805 10.795 10.79 10.757 10.69 10.62 10.578 10.618 10.745 10.892 11.022 11.037 10.913 10.823 10.91 11.097 11.275 11.452 11.63 11.807 11.985 12.162 12.302 12.322 12.255 12.235 12.265 12.295 12.325 12.353 12.38 12.385 12.35 12.295 12.23 12.165 12.133 12.135 12.122 12.098 12.328 12.727 12.914 12.962 13.048 13.162 13.255 13.33 13.398 13.48 13.587 13.662 13.677 13.66 13.63 13.627 13.637 13.6 13.51 13.387 13.225 13.007 12.1 11.06 10.743 11.04 11.862 12.3 12.245 12.19 12.14 12.09 12.06 12.032 11.93 11.778 11.66 11.59 11.56 11.525 11.468 11.42 11.393 11.388 11.393 11.41 11.44 11.47 11.4 11.215 11.018 10.903 10.852 10.765 10.658 10.603 10.617 10.627 10.6 10.558 10.517 10.475 10.42 10.365 10.328 10.3 10.275 10.265 10.247 10.202 10.115 10 9.89 9.79 9.788 9.855 9.893 9.96 10.082 10.14 10.06 10.52 11.07 11.08 11.057 11.032 11.002 10.702 9.223 7.833 7.633 7.65 7.68 7.672 7.635 7.598 7.595 7.62 7.65 7.618 7.513 7.398 7.303 7.288 7.33 7.383 7.463 7.498 7.46 7.513 7.698 7.79 7.762 7.73 7.572 7.438 7.468 7.517 7.552 7.57 7.58
13.493 13.497 13.5 13.455 13.35 13.228 13.13 13.08 13.068 13.085 13.107 13.105 13.085 13.082 13.055 12.97 12.862 12.765 12.795 12.83 12.765 12.692 12.565 12.395 12.225 12.058 11.892 11.642 11.083 10.668 10.635 10.633 10.655 10.705 10.758 10.808 10.877 10.895 10.853 10.815 10.785 10.76 10.728 10.68 10.633 10.608 10.66 10.777 10.903 11.03 11.065 10.968 10.865 10.865 10.928 11.05 11.237 11.425 11.615 11.805 11.992 12.18 12.307 12.285 12.233 12.25 12.282 12.317 12.347 12.375 12.385 12.352 12.29 12.218 12.145 12.1 12.098 12.108 12.155 12.365 12.647 12.762 12.81 12.923 13.048 13.158 13.245 13.343 13.468 13.592 13.675 13.717 13.732 13.715 13.713 13.742 13.755 13.697 13.545 13.325 13.082 12.6 11.595 10.83 10.808 11.637 12.345 12.292 12.24 12.19 12.138 12.105 12.097 12.062 11.97 11.852 11.745 11.67 11.623 11.583 11.555 11.54 11.54 11.547 11.553 11.56 11.542 11.417 11.203 11.015 10.925 10.895 10.845 10.76 10.715 10.737 10.767 10.77 10.742 10.705 10.655 10.597 10.552 10.512 10.46 10.408 10.373 10.343 10.315 10.275 10.2 10.1 10.02 10.015 10.057 10.065 10.065 10.138 10.172 10.14 10.62 11.11 11.097 11.073 11.048 11.022 10.205 8.61 7.748 7.7 7.727 7.717 7.682 7.637 7.605 7.595 7.608 7.62 7.545 7.408 7.3 7.223 7.178 7.21 7.303 7.382 7.4 7.383 7.39 7.408 7.42 7.465 7.545 7.505 7.425 7.453 7.507 7.552 7.575 7.585
13.525 13.53 13.507 13.415 13.29 13.168 13.085 13.073 13.095 13.125 13.14 13.13 13.107 13.09 13.032 12.912 12.78 12.65 12.703 12.845 12.837 12.747 12.605 12.435 12.265 12.095 11.897 11.432 10.838 10.6 10.625 10.68 10.75 10.82 10.867 10.893 10.938 10.965 10.935 10.88 10.822 10.768 10.72 10.688 10.662 10.635 10.675 10.79 10.913 11.037 11.09 11.043 10.99 10.95 10.89 10.888 10.953 11.078 11.27 11.47 11.67 11.87 12.057 12.155 12.182 12.217 12.255 12.295 12.332 12.367 12.382 12.355 12.303 12.245 12.188 12.135 12.113 12.12 12.178 12.308 12.468 12.593 12.705 12.843 12.98 13.103 13.21 13.333 13.47 13.595 13.677 13.73 13.772 13.787 13.8 13.825 13.845 13.817 13.655 13.407 13.163 12.942 11.97 10.968 10.87 11.413 12.142 12.337 12.29 12.24 12.185 12.15 12.148 12.152 12.11 12.01 11.897 11.803 11.75 11.725 11.705 11.69 11.69 11.7 11.707 11.685 11.602 11.422 11.183 11.013 10.945 10.915 10.885 10.835 10.812 10.84 10.875 10.905 10.897 10.842 10.765 10.697 10.65 10.61 10.57 10.53 10.49 10.45 10.412 10.387 10.357 10.295 10.252 10.255 10.267 10.26 10.232 10.237 10.203 10.428 10.917 11.127 11.112 11.09 11.065 10.939 9.615 8.086 7.778 7.787 7.76 7.702 7.653 7.615 7.595 7.593 7.6 7.6 7.55 7.473 7.423 7.37 7.277 7.205 7.238 7.297 7.313 7.328 7.35 7.367 7.38 7.385 7.398 7.403 7.403 7.438 7.495 7.55 7.58 7.59
13.557 13.545 13.475 13.358 13.24 13.155 13.113 13.113 13.14 13.167 13.167 13.145 13.122 13.085 12.99 12.843 12.695 12.555 12.57 12.767 12.877 12.802 12.642 12.425 12.167 11.955 11.777 11.238 10.735 10.705 10.753 10.8 10.86 10.93 10.98 11.01 11.04 11.037 10.987 10.92 10.855 10.792 10.735 10.695 10.665 10.638 10.685 10.807 10.93 11.05 11.132 11.152 11.137 11.11 11.06 10.988 10.915 10.905 10.963 11.083 11.27 11.468 11.65 11.827 11.995 12.1 12.15 12.19 12.23 12.3 12.39 12.417 12.385 12.345 12.302 12.245 12.19 12.175 12.218 12.313 12.438 12.583 12.735 12.885 13.033 13.138 13.228 13.348 13.477 13.6 13.685 13.745 13.802 13.837 13.855 13.867 13.867 13.83 13.705 13.487 13.232 12.99 12.462 11.518 10.97 11.1 11.825 12.382 12.335 12.285 12.233 12.205 12.213 12.232 12.21 12.12 12.013 11.943 11.905 11.875 11.855 11.843 11.843 11.85 11.827 11.74 11.617 11.427 11.17 11.008 10.96 10.927 10.892 10.857 10.845 10.867 10.902 10.94 10.955 10.9 10.815 10.75 10.688 10.63 10.585 10.55 10.522 10.497 10.47 10.442 10.417 10.387 10.375 10.38 10.367 10.337 10.31 10.285 10.2 10.64 11.147 11.142 11.13 11.107 11.082 10.567 8.993 7.883 7.845 7.812 7.735 7.665 7.618 7.588 7.583 7.595 7.605 7.618 7.64 7.635 7.567 7.442 7.332 7.245 7.208 7.23 7.253 7.28 7.305 7.322 7.332 7.335 7.335 7.343 7.37 7.42 7.48 7.537 7.572 7.585
13.582 13.53 13.42 13.318 13.25 13.223 13.203 13.178 13.185 13.212 13.197 13.155 13.125 13.062 12.95 12.802 12.64 12.485 12.415 12.54 12.725 12.672 12.425 12.13 11.873 11.73 11.488 11.093 10.92 10.968 10.998 11.022 11.052 11.085 11.128 11.162 11.157 11.102 11.013 10.933 10.868 10.808 10.755 10.708 10.668 10.645 10.7 10.823 10.945 11.06 11.162 11.232 11.265 11.262 11.22 11.152 11.08 11.01 10.94 10.925 10.978 11.088 11.263 11.468 11.685 11.87 11.965 12.025 12.12 12.26 12.42 12.517 12.52 12.48 12.43 12.365 12.295 12.248 12.273 12.38 12.53 12.695 12.855 13.005 13.132 13.2 13.265 13.375 13.477 13.59 13.71 13.792 13.842 13.862 13.867 13.855 13.815 13.74 13.637 13.494 13.285 13.05 12.934 12.035 11.103 11.06 11.75 12.424 12.375 12.328 12.285 12.275 12.295 12.317 12.307 12.23 12.14 12.1 12.07 12.03 12.005 11.995 11.995 11.967 11.877 11.75 11.625 11.435 11.173 11.013 10.965 10.925 10.885 10.85 10.83 10.838 10.865 10.897 10.927 10.917 10.865 10.805 10.742 10.678 10.615 10.563 10.523 10.49 10.463 10.437 10.41 10.388 10.38 10.377 10.352 10.305 10.27 10.238 10.275 10.75 11.162 11.16 11.147 11.123 11.097 10 8.416 7.905 7.86 7.782 7.695 7.625 7.585 7.568 7.583 7.61 7.62 7.658 7.737 7.742 7.612 7.423 7.288 7.225 7.225 7.258 7.245 7.235 7.258 7.28 7.29 7.293 7.298 7.31 7.345 7.4 7.457 7.507 7.542 7.565
13.585 13.488 13.393 13.348 13.333 13.327 13.307 13.268 13.245 13.26 13.242 13.177 13.115 13.025 12.905 12.772 12.592 12.372 12.205 12.178 12.23 12.17 11.968 11.765 11.663 11.63 11.36 11.14 11.21 11.272 11.27 11.185 11.165 11.25 11.31 11.295 11.23 11.147 11.053 10.958 10.883 10.825 10.772 10.72 10.673 10.655 10.72 10.837 10.95 11.057 11.16 11.25 11.322 11.367 11.367 11.32 11.25 11.155 11.03 10.93 10.873 10.9 11.053 11.258 11.463 11.66 11.772 11.853 12 12.172 12.39 12.585 12.645 12.615 12.555 12.485 12.415 12.353 12.37 12.495 12.655 12.815 12.975 13.12 13.207 13.244 13.287 13.355 13.423 13.55 13.74 13.847 13.867 13.842 13.787 13.72 13.632 13.204 12.493 12.103 12.627 13.107 12.982 12.123 11.238 11.155 11.455 12.117 12.42 12.378 12.353 12.358 12.382 12.405 12.405 12.35 12.29 12.267 12.237 12.193 12.158 12.142 12.107 12.015 11.89 11.76 11.635 11.447 11.193 11.035 10.975 10.92 10.878 10.845 10.825 10.818 10.828 10.852 10.872 10.88 10.862 10.827 10.782 10.725 10.667 10.607 10.548 10.498 10.46 10.43 10.403 10.385 10.38 10.37 10.335 10.28 10.235 10.195 10.523 11.027 11.18 11.177 11.162 11.14 10.872 9.4 8.071 7.913 7.825 7.74 7.655 7.588 7.558 7.563 7.598 7.627 7.648 7.705 7.767 7.73 7.577 7.38 7.235 7.195 7.285 7.39 7.36 7.29 7.253 7.24 7.25 7.263 7.275 7.29 7.325 7.378 7.43 7.475 7.51 7.54
13.56 13.48 13.445 13.44 13.438 13.435 13.412 13.37 13.33 13.318 13.295 13.18 12.982 12.78 12.605 12.46 12.31 12.138 12.01 11.925 11.843 11.778 11.708 11.64 11.6 11.55 11.448 11.392 11.427 11.462 11.36 11.163 11.158 11.322 11.39 11.325 11.25 11.18 11.1 10.995 10.9 10.84 10.787 10.735 10.685 10.668 10.733 10.845 10.953 11.06 11.168 11.257 11.33 11.405 11.442 11.332 11.17 11.067 10.97 10.898 10.865 10.898 11.035 11.225 11.395 11.517 11.58 11.635 11.725 11.863 12.14 12.467 12.69 12.747 12.69 12.63 12.573 12.52 12.558 12.7 12.848 12.973 13.102 12.735 12.233 12.125 12.697 13.322 13.358 13.515 13.75 13.82 13.752 13.667 13.484 12.845 12.308 11.875 11.106 10.726 11.93 13.009 12.937 12.6 11.75 11.263 11.461 12.1 12.477 12.44 12.428 12.443 12.468 12.492 12.505 12.485 12.455 12.435 12.405 12.357 12.307 12.252 12.155 12.028 11.9 11.77 11.642 11.46 11.218 11.063 10.998 10.938 10.89 10.855 10.835 10.823 10.81 10.803 10.798 10.795 10.792 10.787 10.77 10.737 10.695 10.64 10.582 10.527 10.478 10.433 10.398 10.383 10.377 10.357 10.315 10.26 10.208 10.193 10.7 11.2 11.197 11.192 11.18 11.157 10.355 8.798 7.975 7.875 7.785 7.698 7.615 7.558 7.545 7.575 7.622 7.648 7.683 7.74 7.737 7.662 7.525 7.338 7.198 7.223 7.39 7.545 7.542 7.427 7.313 7.245 7.245 7.265 7.28 7.29 7.315 7.358 7.403 7.445 7.48 7.51
13.575 13.553 13.548 13.545 13.545 13.542 13.517 13.472 13.428 13.392 13.327 13.072 12.635 12.23 12.005 11.925 11.903 11.93 11.927 11.868 11.8 11.733 11.673 11.62 11.57 11.515 11.495 11.505 11.505 11.502 11.34 11.158 11.188 11.32 11.367 11.295 11.225 11.165 11.102 11.02 10.92 10.845 10.795 10.745 10.695 10.683 10.753 10.865 10.975 11.085 11.192 11.277 11.348 11.422 11.422 11.253 11.045 10.943 10.91 10.895 10.875 10.913 11.055 11.215 11.315 11.363 11.39 11.42 11.47 11.58 11.843 12.24 12.64 12.86 12.867 12.82 12.773 12.74 12.805 12.95 13.07 13.16 13.25 12.35 11.281 11.066 11.985 13.167 13.343 13.48 13.642 13.609 13.11 12.563 12.345 11.75 11.146 10.916 10.771 10.778 11.367 11.823 12.372 13.032 12.61 12.103 12.252 12.527 12.565 12.535 12.518 12.53 12.555 12.58 12.605 12.615 12.605 12.585 12.535 12.46 12.395 12.315 12.208 12.085 11.955 11.823 11.685 11.498 11.28 11.145 11.083 11.033 10.975 10.918 10.89 10.88 10.848 10.795 10.758 10.738 10.723 10.71 10.703 10.695 10.677 10.64 10.592 10.545 10.495 10.442 10.395 10.373 10.362 10.337 10.295 10.24 10.203 10.373 10.885 11.217 11.213 11.207 11.195 11.074 9.757 8.308 7.993 7.858 7.748 7.655 7.575 7.538 7.555 7.598 7.645 7.675 7.712 7.727 7.67 7.585 7.465 7.293 7.18 7.255 7.44 7.61 7.617 7.482 7.363 7.288 7.275 7.295 7.307 7.305 7.318 7.355 7.395 7.435 7.47 7.5
13.66 13.655 13.65 13.647 13.645 13.642 13.617 13.572 13.527 13.48 13.475 13.002 12.21 11.723 11.555 11.605 11.693 11.815 11.892 11.872 11.805 11.738 11.68 11.627 11.573 11.528 11.51 11.51 11.51 11.507 11.375 11.238 11.243 11.318 11.35 11.263 11.175 11.115 11.063 11.015 10.93 10.845 10.795 10.745 10.703 10.705 10.785 10.902 11.015 11.125 11.227 11.307 11.375 11.447 11.385 11.288 11.203 11.068 10.993 10.935 10.89 10.928 11.033 11.12 11.188 11.25 11.315 11.383 11.465 11.578 11.8 12.148 12.558 12.93 13.062 13.022 12.975 12.97 13.055 13.17 13.257 13.325 13.385 12.675 11.625 11.23 11.505 12.622 13.367 13.247 12.885 12.598 12.16 11.663 11.515 11.33 11.081 10.911 11.455 11.487 10.871 10.786 11.59 12.732 13.005 12.877 12.747 12.697 12.675 12.652 12.628 12.623 12.643 12.67 12.7 12.725 12.73 12.71 12.632 12.515 12.428 12.357 12.272 12.172 12.055 11.92 11.765 11.583 11.415 11.303 11.235 11.18 11.102 11.02 10.98 10.96 10.912 10.845 10.783 10.738 10.703 10.673 10.653 10.638 10.623 10.602 10.577 10.54 10.492 10.445 10.39 10.353 10.337 10.315 10.275 10.233 10.235 10.655 11.145 11.232 11.23 11.225 11.21 10.704 9.175 8.136 8.052 7.895 7.75 7.628 7.545 7.535 7.575 7.622 7.665 7.705 7.717 7.67 7.59 7.505 7.405 7.25 7.178 7.273 7.42 7.585 7.602 7.48 7.39 7.328 7.31 7.327 7.33 7.315 7.325 7.365 7.408 7.45 7.485 7.507
13.73 13.725 13.72 13.717 13.715 13.717 13.702 13.662 13.615 13.6 13.179 12.335 11.7 11.4 11.37 11.475 11.59 11.708 11.837 11.875 11.808 11.745 11.687 11.632 11.578 11.53 11.51 11.51 11.513 11.515 11.435 11.35 11.343 11.36 11.35 11.247 11.135 11.07 11.025 10.99 10.932 10.855 10.795 10.748 10.723 10.735 10.813 10.935 11.052 11.167 11.267 11.342 11.405 11.472 11.45 11.47 11.437 11.275 11.175 11.065 10.958 10.958 11.038 11.113 11.205 11.305 11.41 11.515 11.615 11.733 11.923 12.198 12.54 12.93 13.18 13.212 13.175 13.192 13.267 13.335 13.392 13.44 13.477 13.245 12.257 11.42 11.236 12.298 13.422 13.025 12.228 11.753 11.703 11.67 11.508 11.613 12.03 12.198 12.727 12.742 11.558 10.858 11.061 12.17 12.982 12.885 12.825 12.802 12.78 12.76 12.735 12.72 12.733 12.76 12.79 12.822 12.845 12.825 12.735 12.6 12.48 12.393 12.312 12.23 12.135 12.017 11.87 11.72 11.595 11.482 11.392 11.312 11.22 11.125 11.07 11.03 10.967 10.9 10.833 10.773 10.723 10.685 10.655 10.623 10.59 10.568 10.55 10.518 10.48 10.432 10.37 10.33 10.313 10.295 10.26 10.248 10.35 10.847 11.252 11.25 11.247 11.242 11.229 10.175 8.666 8.198 8.117 7.962 7.805 7.655 7.573 7.568 7.598 7.645 7.687 7.707 7.67 7.59 7.51 7.425 7.337 7.22 7.198 7.305 7.423 7.562 7.59 7.503 7.435 7.373 7.348 7.352 7.34 7.323 7.333 7.372 7.42 7.465 7.492 7.5
13.77 13.765 13.762 13.767 13.77 13.775 13.775 13.747 13.7 13.204 12.223 11.585 11.353 11.253 11.293 11.378 11.49 11.605 11.76 11.852 11.812 11.75 11.693 11.638 11.583 11.533 11.51 11.51 11.515 11.52 11.487 11.447 11.432 11.407 11.345 11.227 11.103 11.033 10.995 10.96 10.925 10.862 10.795 10.76 10.755 10.768 10.838 10.962 11.085 11.205 11.3 11.365 11.427 11.492 11.53 11.585 11.57 11.425 11.267 11.132 11.045 11.015 11.11 11.255 11.355 11.455 11.56 11.665 11.77 11.895 12.063 12.315 12.625 12.948 13.25 13.38 13.352 13.355 13.4 13.44 13.477 13.515 13.55 13.579 12.692 11.653 11.423 12.21 13.277 13.23 12.423 11.803 11.745 12.16 12.475 12.69 13.172 13.262 13.2 13.304 12.18 10.921 10.848 11.968 13.042 12.945 12.917 12.89 12.862 12.84 12.815 12.805 12.823 12.852 12.885 12.917 12.95 12.932 12.832 12.697 12.563 12.438 12.34 12.257 12.17 12.075 11.955 11.825 11.702 11.585 11.48 11.387 11.302 11.217 11.152 11.095 11.025 10.955 10.888 10.82 10.758 10.71 10.675 10.64 10.605 10.575 10.543 10.508 10.477 10.415 10.343 10.31 10.29 10.273 10.265 10.295 10.603 11.075 11.27 11.267 11.263 11.257 11.009 9.593 8.338 8.26 8.185 8.03 7.88 7.763 7.71 7.69 7.685 7.695 7.697 7.663 7.59 7.51 7.43 7.348 7.265 7.2 7.225 7.327 7.43 7.535 7.58 7.54 7.48 7.418 7.38 7.365 7.345 7.328 7.335 7.372 7.415 7.455 7.475 7.475
13.807 13.785 13.782 13.81 13.825 13.832 13.837 13.825 13.285 12.155 11.548 11.44 11.288 11.265 11.293 11.32 11.395 11.503 11.65 11.795 11.817 11.755 11.7 11.645 11.588 11.535 11.51 11.513 11.518 11.522 11.515 11.492 11.455 11.395 11.302 11.178 11.07 11.015 10.978 10.938 10.903 10.855 10.805 10.788 10.792 10.798 10.855 10.972 11.092 11.202 11.28 11.335 11.4 11.467 11.52 11.527 11.473 11.355 11.22 11.148 11.148 11.118 11.163 11.352 11.505 11.605 11.71 11.815 11.928 12.06 12.208 12.438 12.745 13.05 13.35 13.502 13.475 13.45 13.475 13.515 13.552 13.587 13.62 13.652 12.972 12.023 11.643 11.788 12.795 13.467 12.628 11.851 11.835 12.332 13.169 13.427 13.292 13.175 13.15 13.245 12.235 11.041 10.891 11.808 12.927 13.047 12.985 12.955 12.925 12.9 12.878 12.878 12.907 12.937 12.962 12.99 13.02 13.01 12.915 12.777 12.637 12.488 12.358 12.258 12.167 12.08 11.97 11.84 11.712 11.598 11.505 11.41 11.32 11.25 11.187 11.132 11.077 11.015 10.945 10.875 10.808 10.745 10.695 10.658 10.625 10.595 10.56 10.525 10.49 10.415 10.34 10.31 10.293 10.285 10.308 10.373 10.825 11.262 11.287 11.283 11.28 11.275 10.535 9.025 8.28 8.322 8.26 8.113 7.995 7.935 7.905 7.867 7.822 7.775 7.723 7.663 7.593 7.515 7.435 7.355 7.28 7.23 7.225 7.283 7.375 7.467 7.55 7.565 7.512 7.453 7.41 7.385 7.365 7.345 7.335 7.355 7.392 7.427 7.445 7.448
13.83 13.775 13.765 13.817 13.852 13.87 13.882 13.727 12.605 11.461 11.293 11.273 11.25 11.297 11.33 11.33 11.35 11.415 11.53 11.72 11.815 11.763 11.708 11.653 11.6 11.553 11.525 11.523 11.525 11.53 11.52 11.477 11.415 11.34 11.238 11.125 11.05 11.01 10.975 10.935 10.893 10.85 10.825 10.822 10.822 10.82 10.86 10.958 11.072 11.17 11.225 11.27 11.333 11.4 11.475 11.51 11.458 11.34 11.258 11.263 11.287 11.247 11.198 11.363 11.617 11.755 11.86 11.965 12.085 12.225 12.365 12.573 12.865 13.167 13.452 13.59 13.562 13.533 13.55 13.59 13.627 13.66 13.69 13.725 13.477 12.642 11.918 11.636 12.55 13.504 13.04 12.255 11.85 11.908 12.755 13.475 13.338 13.278 13.285 13.295 12.835 11.663 11.291 12.228 13.037 13.187 13.088 13.02 12.985 12.958 12.943 12.958 12.985 12.995 13.008 13.035 13.06 13.06 12.982 12.845 12.695 12.533 12.385 12.26 12.155 12.065 11.955 11.83 11.713 11.608 11.532 11.44 11.325 11.24 11.183 11.14 11.1 11.05 10.992 10.932 10.865 10.795 10.73 10.68 10.645 10.612 10.578 10.545 10.502 10.425 10.355 10.333 10.333 10.343 10.37 10.548 11.007 11.307 11.302 11.297 11.29 11.202 9.962 8.558 8.34 8.37 8.315 8.207 8.13 8.08 8.03 7.975 7.907 7.83 7.76 7.707 7.66 7.6 7.525 7.45 7.385 7.325 7.268 7.248 7.29 7.373 7.475 7.55 7.537 7.483 7.445 7.418 7.395 7.375 7.35 7.34 7.365 7.4 7.417 7.423
13.832 13.75 13.733 13.79 13.842 13.88 13.904 13.205 11.988 11.363 11.238 11.238 11.268 11.328 11.367 11.37 11.37 11.385 11.438 11.618 11.78 11.777 11.727 11.677 11.635 11.595 11.56 11.545 11.545 11.545 11.515 11.438 11.353 11.278 11.185 11.1 11.045 11.003 10.97 10.94 10.903 10.865 10.853 10.852 10.845 10.84 10.865 10.94 11.05 11.137 11.175 11.21 11.265 11.333 11.41 11.492 11.547 11.525 11.443 11.41 11.422 11.372 11.278 11.333 11.622 11.882 12.01 12.12 12.248 12.39 12.53 12.715 12.983 13.277 13.54 13.657 13.642 13.62 13.628 13.665 13.7 13.73 13.763 13.797 13.83 13.115 12.223 11.906 12.463 13.317 13.467 12.662 11.85 11.85 12.722 13.524 13.415 13.425 13.472 13.45 13.44 12.862 12.643 13.267 13.465 13.35 13.22 13.113 13.055 13.015 13.01 13.03 13.037 13.033 13.045 13.072 13.095 13.107 13.045 12.905 12.745 12.578 12.428 12.29 12.163 12.055 11.943 11.828 11.723 11.625 11.555 11.482 11.36 11.245 11.183 11.14 11.1 11.055 11.01 10.965 10.912 10.852 10.785 10.72 10.67 10.63 10.595 10.565 10.515 10.433 10.378 10.377 10.392 10.408 10.435 10.795 11.22 11.297 11.285 11.275 11.26 10.857 9.393 8.341 8.377 8.375 8.325 8.27 8.215 8.15 8.085 8.022 7.945 7.855 7.783 7.735 7.7 7.667 7.617 7.555 7.495 7.435 7.375 7.315 7.283 7.3 7.373 7.485 7.54 7.515 7.48 7.45 7.425 7.405 7.38 7.353 7.348 7.373 7.392 7.4
13.82 13.725 13.705 13.76 13.82 13.872 13.375 12.258 11.555 11.398 11.342 11.345 11.352 11.375 11.4 11.405 11.405 11.405 11.413 11.533 11.72 11.772 11.73 11.695 11.665 11.635 11.602 11.58 11.572 11.565 11.525 11.435 11.333 11.243 11.163 11.098 11.045 10.998 10.96 10.935 10.913 10.89 10.877 10.87 10.86 10.858 10.88 10.935 11.025 11.097 11.127 11.155 11.2 11.27 11.35 11.43 11.518 11.602 11.615 11.58 11.557 11.497 11.403 11.345 11.54 11.917 12.152 12.277 12.41 12.55 12.69 12.855 13.092 13.375 13.617 13.715 13.71 13.697 13.703 13.737 13.77 13.8 13.835 13.87 13.9 13.358 12.84 12.86 13.023 13.35 13.49 12.813 11.995 11.85 12.293 13.122 13.532 13.61 13.67 13.678 13.69 13.725 13.782 13.834 13.77 13.6 13.438 13.298 13.175 13.09 13.072 13.077 13.067 13.062 13.077 13.102 13.127 13.15 13.097 12.952 12.785 12.617 12.465 12.327 12.192 12.063 11.945 11.838 11.735 11.643 11.573 11.515 11.4 11.275 11.205 11.155 11.113 11.065 11.015 10.97 10.93 10.882 10.827 10.77 10.71 10.655 10.615 10.585 10.527 10.428 10.38 10.405 10.435 10.465 10.57 10.997 11.315 11.275 11.238 11.213 11.235 10.367 8.91 8.365 8.382 8.368 8.335 8.305 8.26 8.197 8.132 8.06 7.97 7.875 7.805 7.763 7.733 7.712 7.682 7.632 7.577 7.522 7.467 7.412 7.36 7.318 7.31 7.388 7.502 7.537 7.51 7.482 7.457 7.432 7.405 7.375 7.35 7.353 7.368 7.383
13.823 13.73 13.718 13.78 13.84 13.894 12.83 11.656 11.49 11.393 11.372 11.372 11.375 11.375 11.4 11.427 11.43 11.43 11.433 11.5 11.67 11.747 11.698 11.66 11.635 11.615 11.592 11.585 11.59 11.585 11.555 11.475 11.365 11.263 11.185 11.125 11.068 11.008 10.97 10.955 10.94 10.918 10.893 10.88 10.87 10.873 10.9 10.943 11 11.05 11.08 11.105 11.14 11.21 11.3 11.393 11.493 11.585 11.66 11.695 11.682 11.622 11.53 11.438 11.5 11.855 12.227 12.412 12.53 12.652 12.775 12.91 13.125 13.407 13.635 13.722 13.73 13.74 13.762 13.795 13.825 13.855 13.887 13.917 13.945 13.735 13.612 13.747 13.725 13.592 13.462 13.202 12.423 11.851 12.006 12.903 13.705 13.812 13.882 13.932 13.987 14.037 13.557 13.5 13.974 13.95 13.827 13.68 13.52 13.25 13.055 13.045 13.038 13.06 13.09 13.107 13.135 13.162 13.117 12.975 12.805 12.635 12.485 12.352 12.215 12.075 11.955 11.85 11.745 11.65 11.58 11.53 11.435 11.33 11.26 11.198 11.143 11.093 11.045 10.998 10.95 10.898 10.848 10.8 10.747 10.693 10.643 10.602 10.532 10.408 10.35 10.387 10.432 10.483 10.793 11.21 11.327 11.28 11.223 11.187 11.007 9.753 8.523 8.38 8.387 8.382 8.365 8.342 8.302 8.242 8.172 8.087 7.992 7.898 7.825 7.788 7.765 7.745 7.715 7.672 7.625 7.575 7.525 7.475 7.43 7.382 7.328 7.34 7.448 7.527 7.525 7.497 7.467 7.435 7.407 7.382 7.358 7.345 7.353 7.378
13.85 13.76 13.763 13.84 13.899 13.389 12.258 11.588 11.438 11.348 11.323 11.31 11.305 11.305 11.353 11.427 11.455 11.455 11.458 11.483 11.635 11.735 11.675 11.62 11.575 11.543 11.525 11.543 11.58 11.597 11.585 11.515 11.408 11.31 11.235 11.175 11.107 11.028 10.995 11 10.99 10.96 10.918 10.893 10.88 10.885 10.915 10.945 10.955 10.962 10.985 11.015 11.075 11.175 11.28 11.385 11.482 11.563 11.638 11.72 11.782 11.752 11.66 11.6 11.69 12.03 12.365 12.497 12.563 12.645 12.747 12.863 13.073 13.337 13.535 13.625 13.648 13.712 13.777 13.797 13.82 13.85 13.877 13.902 13.922 13.917 13.887 13.835 13.74 13.61 13.44 13.345 12.992 12.693 12.958 13.522 13.932 14.02 14.084 13.74 13.248 13.145 12.655 12.593 13.602 14.145 14.08 13.925 13.695 13.275 12.96 12.95 12.98 13.055 13.097 13.1 13.12 13.147 13.102 12.967 12.805 12.635 12.49 12.362 12.227 12.09 11.968 11.862 11.75 11.633 11.56 11.525 11.467 11.395 11.325 11.255 11.188 11.128 11.08 11.037 10.99 10.94 10.888 10.835 10.785 10.733 10.678 10.617 10.517 10.378 10.323 10.363 10.415 10.533 10.982 11.35 11.34 11.297 11.24 11.227 10.552 9.118 8.383 8.395 8.402 8.402 8.395 8.38 8.342 8.277 8.2 8.11 8.015 7.92 7.848 7.815 7.795 7.775 7.747 7.707 7.66 7.612 7.565 7.515 7.47 7.425 7.375 7.37 7.43 7.502 7.52 7.487 7.45 7.415 7.39 7.37 7.355 7.348 7.358 7.388
13.885 13.793 13.808 13.894 13.384 12.27 11.645 11.532 11.398 11.31 11.283 11.26 11.245 11.24 11.29 11.395 11.465 11.482 11.485 11.488 11.612 11.712 11.66 11.6 11.54 11.488 11.468 11.495 11.545 11.587 11.605 11.555 11.457 11.365 11.287 11.217 11.135 11.045 11.013 11.032 11.037 11.01 10.96 10.918 10.893 10.898 10.915 10.91 10.883 10.855 10.858 10.915 11.028 11.157 11.275 11.38 11.468 11.548 11.635 11.738 11.847 11.87 11.818 11.88 12.11 12.387 12.537 12.57 12.6 12.645 12.71 12.803 12.985 13.197 13.367 13.468 13.535 13.672 13.77 13.778 13.78 13.8 13.825 13.845 13.847 13.83 13.833 13.845 13.785 13.64 13.455 13.303 13.373 13.612 13.867 14.059 13.864 13.385 13.17 12.795 12.278 12.163 12.195 12.233 13.22 14.077 13.847 13.562 13.315 13.097 12.91 12.893 12.98 13.075 13.11 13.105 13.113 13.13 13.075 12.942 12.797 12.635 12.49 12.365 12.237 12.105 11.98 11.867 11.737 11.598 11.518 11.48 11.44 11.405 11.365 11.315 11.25 11.18 11.118 11.065 11.02 10.98 10.935 10.887 10.837 10.783 10.727 10.645 10.503 10.345 10.295 10.348 10.423 10.723 11.177 11.37 11.352 11.312 11.257 11.124 9.975 8.658 8.393 8.412 8.422 8.417 8.412 8.4 8.355 8.28 8.2 8.115 8.027 7.938 7.873 7.845 7.825 7.805 7.78 7.74 7.693 7.648 7.602 7.555 7.51 7.465 7.423 7.428 7.47 7.51 7.51 7.47 7.43 7.395 7.37 7.358 7.358 7.36 7.373 7.4
13.925 13.828 13.844 13.369 12.255 11.631 11.54 11.447 11.35 11.285 11.255 11.228 11.203 11.183 11.233 11.355 11.457 11.502 11.512 11.515 11.595 11.675 11.645 11.585 11.525 11.478 11.465 11.493 11.538 11.583 11.615 11.585 11.502 11.415 11.33 11.242 11.147 11.055 11.015 11.037 11.062 11.047 11.002 10.955 10.913 10.9 10.895 10.873 10.848 10.82 10.808 10.873 11.003 11.135 11.262 11.372 11.463 11.553 11.653 11.765 11.885 11.972 12.04 12.197 12.417 12.557 12.615 12.65 12.68 12.71 12.743 12.803 12.925 13.083 13.233 13.353 13.488 13.665 13.77 13.78 13.77 13.77 13.777 13.78 13.77 13.768 13.795 13.837 13.812 13.688 13.565 13.528 13.61 13.84 13.583 13.188 12.935 12.421 12.178 12.191 12.215 12.353 12.597 12.703 13.102 13.467 13.21 12.908 12.805 12.828 12.843 12.888 13.002 13.09 13.117 13.115 13.112 13.112 13.045 12.907 12.772 12.627 12.487 12.36 12.235 12.107 11.98 11.852 11.712 11.568 11.468 11.405 11.36 11.345 11.335 11.312 11.275 11.232 11.175 11.107 11.048 11 10.96 10.92 10.877 10.832 10.785 10.687 10.512 10.33 10.283 10.36 10.51 10.962 11.347 11.38 11.367 11.33 11.28 10.752 9.358 8.433 8.398 8.415 8.425 8.412 8.4 8.385 8.337 8.26 8.18 8.1 8.02 7.95 7.905 7.878 7.855 7.835 7.81 7.772 7.727 7.682 7.637 7.592 7.547 7.503 7.473 7.477 7.505 7.527 7.512 7.465 7.418 7.38 7.363 7.365 7.373 7.378 7.39 7.413
13.96 13.862 13.312 12.238 11.618 11.525 11.433 11.34 11.295 11.288 11.265 11.235 11.208 11.188 11.22 11.33 11.452 11.515 11.532 11.543 11.575 11.632 11.63 11.57 11.523 11.505 11.51 11.535 11.575 11.612 11.627 11.59 11.515 11.43 11.34 11.245 11.145 11.05 11 11.013 11.05 11.055 11.02 10.975 10.935 10.92 10.91 10.893 10.878 10.858 10.843 10.875 10.978 11.11 11.24 11.36 11.467 11.57 11.677 11.782 11.898 12.05 12.217 12.38 12.512 12.605 12.675 12.72 12.75 12.783 12.818 12.875 12.975 13.103 13.235 13.34 13.465 13.642 13.755 13.77 13.757 13.742 13.73 13.718 13.71 13.728 13.768 13.815 13.845 13.838 13.84 13.867 13.908 14.085 13.418 12.406 12.211 12.215 12.308 12.563 12.737 12.842 12.995 12.965 12.765 12.638 12.54 12.483 12.543 12.643 12.773 12.89 12.992 13.057 13.075 13.077 13.077 13.07 12.987 12.84 12.7 12.56 12.427 12.3 12.18 12.067 11.945 11.805 11.66 11.517 11.403 11.325 11.28 11.265 11.255 11.24 11.225 11.212 11.185 11.142 11.092 11.037 10.985 10.94 10.9 10.86 10.82 10.705 10.515 10.338 10.3 10.395 10.693 11.167 11.392 11.387 11.38 11.347 11.262 10.277 8.898 8.425 8.403 8.402 8.4 8.387 8.375 8.357 8.312 8.24 8.16 8.08 8.013 7.975 7.95 7.923 7.898 7.873 7.842 7.802 7.755 7.71 7.665 7.617 7.57 7.53 7.508 7.503 7.513 7.53 7.522 7.475 7.425 7.398 7.395 7.403 7.408 7.413 7.423 7.44
13.965 13.337 12.206 11.603 11.51 11.42 11.328 11.265 11.28 11.317 11.31 11.28 11.258 11.255 11.273 11.333 11.447 11.525 11.545 11.562 11.575 11.612 11.615 11.565 11.545 11.55 11.563 11.585 11.62 11.647 11.632 11.577 11.505 11.42 11.327 11.232 11.135 11.04 10.98 10.98 11.022 11.045 11.02 10.975 10.958 10.972 10.97 10.95 10.932 10.91 10.895 10.905 10.968 11.085 11.215 11.34 11.455 11.555 11.648 11.763 11.923 12.123 12.315 12.46 12.56 12.64 12.72 12.782 12.822 12.858 12.895 12.968 13.08 13.205 13.327 13.393 13.455 13.605 13.717 13.727 13.712 13.695 13.678 13.66 13.663 13.705 13.768 13.833 13.913 14 14.067 14.117 14.162 14.245 13.992 13.048 12.58 12.755 12.85 13.087 13.187 13.07 12.895 12.678 12.463 12.29 12.263 12.363 12.495 12.635 12.765 12.87 12.937 12.97 12.982 12.987 12.992 12.99 12.902 12.745 12.593 12.445 12.318 12.205 12.1 12 11.885 11.74 11.585 11.44 11.325 11.245 11.2 11.185 11.172 11.158 11.145 11.135 11.122 11.107 11.087 11.055 11.015 10.967 10.92 10.88 10.827 10.7 10.525 10.368 10.333 10.503 10.952 11.34 11.4 11.395 11.39 11.36 11 9.695 8.591 8.435 8.4 8.38 8.37 8.36 8.35 8.33 8.287 8.22 8.14 8.07 8.033 8.02 8 7.975 7.95 7.915 7.872 7.82 7.768 7.722 7.675 7.625 7.583 7.563 7.55 7.533 7.525 7.532 7.527 7.488 7.453 7.448 7.455 7.462 7.467 7.47 7.475 7.488
13.547 12.42 11.633 11.498 11.403 11.31 11.243 11.243 11.297 11.35 11.355 11.328 11.318 11.33 11.35 11.378 11.453 11.527 11.555 11.575 11.592 11.617 11.615 11.593 11.595 11.603 11.615 11.635 11.662 11.665 11.62 11.562 11.495 11.41 11.315 11.22 11.125 11.028 10.955 10.95 11 11.037 11.022 10.985 10.99 11.022 11.027 11.007 10.982 10.958 10.948 10.953 10.978 11.065 11.192 11.305 11.398 11.485 11.603 11.78 11.995 12.215 12.397 12.512 12.595 12.675 12.755 12.83 12.89 12.93 12.98 13.07 13.185 13.307 13.41 13.457 13.485 13.583 13.672 13.675 13.658 13.643 13.65 13.68 13.703 13.74 13.81 13.89 13.983 14.088 14.178 14.247 14.302 14.17 14.027 13.632 13.277 13.307 13.252 13.185 13.06 12.87 12.668 12.463 12.305 12.255 12.3 12.39 12.5 12.63 12.75 12.822 12.855 12.875 12.887 12.893 12.9 12.902 12.82 12.66 12.5 12.35 12.233 12.137 12.04 11.942 11.83 11.685 11.525 11.37 11.248 11.163 11.118 11.105 11.09 11.075 11.065 11.055 11.04 11.025 11.015 11.005 10.99 10.96 10.927 10.887 10.812 10.705 10.567 10.413 10.39 10.69 11.18 11.42 11.41 11.403 11.397 11.377 10.58 9.153 8.485 8.432 8.383 8.358 8.345 8.335 8.32 8.297 8.262 8.2 8.13 8.088 8.075 8.07 8.052 8.025 7.99 7.945 7.895 7.835 7.775 7.725 7.675 7.633 7.613 7.615 7.61 7.585 7.558 7.545 7.535 7.51 7.498 7.505 7.515 7.522 7.527 7.532 7.54 7.55
12.758 11.853 11.603 11.42 11.298 11.22 11.205 11.25 11.312 11.375 11.395 11.383 11.39 11.41 11.43 11.45 11.487 11.532 11.56 11.577 11.595 11.62 11.632 11.635 11.645 11.652 11.662 11.682 11.692 11.662 11.605 11.547 11.485 11.403 11.305 11.21 11.115 11.015 10.933 10.925 10.98 11.03 11.025 11.008 11.035 11.067 11.072 11.055 11.03 11.005 11 11.008 11.015 11.063 11.168 11.283 11.385 11.495 11.665 11.883 12.1 12.31 12.457 12.547 12.63 12.71 12.79 12.87 12.945 13 13.073 13.18 13.295 13.412 13.49 13.522 13.542 13.585 13.638 13.67 13.7 13.733 13.788 13.865 13.905 13.913 13.94 13.978 14.055 14.192 14.315 14.345 14.327 14.037 13.665 13.58 13.435 13.232 13.11 12.982 12.85 12.685 12.49 12.33 12.275 12.3 12.357 12.437 12.527 12.63 12.71 12.745 12.763 12.78 12.793 12.8 12.808 12.812 12.737 12.583 12.425 12.275 12.163 12.072 11.977 11.885 11.777 11.635 11.478 11.32 11.188 11.088 11.035 11.025 11.013 11.003 10.995 10.985 10.975 10.965 10.958 10.95 10.938 10.928 10.92 10.862 10.753 10.658 10.56 10.44 10.52 10.96 11.347 11.43 11.42 11.41 11.402 11.207 10.007 8.758 8.485 8.415 8.365 8.345 8.328 8.315 8.293 8.265 8.237 8.188 8.145 8.13 8.122 8.115 8.097 8.062 8.015 7.967 7.917 7.855 7.788 7.728 7.683 7.663 7.665 7.675 7.67 7.642 7.607 7.577 7.555 7.545 7.55 7.56 7.567 7.572 7.58 7.587 7.595 7.605
12.036 11.658 11.557 11.373 11.218 11.168 11.205 11.265 11.325 11.387 11.425 11.432 11.44 11.45 11.46 11.47 11.482 11.507 11.535 11.55 11.573 11.62 11.655 11.665 11.675 11.685 11.695 11.712 11.7 11.648 11.592 11.535 11.48 11.41 11.318 11.225 11.133 11.04 10.975 10.968 10.985 11.018 11.032 11.032 11.05 11.052 11.042 11.03 11.018 11.038 11.092 11.125 11.138 11.16 11.228 11.343 11.47 11.61 11.795 12.012 12.215 12.392 12.507 12.583 12.665 12.745 12.825 12.905 12.985 13.055 13.14 13.25 13.36 13.455 13.487 13.49 13.51 13.53 13.655 13.81 13.89 13.97 14.047 14.1 14.1 14.077 14.067 14.065 14.115 14.277 14.477 14.26 13.915 13.717 13.438 13.255 13.13 13.003 12.878 12.75 12.625 12.488 12.35 12.288 12.3 12.325 12.36 12.425 12.51 12.595 12.655 12.685 12.703 12.72 12.733 12.738 12.74 12.732 12.657 12.512 12.358 12.208 12.09 12 11.91 11.82 11.717 11.587 11.437 11.283 11.148 11.048 10.995 10.98 10.973 10.968 10.963 10.955 10.948 10.943 10.938 10.933 10.925 10.917 10.897 10.805 10.693 10.66 10.63 10.558 10.745 11.207 11.445 11.44 11.43 11.423 11.417 10.83 9.415 8.545 8.475 8.418 8.378 8.355 8.338 8.313 8.285 8.26 8.228 8.193 8.173 8.165 8.155 8.145 8.125 8.085 8.038 7.992 7.94 7.875 7.805 7.743 7.71 7.71 7.717 7.717 7.7 7.667 7.632 7.597 7.573 7.57 7.58 7.59 7.595 7.6 7.61 7.615 7.62 7.63
11.645 11.602 11.525 11.387 11.22 11.153 11.185 11.235 11.295 11.355 11.395 11.402 11.4 11.4 11.4 11.397 11.408 11.448 11.482 11.505 11.555 11.63 11.675 11.685 11.695 11.705 11.715 11.72 11.692 11.635 11.578 11.528 11.49 11.44 11.36 11.27 11.185 11.115 11.085 11.088 11.078 11.07 11.045 11.01 10.995 10.97 10.95 10.95 10.988 11.088 11.202 11.275 11.317 11.347 11.39 11.47 11.583 11.733 11.927 12.127 12.297 12.45 12.557 12.623 12.695 12.775 12.855 12.935 13.01 13.077 13.163 13.267 13.36 13.422 13.417 13.378 13.375 13.398 13.602 13.937 14.125 14.21 14.275 14.26 14.172 14.118 14.105 14.113 14.153 14.283 14.512 14.24 13.633 13.363 13.238 13.113 12.985 12.855 12.728 12.6 12.473 12.35 12.285 12.288 12.302 12.31 12.323 12.368 12.443 12.525 12.597 12.647 12.675 12.695 12.705 12.705 12.695 12.66 12.575 12.442 12.295 12.143 12.02 11.93 11.837 11.74 11.637 11.527 11.397 11.248 11.115 11.038 11.003 10.98 10.968 10.962 10.957 10.952 10.945 10.94 10.935 10.928 10.922 10.915 10.862 10.753 10.68 10.717 10.775 10.788 11.032 11.365 11.455 11.453 11.448 11.445 11.345 10.36 9.023 8.54 8.49 8.45 8.415 8.39 8.37 8.322 8.28 8.27 8.245 8.215 8.2 8.188 8.175 8.165 8.145 8.105 8.06 8.015 7.96 7.895 7.83 7.778 7.753 7.752 7.75 7.73 7.697 7.663 7.628 7.595 7.578 7.58 7.59 7.6 7.607 7.613 7.62 7.625 7.63 7.64
11.56 11.48 11.455 11.397 11.277 11.188 11.175 11.195 11.233 11.283 11.312 11.31 11.303 11.298 11.295 11.293 11.325 11.392 11.438 11.483 11.56 11.647 11.695 11.705 11.715 11.725 11.735 11.722 11.68 11.625 11.573 11.538 11.515 11.48 11.41 11.325 11.258 11.215 11.208 11.22 11.225 11.21 11.13 11.023 10.94 10.883 10.878 10.93 11.035 11.168 11.283 11.378 11.46 11.522 11.572 11.625 11.708 11.855 12.037 12.2 12.35 12.497 12.607 12.67 12.73 12.805 12.885 12.962 13.025 13.083 13.167 13.26 13.33 13.375 13.36 13.3 13.258 13.258 13.435 13.847 14.242 14.432 14.445 14.347 14.215 14.138 14.13 14.155 14.195 14.263 14.43 14.515 13.947 13.333 13.188 13.06 12.93 12.8 12.67 12.54 12.41 12.305 12.275 12.287 12.288 12.288 12.298 12.323 12.38 12.46 12.532 12.592 12.637 12.665 12.675 12.662 12.625 12.57 12.48 12.355 12.222 12.078 11.953 11.857 11.757 11.65 11.543 11.44 11.332 11.203 11.095 11.045 11.018 10.993 10.97 10.958 10.95 10.945 10.942 10.937 10.932 10.925 10.917 10.902 10.832 10.733 10.68 10.717 10.8 10.847 11.16 11.467 11.475 11.475 11.475 11.475 11.097 10.053 9.17 8.793 8.57 8.49 8.453 8.425 8.39 8.32 8.255 8.262 8.272 8.245 8.23 8.215 8.198 8.185 8.167 8.13 8.082 8.035 7.98 7.92 7.868 7.825 7.798 7.782 7.76 7.728 7.695 7.663 7.628 7.595 7.583 7.59 7.6 7.61 7.62 7.625 7.628 7.63 7.638 7.658
11.455 11.35 11.328 11.305 11.262 11.215 11.2 11.2 11.208 11.233 11.248 11.238 11.225 11.215 11.205 11.208 11.26 11.343 11.413 11.488 11.573 11.66 11.71 11.717 11.722 11.727 11.732 11.715 11.668 11.62 11.588 11.565 11.545 11.52 11.468 11.403 11.355 11.33 11.333 11.347 11.36 11.36 11.297 11.17 11.033 10.93 10.92 11.01 11.14 11.273 11.395 11.503 11.59 11.652 11.71 11.767 11.835 11.955 12.107 12.255 12.403 12.547 12.662 12.728 12.778 12.84 12.913 12.98 13.033 13.085 13.155 13.225 13.287 13.325 13.3 13.24 13.183 13.145 13.268 13.64 14.067 14.437 14.55 14.413 14.275 14.175 14.163 14.2 14.24 14.28 14.375 14.612 14.135 13.358 13.148 13.01 12.88 12.75 12.62 12.49 12.36 12.285 12.285 12.29 12.275 12.268 12.275 12.29 12.328 12.395 12.465 12.525 12.585 12.63 12.63 12.587 12.533 12.475 12.382 12.258 12.133 12.003 11.88 11.775 11.67 11.563 11.458 11.355 11.258 11.158 11.09 11.062 11.035 11.008 10.983 10.96 10.943 10.935 10.935 10.93 10.925 10.922 10.915 10.885 10.815 10.728 10.668 10.665 10.683 10.675 10.9 11.32 11.505 11.505 11.505 11.45 10.705 9.828 9.53 9.232 8.962 8.765 8.56 8.453 8.395 8.31 8.23 8.238 8.282 8.275 8.257 8.24 8.22 8.202 8.185 8.15 8.102 8.055 8.005 7.958 7.913 7.87 7.835 7.805 7.778 7.745 7.705 7.668 7.633 7.6 7.59 7.6 7.61 7.62 7.63 7.635 7.635 7.635 7.65 7.685
11.313 11.225 11.213 11.213 11.213 11.205 11.2 11.2 11.203 11.218 11.233 11.228 11.215 11.205 11.193 11.2 11.253 11.333 11.418 11.505 11.592 11.675 11.717 11.717 11.713 11.71 11.707 11.692 11.657 11.622 11.597 11.572 11.55 11.548 11.545 11.51 11.468 11.453 11.46 11.473 11.485 11.487 11.462 11.385 11.263 11.163 11.133 11.178 11.29 11.433 11.562 11.657 11.715 11.747 11.793 11.86 11.935 12.035 12.168 12.315 12.463 12.61 12.735 12.805 12.848 12.895 12.953 13.013 13.06 13.093 13.128 13.18 13.242 13.272 13.24 13.18 13.125 13.075 13.135 13.398 13.753 14.312 14.625 14.482 14.34 14.24 14.208 14.208 14.23 14.27 14.325 14.482 14.252 13.58 13.145 12.963 12.83 12.7 12.57 12.44 12.315 12.27 12.295 12.292 12.268 12.25 12.253 12.27 12.29 12.333 12.398 12.46 12.525 12.577 12.565 12.505 12.447 12.385 12.297 12.185 12.06 11.935 11.818 11.708 11.61 11.525 11.42 11.305 11.21 11.133 11.093 11.077 11.055 11.025 10.998 10.973 10.948 10.93 10.925 10.92 10.915 10.915 10.91 10.875 10.805 10.723 10.658 10.63 10.61 10.585 10.653 10.97 11.372 11.537 11.54 11.245 10.283 9.6 9.532 9.412 9.28 9.077 8.822 8.647 8.517 8.37 8.258 8.27 8.312 8.29 8.265 8.245 8.227 8.21 8.187 8.15 8.105 8.063 8.047 8.045 8.003 7.933 7.883 7.86 7.837 7.795 7.738 7.688 7.648 7.615 7.605 7.618 7.63 7.64 7.645 7.645 7.648 7.65 7.67 7.71
11.203 11.153 11.165 11.19 11.2 11.185 11.175 11.178 11.19 11.218 11.245 11.257 11.255 11.245 11.243 11.26 11.298 11.36 11.443 11.528 11.612 11.69 11.722 11.717 11.71 11.7 11.682 11.655 11.625 11.592 11.56 11.55 11.565 11.6 11.65 11.65 11.608 11.588 11.59 11.6 11.607 11.602 11.595 11.575 11.515 11.462 11.438 11.43 11.49 11.617 11.727 11.78 11.807 11.83 11.87 11.938 12.02 12.12 12.243 12.383 12.53 12.677 12.805 12.89 12.937 12.98 13.035 13.08 13.102 13.11 13.115 13.145 13.2 13.22 13.18 13.123 13.08 13.055 13.105 13.29 13.558 14.23 14.687 14.54 14.41 14.335 14.29 14.245 14.223 14.225 14.26 14.368 14.532 13.987 13.203 12.95 12.785 12.653 12.523 12.395 12.288 12.273 12.305 12.295 12.265 12.243 12.245 12.268 12.288 12.313 12.35 12.4 12.465 12.51 12.49 12.43 12.365 12.29 12.21 12.12 12.007 11.885 11.773 11.678 11.603 11.542 11.432 11.29 11.183 11.115 11.093 11.087 11.075 11.05 11.02 10.993 10.965 10.938 10.92 10.91 10.905 10.905 10.897 10.86 10.792 10.715 10.66 10.655 10.655 10.633 10.67 10.83 11.158 11.475 11.562 10.877 9.875 9.53 9.48 9.375 9.235 9.097 8.955 8.79 8.6 8.428 8.34 8.382 8.395 8.308 8.258 8.24 8.222 8.205 8.18 8.14 8.095 8.055 8.07 8.132 8.125 8.03 7.965 7.95 7.912 7.847 7.778 7.723 7.68 7.653 7.65 7.663 7.67 7.672 7.67 7.663 7.663 7.665 7.685 7.725
11.205 11.163 11.178 11.195 11.185 11.158 11.148 11.16 11.188 11.222 11.25 11.27 11.283 11.29 11.308 11.335 11.363 11.4 11.468 11.55 11.628 11.7 11.73 11.717 11.697 11.67 11.635 11.598 11.563 11.543 11.548 11.58 11.633 11.688 11.755 11.795 11.777 11.75 11.738 11.733 11.727 11.718 11.71 11.712 11.722 11.73 11.732 11.735 11.755 11.81 11.857 11.878 11.893 11.913 11.953 12.023 12.108 12.208 12.328 12.458 12.598 12.742 12.867 12.965 13.03 13.075 13.115 13.13 13.13 13.13 13.128 13.128 13.16 13.17 13.128 13.093 13.078 13.075 13.145 13.327 13.5 14.155 14.707 14.598 14.498 14.442 14.397 14.35 14.3 14.253 14.233 14.278 14.62 14.252 13.36 12.993 12.763 12.608 12.478 12.35 12.27 12.285 12.312 12.298 12.275 12.265 12.275 12.3 12.325 12.348 12.36 12.37 12.41 12.442 12.41 12.34 12.268 12.19 12.11 12.03 11.94 11.843 11.755 11.685 11.625 11.567 11.46 11.298 11.16 11.098 11.09 11.087 11.082 11.07 11.045 11.015 10.985 10.955 10.928 10.908 10.898 10.895 10.882 10.84 10.775 10.705 10.663 10.668 10.685 10.678 10.733 10.91 11.13 11.392 11.36 10.425 9.59 9.495 9.45 9.335 9.175 9.02 8.87 8.71 8.553 8.463 8.45 8.507 8.495 8.355 8.263 8.235 8.215 8.192 8.165 8.127 8.085 8.045 8.063 8.14 8.177 8.125 8.067 8.032 7.967 7.892 7.818 7.76 7.728 7.713 7.713 7.715 7.712 7.707 7.7 7.69 7.683 7.68 7.7 7.737
11.285 11.21 11.19 11.19 11.165 11.135 11.128 11.152 11.187 11.227 11.263 11.288 11.315 11.353 11.39 11.418 11.443 11.468 11.51 11.58 11.658 11.717 11.73 11.705 11.67 11.633 11.598 11.563 11.543 11.563 11.613 11.667 11.72 11.773 11.843 11.917 11.937 11.912 11.887 11.865 11.85 11.84 11.833 11.84 11.88 11.92 11.942 11.967 11.98 11.977 11.98 11.99 12 12.015 12.043 12.105 12.193 12.295 12.415 12.538 12.668 12.81 12.932 13.03 13.115 13.157 13.16 13.15 13.145 13.145 13.145 13.135 13.135 13.133 13.113 13.105 13.105 13.105 13.185 13.352 13.498 13.89 14.475 14.67 14.587 14.532 14.477 14.422 14.367 14.31 14.255 14.233 14.475 14.415 13.67 13.07 12.783 12.575 12.433 12.3 12.25 12.292 12.32 12.315 12.307 12.31 12.327 12.352 12.375 12.4 12.412 12.4 12.395 12.385 12.33 12.253 12.178 12.1 12.023 11.945 11.87 11.815 11.767 11.712 11.655 11.595 11.492 11.322 11.158 11.09 11.087 11.083 11.08 11.077 11.065 11.04 11.01 10.98 10.95 10.923 10.9 10.888 10.867 10.818 10.753 10.695 10.668 10.675 10.698 10.71 10.798 10.993 11.21 11.43 11.027 10.065 9.583 9.527 9.445 9.3 9.13 8.965 8.805 8.663 8.583 8.57 8.58 8.627 8.59 8.425 8.288 8.225 8.205 8.18 8.15 8.115 8.078 8.04 8.05 8.103 8.15 8.17 8.147 8.092 8.015 7.938 7.863 7.81 7.793 7.79 7.785 7.77 7.753 7.74 7.73 7.72 7.71 7.7 7.71 7.74
11.317 11.245 11.198 11.175 11.148 11.12 11.11 11.132 11.168 11.223 11.287 11.33 11.368 11.417 11.47 11.507 11.535 11.56 11.6 11.665 11.722 11.75 11.738 11.705 11.673 11.638 11.605 11.578 11.588 11.64 11.695 11.75 11.805 11.858 11.933 12.025 12.062 12.04 12.012 11.993 11.98 11.97 11.96 11.975 12.03 12.077 12.1 12.12 12.125 12.113 12.113 12.125 12.135 12.13 12.13 12.188 12.28 12.385 12.505 12.625 12.75 12.882 12.992 13.082 13.175 13.24 13.262 13.255 13.24 13.23 13.22 13.198 13.15 13.123 13.13 13.135 13.137 13.14 13.22 13.367 13.493 13.628 14.255 14.74 14.643 14.58 14.517 14.455 14.398 14.345 14.295 14.243 14.338 14.63 14.06 13.163 12.85 12.575 12.388 12.255 12.208 12.245 12.267 12.275 12.285 12.3 12.322 12.347 12.37 12.395 12.412 12.4 12.367 12.322 12.257 12.185 12.11 12.033 11.958 11.883 11.828 11.805 11.775 11.725 11.672 11.615 11.5 11.307 11.153 11.083 11.068 11.077 11.08 11.077 11.072 11.062 11.04 11.01 10.98 10.948 10.915 10.89 10.863 10.815 10.76 10.713 10.695 10.71 10.73 10.748 10.858 11.068 11.285 11.412 10.687 9.855 9.705 9.582 9.437 9.27 9.1 8.935 8.77 8.655 8.65 8.69 8.71 8.737 8.675 8.505 8.343 8.238 8.198 8.178 8.163 8.13 8.088 8.05 8.048 8.085 8.13 8.18 8.192 8.145 8.07 7.99 7.92 7.885 7.88 7.882 7.877 7.855 7.828 7.805 7.79 7.783 7.775 7.753 7.725 7.73
11.305 11.248 11.2 11.163 11.133 11.108 11.09 11.1 11.138 11.213 11.312 11.38 11.425 11.475 11.532 11.592 11.632 11.665 11.712 11.757 11.777 11.782 11.765 11.728 11.695 11.66 11.625 11.62 11.66 11.72 11.778 11.833 11.888 11.943 12.02 12.12 12.167 12.15 12.13 12.12 12.11 12.1 12.09 12.113 12.177 12.232 12.26 12.27 12.262 12.248 12.248 12.26 12.257 12.22 12.205 12.27 12.38 12.498 12.61 12.728 12.852 12.967 13.053 13.13 13.218 13.307 13.385 13.422 13.42 13.4 13.38 13.322 13.205 13.13 13.135 13.152 13.167 13.175 13.243 13.37 13.49 13.61 14.27 14.79 14.673 14.605 14.545 14.487 14.432 14.377 14.322 14.263 14.24 14.632 14.345 13.388 12.945 12.638 12.398 12.23 12.14 12.143 12.16 12.178 12.2 12.225 12.252 12.277 12.302 12.33 12.35 12.335 12.292 12.247 12.192 12.125 12.052 11.977 11.903 11.835 11.805 11.805 11.78 11.73 11.665 11.582 11.437 11.255 11.158 11.098 11.038 11.033 11.052 11.065 11.07 11.07 11.06 11.035 11.005 10.973 10.94 10.925 10.9 10.848 10.8 10.758 10.745 10.765 10.785 10.805 10.92 11.135 11.357 11.245 10.385 9.788 9.752 9.597 9.422 9.243 9.07 8.903 8.74 8.66 8.695 8.765 8.822 8.842 8.755 8.587 8.422 8.275 8.208 8.208 8.207 8.172 8.118 8.075 8.07 8.105 8.148 8.195 8.217 8.192 8.13 8.053 7.995 7.978 7.98 7.98 7.977 7.958 7.938 7.923 7.895 7.878 7.87 7.835 7.773 7.738
11.298 11.248 11.205 11.165 11.128 11.095 11.07 11.07 11.115 11.21 11.332 11.42 11.475 11.535 11.592 11.66 11.722 11.76 11.785 11.797 11.802 11.807 11.79 11.753 11.717 11.683 11.658 11.68 11.74 11.802 11.862 11.917 11.972 12.028 12.105 12.212 12.272 12.265 12.253 12.245 12.235 12.225 12.22 12.253 12.325 12.387 12.415 12.412 12.398 12.383 12.38 12.38 12.347 12.285 12.275 12.36 12.505 12.645 12.745 12.848 12.965 13.062 13.123 13.183 13.263 13.352 13.445 13.525 13.577 13.585 13.56 13.467 13.3 13.16 13.123 13.15 13.183 13.213 13.268 13.37 13.488 13.605 14 14.555 14.72 14.635 14.575 14.517 14.457 14.395 14.335 14.27 14.205 14.465 14.565 13.785 13.038 12.74 12.49 12.273 12.115 12.065 12.073 12.095 12.12 12.145 12.175 12.203 12.23 12.26 12.277 12.26 12.217 12.172 12.122 12.062 11.995 11.922 11.848 11.8 11.795 11.805 11.775 11.7 11.605 11.495 11.355 11.24 11.195 11.147 11.058 10.98 10.978 11.01 11.035 11.052 11.06 11.052 11.03 11 10.978 10.99 10.972 10.903 10.845 10.803 10.795 10.818 10.84 10.865 10.988 11.208 11.43 11.005 10.163 9.823 9.72 9.575 9.407 9.223 9.043 8.87 8.728 8.683 8.725 8.8 8.88 8.887 8.78 8.622 8.465 8.31 8.248 8.265 8.26 8.217 8.155 8.108 8.105 8.138 8.175 8.215 8.23 8.217 8.182 8.12 8.078 8.073 8.077 8.08 8.08 8.065 8.058 8.057 8.022 7.983 7.957 7.91 7.84 7.775
11.293 11.253 11.215 11.175 11.135 11.095 11.06 11.048 11.108 11.235 11.38 11.47 11.505 11.557 11.62 11.687 11.765 11.81 11.817 11.822 11.827 11.832 11.815 11.778 11.74 11.705 11.705 11.753 11.817 11.882 11.945 12.002 12.057 12.115 12.193 12.3 12.375 12.385 12.375 12.365 12.355 12.345 12.353 12.4 12.475 12.54 12.562 12.55 12.533 12.518 12.505 12.475 12.415 12.345 12.35 12.475 12.657 12.81 12.905 12.988 13.082 13.16 13.205 13.25 13.313 13.395 13.488 13.58 13.67 13.732 13.717 13.597 13.42 13.245 13.178 13.215 13.26 13.31 13.36 13.43 13.515 13.608 13.72 14.32 14.777 14.655 14.582 14.52 14.457 14.395 14.335 14.272 14.208 14.33 14.672 14.127 13.173 12.82 12.57 12.348 12.183 12.093 12.05 12.045 12.063 12.08 12.103 12.13 12.16 12.193 12.207 12.185 12.143 12.098 12.048 11.993 11.932 11.865 11.803 11.78 11.787 11.795 11.752 11.648 11.533 11.418 11.32 11.265 11.235 11.2 11.12 11 10.92 10.918 10.952 10.987 11.015 11.035 11.042 11.03 11.022 11.035 11.012 10.95 10.892 10.853 10.85 10.873 10.898 10.928 11.058 11.285 11.355 10.68 9.958 9.81 9.685 9.545 9.385 9.202 9.02 8.843 8.733 8.7 8.7 8.79 8.857 8.788 8.673 8.578 8.473 8.345 8.295 8.317 8.312 8.262 8.197 8.145 8.143 8.172 8.2 8.232 8.247 8.238 8.217 8.182 8.162 8.165 8.17 8.175 8.177 8.175 8.177 8.182 8.15 8.095 8.045 7.985 7.915 7.843
11.3 11.27 11.24 11.205 11.163 11.12 11.08 11.068 11.15 11.305 11.452 11.527 11.54 11.563 11.613 11.678 11.755 11.817 11.837 11.845 11.85 11.855 11.84 11.802 11.765 11.733 11.753 11.815 11.88 11.945 12.01 12.075 12.137 12.2 12.275 12.362 12.432 12.48 12.495 12.485 12.475 12.465 12.485 12.548 12.625 12.69 12.712 12.698 12.675 12.658 12.623 12.558 12.483 12.41 12.45 12.625 12.825 12.977 13.07 13.145 13.212 13.265 13.303 13.338 13.38 13.445 13.533 13.622 13.707 13.795 13.817 13.715 13.545 13.37 13.308 13.358 13.412 13.465 13.515 13.568 13.62 13.68 13.758 14.37 14.845 14.678 14.558 14.48 14.42 14.357 14.295 14.235 14.183 14.205 14.527 14.39 13.485 12.86 12.608 12.423 12.308 12.213 12.125 12.063 12.043 12.05 12.063 12.085 12.115 12.148 12.162 12.14 12.098 12.053 11.998 11.933 11.87 11.808 11.765 11.757 11.762 11.772 11.735 11.632 11.513 11.395 11.328 11.302 11.275 11.242 11.175 11.065 10.945 10.865 10.86 10.893 10.928 10.963 11.005 11.035 11.042 11.037 11.005 10.957 10.918 10.908 10.925 10.948 10.97 10.97 11.105 11.365 11.137 10.35 9.86 9.762 9.645 9.51 9.355 9.18 9 8.828 8.75 8.75 8.748 8.805 8.833 8.77 8.685 8.608 8.523 8.408 8.33 8.335 8.342 8.29 8.225 8.17 8.16 8.187 8.213 8.247 8.275 8.27 8.25 8.225 8.212 8.215 8.22 8.225 8.23 8.24 8.25 8.255 8.225 8.17 8.125 8.07 8 7.93
11.328 11.303 11.28 11.255 11.217 11.173 11.13 11.135 11.238 11.395 11.52 11.572 11.585 11.598 11.623 11.668 11.738 11.805 11.842 11.862 11.872 11.877 11.862 11.828 11.795 11.773 11.8 11.865 11.93 11.995 12.06 12.13 12.2 12.267 12.335 12.39 12.44 12.515 12.585 12.605 12.595 12.59 12.623 12.695 12.775 12.837 12.86 12.852 12.837 12.822 12.785 12.715 12.633 12.555 12.613 12.798 12.99 13.142 13.23 13.292 13.34 13.38 13.418 13.45 13.483 13.523 13.575 13.645 13.725 13.81 13.852 13.805 13.672 13.503 13.448 13.505 13.565 13.62 13.67 13.72 13.73 13.577 13.415 13.83 14.55 14.735 14.563 14.435 14.355 14.292 14.23 14.173 14.155 14.17 14.353 14.622 13.915 12.928 12.663 12.538 12.442 12.347 12.253 12.158 12.085 12.053 12.05 12.07 12.097 12.12 12.13 12.115 12.082 12.035 11.97 11.895 11.82 11.755 11.723 11.723 11.733 11.747 11.717 11.63 11.517 11.408 11.353 11.335 11.31 11.277 11.227 11.135 11.015 10.895 10.813 10.803 10.845 10.905 10.973 11.02 11.03 11.022 10.99 10.953 10.948 10.98 11.017 11.042 11.035 10.968 11.11 11.365 10.852 10.05 9.775 9.677 9.577 9.465 9.325 9.16 8.993 8.84 8.795 8.873 8.962 8.997 8.968 8.915 8.832 8.717 8.605 8.49 8.38 8.34 8.337 8.292 8.23 8.175 8.16 8.185 8.22 8.262 8.302 8.31 8.287 8.255 8.233 8.228 8.23 8.235 8.243 8.26 8.277 8.285 8.255 8.213 8.197 8.162 8.093 8.028
11.36 11.335 11.315 11.295 11.27 11.235 11.195 11.215 11.33 11.485 11.59 11.62 11.63 11.643 11.655 11.675 11.723 11.783 11.832 11.87 11.892 11.902 11.887 11.855 11.83 11.815 11.848 11.915 11.98 12.045 12.11 12.18 12.25 12.327 12.39 12.425 12.458 12.51 12.6 12.68 12.707 12.72 12.768 12.845 12.925 12.982 13 13 12.997 12.997 12.99 12.935 12.842 12.768 12.825 12.993 13.167 13.302 13.372 13.42 13.46 13.5 13.54 13.572 13.6 13.625 13.648 13.685 13.743 13.82 13.857 13.835 13.767 13.64 13.595 13.655 13.712 13.752 13.632 13.475 13.385 13.132 12.87 13.006 14.028 14.762 14.607 14.45 14.313 14.225 14.165 14.135 14.165 14.21 14.245 14.575 14.255 13.203 12.748 12.662 12.563 12.47 12.38 12.29 12.197 12.118 12.065 12.058 12.075 12.085 12.092 12.09 12.067 12.012 11.937 11.862 11.785 11.713 11.683 11.693 11.708 11.722 11.695 11.615 11.515 11.423 11.378 11.36 11.337 11.312 11.28 11.2 11.08 10.96 10.84 10.788 10.828 10.903 10.97 11.002 11.012 11.01 10.988 10.98 11.015 11.065 11.107 11.115 11.055 10.95 11.092 11.17 10.502 9.82 9.64 9.55 9.46 9.388 9.305 9.163 9 8.863 8.878 9.055 9.202 9.222 9.14 9.027 8.915 8.8 8.685 8.57 8.455 8.368 8.328 8.29 8.23 8.173 8.158 8.19 8.233 8.278 8.325 8.347 8.325 8.283 8.255 8.245 8.243 8.245 8.258 8.28 8.3 8.312 8.29 8.265 8.267 8.247 8.188 8.133
11.395 11.373 11.35 11.328 11.305 11.283 11.255 11.295 11.423 11.567 11.65 11.667 11.68 11.69 11.7 11.71 11.733 11.77 11.815 11.86 11.897 11.922 11.915 11.89 11.873 11.86 11.893 11.962 12.03 12.095 12.16 12.23 12.305 12.392 12.455 12.487 12.513 12.538 12.608 12.71 12.787 12.845 12.915 12.995 13.065 13.115 13.14 13.147 13.15 13.162 13.175 13.13 13.035 12.973 13.045 13.21 13.327 13.377 13.412 13.457 13.5 13.542 13.585 13.62 13.652 13.685 13.715 13.745 13.782 13.84 13.862 13.835 13.802 13.735 13.672 13.647 13.617 13.572 13.297 12.978 12.83 12.683 12.535 12.611 13.827 14.767 14.58 14.445 14.297 14.178 14.12 14.133 14.18 14.225 14.195 14.368 14.524 13.7 12.865 12.755 12.677 12.582 12.48 12.383 12.292 12.205 12.118 12.063 12.053 12.058 12.063 12.065 12.042 11.977 11.895 11.817 11.737 11.668 11.653 11.672 11.685 11.7 11.675 11.595 11.505 11.435 11.4 11.38 11.36 11.343 11.322 11.257 11.145 11.025 10.92 10.88 10.9 10.935 10.965 10.983 10.995 11.003 11.013 11.045 11.095 11.145 11.175 11.137 11.04 10.933 11.045 10.835 10.153 9.69 9.49 9.403 9.345 9.335 9.332 9.21 9.015 8.87 8.923 9.155 9.292 9.28 9.19 9.08 8.97 8.86 8.75 8.64 8.53 8.423 8.345 8.29 8.23 8.17 8.16 8.202 8.247 8.295 8.345 8.38 8.362 8.31 8.28 8.27 8.263 8.26 8.273 8.298 8.32 8.337 8.332 8.325 8.33 8.322 8.287 8.245
11.495 11.458 11.423 11.398 11.375 11.353 11.34 11.398 11.52 11.64 11.7 11.713 11.728 11.748 11.773 11.8 11.813 11.81 11.83 11.868 11.908 11.942 11.947 11.933 11.92 11.91 11.94 12.01 12.08 12.145 12.21 12.283 12.368 12.455 12.512 12.55 12.582 12.608 12.668 12.765 12.873 12.98 13.067 13.135 13.187 13.232 13.27 13.295 13.305 13.325 13.342 13.31 13.23 13.18 13.265 13.397 13.405 13.363 13.375 13.41 13.453 13.5 13.545 13.585 13.625 13.665 13.705 13.745 13.787 13.832 13.842 13.815 13.785 13.737 13.602 13.398 13.21 13.05 12.835 12.643 12.543 12.45 12.34 12.453 13.515 14.492 14.502 14.36 14.24 14.143 14.11 14.133 14.17 14.21 14.203 14.24 14.582 14.107 13.08 12.795 12.76 12.697 12.6 12.488 12.385 12.283 12.183 12.095 12.053 12.058 12.087 12.077 12.002 11.915 11.83 11.747 11.665 11.618 11.63 11.657 11.67 11.685 11.682 11.633 11.56 11.5 11.455 11.425 11.403 11.383 11.362 11.31 11.21 11.09 11.015 11 11 10.998 11 11.01 11.02 11.028 11.055 11.102 11.15 11.197 11.197 11.105 10.975 10.868 10.897 10.542 9.925 9.565 9.358 9.315 9.315 9.337 9.365 9.265 9.045 8.87 8.913 9.11 9.202 9.217 9.185 9.095 8.99 8.885 8.78 8.675 8.57 8.465 8.365 8.285 8.225 8.173 8.17 8.213 8.26 8.31 8.36 8.4 8.392 8.343 8.313 8.305 8.298 8.295 8.303 8.323 8.345 8.362 8.365 8.365 8.37 8.372 8.365 8.345
11.635 11.573 11.53 11.505 11.482 11.455 11.458 11.525 11.63 11.725 11.778 11.803 11.83 11.865 11.905 11.94 11.927 11.883 11.88 11.913 11.948 11.977 11.987 11.98 11.967 11.955 11.985 12.057 12.13 12.195 12.263 12.345 12.44 12.52 12.57 12.61 12.645 12.678 12.753 12.87 13 13.125 13.207 13.257 13.302 13.347 13.39 13.427 13.452 13.48 13.5 13.482 13.42 13.39 13.47 13.505 13.402 13.333 13.345 13.368 13.403 13.45 13.495 13.535 13.575 13.615 13.658 13.7 13.745 13.787 13.795 13.77 13.74 13.692 13.515 13.22 12.94 12.738 12.618 12.543 12.495 12.435 12.328 12.423 12.985 14.032 14.497 14.255 14.163 14.128 14.128 14.138 14.158 14.19 14.2 14.168 14.412 14.38 13.47 12.828 12.785 12.762 12.715 12.632 12.527 12.41 12.293 12.183 12.123 12.135 12.145 12.072 11.948 11.838 11.75 11.668 11.593 11.573 11.607 11.642 11.662 11.68 11.705 11.712 11.682 11.627 11.563 11.51 11.473 11.445 11.422 11.367 11.265 11.163 11.11 11.093 11.08 11.07 11.07 11.08 11.082 11.073 11.09 11.137 11.18 11.215 11.192 11.067 10.905 10.768 10.64 10.29 9.843 9.523 9.313 9.263 9.272 9.295 9.34 9.3 9.095 8.883 8.91 9.042 9.073 9.105 9.135 9.092 8.997 8.892 8.788 8.682 8.577 8.47 8.36 8.275 8.22 8.183 8.185 8.223 8.27 8.32 8.37 8.405 8.405 8.37 8.335 8.335 8.342 8.34 8.345 8.358 8.375 8.387 8.385 8.38 8.38 8.385 8.39 8.385
11.745 11.675 11.635 11.607 11.582 11.555 11.575 11.66 11.755 11.835 11.897 11.95 11.995 12.035 12.075 12.075 12.015 11.948 11.935 11.967 11.997 12.02 12.032 12.027 12.013 12 12.03 12.103 12.177 12.248 12.323 12.415 12.515 12.587 12.63 12.667 12.7 12.745 12.843 12.977 13.112 13.237 13.317 13.365 13.41 13.455 13.5 13.542 13.567 13.585 13.615 13.627 13.597 13.595 13.605 13.517 13.37 13.303 13.32 13.34 13.365 13.4 13.443 13.485 13.525 13.568 13.615 13.662 13.707 13.742 13.745 13.722 13.69 13.64 13.477 13.195 12.965 12.868 12.765 12.66 12.602 12.492 12.34 12.388 12.708 13.887 14.594 14.233 14.15 14.153 14.16 14.168 14.173 14.188 14.195 14.158 14.253 14.547 13.882 12.928 12.795 12.775 12.755 12.72 12.66 12.567 12.45 12.33 12.24 12.262 12.225 12.048 11.888 11.763 11.67 11.593 11.535 11.538 11.582 11.625 11.655 11.68 11.715 11.757 11.785 11.75 11.682 11.625 11.568 11.523 11.495 11.432 11.338 11.27 11.223 11.185 11.16 11.145 11.143 11.145 11.135 11.113 11.123 11.165 11.197 11.222 11.187 11.052 10.867 10.672 10.45 10.173 9.878 9.623 9.425 9.288 9.218 9.233 9.308 9.327 9.162 8.915 8.88 8.947 8.945 8.975 9.03 9.052 9.002 8.9 8.795 8.69 8.58 8.465 8.35 8.268 8.225 8.2 8.205 8.24 8.283 8.328 8.375 8.402 8.4 8.382 8.35 8.35 8.375 8.383 8.388 8.395 8.408 8.413 8.405 8.395 8.388 8.388 8.39 8.385
11.838 11.773 11.735 11.705 11.678 11.66 11.703 11.795 11.88 11.955 12.025 12.092 12.15 12.197 12.217 12.172 12.09 12.013 11.99 12.017 12.04 12.06 12.077 12.075 12.06 12.048 12.078 12.15 12.222 12.3 12.39 12.49 12.587 12.652 12.687 12.717 12.75 12.815 12.928 13.062 13.195 13.322 13.412 13.465 13.51 13.555 13.6 13.637 13.637 13.615 13.637 13.685 13.715 13.715 13.63 13.485 13.34 13.275 13.295 13.318 13.34 13.363 13.395 13.438 13.483 13.528 13.575 13.625 13.67 13.697 13.695 13.68 13.643 13.58 13.435 13.228 13.14 13.16 13.018 12.795 12.66 12.505 12.34 12.343 12.615 13.697 14.522 14.33 14.208 14.213 14.218 14.225 14.23 14.233 14.232 14.188 14.145 14.455 14.217 13.243 12.805 12.785 12.765 12.745 12.722 12.677 12.597 12.49 12.373 12.392 12.37 12.155 11.943 11.76 11.615 11.52 11.488 11.513 11.558 11.61 11.663 11.708 11.755 11.81 11.865 11.847 11.768 11.705 11.655 11.607 11.57 11.515 11.45 11.397 11.347 11.305 11.267 11.235 11.215 11.2 11.18 11.158 11.158 11.183 11.205 11.23 11.175 11.007 10.8 10.585 10.388 10.202 10 9.798 9.617 9.44 9.31 9.315 9.398 9.412 9.247 8.97 8.83 8.823 8.818 8.845 8.9 8.955 8.972 8.907 8.802 8.695 8.58 8.458 8.34 8.268 8.24 8.223 8.23 8.263 8.3 8.338 8.378 8.398 8.39 8.378 8.358 8.355 8.415 8.475 8.48 8.475 8.468 8.453 8.438 8.423 8.408 8.398 8.393 8.393
11.923 11.868 11.835 11.805 11.775 11.773 11.83 11.915 11.995 12.072 12.14 12.2 12.257 12.31 12.305 12.232 12.15 12.075 12.038 12.045 12.065 12.085 12.105 12.105 12.09 12.08 12.113 12.182 12.25 12.33 12.43 12.535 12.637 12.705 12.735 12.763 12.803 12.888 13.013 13.145 13.275 13.407 13.505 13.562 13.61 13.655 13.7 13.715 13.687 13.64 13.623 13.66 13.722 13.707 13.587 13.443 13.338 13.3 13.305 13.328 13.35 13.373 13.393 13.413 13.448 13.49 13.535 13.585 13.63 13.652 13.648 13.647 13.625 13.553 13.448 13.373 13.375 13.4 13.352 13.075 12.77 12.6 12.483 12.523 12.736 13.326 14.183 14.437 14.288 14.292 14.295 14.3 14.305 14.305 14.305 14.257 14.16 14.29 14.522 13.747 12.863 12.795 12.775 12.755 12.735 12.715 12.682 12.625 12.53 12.493 12.497 12.367 12.14 11.905 11.683 11.508 11.463 11.52 11.58 11.648 11.72 11.778 11.83 11.887 11.942 11.95 11.863 11.755 11.698 11.66 11.622 11.585 11.547 11.507 11.462 11.415 11.368 11.358 11.325 11.263 11.235 11.215 11.21 11.225 11.245 11.255 11.165 10.968 10.755 10.563 10.395 10.235 10.103 9.967 9.795 9.615 9.5 9.517 9.557 9.51 9.332 9.055 8.86 8.785 8.733 8.725 8.77 8.825 8.877 8.882 8.807 8.692 8.575 8.453 8.348 8.3 8.285 8.27 8.288 8.325 8.358 8.39 8.418 8.423 8.41 8.398 8.385 8.403 8.505 8.625 8.655 8.638 8.605 8.568 8.545 8.525 8.505 8.488 8.448 8.42
12.01 11.963 11.935 11.905 11.888 11.908 11.97 12.052 12.12 12.162 12.205 12.255 12.305 12.355 12.345 12.268 12.195 12.145 12.098 12.06 12.06 12.08 12.095 12.092 12.088 12.093 12.128 12.193 12.26 12.34 12.438 12.543 12.657 12.74 12.775 12.813 12.868 12.965 13.095 13.225 13.355 13.49 13.592 13.655 13.707 13.755 13.787 13.775 13.732 13.685 13.643 13.638 13.68 13.657 13.538 13.435 13.408 13.398 13.378 13.38 13.395 13.417 13.432 13.435 13.445 13.465 13.498 13.545 13.59 13.607 13.608 13.625 13.635 13.578 13.525 13.542 13.567 13.583 13.692 13.432 12.993 12.918 13.175 13.647 13.922 14.068 14.465 14.565 14.36 14.365 14.365 14.368 14.37 14.37 14.37 14.34 14.268 14.265 14.577 14.105 13.088 12.805 12.785 12.765 12.745 12.725 12.705 12.685 12.64 12.573 12.572 12.542 12.362 12.11 11.832 11.583 11.508 11.58 11.658 11.733 11.807 11.865 11.91 11.963 12.02 12.062 12.002 11.86 11.748 11.685 11.648 11.618 11.597 11.577 11.54 11.485 11.48 11.525 11.46 11.35 11.31 11.285 11.28 11.295 11.302 11.28 11.165 10.965 10.77 10.603 10.445 10.3 10.21 10.115 9.962 9.79 9.69 9.687 9.652 9.562 9.407 9.163 8.975 8.875 8.783 8.733 8.723 8.745 8.795 8.837 8.802 8.69 8.57 8.45 8.37 8.355 8.352 8.345 8.375 8.425 8.46 8.488 8.505 8.498 8.478 8.465 8.455 8.503 8.63 8.775 8.85 8.84 8.792 8.743 8.715 8.695 8.672 8.622 8.527 8.468
12.1 12.063 12.053 12.05 12.06 12.09 12.145 12.202 12.217 12.203 12.223 12.275 12.325 12.375 12.365 12.303 12.258 12.225 12.177 12.113 12.068 12.065 12.075 12.075 12.085 12.1 12.135 12.2 12.27 12.35 12.445 12.553 12.672 12.767 12.82 12.87 12.94 13.045 13.175 13.305 13.438 13.572 13.677 13.745 13.802 13.85 13.857 13.822 13.775 13.727 13.682 13.648 13.652 13.617 13.535 13.513 13.525 13.515 13.485 13.46 13.45 13.463 13.477 13.48 13.48 13.48 13.49 13.515 13.548 13.568 13.58 13.605 13.63 13.617 13.62 13.672 13.715 13.74 13.932 13.882 13.763 13.93 14.242 14.684 14.877 14.872 14.832 14.615 14.43 14.435 14.435 14.435 14.435 14.435 14.435 14.422 14.38 14.353 14.457 14.365 13.505 12.823 12.795 12.775 12.755 12.735 12.715 12.695 12.675 12.642 12.625 12.622 12.505 12.245 11.938 11.683 11.608 11.668 11.743 11.818 11.892 11.952 11.993 12.04 12.097 12.152 12.132 12.005 11.853 11.735 11.673 11.648 11.635 11.623 11.59 11.598 11.727 11.74 11.568 11.45 11.398 11.36 11.352 11.355 11.33 11.287 11.165 10.973 10.803 10.648 10.495 10.385 10.33 10.25 10.115 9.958 9.852 9.792 9.71 9.615 9.48 9.275 9.105 9.01 8.933 8.873 8.818 8.788 8.79 8.813 8.785 8.685 8.57 8.45 8.39 8.402 8.415 8.423 8.46 8.517 8.565 8.595 8.607 8.595 8.568 8.548 8.548 8.623 8.762 8.91 9.025 9.04 8.98 8.918 8.88 8.86 8.82 8.702 8.57 8.523
12.17 12.172 12.185 12.207 12.23 12.252 12.277 12.28 12.247 12.215 12.233 12.285 12.335 12.387 12.395 12.362 12.337 12.31 12.267 12.202 12.123 12.078 12.073 12.078 12.095 12.11 12.143 12.208 12.283 12.363 12.455 12.568 12.69 12.797 12.872 12.933 13.013 13.125 13.255 13.388 13.523 13.655 13.76 13.832 13.895 13.927 13.907 13.86 13.81 13.762 13.715 13.667 13.635 13.61 13.605 13.627 13.645 13.632 13.6 13.567 13.537 13.525 13.525 13.525 13.522 13.52 13.517 13.518 13.53 13.55 13.573 13.598 13.62 13.635 13.677 13.752 13.825 13.898 14.13 14.332 14.492 14.665 14.705 14.727 14.712 14.67 14.628 14.545 14.482 14.485 14.487 14.49 14.49 14.492 14.495 14.495 14.485 14.477 14.483 14.6 13.885 12.935 12.805 12.785 12.765 12.745 12.725 12.705 12.685 12.665 12.647 12.64 12.56 12.325 12.015 11.78 11.715 11.76 11.828 11.903 11.977 12.04 12.083 12.123 12.173 12.23 12.25 12.16 12 11.843 11.75 11.725 11.705 11.688 11.72 11.868 12.027 11.912 11.665 11.555 11.498 11.445 11.413 11.383 11.338 11.292 11.175 11.003 10.848 10.695 10.565 10.49 10.45 10.377 10.247 10.095 9.968 9.86 9.76 9.665 9.552 9.388 9.24 9.158 9.09 9.03 8.975 8.925 8.878 8.84 8.778 8.675 8.563 8.455 8.418 8.445 8.47 8.495 8.54 8.6 8.657 8.7 8.712 8.695 8.665 8.638 8.653 8.747 8.882 9.017 9.145 9.195 9.16 9.1 9.05 9.017 8.92 8.73 8.6 8.578
12.192 12.235 12.25 12.27 12.29 12.31 12.312 12.28 12.235 12.205 12.22 12.27 12.32 12.372 12.395 12.38 12.362 12.345 12.315 12.25 12.158 12.113 12.11 12.11 12.118 12.123 12.15 12.215 12.295 12.375 12.468 12.583 12.71 12.832 12.925 12.998 13.088 13.208 13.34 13.475 13.613 13.742 13.83 13.885 13.94 13.947 13.9 13.842 13.79 13.74 13.69 13.642 13.595 13.587 13.62 13.652 13.682 13.685 13.66 13.627 13.595 13.567 13.555 13.555 13.55 13.542 13.537 13.535 13.543 13.563 13.588 13.61 13.62 13.623 13.67 13.76 13.852 13.973 14.215 14.462 14.55 14.575 14.602 14.6 14.568 14.535 14.513 14.495 14.477 14.472 14.477 14.482 14.485 14.487 14.492 14.5 14.505 14.552 14.605 14.672 14.232 13.278 12.815 12.795 12.775 12.755 12.735 12.715 12.695 12.672 12.65 12.64 12.6 12.405 12.095 11.878 11.825 11.858 11.915 11.988 12.062 12.127 12.175 12.21 12.253 12.307 12.352 12.305 12.16 12.005 11.915 11.885 11.875 11.908 12.03 12.242 12.272 12.013 11.765 11.66 11.6 11.54 11.483 11.428 11.378 11.327 11.23 11.088 10.938 10.79 10.683 10.625 10.577 10.497 10.365 10.208 10.068 9.945 9.833 9.728 9.623 9.495 9.385 9.315 9.248 9.188 9.132 9.08 9.02 8.915 8.808 8.715 8.605 8.503 8.468 8.495 8.528 8.575 8.633 8.69 8.748 8.8 8.815 8.79 8.76 8.73 8.738 8.818 8.94 9.065 9.177 9.24 9.247 9.232 9.212 9.137 8.955 8.745 8.645 8.635
12.177 12.24 12.255 12.27 12.29 12.31 12.305 12.26 12.21 12.178 12.19 12.24 12.29 12.337 12.355 12.34 12.328 12.32 12.305 12.247 12.173 12.165 12.182 12.178 12.173 12.168 12.19 12.253 12.327 12.395 12.488 12.615 12.75 12.875 12.97 13.068 13.19 13.325 13.463 13.598 13.725 13.822 13.862 13.888 13.93 13.92 13.858 13.793 13.733 13.678 13.625 13.578 13.53 13.52 13.55 13.585 13.625 13.655 13.65 13.617 13.588 13.568 13.56 13.56 13.557 13.55 13.545 13.548 13.56 13.585 13.607 13.617 13.61 13.598 13.64 13.735 13.848 13.99 14.212 14.417 14.49 14.51 14.525 14.52 14.505 14.495 14.488 14.472 14.44 14.42 14.423 14.427 14.432 14.438 14.445 14.452 14.453 14.488 14.56 14.667 14.642 13.72 12.855 12.805 12.785 12.765 12.745 12.725 12.705 12.677 12.65 12.64 12.63 12.475 12.175 11.973 11.935 11.963 12.008 12.073 12.147 12.215 12.265 12.302 12.34 12.385 12.435 12.43 12.312 12.178 12.115 12.123 12.19 12.3 12.438 12.562 12.445 12.105 11.865 11.763 11.7 11.64 11.578 11.515 11.458 11.397 11.315 11.205 11.072 10.93 10.828 10.767 10.7 10.61 10.477 10.315 10.173 10.05 9.938 9.835 9.738 9.633 9.54 9.473 9.405 9.343 9.288 9.235 9.142 8.978 8.853 8.787 8.697 8.59 8.54 8.56 8.603 8.67 8.74 8.8 8.855 8.895 8.902 8.882 8.855 8.825 8.82 8.863 8.955 9.075 9.172 9.22 9.237 9.257 9.265 9.162 8.95 8.778 8.713 8.698
12.15 12.235 12.267 12.275 12.29 12.31 12.297 12.245 12.19 12.148 12.158 12.21 12.26 12.302 12.315 12.303 12.295 12.29 12.282 12.243 12.21 12.235 12.255 12.25 12.245 12.24 12.255 12.302 12.36 12.41 12.508 12.66 12.805 12.923 13.03 13.17 13.327 13.475 13.615 13.737 13.82 13.865 13.875 13.88 13.907 13.89 13.825 13.76 13.693 13.63 13.57 13.513 13.46 13.45 13.483 13.52 13.56 13.6 13.615 13.6 13.58 13.565 13.56 13.56 13.56 13.557 13.555 13.563 13.58 13.602 13.612 13.602 13.585 13.57 13.618 13.735 13.875 14.028 14.217 14.375 14.43 14.455 14.478 14.485 14.483 14.478 14.472 14.452 14.413 14.378 14.368 14.373 14.38 14.392 14.402 14.405 14.405 14.39 14.398 14.505 14.699 14.085 13.093 12.815 12.795 12.775 12.755 12.735 12.715 12.682 12.65 12.64 12.64 12.525 12.255 12.068 12.048 12.073 12.108 12.163 12.233 12.302 12.355 12.395 12.43 12.468 12.515 12.547 12.465 12.368 12.385 12.455 12.688 13.092 13.327 12.995 12.495 12.19 11.968 11.865 11.8 11.737 11.672 11.608 11.545 11.477 11.395 11.3 11.192 11.067 10.967 10.892 10.805 10.715 10.59 10.435 10.303 10.2 10.113 10.025 9.938 9.84 9.728 9.635 9.565 9.5 9.445 9.367 9.217 9.018 8.888 8.832 8.767 8.678 8.62 8.635 8.69 8.765 8.843 8.915 8.962 8.972 8.97 8.965 8.947 8.92 8.918 8.945 8.995 9.09 9.17 9.2 9.218 9.235 9.22 9.125 8.95 8.823 8.79 8.77
12.117 12.222 12.277 12.288 12.295 12.31 12.292 12.235 12.175 12.12 12.125 12.18 12.23 12.267 12.277 12.27 12.265 12.26 12.255 12.248 12.263 12.305 12.325 12.322 12.315 12.3 12.303 12.335 12.375 12.418 12.525 12.693 12.868 13.01 13.143 13.308 13.47 13.622 13.745 13.822 13.86 13.882 13.89 13.88 13.885 13.86 13.793 13.728 13.66 13.593 13.528 13.465 13.405 13.388 13.423 13.465 13.505 13.545 13.575 13.582 13.572 13.56 13.558 13.562 13.565 13.562 13.565 13.58 13.595 13.602 13.595 13.575 13.555 13.55 13.623 13.765 13.915 14.065 14.227 14.342 14.385 14.42 14.447 14.46 14.462 14.462 14.455 14.425 14.382 14.34 14.32 14.325 14.335 14.348 14.355 14.358 14.36 14.35 14.323 14.313 14.472 14.432 13.538 12.825 12.805 12.785 12.765 12.745 12.72 12.683 12.653 12.643 12.64 12.565 12.335 12.165 12.163 12.185 12.213 12.26 12.323 12.39 12.445 12.487 12.525 12.557 12.592 12.623 12.595 12.566 12.98 13.397 13.555 13.872 13.697 12.96 12.48 12.277 12.093 11.98 11.905 11.835 11.767 11.702 11.637 11.562 11.472 11.375 11.28 11.18 11.085 10.997 10.905 10.815 10.71 10.588 10.473 10.378 10.307 10.25 10.175 10.082 9.96 9.83 9.733 9.66 9.587 9.452 9.26 9.055 8.923 8.868 8.812 8.747 8.695 8.713 8.785 8.868 8.953 9.03 9.062 9.053 9.043 9.035 9.025 9.01 9.015 9.045 9.073 9.123 9.17 9.193 9.215 9.225 9.18 9.083 8.963 8.885 8.865 8.845
12.09 12.2 12.277 12.305 12.31 12.315 12.295 12.243 12.188 12.133 12.13 12.175 12.218 12.245 12.25 12.248 12.245 12.243 12.243 12.268 12.317 12.367 12.395 12.392 12.372 12.345 12.34 12.37 12.397 12.425 12.558 12.758 13.04 13.29 13.418 13.558 13.682 13.77 13.82 13.852 13.878 13.9 13.905 13.89 13.872 13.832 13.768 13.705 13.643 13.578 13.515 13.455 13.383 13.345 13.375 13.42 13.46 13.497 13.53 13.552 13.557 13.55 13.548 13.555 13.562 13.562 13.565 13.575 13.58 13.575 13.56 13.543 13.543 13.573 13.663 13.805 13.955 14.107 14.242 14.32 14.36 14.397 14.42 14.43 14.435 14.44 14.427 14.387 14.342 14.3 14.28 14.285 14.295 14.313 14.325 14.328 14.328 14.32 14.295 14.263 14.338 14.594 13.917 12.948 12.815 12.795 12.775 12.755 12.722 12.68 12.655 12.645 12.64 12.602 12.413 12.263 12.275 12.295 12.32 12.363 12.418 12.48 12.535 12.577 12.605 12.618 12.633 12.838 13.242 13.45 13.815 14.164 14.127 14.079 13.35 12.57 12.432 12.3 12.177 12.08 11.992 11.91 11.837 11.772 11.707 11.63 11.535 11.435 11.34 11.252 11.167 11.08 10.987 10.9 10.822 10.74 10.652 10.555 10.465 10.407 10.355 10.295 10.195 10.057 9.932 9.822 9.69 9.505 9.3 9.095 8.96 8.903 8.848 8.795 8.775 8.82 8.908 9 9.09 9.155 9.17 9.155 9.14 9.125 9.107 9.087 9.087 9.115 9.14 9.162 9.185 9.208 9.232 9.232 9.165 9.068 9 8.965 8.945 8.925
12.08 12.183 12.275 12.317 12.32 12.32 12.31 12.28 12.235 12.185 12.178 12.213 12.24 12.247 12.245 12.245 12.245 12.245 12.253 12.293 12.355 12.412 12.447 12.44 12.41 12.38 12.378 12.397 12.38 12.395 12.593 12.85 13.307 13.72 13.81 13.86 13.88 13.87 13.865 13.885 13.907 13.922 13.917 13.897 13.867 13.823 13.765 13.705 13.645 13.585 13.525 13.46 13.373 13.318 13.338 13.38 13.417 13.45 13.48 13.51 13.532 13.535 13.53 13.535 13.542 13.542 13.54 13.54 13.54 13.537 13.528 13.533 13.573 13.633 13.718 13.845 13.997 14.14 14.242 14.302 14.345 14.375 14.39 14.4 14.405 14.407 14.39 14.345 14.298 14.258 14.243 14.25 14.265 14.295 14.32 14.323 14.318 14.318 14.303 14.268 14.265 14.5 14.252 13.31 12.825 12.805 12.785 12.762 12.725 12.678 12.653 12.645 12.64 12.63 12.488 12.365 12.385 12.408 12.433 12.468 12.515 12.57 12.607 12.622 12.628 12.726 13.155 13.67 14.06 14.26 14.235 14.19 14.14 13.83 13.043 12.48 12.363 12.263 12.19 12.125 12.045 11.955 11.878 11.812 11.75 11.675 11.58 11.485 11.398 11.315 11.232 11.145 11.055 10.98 10.917 10.852 10.787 10.712 10.625 10.54 10.475 10.435 10.357 10.227 10.095 9.952 9.762 9.545 9.34 9.135 8.998 8.938 8.893 8.87 8.895 8.968 9.055 9.145 9.235 9.282 9.28 9.26 9.232 9.207 9.177 9.143 9.133 9.155 9.177 9.195 9.213 9.233 9.26 9.247 9.175 9.108 9.075 9.058 9.04 9.02
12.085 12.19 12.282 12.32 12.32 12.32 12.32 12.312 12.287 12.245 12.233 12.257 12.267 12.26 12.255 12.253 12.25 12.25 12.268 12.318 12.38 12.44 12.477 12.47 12.442 12.415 12.4 12.375 12.3 12.335 12.595 12.963 13.59 14.037 14.042 14.01 13.96 13.92 13.915 13.932 13.937 13.922 13.902 13.885 13.86 13.822 13.772 13.715 13.658 13.6 13.537 13.457 13.355 13.29 13.298 13.335 13.37 13.4 13.43 13.46 13.49 13.507 13.512 13.515 13.512 13.505 13.5 13.5 13.5 13.505 13.528 13.575 13.635 13.7 13.773 13.888 14.032 14.145 14.225 14.285 14.33 14.352 14.36 14.367 14.37 14.37 14.347 14.3 14.253 14.215 14.205 14.223 14.253 14.287 14.317 14.325 14.323 14.33 14.332 14.307 14.268 14.395 14.552 13.72 12.85 12.815 12.795 12.767 12.725 12.675 12.65 12.647 12.643 12.64 12.552 12.475 12.497 12.522 12.545 12.57 12.595 12.615 12.62 12.671 13.14 13.62 14 14.302 14.29 14.287 14.257 14.205 14.152 13.492 12.663 12.41 12.315 12.245 12.188 12.132 12.07 11.99 11.913 11.85 11.79 11.717 11.628 11.54 11.462 11.385 11.3 11.213 11.135 11.075 11.015 10.95 10.885 10.82 10.755 10.68 10.605 10.545 10.46 10.332 10.197 10.052 9.85 9.61 9.388 9.175 9.035 8.988 8.98 9 9.047 9.122 9.205 9.282 9.36 9.387 9.362 9.332 9.295 9.26 9.225 9.188 9.175 9.192 9.21 9.225 9.24 9.26 9.287 9.27 9.218 9.187 9.17 9.152 9.135 9.097
12.105 12.212 12.297 12.32 12.32 12.32 12.32 12.32 12.315 12.295 12.285 12.29 12.282 12.27 12.265 12.26 12.255 12.258 12.288 12.343 12.4 12.457 12.497 12.492 12.46 12.427 12.377 12.295 12.195 12.275 12.575 13.123 13.845 14.162 14.11 14.06 14.008 13.968 13.952 13.945 13.925 13.89 13.865 13.855 13.84 13.817 13.777 13.722 13.67 13.615 13.542 13.445 13.335 13.26 13.255 13.288 13.32 13.35 13.38 13.41 13.44 13.47 13.485 13.482 13.472 13.46 13.458 13.457 13.455 13.46 13.51 13.595 13.677 13.76 13.832 13.932 14.045 14.13 14.205 14.267 14.31 14.325 14.328 14.33 14.333 14.335 14.308 14.255 14.208 14.175 14.178 14.208 14.245 14.28 14.312 14.33 14.335 14.345 14.355 14.35 14.323 14.34 14.582 14.077 13.1 12.825 12.802 12.767 12.723 12.675 12.65 12.65 12.645 12.64 12.607 12.58 12.592 12.602 12.607 12.613 12.61 12.616 13.013 13.538 14.062 14.389 14.315 14.3 14.3 14.305 14.28 14.225 14.042 13.25 12.513 12.37 12.3 12.24 12.182 12.127 12.072 12.01 11.945 11.885 11.827 11.765 11.687 11.605 11.528 11.45 11.368 11.293 11.23 11.172 11.11 11.042 10.975 10.907 10.84 10.772 10.705 10.625 10.52 10.4 10.275 10.142 9.952 9.705 9.46 9.228 9.09 9.07 9.09 9.115 9.142 9.195 9.267 9.335 9.4 9.435 9.417 9.382 9.345 9.308 9.273 9.235 9.218 9.227 9.24 9.255 9.27 9.287 9.305 9.297 9.272 9.252 9.232 9.207 9.185 9.127
