ncols         200
nrows         73
xllcorner     546000
yllcorner     256370
cellsize      5
NODATA_value  -9999.0
15.721 17.83 19.639 19.77 19.903 20.037 20.165 20.265 20.345 20.425 20.505 20.577 20.625 20.59 20.49 19.543 18.283 17.743 17.528 17.45 17.365 17.227 17.12 17.102 17.11 17.117 17.11 17.095 17.077 17.072 17.055 17 16.948 16.91 16.873 16.84 16.928 17.062 17.085 17.068 17.052 17.035 17.038 17.06 17.08 17.092 17.095 17.052 16.915 16.778 16.738 16.748 16.765 16.782 16.797 16.782 16.73 16.673 16.655 16.678 16.703 16.728 16.763 16.815 16.875 16.935 16.977 16.985 16.975 16.968 16.988 17.03 17.07 17.1 17.105 17.09 17.07 17.05 17.022 16.975 16.915 16.858 16.803 16.747 16.69 16.628 16.598 16.595 16.59 16.585 16.57 16.55 16.525 16.5 16.46 16.397 16.333 16.288 16.275 16.275 16.28 16.288 16.29 16.285 16.27 16.245 16.21 16.167 16.125 16.08 15.947 15.717 15.473 15.268 15.115 14.978 14.838 14.698 14.615 14.59 14.572 14.547 14.49 14.41 14.33 14.195 14.027 13.847 13.627 13.397 13.175 12.957 12.777 12.652 12.545 12.447 12.34 12.22 12.112 12.017 11.917 11.812 11.73 11.667 11.605 11.543 11.478 11.42 11.372 11.325 11.282 11.235 11.175 11.118 11.065 10.985 10.873 10.758 10.635 10.505 10.362 10.21 10.113 10.065 10.02 9.977 9.93 9.882 9.832 9.78 9.747 9.735 9.71 9.66 9.598 9.535 9.478 9.425 9.38 9.345 9.317 9.29 9.262 9.235 9.207 9.182 9.163 9.16 9.165 9.168 9.173 9.175 9.178 9.182 9.177 9.16 9.135 9.105 9.077 9.04
16.683 18.807 19.73 19.86 19.99 20.115 20.215 20.287 20.357 20.432 20.507 20.617 20.685 20.63 20.53 20.08 18.79 17.72 17.493 17.403 17.32 17.23 17.16 17.14 17.142 17.137 17.125 17.11 17.092 17.067 17.062 17.077 17.062 17.025 16.985 16.95 17.02 17.102 17.092 17.075 17.06 17.033 17.03 17.062 17.085 17.102 17.12 17.102 16.98 16.825 16.775 16.79 16.803 16.818 16.83 16.807 16.75 16.693 16.663 16.665 16.683 16.705 16.748 16.81 16.87 16.93 16.975 16.985 16.975 16.97 17.005 17.057 17.095 17.138 17.185 17.188 17.138 17.093 17.055 17 16.93 16.855 16.788 16.73 16.667 16.6 16.568 16.57 16.567 16.56 16.545 16.525 16.505 16.49 16.457 16.397 16.335 16.295 16.285 16.285 16.288 16.285 16.273 16.258 16.24 16.205 16.16 16.117 16.073 16.027 15.89 15.655 15.413 15.198 15.035 14.9 14.765 14.63 14.553 14.53 14.515 14.515 14.485 14.408 14.323 14.185 13.992 13.78 13.547 13.312 13.075 12.677 11.99 11.695 11.925 12.13 12.16 12.04 11.925 11.822 11.727 11.535 11.415 11.462 11.495 11.475 11.42 11.372 11.322 11.265 11.227 11.195 11.14 11.08 10.98 10.855 10.748 10.638 10.515 10.385 10.263 10.16 10.095 10.052 10.007 9.955 9.9 9.847 9.79 9.73 9.7 9.702 9.69 9.645 9.588 9.53 9.475 9.425 9.373 9.33 9.302 9.277 9.252 9.225 9.198 9.175 9.16 9.158 9.163 9.165 9.168 9.172 9.175 9.17 9.147 9.113 9.082 9.062 9.03 8.963
17.462 19.569 19.82 19.94 20.05 20.152 20.227 20.268 20.303 20.36 20.453 20.62 20.732 20.68 20.575 20.474 19.152 17.713 17.488 17.38 17.288 17.205 17.153 17.135 17.125 17.115 17.102 17.087 17.06 17.015 17.005 17.09 17.157 17.135 17.098 17.063 17.085 17.115 17.1 17.085 17.062 17.02 17.015 17.057 17.087 17.108 17.125 17.12 17.03 16.885 16.825 16.84 16.85 16.857 16.857 16.825 16.765 16.705 16.678 16.685 16.698 16.715 16.755 16.815 16.872 16.93 16.975 16.985 16.975 16.97 17.02 17.09 17.13 17.185 17.275 17.335 17.295 17.218 17.143 17.04 16.933 16.845 16.773 16.708 16.64 16.57 16.533 16.535 16.54 16.535 16.52 16.503 16.49 16.48 16.452 16.395 16.343 16.323 16.32 16.317 16.31 16.292 16.27 16.247 16.215 16.16 16.103 16.06 16.017 15.97 15.825 15.585 15.348 15.14 14.978 14.835 14.698 14.563 14.485 14.47 14.463 14.49 14.535 14.525 14.395 14.145 13.89 13.667 13.44 13.212 13 12.28 11.076 10.633 10.913 11.158 11.225 11.143 11.063 11.025 11.008 10.903 10.893 11.05 11.195 11.283 11.317 11.305 11.247 11.183 11.16 11.165 11.135 11.08 10.955 10.793 10.673 10.56 10.435 10.315 10.215 10.13 10.068 10.025 9.975 9.91 9.852 9.795 9.73 9.673 9.64 9.643 9.655 9.635 9.585 9.53 9.475 9.425 9.373 9.323 9.285 9.26 9.235 9.208 9.185 9.17 9.165 9.165 9.168 9.172 9.172 9.167 9.157 9.14 9.11 9.06 9.01 8.983 8.945 8.89
18.097 19.766 19.875 19.975 20.062 20.15 20.23 20.265 20.27 20.295 20.405 20.592 20.695 20.665 20.602 20.522 19.582 18.125 17.495 17.38 17.272 17.175 17.123 17.11 17.102 17.092 17.077 17.052 17.007 16.953 16.91 17.003 17.172 17.23 17.21 17.165 17.122 17.11 17.107 17.095 17.055 16.998 16.995 17.04 17.08 17.112 17.132 17.117 17.052 16.938 16.875 16.887 16.89 16.887 16.872 16.83 16.77 16.713 16.69 16.7 16.712 16.728 16.763 16.82 16.875 16.93 16.975 16.985 16.975 16.97 17.025 17.112 17.168 17.238 17.337 17.437 17.48 17.432 17.322 17.175 17.015 16.857 16.755 16.695 16.623 16.55 16.505 16.498 16.505 16.51 16.5 16.487 16.48 16.47 16.445 16.4 16.368 16.357 16.352 16.34 16.32 16.297 16.27 16.23 16.175 16.11 16.045 15.995 15.955 15.897 15.745 15.512 15.28 15.078 14.92 14.777 14.635 14.498 14.423 14.418 14.42 14.443 14.522 14.345 13.812 13.32 13.098 13.045 12.992 12.94 12.902 11.903 10.714 10.513 10.508 10.488 10.455 10.41 10.365 10.365 10.415 10.52 10.675 10.835 10.993 11.145 11.252 11.242 11.163 11.095 11.078 11.1 11.105 11.077 10.952 10.755 10.6 10.48 10.365 10.27 10.19 10.11 10.045 9.995 9.922 9.85 9.805 9.747 9.678 9.618 9.58 9.58 9.605 9.605 9.57 9.525 9.475 9.425 9.375 9.32 9.273 9.243 9.218 9.193 9.175 9.17 9.17 9.172 9.172 9.17 9.162 9.145 9.125 9.105 9.075 9.025 8.965 8.918 8.888 8.875
17.2 18.829 19.884 19.972 20.057 20.145 20.23 20.272 20.275 20.27 20.358 20.505 20.55 20.53 20.514 20.479 19.489 17.995 17.393 17.26 17.178 17.13 17.085 17.07 17.072 17.067 17.045 17 16.943 16.888 16.833 16.885 17.077 17.247 17.277 17.202 17.108 17.058 17.057 17.055 17.025 16.975 16.975 17.02 17.065 17.107 17.132 17.112 17.055 16.973 16.923 16.92 16.91 16.897 16.875 16.83 16.77 16.718 16.703 16.715 16.728 16.743 16.775 16.828 16.88 16.932 16.977 16.987 16.975 16.968 17.023 17.127 17.207 17.295 17.4 17.5 17.595 17.625 17.525 17.312 17.045 16.813 16.733 16.71 16.638 16.563 16.51 16.495 16.498 16.498 16.483 16.47 16.465 16.457 16.44 16.412 16.39 16.367 16.345 16.322 16.302 16.285 16.25 16.19 16.122 16.057 15.99 15.93 15.87 15.79 15.637 15.417 15.193 14.998 14.845 14.707 14.567 14.433 14.368 14.37 14.377 14.362 14.182 13.595 12.818 12.358 12.29 12.39 12.51 12.63 12.747 12.23 11.63 11.58 11.068 10.581 10.57 10.548 10.515 10.483 10.503 10.61 10.765 10.923 11.075 11.195 11.25 11.207 11.108 11.02 10.995 11.02 11.04 11.045 10.942 10.738 10.545 10.413 10.323 10.243 10.167 10.09 10.022 9.95 9.853 9.785 9.752 9.702 9.632 9.563 9.52 9.52 9.545 9.55 9.522 9.487 9.45 9.41 9.37 9.32 9.267 9.23 9.203 9.183 9.175 9.175 9.175 9.172 9.162 9.147 9.13 9.11 9.09 9.07 9.04 8.998 8.95 8.905 8.885 8.888
15.864 16.91 17.943 18.957 20.021 20.141 20.227 20.275 20.272 20.253 20.31 20.397 20.406 19.904 19.108 18.827 18.138 17.296 17.203 17.217 17.19 17.115 17.013 16.985 16.995 16.995 16.97 16.927 16.877 16.822 16.765 16.778 16.935 17.135 17.195 17.132 17.057 16.985 16.953 16.952 16.945 16.93 16.945 16.99 17.032 17.075 17.11 17.1 17.045 16.983 16.945 16.932 16.917 16.902 16.877 16.83 16.77 16.723 16.715 16.732 16.745 16.758 16.79 16.84 16.89 16.942 16.99 17.002 16.988 16.973 17.02 17.13 17.23 17.327 17.432 17.535 17.637 17.692 17.565 17.262 16.915 16.69 16.678 16.712 16.672 16.598 16.545 16.53 16.527 16.51 16.47 16.44 16.432 16.43 16.42 16.397 16.367 16.33 16.292 16.263 16.245 16.23 16.192 16.132 16.065 16 15.935 15.852 15.755 15.66 15.512 15.3 15.088 14.908 14.758 14.617 14.48 14.358 14.308 14.312 14.27 14.135 13.725 13.02 12.395 12.158 12.173 12.215 12.305 12.425 12.545 12.642 12.629 12.527 11.96 11.418 11.365 11.312 11.25 10.925 10.65 10.73 10.875 11.027 11.145 11.202 11.225 11.187 11.085 10.98 10.933 10.948 10.97 10.972 10.89 10.715 10.51 10.368 10.292 10.215 10.137 10.06 9.975 9.87 9.778 9.73 9.7 9.655 9.587 9.513 9.46 9.458 9.485 9.49 9.458 9.42 9.39 9.36 9.33 9.292 9.25 9.215 9.195 9.19 9.193 9.198 9.195 9.165 9.13 9.11 9.09 9.07 9.05 9.033 9.018 8.993 8.955 8.918 8.9 8.903
15.863 15.978 16.044 17.028 18.06 18.143 19.217 20.271 20.264 20.254 20.129 19.28 18.575 18.13 17.393 17.171 17.183 17.028 17.01 17.21 17.262 17.087 16.915 16.87 16.875 16.87 16.845 16.815 16.78 16.737 16.693 16.675 16.775 16.932 16.992 16.97 16.93 16.883 16.85 16.843 16.84 16.845 16.877 16.927 16.97 17.01 17.047 17.06 17.03 16.975 16.94 16.932 16.922 16.907 16.88 16.83 16.768 16.725 16.725 16.745 16.762 16.775 16.803 16.85 16.903 16.957 17.007 17.025 17.01 16.99 17.025 17.122 17.222 17.32 17.422 17.527 17.605 17.595 17.412 17.095 16.75 16.565 16.593 16.662 16.682 16.632 16.58 16.565 16.555 16.525 16.47 16.413 16.39 16.39 16.377 16.35 16.315 16.275 16.235 16.198 16.17 16.15 16.115 16.065 16.005 15.937 15.867 15.76 15.633 15.53 15.387 15.18 14.985 14.825 14.675 14.525 14.38 14.273 14.222 14.147 13.975 13.74 13.422 12.85 12.295 12.12 12.12 12.12 12.148 12.218 12.32 12.435 12.445 12.347 12.242 12.137 12.032 11.927 11.819 11.442 10.97 10.863 10.98 11.097 11.152 11.175 11.195 11.162 11.065 10.96 10.898 10.893 10.91 10.89 10.797 10.655 10.475 10.333 10.255 10.175 10.085 9.992 9.887 9.78 9.713 9.68 9.65 9.607 9.542 9.468 9.408 9.398 9.425 9.43 9.397 9.355 9.32 9.29 9.26 9.23 9.203 9.183 9.185 9.205 9.222 9.232 9.222 9.17 9.105 9.068 9.045 9.027 9.01 9.003 9.007 9 8.97 8.933 8.915 8.917
15.888 16.032 16.12 16.145 16.166 16.184 17.228 18.27 18.28 18.31 18.207 17.376 16.721 16.821 16.925 16.985 16.898 16.795 16.823 16.957 17.047 16.957 16.828 16.765 16.75 16.735 16.705 16.675 16.65 16.635 16.625 16.615 16.66 16.75 16.8 16.81 16.81 16.82 16.808 16.77 16.745 16.743 16.778 16.833 16.885 16.93 16.962 16.985 16.987 16.96 16.93 16.927 16.93 16.915 16.882 16.827 16.76 16.725 16.735 16.755 16.775 16.792 16.818 16.86 16.915 16.97 17.02 17.042 17.027 17.005 17.03 17.113 17.205 17.3 17.4 17.487 17.492 17.4 17.212 16.92 16.59 16.448 16.508 16.582 16.645 16.65 16.615 16.592 16.57 16.535 16.477 16.405 16.358 16.345 16.33 16.297 16.26 16.22 16.18 16.14 16.103 16.073 16.035 15.99 15.94 15.875 15.79 15.665 15.523 15.402 15.26 15.07 14.895 14.745 14.592 14.437 14.288 14.145 13.998 13.793 13.54 13.29 13.04 12.612 12.195 12.08 12.08 12.08 12.08 12.093 12.135 12.22 12.245 12.163 12.06 11.96 11.858 11.753 11.638 11.5 11.232 11.025 11.047 11.1 11.125 11.145 11.167 11.14 11.045 10.94 10.875 10.853 10.852 10.807 10.693 10.565 10.42 10.29 10.197 10.102 10 9.895 9.793 9.715 9.665 9.628 9.595 9.56 9.5 9.433 9.383 9.358 9.368 9.37 9.34 9.295 9.253 9.22 9.19 9.165 9.153 9.15 9.165 9.197 9.227 9.245 9.235 9.182 9.105 9.038 9 8.983 8.973 8.98 8.99 8.99 8.977 8.948 8.93 8.932
15.955 16.107 16.192 16.215 16.235 16.258 16.288 16.326 16.369 16.424 16.483 16.535 16.595 16.68 16.76 16.75 16.658 16.633 16.68 16.72 16.77 16.788 16.74 16.678 16.65 16.645 16.635 16.623 16.615 16.62 16.625 16.638 16.675 16.72 16.758 16.793 16.828 16.852 16.825 16.758 16.7 16.67 16.69 16.745 16.805 16.858 16.885 16.898 16.91 16.915 16.908 16.915 16.93 16.922 16.887 16.822 16.755 16.733 16.75 16.768 16.785 16.805 16.83 16.87 16.92 16.97 17.017 17.042 17.032 17.01 17.028 17.098 17.185 17.28 17.372 17.392 17.305 17.18 17.005 16.735 16.448 16.353 16.425 16.5 16.575 16.63 16.64 16.612 16.58 16.545 16.485 16.41 16.345 16.305 16.28 16.242 16.2 16.16 16.12 16.08 16.04 16.005 15.965 15.918 15.868 15.807 15.71 15.57 15.423 15.285 15.138 14.973 14.815 14.66 14.5 14.343 14.203 14.053 13.84 13.568 13.275 12.985 12.695 12.353 12.1 12.045 12.045 12.045 12.045 12.045 12.045 12.07 12.07 11.995 11.898 11.8 11.7 11.6 11.49 11.365 11.232 11.105 11.038 11.04 11.062 11.087 11.115 11.095 11.01 10.912 10.85 10.82 10.797 10.727 10.605 10.483 10.355 10.23 10.118 10.013 9.908 9.81 9.735 9.685 9.643 9.6 9.56 9.523 9.473 9.42 9.382 9.35 9.33 9.315 9.282 9.235 9.188 9.15 9.128 9.12 9.122 9.125 9.14 9.167 9.19 9.207 9.2 9.155 9.092 9.027 8.973 8.943 8.945 8.962 8.97 8.972 8.972 8.957 8.945 8.945
15.995 16.145 16.245 16.287 16.313 16.337 16.353 16.385 16.445 16.502 16.537 16.548 16.563 16.608 16.643 16.623 16.598 16.603 16.62 16.645 16.675 16.705 16.693 16.65 16.645 16.658 16.665 16.673 16.68 16.685 16.685 16.708 16.755 16.8 16.84 16.877 16.91 16.91 16.86 16.79 16.725 16.685 16.7 16.755 16.813 16.863 16.878 16.868 16.87 16.883 16.89 16.9 16.917 16.922 16.887 16.815 16.755 16.745 16.765 16.785 16.81 16.835 16.845 16.863 16.9 16.945 16.99 17.017 17.017 17 17.018 17.088 17.173 17.26 17.292 17.215 17.085 16.958 16.795 16.583 16.408 16.383 16.46 16.54 16.603 16.645 16.657 16.63 16.59 16.542 16.477 16.405 16.337 16.275 16.225 16.182 16.14 16.097 16.055 16.015 15.978 15.953 15.92 15.867 15.807 15.74 15.632 15.485 15.335 15.19 15.038 14.875 14.717 14.555 14.39 14.238 14.128 14.027 13.865 13.632 13.335 13.005 12.675 12.345 12.138 12.073 12.048 12.045 12.045 12.045 12.045 12.032 11.983 11.898 11.805 11.713 11.618 11.523 11.423 11.313 11.193 11.073 10.995 10.97 10.973 10.995 11.025 11.012 10.937 10.853 10.8 10.77 10.735 10.66 10.545 10.425 10.295 10.155 10.033 9.928 9.833 9.765 9.72 9.68 9.64 9.6 9.555 9.51 9.465 9.413 9.367 9.33 9.29 9.252 9.21 9.162 9.115 9.085 9.08 9.085 9.09 9.092 9.102 9.117 9.13 9.14 9.127 9.085 9.035 8.988 8.943 8.92 8.935 8.947 8.938 8.938 8.947 8.947 8.947 8.95
16.005 16.147 16.26 16.342 16.392 16.42 16.413 16.41 16.455 16.51 16.545 16.562 16.585 16.615 16.633 16.63 16.625 16.63 16.638 16.65 16.675 16.705 16.695 16.678 16.702 16.722 16.73 16.74 16.745 16.738 16.745 16.785 16.835 16.882 16.925 16.962 16.995 16.977 16.91 16.842 16.778 16.755 16.79 16.843 16.897 16.94 16.937 16.908 16.893 16.893 16.898 16.905 16.915 16.917 16.877 16.803 16.76 16.77 16.8 16.833 16.862 16.885 16.88 16.855 16.863 16.905 16.947 16.977 16.992 16.985 17.008 17.082 17.16 17.225 17.19 17.058 16.925 16.795 16.675 16.588 16.555 16.577 16.622 16.662 16.685 16.687 16.677 16.642 16.585 16.52 16.452 16.385 16.315 16.243 16.175 16.12 16.075 16.032 15.988 15.948 15.923 15.915 15.885 15.82 15.747 15.67 15.557 15.41 15.263 15.117 14.957 14.78 14.605 14.435 14.273 14.15 14.08 13.995 13.86 13.697 13.49 13.202 12.87 12.545 12.32 12.21 12.14 12.093 12.07 12.07 12.065 12.022 11.94 11.85 11.76 11.67 11.58 11.49 11.39 11.277 11.155 11.038 10.968 10.933 10.905 10.9 10.92 10.912 10.845 10.775 10.735 10.702 10.662 10.595 10.49 10.367 10.23 10.08 9.95 9.858 9.795 9.753 9.715 9.675 9.635 9.597 9.555 9.507 9.46 9.4 9.328 9.263 9.215 9.17 9.12 9.075 9.04 9.028 9.032 9.04 9.045 9.05 9.055 9.055 9.058 9.065 9.052 9.01 8.97 8.945 8.928 8.92 8.935 8.94 8.915 8.898 8.898 8.905 8.917 8.93
16.015 16.152 16.26 16.36 16.445 16.495 16.492 16.455 16.465 16.512 16.54 16.565 16.6 16.637 16.66 16.66 16.658 16.663 16.668 16.673 16.685 16.705 16.71 16.723 16.757 16.785 16.797 16.802 16.797 16.788 16.81 16.862 16.915 16.965 17.01 17.047 17.08 17.045 16.948 16.883 16.838 16.833 16.88 16.93 16.985 17.02 17.005 16.97 16.937 16.915 16.91 16.908 16.903 16.895 16.87 16.833 16.818 16.835 16.87 16.902 16.92 16.932 16.925 16.883 16.848 16.865 16.905 16.932 16.957 16.965 16.998 17.065 17.12 17.165 17.117 16.98 16.855 16.763 16.7 16.672 16.685 16.71 16.717 16.712 16.71 16.705 16.682 16.63 16.562 16.495 16.427 16.357 16.283 16.21 16.14 16.073 16.013 15.965 15.923 15.89 15.883 15.877 15.83 15.75 15.67 15.59 15.485 15.345 15.197 15.05 14.882 14.695 14.508 14.325 14.18 14.098 14.045 13.96 13.827 13.68 13.53 13.332 13.055 12.748 12.52 12.4 12.31 12.22 12.153 12.11 12.062 11.987 11.898 11.81 11.72 11.63 11.54 11.452 11.347 11.227 11.11 11.003 10.94 10.905 10.868 10.838 10.828 10.81 10.758 10.705 10.667 10.63 10.587 10.53 10.435 10.305 10.16 10.01 9.888 9.823 9.785 9.747 9.71 9.67 9.63 9.592 9.55 9.5 9.45 9.392 9.305 9.21 9.135 9.078 9.03 8.993 8.978 8.975 8.98 8.99 8.995 9 9.005 9 8.995 8.998 8.993 8.97 8.953 8.948 8.942 8.935 8.94 8.937 8.91 8.88 8.858 8.85 8.858 8.875
15.995 16.152 16.255 16.355 16.455 16.54 16.57 16.525 16.495 16.52 16.55 16.585 16.623 16.66 16.685 16.688 16.69 16.695 16.7 16.705 16.707 16.718 16.74 16.775 16.812 16.845 16.86 16.855 16.843 16.848 16.885 16.938 16.99 17.04 17.087 17.13 17.16 17.11 16.99 16.92 16.902 16.92 16.97 17.02 17.075 17.1 17.075 17.022 16.962 16.938 16.935 16.92 16.905 16.898 16.898 16.905 16.912 16.92 16.937 16.955 16.962 16.97 16.962 16.925 16.87 16.845 16.865 16.89 16.918 16.943 16.973 17.015 17.055 17.095 17.05 16.935 16.86 16.823 16.777 16.72 16.705 16.727 16.735 16.73 16.73 16.717 16.67 16.6 16.532 16.467 16.397 16.323 16.25 16.18 16.11 16.04 15.97 15.905 15.865 15.853 15.855 15.83 15.757 15.675 15.593 15.51 15.412 15.28 15.13 14.975 14.8 14.61 14.417 14.225 14.078 14.03 14.01 13.925 13.792 13.645 13.497 13.35 13.165 12.927 12.717 12.587 12.485 12.372 12.26 12.152 12.048 11.95 11.865 11.78 11.69 11.6 11.51 11.415 11.297 11.165 11.05 10.965 10.913 10.875 10.84 10.805 10.773 10.735 10.683 10.635 10.595 10.553 10.51 10.465 10.377 10.24 10.093 9.945 9.838 9.79 9.76 9.732 9.702 9.665 9.625 9.585 9.542 9.492 9.44 9.385 9.302 9.2 9.098 9.01 8.953 8.928 8.925 8.925 8.933 8.95 8.965 8.973 8.975 8.973 8.968 8.97 8.975 8.973 8.967 8.962 8.957 8.952 8.947 8.93 8.903 8.875 8.848 8.823 8.818 8.838
15.957 16.162 16.275 16.375 16.475 16.572 16.612 16.57 16.52 16.525 16.567 16.61 16.647 16.685 16.71 16.717 16.722 16.725 16.722 16.715 16.713 16.733 16.77 16.81 16.852 16.88 16.897 16.902 16.895 16.918 16.965 17.015 17.065 17.115 17.165 17.212 17.23 17.165 17.045 16.955 16.933 16.982 17.055 17.11 17.162 17.175 17.112 17.007 16.945 16.96 16.972 16.958 16.948 16.948 16.955 16.967 16.97 16.96 16.96 16.97 16.977 16.982 16.975 16.94 16.887 16.853 16.86 16.888 16.92 16.955 16.975 16.99 17.013 17.035 17.01 16.958 16.933 16.907 16.852 16.78 16.738 16.745 16.755 16.75 16.74 16.712 16.652 16.57 16.495 16.43 16.362 16.29 16.217 16.145 16.075 16.005 15.935 15.868 15.83 15.828 15.832 15.78 15.685 15.602 15.518 15.432 15.337 15.21 15.057 14.89 14.705 14.515 14.323 14.133 13.968 13.88 13.88 13.847 13.72 13.557 13.397 13.247 13.115 12.972 12.81 12.677 12.56 12.427 12.295 12.162 12.035 11.925 11.835 11.75 11.66 11.57 11.477 11.37 11.242 11.1 10.973 10.903 10.877 10.85 10.813 10.778 10.742 10.695 10.638 10.59 10.55 10.508 10.463 10.407 10.312 10.177 10.033 9.888 9.783 9.738 9.715 9.692 9.667 9.64 9.61 9.577 9.537 9.485 9.43 9.375 9.297 9.2 9.095 8.998 8.935 8.91 8.905 8.905 8.918 8.943 8.96 8.965 8.965 8.965 8.963 8.975 8.987 8.985 8.98 8.975 8.97 8.962 8.955 8.94 8.918 8.89 8.865 8.83 8.818 8.842
15.93 16.177 16.32 16.42 16.52 16.597 16.605 16.555 16.508 16.5 16.537 16.592 16.645 16.697 16.732 16.737 16.732 16.725 16.712 16.7 16.708 16.745 16.79 16.83 16.86 16.858 16.9 16.947 16.955 16.995 17.045 17.095 17.145 17.195 17.245 17.295 17.299 17.204 17.06 16.955 16.91 16.942 17.035 17.127 17.2 17.185 17.065 16.958 16.945 16.987 17.005 16.995 16.993 17.002 17.002 16.99 16.97 16.95 16.95 16.96 16.97 16.977 16.967 16.932 16.888 16.873 16.895 16.925 16.96 16.995 17.013 17.02 17.035 17.055 17.058 17.043 17.027 16.992 16.927 16.855 16.79 16.77 16.775 16.762 16.735 16.7 16.637 16.543 16.458 16.39 16.325 16.255 16.182 16.11 16.04 15.968 15.9 15.85 15.818 15.808 15.795 15.717 15.613 15.528 15.445 15.36 15.265 15.137 14.972 14.792 14.605 14.415 14.225 14.043 13.883 13.74 13.663 13.625 13.512 13.363 13.23 13.11 13.01 12.9 12.77 12.652 12.54 12.42 12.295 12.16 12.03 11.91 11.808 11.72 11.63 11.54 11.44 11.32 11.19 11.042 10.893 10.82 10.82 10.817 10.79 10.753 10.717 10.67 10.618 10.578 10.538 10.495 10.435 10.347 10.24 10.115 9.977 9.833 9.725 9.68 9.66 9.637 9.613 9.59 9.57 9.552 9.522 9.472 9.42 9.365 9.292 9.2 9.105 9.03 8.978 8.94 8.92 8.918 8.932 8.95 8.955 8.955 8.955 8.955 8.958 8.983 9.002 8.997 8.99 8.985 8.98 8.973 8.97 8.967 8.95 8.92 8.89 8.848 8.833 8.845
15.9 16.175 16.355 16.465 16.557 16.597 16.572 16.525 16.485 16.46 16.473 16.527 16.587 16.645 16.687 16.702 16.702 16.692 16.683 16.69 16.72 16.765 16.81 16.835 16.827 16.795 16.868 16.98 17.025 17.072 17.117 17.165 17.212 17.257 17.305 17.352 16.35 16.128 16.895 16.852 16.832 16.838 16.9 16.992 17.075 17.075 16.985 16.94 16.972 17.015 17.037 17.04 17.035 17.027 17.007 16.972 16.945 16.938 16.943 16.95 16.96 16.97 16.962 16.928 16.898 16.905 16.938 16.97 17.002 17.035 17.062 17.087 17.117 17.152 17.16 17.14 17.117 17.07 17 16.93 16.857 16.81 16.787 16.76 16.725 16.687 16.62 16.52 16.425 16.35 16.285 16.215 16.145 16.075 16.005 15.935 15.88 15.845 15.815 15.795 15.747 15.642 15.538 15.455 15.372 15.285 15.185 15.047 14.872 14.69 14.505 14.315 14.125 13.948 13.795 13.655 13.515 13.405 13.303 13.195 13.108 13.023 12.935 12.823 12.708 12.612 12.51 12.397 12.28 12.155 12.027 11.903 11.788 11.69 11.6 11.507 11.397 11.27 11.142 10.987 10.815 10.738 10.745 10.755 10.752 10.727 10.692 10.648 10.603 10.57 10.53 10.467 10.375 10.27 10.16 10.04 9.915 9.778 9.67 9.625 9.603 9.58 9.563 9.55 9.54 9.527 9.5 9.455 9.405 9.352 9.287 9.21 9.14 9.085 9.035 8.99 8.953 8.935 8.94 8.945 8.945 8.945 8.945 8.945 8.958 8.995 9.017 9.01 9 8.995 8.993 8.99 8.99 8.99 8.977 8.947 8.907 8.86 8.83 8.81
15.898 16.167 16.38 16.507 16.58 16.577 16.538 16.498 16.465 16.435 16.423 16.453 16.503 16.55 16.593 16.623 16.64 16.647 16.663 16.695 16.735 16.78 16.825 16.83 16.79 16.743 16.813 16.977 17.072 17.115 17.157 17.202 17.245 17.285 17.33 17.194 15.359 15.176 16.679 16.7 16.715 16.755 16.803 16.84 16.893 16.928 16.93 16.945 16.99 17.035 17.062 17.065 17.042 17.01 16.98 16.945 16.925 16.93 16.937 16.943 16.95 16.96 16.955 16.928 16.923 16.95 16.98 17.002 17.017 17.042 17.085 17.13 17.172 17.215 17.232 17.227 17.202 17.137 17.055 16.972 16.89 16.817 16.767 16.735 16.702 16.665 16.592 16.487 16.382 16.3 16.24 16.175 16.105 16.035 15.965 15.908 15.87 15.842 15.81 15.767 15.687 15.568 15.465 15.377 15.277 15.175 15.065 14.927 14.76 14.582 14.402 14.215 14.028 13.858 13.71 13.57 13.43 13.303 13.203 13.115 13.03 12.945 12.857 12.755 12.655 12.572 12.475 12.362 12.242 12.122 12.007 11.895 11.777 11.665 11.57 11.47 11.35 11.22 11.09 10.925 10.75 10.673 10.673 10.68 10.688 10.685 10.665 10.627 10.587 10.552 10.497 10.405 10.295 10.188 10.077 9.96 9.84 9.715 9.615 9.575 9.563 9.55 9.545 9.543 9.535 9.512 9.475 9.432 9.385 9.335 9.287 9.242 9.193 9.14 9.093 9.047 8.997 8.953 8.935 8.935 8.935 8.935 8.938 8.943 8.968 9.012 9.03 9.022 9.015 9.007 9.005 9.005 9.005 9.005 8.995 8.952 8.887 8.82 8.765 8.73
15.953 16.173 16.387 16.527 16.575 16.545 16.508 16.475 16.445 16.418 16.4 16.41 16.448 16.493 16.533 16.563 16.583 16.593 16.632 16.695 16.74 16.785 16.83 16.842 16.805 16.75 16.8 16.963 17.08 17.13 17.173 17.217 17.26 17.3 17.342 16.56 15.076 15.473 16.56 16.6 16.673 16.737 16.762 16.778 16.808 16.843 16.883 16.927 16.972 17.022 17.062 17.055 17.018 16.983 16.95 16.923 16.913 16.92 16.93 16.937 16.943 16.95 16.947 16.943 16.955 16.972 16.985 16.987 16.993 17.02 17.065 17.115 17.165 17.21 17.237 17.245 17.212 17.132 17.04 16.945 16.847 16.763 16.71 16.682 16.652 16.615 16.54 16.427 16.318 16.23 16.172 16.12 16.06 15.997 15.937 15.89 15.85 15.815 15.775 15.705 15.602 15.48 15.367 15.262 15.145 15.027 14.912 14.792 14.64 14.462 14.287 14.107 13.928 13.768 13.625 13.488 13.35 13.22 13.12 13.035 12.95 12.865 12.777 12.692 12.61 12.53 12.435 12.32 12.19 12.068 11.965 11.865 11.757 11.645 11.54 11.427 11.3 11.173 11.045 10.9 10.76 10.675 10.645 10.643 10.645 10.65 10.637 10.595 10.55 10.507 10.435 10.33 10.22 10.108 9.995 9.88 9.765 9.653 9.575 9.553 9.55 9.55 9.55 9.542 9.52 9.485 9.448 9.407 9.36 9.31 9.278 9.272 9.247 9.195 9.147 9.097 9.032 8.96 8.925 8.925 8.925 8.925 8.93 8.943 8.975 9.02 9.035 9.027 9.02 9.01 9.005 9.002 9 8.997 8.98 8.915 8.818 8.725 8.65 8.61
16.048 16.22 16.395 16.51 16.542 16.52 16.488 16.46 16.43 16.41 16.405 16.41 16.43 16.465 16.5 16.525 16.535 16.533 16.575 16.662 16.732 16.782 16.827 16.857 16.845 16.805 16.853 16.99 17.097 17.152 17.188 17.228 17.273 17.315 17.355 16.275 15.164 15.79 16.48 16.608 16.717 16.735 16.725 16.74 16.765 16.798 16.835 16.88 16.933 17.003 17.055 17.037 16.993 16.955 16.92 16.905 16.907 16.913 16.92 16.93 16.937 16.94 16.938 16.942 16.947 16.945 16.945 16.948 16.968 17.003 17.045 17.095 17.14 17.175 17.2 17.195 17.142 17.06 16.967 16.872 16.775 16.693 16.645 16.617 16.582 16.537 16.465 16.358 16.245 16.148 16.083 16.038 15.992 15.942 15.897 15.855 15.805 15.757 15.702 15.6 15.427 15.305 15.23 15.115 14.995 14.875 14.76 14.65 14.512 14.34 14.165 13.99 13.825 13.68 13.54 13.405 13.27 13.14 13.038 12.952 12.867 12.782 12.69 12.602 12.53 12.462 12.38 12.262 12.128 12.01 11.91 11.81 11.713 11.615 11.507 11.388 11.26 11.135 11.028 10.935 10.835 10.73 10.668 10.648 10.64 10.642 10.617 10.555 10.493 10.442 10.37 10.265 10.155 10.04 9.93 9.825 9.72 9.623 9.57 9.56 9.555 9.555 9.547 9.527 9.498 9.463 9.43 9.387 9.33 9.275 9.253 9.277 9.29 9.255 9.202 9.135 9.05 8.96 8.915 8.915 8.915 8.92 8.933 8.943 8.968 9.007 9.022 9.015 9.005 8.995 8.99 8.987 8.98 8.97 8.94 8.857 8.745 8.638 8.54 8.48
16.15 16.26 16.37 16.465 16.495 16.495 16.47 16.445 16.42 16.413 16.415 16.42 16.43 16.448 16.467 16.475 16.472 16.468 16.505 16.6 16.697 16.77 16.822 16.857 16.872 16.865 16.92 17.037 17.13 17.187 17.22 17.253 17.29 17.327 17.365 16.605 15.858 16.16 16.537 16.695 16.73 16.7 16.69 16.705 16.725 16.75 16.788 16.838 16.908 17 17.052 17.025 16.97 16.925 16.898 16.893 16.9 16.905 16.907 16.91 16.91 16.915 16.922 16.915 16.903 16.898 16.9 16.92 16.952 16.985 17.025 17.072 17.11 17.137 17.155 17.13 17.065 16.987 16.895 16.798 16.703 16.625 16.58 16.547 16.505 16.455 16.39 16.292 16.178 16.073 16 15.953 15.91 15.868 15.827 15.787 15.742 15.692 15.577 15.372 15.16 15.095 15.075 14.965 14.845 14.725 14.61 14.5 14.377 14.22 14.043 13.875 13.73 13.597 13.46 13.325 13.193 13.06 12.953 12.868 12.782 12.695 12.592 12.488 12.415 12.365 12.3 12.195 12.068 11.955 11.858 11.763 11.67 11.58 11.477 11.357 11.233 11.115 11.025 10.962 10.895 10.797 10.715 10.675 10.65 10.637 10.6 10.528 10.455 10.39 10.31 10.205 10.095 9.985 9.888 9.797 9.7 9.62 9.585 9.575 9.567 9.56 9.54 9.51 9.483 9.455 9.425 9.377 9.308 9.243 9.228 9.265 9.305 9.3 9.24 9.152 9.06 8.965 8.91 8.908 8.913 8.925 8.945 8.95 8.958 8.982 8.995 8.992 8.985 8.978 8.973 8.965 8.952 8.937 8.897 8.805 8.69 8.575 8.46 8.388
16.137 16.167 16.28 16.412 16.455 16.467 16.452 16.428 16.413 16.412 16.415 16.42 16.427 16.432 16.425 16.413 16.407 16.4 16.435 16.528 16.632 16.732 16.81 16.855 16.885 16.91 16.972 17.067 17.155 17.225 17.265 17.297 17.33 17.327 17.272 16.797 16.39 16.502 16.657 16.72 16.695 16.665 16.658 16.672 16.688 16.708 16.745 16.81 16.903 17.005 17.052 17.017 16.955 16.903 16.88 16.877 16.875 16.875 16.872 16.865 16.86 16.885 16.912 16.895 16.865 16.855 16.87 16.902 16.935 16.965 17.002 17.042 17.075 17.102 17.102 17.055 16.982 16.907 16.822 16.725 16.628 16.555 16.51 16.47 16.425 16.375 16.317 16.227 16.113 16.01 15.935 15.878 15.83 15.79 15.712 15.585 15.475 15.407 15.272 15.033 14.898 14.935 14.935 14.83 14.7 14.575 14.46 14.35 14.237 14.095 13.925 13.775 13.645 13.515 13.382 13.248 13.115 12.98 12.87 12.785 12.697 12.6 12.49 12.388 12.318 12.27 12.21 12.12 12.013 11.913 11.82 11.733 11.645 11.555 11.452 11.33 11.208 11.103 11.023 10.965 10.915 10.85 10.77 10.715 10.675 10.635 10.582 10.51 10.437 10.337 10.235 10.147 10.045 9.94 9.848 9.762 9.67 9.6 9.57 9.55 9.538 9.548 9.545 9.513 9.48 9.45 9.42 9.367 9.293 9.225 9.213 9.258 9.31 9.312 9.247 9.157 9.065 8.973 8.913 8.908 8.923 8.94 8.957 8.96 8.953 8.958 8.965 8.965 8.965 8.973 8.965 8.938 8.918 8.902 8.855 8.755 8.643 8.545 8.453 8.383
15.945 15.988 16.173 16.352 16.43 16.445 16.437 16.41 16.395 16.395 16.397 16.402 16.405 16.405 16.385 16.355 16.34 16.333 16.368 16.455 16.56 16.667 16.765 16.827 16.857 16.9 16.977 17.072 17.17 17.257 17.307 17.282 17.217 17.135 17.003 16.793 16.655 16.667 16.692 16.687 16.66 16.63 16.623 16.638 16.655 16.688 16.74 16.818 16.918 17.018 17.055 17.012 16.948 16.888 16.85 16.837 16.83 16.823 16.817 16.81 16.825 16.877 16.907 16.885 16.845 16.81 16.808 16.837 16.872 16.905 16.942 16.987 17.03 17.06 17.037 16.967 16.89 16.812 16.732 16.645 16.553 16.483 16.435 16.388 16.342 16.295 16.242 16.16 16.048 15.953 15.878 15.808 15.753 15.71 15.597 15.385 15.175 15.025 14.888 14.748 14.723 14.81 14.84 14.75 14.608 14.465 14.335 14.215 14.095 13.965 13.823 13.688 13.563 13.435 13.305 13.17 13.035 12.903 12.79 12.702 12.608 12.505 12.418 12.325 12.243 12.19 12.132 12.052 11.963 11.88 11.795 11.708 11.62 11.532 11.427 11.303 11.19 11.095 11.018 10.963 10.915 10.865 10.805 10.73 10.65 10.607 10.567 10.495 10.402 10.252 10.133 10.075 10 9.902 9.805 9.715 9.615 9.535 9.495 9.465 9.488 9.555 9.567 9.53 9.493 9.458 9.422 9.368 9.298 9.235 9.228 9.277 9.31 9.287 9.227 9.152 9.065 8.975 8.915 8.913 8.935 8.955 8.97 8.97 8.955 8.948 8.95 8.953 8.958 8.993 9 8.955 8.918 8.883 8.828 8.745 8.658 8.585 8.52 8.455
15.72 15.845 16.095 16.325 16.42 16.43 16.422 16.39 16.368 16.365 16.37 16.375 16.375 16.375 16.355 16.313 16.28 16.268 16.298 16.383 16.487 16.587 16.682 16.757 16.795 16.845 16.935 17.04 17.15 17.255 17.29 17.197 17.055 16.93 16.815 16.738 16.695 16.663 16.658 16.67 16.678 16.683 16.713 16.76 16.79 16.823 16.87 16.933 17.018 17.092 17.085 17.013 16.94 16.878 16.828 16.793 16.775 16.768 16.763 16.77 16.815 16.88 16.902 16.875 16.835 16.785 16.733 16.718 16.745 16.782 16.825 16.88 16.94 16.97 16.932 16.857 16.78 16.7 16.622 16.545 16.47 16.408 16.355 16.305 16.258 16.212 16.165 16.09 15.988 15.9 15.825 15.75 15.683 15.63 15.52 15.31 15.083 14.888 14.75 14.695 14.71 14.755 14.78 14.705 14.552 14.395 14.248 14.115 13.99 13.873 13.743 13.608 13.483 13.355 13.225 13.092 12.958 12.825 12.71 12.615 12.523 12.443 12.377 12.28 12.18 12.12 12.065 11.995 11.91 11.835 11.767 11.685 11.595 11.507 11.4 11.28 11.18 11.09 11.013 10.958 10.91 10.862 10.787 10.665 10.573 10.57 10.552 10.465 10.327 10.14 10.015 9.97 9.922 9.852 9.76 9.655 9.54 9.445 9.395 9.395 9.49 9.59 9.592 9.555 9.517 9.48 9.44 9.387 9.325 9.265 9.26 9.295 9.285 9.24 9.185 9.122 9.05 8.968 8.915 8.918 8.943 8.967 8.982 8.977 8.965 8.958 8.955 8.958 8.968 9.037 9.072 9.02 8.965 8.895 8.83 8.777 8.722 8.667 8.607 8.545
15.555 15.805 16.145 16.38 16.43 16.425 16.402 16.365 16.34 16.338 16.342 16.345 16.347 16.347 16.322 16.278 16.235 16.205 16.225 16.308 16.407 16.497 16.585 16.67 16.723 16.785 16.885 16.99 17.1 17.21 17.225 17.125 17.007 16.89 16.785 16.71 16.653 16.635 16.678 16.74 16.802 16.867 16.937 17.002 17.05 17.082 17.11 17.145 17.202 17.22 17.145 17.038 16.94 16.87 16.82 16.773 16.735 16.715 16.718 16.753 16.815 16.88 16.897 16.865 16.825 16.782 16.71 16.633 16.613 16.64 16.688 16.753 16.827 16.845 16.792 16.725 16.652 16.58 16.515 16.455 16.403 16.338 16.27 16.222 16.175 16.128 16.08 16.015 15.93 15.848 15.773 15.698 15.623 15.557 15.44 15.245 15.048 14.895 14.823 14.81 14.8 14.775 14.725 14.617 14.475 14.322 14.17 14.043 13.935 13.83 13.695 13.548 13.41 13.278 13.148 13.015 12.882 12.748 12.628 12.538 12.47 12.417 12.345 12.23 12.12 12.05 11.992 11.927 11.848 11.773 11.717 11.652 11.572 11.482 11.375 11.268 11.175 11.085 11.01 10.955 10.905 10.832 10.705 10.558 10.508 10.55 10.532 10.407 10.225 10.023 9.895 9.85 9.815 9.787 9.717 9.59 9.46 9.355 9.31 9.378 9.53 9.625 9.617 9.58 9.54 9.5 9.457 9.407 9.352 9.295 9.28 9.28 9.24 9.192 9.14 9.08 9.015 8.948 8.915 8.928 8.955 8.985 8.997 8.988 8.978 8.97 8.963 8.963 8.995 9.1 9.145 9.08 9.005 8.918 8.848 8.802 8.757 8.712 8.662 8.607
15.543 15.91 16.272 16.44 16.435 16.407 16.372 16.338 16.313 16.31 16.315 16.315 16.32 16.32 16.29 16.245 16.2 16.158 16.16 16.225 16.315 16.4 16.485 16.575 16.648 16.73 16.835 16.94 17.047 17.155 17.17 17.072 16.957 16.84 16.74 16.663 16.623 16.655 16.727 16.807 16.895 16.985 17.047 17.09 17.145 17.195 17.235 17.275 17.317 17.285 17.172 17.055 16.958 16.898 16.848 16.795 16.743 16.69 16.69 16.747 16.815 16.88 16.892 16.855 16.815 16.775 16.707 16.61 16.533 16.518 16.57 16.655 16.722 16.71 16.645 16.58 16.515 16.463 16.43 16.4 16.362 16.295 16.2 16.135 16.09 16.042 15.995 15.94 15.873 15.798 15.723 15.648 15.573 15.5 15.377 15.205 15.042 14.93 14.882 14.855 14.817 14.75 14.622 14.462 14.327 14.2 14.067 13.952 13.85 13.767 13.657 13.505 13.355 13.213 13.075 12.94 12.81 12.678 12.558 12.488 12.447 12.397 12.307 12.18 12.06 11.978 11.917 11.855 11.785 11.713 11.655 11.602 11.54 11.455 11.355 11.26 11.17 11.08 11.008 10.955 10.877 10.75 10.595 10.478 10.473 10.532 10.485 10.31 10.11 9.908 9.785 9.758 9.75 9.755 9.702 9.565 9.418 9.285 9.268 9.402 9.575 9.66 9.64 9.6 9.56 9.52 9.475 9.425 9.375 9.323 9.283 9.243 9.193 9.148 9.098 9.04 8.983 8.935 8.92 8.94 8.972 9.002 9.01 9 8.992 8.985 8.975 8.97 9.03 9.16 9.197 9.117 9.025 8.933 8.86 8.815 8.773 8.728 8.682 8.638
15.73 16.09 16.372 16.445 16.415 16.375 16.34 16.308 16.293 16.298 16.3 16.298 16.298 16.303 16.288 16.255 16.22 16.185 16.148 16.158 16.235 16.32 16.405 16.493 16.575 16.668 16.772 16.878 16.993 17.122 17.132 17.013 16.892 16.775 16.675 16.61 16.613 16.673 16.738 16.81 16.895 16.985 17.04 17.068 17.113 17.167 17.22 17.272 17.312 17.272 17.16 17.048 16.988 16.962 16.917 16.86 16.785 16.69 16.67 16.735 16.8 16.852 16.857 16.82 16.78 16.74 16.687 16.617 16.53 16.46 16.485 16.577 16.61 16.56 16.498 16.445 16.4 16.365 16.355 16.35 16.325 16.275 16.16 16.053 16 15.955 15.91 15.87 15.825 15.758 15.683 15.61 15.535 15.435 15.287 15.12 14.992 14.917 14.862 14.807 14.745 14.635 14.467 14.283 14.128 14.01 13.9 13.79 13.695 13.647 13.587 13.46 13.31 13.16 13.018 12.883 12.75 12.62 12.5 12.433 12.402 12.345 12.245 12.122 12 11.908 11.845 11.782 11.717 11.65 11.59 11.54 11.485 11.415 11.337 11.255 11.165 11.075 11.002 10.925 10.795 10.64 10.488 10.418 10.455 10.505 10.427 10.228 10.022 9.79 9.683 9.717 9.737 9.75 9.707 9.58 9.423 9.283 9.24 9.348 9.525 9.62 9.612 9.585 9.557 9.532 9.495 9.445 9.395 9.345 9.303 9.255 9.198 9.14 9.08 9.023 8.975 8.938 8.928 8.95 8.985 9.012 9.017 9.01 9.005 9 8.99 8.983 9.055 9.182 9.215 9.15 9.058 8.963 8.888 8.838 8.793 8.745 8.7 8.668
16.075 16.305 16.432 16.425 16.385 16.345 16.308 16.28 16.288 16.302 16.3 16.3 16.308 16.325 16.333 16.322 16.302 16.277 16.205 16.138 16.175 16.26 16.343 16.427 16.51 16.598 16.705 16.83 16.973 17.13 17.127 16.968 16.828 16.705 16.608 16.58 16.625 16.69 16.755 16.823 16.898 16.982 17.037 17.058 17.085 17.135 17.19 17.235 17.265 17.237 17.14 17.055 17.038 17.032 16.992 16.92 16.8 16.673 16.65 16.71 16.76 16.795 16.792 16.757 16.72 16.68 16.64 16.597 16.54 16.468 16.443 16.485 16.482 16.425 16.38 16.345 16.315 16.285 16.275 16.282 16.277 16.247 16.137 15.993 15.91 15.865 15.825 15.803 15.782 15.725 15.65 15.577 15.485 15.337 15.155 14.993 14.895 14.847 14.795 14.74 14.647 14.487 14.302 14.115 13.938 13.8 13.69 13.588 13.525 13.508 13.49 13.405 13.26 13.11 12.97 12.837 12.705 12.575 12.448 12.363 12.322 12.252 12.145 12.032 11.915 11.812 11.74 11.68 11.62 11.565 11.507 11.445 11.382 11.32 11.26 11.195 11.125 11.055 10.97 10.842 10.685 10.53 10.403 10.38 10.427 10.46 10.38 10.182 9.942 9.638 9.528 9.637 9.712 9.74 9.712 9.6 9.453 9.343 9.263 9.25 9.37 9.49 9.507 9.493 9.495 9.527 9.522 9.47 9.42 9.37 9.34 9.315 9.26 9.193 9.118 9.04 8.985 8.945 8.935 8.962 8.992 9.005 9.007 9.01 9.01 9.005 8.995 8.995 9.07 9.172 9.2 9.172 9.102 9.008 8.933 8.88 8.83 8.785 8.745 8.713
16.355 16.42 16.417 16.387 16.352 16.315 16.275 16.263 16.29 16.307 16.31 16.325 16.347 16.372 16.39 16.395 16.39 16.37 16.287 16.163 16.13 16.198 16.28 16.363 16.447 16.533 16.655 16.822 16.99 17.142 17.127 16.953 16.785 16.64 16.56 16.578 16.642 16.708 16.772 16.838 16.905 16.98 17.035 17.055 17.073 17.11 17.157 17.192 17.215 17.202 17.135 17.09 17.1 17.105 17.055 16.932 16.765 16.635 16.62 16.665 16.7 16.73 16.727 16.692 16.655 16.615 16.575 16.535 16.495 16.452 16.413 16.393 16.365 16.325 16.293 16.26 16.23 16.203 16.195 16.205 16.212 16.202 16.12 15.963 15.835 15.778 15.75 15.738 15.73 15.69 15.62 15.535 15.4 15.215 15.023 14.883 14.815 14.775 14.727 14.65 14.51 14.325 14.138 13.952 13.765 13.603 13.48 13.403 13.378 13.375 13.372 13.327 13.21 13.06 12.92 12.79 12.66 12.53 12.4 12.298 12.23 12.142 12.027 11.912 11.795 11.685 11.605 11.553 11.505 11.462 11.405 11.325 11.248 11.178 11.118 11.065 11.01 10.952 10.86 10.725 10.575 10.42 10.338 10.35 10.382 10.41 10.332 10.102 9.792 9.445 9.323 9.46 9.61 9.707 9.72 9.627 9.508 9.423 9.347 9.27 9.263 9.338 9.375 9.395 9.458 9.54 9.557 9.502 9.45 9.4 9.37 9.357 9.322 9.262 9.18 9.083 9.005 8.955 8.945 8.972 8.99 8.985 8.985 8.995 9 9 8.998 9.005 9.075 9.157 9.175 9.162 9.13 9.055 8.98 8.93 8.89 8.863 8.835 8.793
16.382 16.382 16.362 16.337 16.31 16.277 16.248 16.253 16.287 16.312 16.332 16.357 16.382 16.407 16.427 16.44 16.445 16.437 16.355 16.203 16.118 16.143 16.215 16.295 16.38 16.465 16.6 16.795 16.985 17.14 17.12 16.948 16.773 16.623 16.563 16.598 16.66 16.725 16.79 16.855 16.92 16.988 17.037 17.055 17.068 17.09 17.12 17.145 17.165 17.17 17.15 17.14 17.15 17.15 17.07 16.9 16.715 16.595 16.575 16.6 16.63 16.66 16.662 16.63 16.59 16.55 16.51 16.473 16.44 16.41 16.38 16.358 16.34 16.31 16.265 16.22 16.178 16.145 16.128 16.125 16.135 16.14 16.095 15.955 15.785 15.7 15.685 15.675 15.67 15.647 15.582 15.46 15.283 15.085 14.9 14.79 14.745 14.703 14.642 14.522 14.347 14.16 13.972 13.787 13.6 13.42 13.293 13.248 13.245 13.243 13.237 13.222 13.147 13.012 12.875 12.743 12.61 12.48 12.35 12.233 12.13 12.022 11.905 11.788 11.675 11.578 11.508 11.458 11.413 11.367 11.302 11.215 11.128 11.045 10.975 10.918 10.855 10.79 10.7 10.58 10.448 10.32 10.28 10.305 10.33 10.357 10.245 9.945 9.595 9.248 9.12 9.25 9.425 9.587 9.69 9.67 9.58 9.502 9.425 9.345 9.27 9.253 9.293 9.365 9.462 9.55 9.567 9.517 9.467 9.425 9.4 9.387 9.367 9.32 9.235 9.135 9.04 8.97 8.955 8.972 8.975 8.965 8.965 8.975 8.983 8.99 9 9.018 9.078 9.14 9.15 9.137 9.125 9.087 9.037 9.002 8.977 8.962 8.945 8.905
16.307 16.322 16.307 16.282 16.257 16.233 16.223 16.245 16.28 16.31 16.34 16.367 16.395 16.42 16.44 16.455 16.46 16.46 16.387 16.233 16.133 16.125 16.16 16.225 16.31 16.395 16.53 16.73 16.935 17.11 17.117 16.968 16.8 16.69 16.653 16.648 16.685 16.75 16.815 16.878 16.943 17.012 17.057 17.07 17.082 17.088 17.093 17.11 17.128 17.138 17.142 17.147 17.15 17.135 17.03 16.848 16.68 16.585 16.563 16.565 16.575 16.595 16.597 16.568 16.533 16.5 16.468 16.438 16.415 16.39 16.365 16.355 16.357 16.347 16.315 16.273 16.238 16.223 16.198 16.168 16.15 16.133 16.085 15.955 15.768 15.64 15.603 15.595 15.597 15.595 15.527 15.372 15.193 15.013 14.843 14.743 14.7 14.645 14.53 14.342 14.142 13.955 13.767 13.58 13.393 13.235 13.165 13.155 13.14 13.118 13.103 13.098 13.065 12.965 12.83 12.698 12.57 12.46 12.34 12.182 12.028 11.9 11.78 11.673 11.583 11.505 11.445 11.395 11.345 11.287 11.212 11.125 11.035 10.945 10.868 10.803 10.74 10.68 10.593 10.473 10.35 10.255 10.235 10.262 10.282 10.26 10.072 9.74 9.393 9.053 8.92 9.04 9.212 9.385 9.552 9.647 9.62 9.542 9.465 9.385 9.31 9.275 9.293 9.355 9.445 9.527 9.545 9.502 9.463 9.443 9.435 9.422 9.405 9.357 9.272 9.177 9.083 8.998 8.963 8.965 8.965 8.963 8.968 8.983 8.995 9.005 9.02 9.053 9.11 9.132 9.115 9.105 9.095 9.08 9.067 9.062 9.055 9.047 9.04 9.017
16.227 16.252 16.25 16.225 16.203 16.193 16.203 16.235 16.27 16.298 16.325 16.355 16.385 16.412 16.437 16.455 16.46 16.457 16.397 16.258 16.16 16.143 16.145 16.173 16.24 16.325 16.46 16.66 16.855 17.027 17.102 17.012 16.87 16.825 16.812 16.765 16.748 16.78 16.843 16.905 16.975 17.05 17.092 17.102 17.102 17.087 17.078 17.09 17.105 17.107 17.108 17.11 17.105 17.077 16.97 16.795 16.665 16.61 16.59 16.58 16.57 16.565 16.548 16.52 16.498 16.475 16.45 16.425 16.405 16.38 16.355 16.345 16.35 16.355 16.35 16.367 16.397 16.41 16.395 16.352 16.292 16.16 16.02 15.922 15.772 15.615 15.525 15.485 15.48 15.49 15.432 15.3 15.162 15.012 14.848 14.733 14.667 14.577 14.402 14.15 13.91 13.71 13.523 13.335 13.17 13.078 13.078 13.105 13.097 13.063 13.028 13.005 12.98 12.918 12.823 12.725 12.63 12.51 12.34 12.13 11.925 11.775 11.668 11.583 11.51 11.443 11.383 11.33 11.277 11.207 11.125 11.04 10.953 10.868 10.795 10.735 10.678 10.622 10.54 10.425 10.31 10.22 10.198 10.215 10.187 10.085 9.857 9.528 9.195 8.895 8.77 8.848 8.995 9.165 9.342 9.515 9.59 9.547 9.47 9.393 9.345 9.35 9.355 9.363 9.425 9.505 9.52 9.483 9.463 9.47 9.475 9.462 9.437 9.38 9.295 9.205 9.115 9.028 8.98 8.975 8.978 8.983 8.995 9.017 9.035 9.045 9.058 9.103 9.16 9.145 9.09 9.065 9.055 9.045 9.047 9.06 9.067 9.07 9.07 9.077
16.142 16.177 16.187 16.17 16.163 16.17 16.19 16.225 16.257 16.283 16.307 16.335 16.365 16.395 16.425 16.447 16.455 16.45 16.405 16.285 16.188 16.168 16.165 16.168 16.193 16.255 16.393 16.582 16.755 16.915 17.055 17.047 16.973 16.99 16.987 16.933 16.88 16.855 16.88 16.943 17.025 17.095 17.122 17.12 17.1 17.075 17.063 17.07 17.08 17.075 17.07 17.07 17.055 17.015 16.912 16.768 16.68 16.645 16.623 16.61 16.59 16.552 16.508 16.478 16.465 16.452 16.435 16.415 16.395 16.37 16.345 16.335 16.335 16.322 16.33 16.412 16.512 16.577 16.59 16.477 16.267 15.995 15.84 15.86 15.78 15.618 15.498 15.408 15.355 15.345 15.297 15.19 15.08 14.957 14.822 14.702 14.592 14.465 14.267 13.993 13.713 13.475 13.278 13.108 13.003 12.973 12.995 13.04 13.07 13.062 13.025 12.993 12.978 12.968 12.927 12.837 12.705 12.515 12.285 12.052 11.825 11.668 11.585 11.515 11.445 11.378 11.318 11.262 11.2 11.12 11.035 10.95 10.87 10.798 10.725 10.667 10.617 10.565 10.49 10.387 10.282 10.19 10.15 10.112 10.007 9.87 9.642 9.335 9.05 8.805 8.698 8.72 8.8 8.945 9.128 9.325 9.49 9.535 9.475 9.415 9.408 9.437 9.447 9.428 9.43 9.483 9.502 9.483 9.49 9.512 9.517 9.495 9.46 9.4 9.315 9.225 9.138 9.058 9.015 9.008 9.003 9.005 9.02 9.045 9.07 9.085 9.095 9.152 9.202 9.165 9.095 9.043 9.02 9.01 9.013 9.025 9.037 9.047 9.05 9.08
16.06 16.1 16.125 16.133 16.145 16.16 16.18 16.215 16.245 16.267 16.29 16.315 16.345 16.375 16.405 16.432 16.447 16.445 16.412 16.307 16.213 16.195 16.195 16.193 16.19 16.21 16.318 16.488 16.653 16.815 16.98 17.075 17.112 17.162 17.16 17.107 17.052 16.995 16.948 16.965 17.06 17.13 17.132 17.112 17.087 17.065 17.047 17.045 17.047 17.04 17.032 17.025 16.997 16.95 16.862 16.768 16.715 16.68 16.65 16.62 16.577 16.522 16.47 16.428 16.408 16.402 16.395 16.382 16.367 16.35 16.333 16.315 16.293 16.263 16.295 16.408 16.532 16.647 16.617 16.347 15.985 15.713 15.665 15.765 15.755 15.62 15.493 15.39 15.295 15.228 15.155 15.053 14.948 14.843 14.74 14.62 14.48 14.34 14.135 13.85 13.555 13.278 13.053 12.928 12.89 12.888 12.915 12.96 13.005 13.037 13.035 13.03 13.05 13.077 13.025 12.857 12.635 12.395 12.155 11.913 11.72 11.613 11.535 11.458 11.385 11.315 11.255 11.192 11.115 11.03 10.945 10.87 10.808 10.75 10.663 10.585 10.54 10.487 10.415 10.325 10.232 10.14 10.055 9.945 9.805 9.665 9.465 9.21 8.968 8.778 8.703 8.693 8.695 8.76 8.915 9.115 9.315 9.462 9.487 9.47 9.49 9.522 9.537 9.522 9.495 9.493 9.505 9.515 9.535 9.557 9.555 9.52 9.48 9.417 9.333 9.248 9.168 9.095 9.055 9.048 9.04 9.035 9.043 9.065 9.095 9.12 9.143 9.207 9.24 9.185 9.113 9.043 8.995 8.975 8.975 8.988 9.003 9.015 9.025 9.068
16.015 16.055 16.09 16.115 16.135 16.15 16.17 16.202 16.23 16.253 16.275 16.298 16.325 16.355 16.385 16.415 16.437 16.44 16.41 16.32 16.24 16.225 16.222 16.217 16.21 16.2 16.27 16.43 16.598 16.763 16.93 17.085 17.2 17.28 17.3 17.255 17.195 17.127 17.03 16.948 16.99 17.065 17.067 17.052 17.037 17.022 17.012 17.005 17 17 16.995 16.972 16.93 16.877 16.815 16.757 16.712 16.672 16.64 16.597 16.542 16.487 16.435 16.388 16.353 16.338 16.33 16.322 16.315 16.315 16.33 16.32 16.28 16.245 16.283 16.4 16.525 16.6 16.465 16.11 15.733 15.528 15.54 15.635 15.695 15.62 15.485 15.385 15.282 15.163 15.043 14.943 14.845 14.745 14.637 14.507 14.363 14.217 14 13.708 13.42 13.145 12.933 12.845 12.83 12.828 12.855 12.903 12.95 12.99 12.965 12.942 12.975 13.005 12.927 12.712 12.465 12.215 11.965 11.75 11.645 11.59 11.505 11.415 11.33 11.255 11.188 11.113 11.028 10.943 10.87 10.815 10.765 10.715 10.603 10.495 10.45 10.39 10.312 10.23 10.145 10.052 9.935 9.795 9.66 9.535 9.367 9.143 8.943 8.855 8.855 8.848 8.82 8.815 8.908 9.08 9.263 9.443 9.535 9.553 9.58 9.61 9.627 9.617 9.592 9.565 9.563 9.585 9.605 9.612 9.587 9.543 9.497 9.435 9.358 9.28 9.205 9.135 9.098 9.092 9.085 9.07 9.06 9.07 9.097 9.132 9.167 9.222 9.245 9.197 9.127 9.055 8.99 8.945 8.938 8.96 8.988 9.013 9.04 9.098
16 16.04 16.077 16.105 16.125 16.14 16.16 16.19 16.215 16.237 16.26 16.28 16.305 16.335 16.365 16.395 16.422 16.432 16.405 16.333 16.27 16.253 16.245 16.232 16.212 16.193 16.263 16.423 16.585 16.75 16.917 17.07 17.2 17.31 17.362 17.35 17.305 17.222 17.1 16.96 16.89 16.918 16.942 16.938 16.935 16.935 16.935 16.91 16.887 16.9 16.922 16.905 16.85 16.795 16.745 16.702 16.655 16.61 16.587 16.56 16.507 16.452 16.4 16.353 16.31 16.28 16.265 16.258 16.27 16.313 16.362 16.365 16.325 16.285 16.298 16.393 16.492 16.487 16.295 15.943 15.62 15.475 15.47 15.523 15.6 15.587 15.48 15.375 15.255 15.105 14.96 14.853 14.755 14.655 14.535 14.392 14.245 14.092 13.878 13.605 13.343 13.1 12.933 12.853 12.815 12.803 12.823 12.87 12.915 12.93 12.848 12.753 12.75 12.782 12.705 12.497 12.262 12.013 11.785 11.653 11.613 11.567 11.485 11.39 11.295 11.21 11.133 11.055 10.968 10.875 10.81 10.77 10.725 10.675 10.553 10.42 10.357 10.29 10.21 10.127 10.042 9.95 9.83 9.695 9.578 9.475 9.312 9.093 9.005 9.048 9.09 9.115 9.105 9.08 9.135 9.273 9.423 9.58 9.67 9.673 9.68 9.71 9.725 9.712 9.69 9.665 9.66 9.677 9.682 9.665 9.625 9.575 9.523 9.462 9.392 9.318 9.245 9.178 9.143 9.135 9.12 9.095 9.075 9.07 9.085 9.117 9.153 9.195 9.227 9.202 9.135 9.067 9 8.953 8.955 8.99 9.028 9.065 9.108 9.16
15.982 16.025 16.062 16.09 16.11 16.128 16.15 16.177 16.2 16.222 16.245 16.265 16.288 16.315 16.345 16.375 16.405 16.422 16.4 16.342 16.295 16.27 16.25 16.225 16.198 16.18 16.255 16.415 16.575 16.74 16.902 17.05 17.187 17.307 17.37 17.387 17.387 17.312 17.173 17.028 16.893 16.823 16.82 16.825 16.833 16.845 16.84 16.785 16.743 16.775 16.837 16.827 16.76 16.705 16.655 16.617 16.575 16.53 16.515 16.51 16.472 16.418 16.368 16.32 16.273 16.23 16.213 16.23 16.28 16.35 16.405 16.41 16.375 16.335 16.32 16.385 16.42 16.332 16.12 15.823 15.605 15.5 15.468 15.478 15.51 15.532 15.472 15.342 15.19 15.025 14.878 14.763 14.662 14.557 14.425 14.275 14.128 13.997 13.815 13.568 13.33 13.115 12.978 12.9 12.835 12.795 12.798 12.835 12.867 12.86 12.765 12.625 12.55 12.557 12.472 12.265 12.047 11.818 11.658 11.608 11.59 11.545 11.465 11.372 11.28 11.192 11.105 11.015 10.92 10.82 10.75 10.712 10.675 10.632 10.522 10.365 10.263 10.188 10.105 10.023 9.94 9.848 9.733 9.618 9.52 9.425 9.258 9.143 9.203 9.277 9.313 9.35 9.37 9.355 9.4 9.525 9.657 9.797 9.867 9.84 9.81 9.815 9.817 9.8 9.782 9.762 9.755 9.755 9.735 9.705 9.665 9.613 9.555 9.495 9.428 9.355 9.285 9.22 9.185 9.17 9.145 9.115 9.095 9.085 9.085 9.1 9.13 9.168 9.207 9.202 9.14 9.073 9.025 9.015 9.027 9.05 9.087 9.132 9.177 9.195
15.952 16.015 16.05 16.075 16.095 16.115 16.138 16.162 16.185 16.207 16.23 16.25 16.272 16.297 16.325 16.352 16.377 16.395 16.382 16.34 16.297 16.265 16.235 16.205 16.18 16.17 16.248 16.405 16.565 16.727 16.885 17.03 17.17 17.302 17.382 17.418 17.457 17.42 17.287 17.14 16.972 16.815 16.753 16.758 16.765 16.775 16.765 16.71 16.658 16.69 16.772 16.755 16.673 16.618 16.568 16.53 16.492 16.448 16.433 16.442 16.427 16.382 16.333 16.285 16.238 16.193 16.17 16.202 16.265 16.325 16.377 16.392 16.375 16.355 16.337 16.342 16.29 16.16 15.985 15.793 15.638 15.523 15.483 15.487 15.493 15.5 15.435 15.28 15.113 14.945 14.795 14.675 14.57 14.45 14.307 14.16 14.013 13.93 13.8 13.563 13.335 13.148 13.033 12.958 12.883 12.815 12.783 12.792 12.815 12.792 12.685 12.535 12.405 12.347 12.24 12.03 11.838 11.68 11.6 11.583 11.567 11.525 11.445 11.355 11.26 11.155 11.052 10.955 10.855 10.755 10.68 10.637 10.602 10.567 10.482 10.31 10.17 10.093 10.013 9.935 9.855 9.765 9.663 9.563 9.47 9.373 9.285 9.343 9.457 9.5 9.535 9.57 9.607 9.622 9.67 9.775 9.86 9.917 9.937 9.915 9.885 9.87 9.862 9.845 9.83 9.817 9.805 9.787 9.765 9.742 9.705 9.658 9.61 9.56 9.498 9.418 9.333 9.26 9.22 9.195 9.165 9.135 9.115 9.102 9.09 9.085 9.105 9.142 9.18 9.19 9.148 9.1 9.083 9.082 9.08 9.083 9.12 9.177 9.212 9.197
15.892 15.992 16.037 16.06 16.085 16.112 16.128 16.143 16.165 16.185 16.205 16.227 16.252 16.27 16.287 16.31 16.327 16.34 16.342 16.322 16.282 16.245 16.215 16.188 16.165 16.16 16.243 16.4 16.56 16.717 16.857 16.987 17.122 17.26 17.38 17.455 17.507 17.517 17.407 17.22 17.025 16.843 16.748 16.735 16.735 16.74 16.73 16.69 16.64 16.64 16.707 16.692 16.595 16.53 16.483 16.443 16.407 16.365 16.348 16.362 16.367 16.342 16.298 16.25 16.205 16.168 16.138 16.14 16.183 16.24 16.292 16.312 16.31 16.31 16.272 16.192 16.085 15.957 15.85 15.757 15.652 15.545 15.495 15.49 15.477 15.457 15.37 15.21 15.04 14.865 14.695 14.563 14.455 14.33 14.19 14.047 13.91 13.875 13.795 13.57 13.345 13.183 13.09 13.015 12.937 12.84 12.737 12.66 12.635 12.612 12.517 12.385 12.253 12.158 12.05 11.885 11.73 11.628 11.583 11.56 11.542 11.502 11.425 11.322 11.202 11.075 10.97 10.882 10.785 10.685 10.598 10.533 10.483 10.442 10.382 10.235 10.105 10.045 9.973 9.898 9.82 9.735 9.638 9.535 9.438 9.383 9.47 9.612 9.68 9.72 9.757 9.792 9.82 9.83 9.85 9.89 9.902 9.887 9.873 9.86 9.85 9.842 9.837 9.825 9.81 9.797 9.78 9.762 9.747 9.74 9.737 9.732 9.71 9.672 9.617 9.53 9.407 9.295 9.253 9.235 9.205 9.175 9.128 9.075 9.042 9.035 9.063 9.105 9.145 9.175 9.165 9.143 9.132 9.117 9.108 9.11 9.14 9.195 9.215 9.185
15.8 15.937 16.02 16.055 16.088 16.117 16.12 16.118 16.135 16.155 16.175 16.2 16.22 16.225 16.233 16.248 16.26 16.27 16.28 16.28 16.257 16.225 16.195 16.17 16.15 16.148 16.235 16.395 16.552 16.702 16.81 16.91 17.04 17.178 17.327 17.452 17.525 17.552 17.44 17.223 17.038 16.87 16.758 16.728 16.725 16.73 16.72 16.687 16.645 16.61 16.645 16.635 16.525 16.443 16.395 16.355 16.32 16.283 16.265 16.278 16.292 16.292 16.265 16.223 16.18 16.145 16.115 16.098 16.113 16.16 16.21 16.23 16.23 16.187 16.062 15.927 15.825 15.728 15.658 15.615 15.575 15.527 15.485 15.455 15.425 15.395 15.305 15.145 14.97 14.782 14.59 14.43 14.31 14.19 14.058 13.92 13.833 13.862 13.802 13.58 13.365 13.225 13.145 13.052 12.94 12.805 12.658 12.513 12.403 12.333 12.25 12.16 12.075 12 11.935 11.837 11.708 11.613 11.57 11.545 11.522 11.472 11.377 11.25 11.108 10.983 10.89 10.805 10.712 10.615 10.52 10.435 10.36 10.295 10.24 10.143 10.055 10.015 9.96 9.892 9.817 9.732 9.633 9.535 9.51 9.593 9.747 9.842 9.847 9.852 9.86 9.865 9.865 9.865 9.862 9.852 9.837 9.822 9.807 9.795 9.785 9.78 9.777 9.77 9.76 9.745 9.725 9.708 9.695 9.705 9.74 9.772 9.785 9.782 9.747 9.627 9.42 9.278 9.267 9.28 9.267 9.24 9.165 9.055 8.973 8.963 9.01 9.06 9.11 9.16 9.185 9.175 9.158 9.143 9.138 9.145 9.163 9.205 9.217 9.177
15.663 15.86 16.01 16.062 16.102 16.127 16.12 16.1 16.105 16.125 16.145 16.165 16.175 16.183 16.193 16.198 16.203 16.208 16.213 16.215 16.213 16.2 16.177 16.155 16.135 16.138 16.23 16.385 16.532 16.675 16.76 16.83 16.953 17.098 17.255 17.41 17.527 17.547 17.422 17.235 17.068 16.9 16.78 16.73 16.715 16.72 16.71 16.677 16.64 16.595 16.597 16.572 16.46 16.363 16.305 16.267 16.233 16.198 16.183 16.193 16.213 16.237 16.235 16.2 16.16 16.125 16.093 16.073 16.073 16.093 16.13 16.15 16.102 15.962 15.773 15.615 15.555 15.545 15.523 15.503 15.498 15.5 15.467 15.413 15.37 15.335 15.242 15.075 14.887 14.692 14.498 14.313 14.168 14.043 13.938 13.868 13.85 13.897 13.817 13.59 13.398 13.262 13.15 13.022 12.875 12.728 12.583 12.435 12.285 12.155 12.06 11.99 11.93 11.875 11.832 11.777 11.68 11.598 11.56 11.525 11.482 11.422 11.305 11.15 11.008 10.895 10.81 10.725 10.635 10.542 10.45 10.365 10.28 10.195 10.125 10.053 9.995 9.96 9.92 9.872 9.81 9.728 9.668 9.663 9.72 9.817 9.875 9.867 9.837 9.81 9.785 9.773 9.775 9.79 9.8 9.79 9.773 9.755 9.74 9.732 9.725 9.72 9.715 9.71 9.705 9.692 9.675 9.652 9.642 9.662 9.7 9.735 9.767 9.797 9.77 9.595 9.343 9.235 9.26 9.292 9.312 9.302 9.232 9.108 8.988 8.94 8.973 9.032 9.09 9.145 9.185 9.195 9.185 9.17 9.17 9.18 9.19 9.215 9.215 9.17
15.548 15.825 16.002 16.055 16.105 16.135 16.127 16.1 16.085 16.095 16.113 16.13 16.15 16.175 16.185 16.178 16.178 16.18 16.18 16.18 16.183 16.175 16.155 16.137 16.123 16.13 16.22 16.368 16.513 16.642 16.715 16.763 16.868 17.02 17.18 17.34 17.492 17.542 17.432 17.265 17.1 16.93 16.808 16.74 16.71 16.712 16.7 16.665 16.63 16.593 16.565 16.512 16.405 16.29 16.215 16.18 16.145 16.11 16.103 16.125 16.158 16.195 16.207 16.18 16.14 16.105 16.07 16.05 16.047 16.048 16.055 16.017 15.887 15.71 15.53 15.398 15.373 15.41 15.44 15.46 15.482 15.495 15.465 15.402 15.34 15.282 15.17 14.987 14.79 14.595 14.4 14.205 14.053 13.96 13.92 13.917 13.927 13.922 13.795 13.565 13.387 13.25 13.103 12.958 12.81 12.663 12.51 12.355 12.205 12.075 11.983 11.905 11.83 11.763 11.708 11.67 11.622 11.565 11.52 11.47 11.41 11.35 11.232 11.06 10.92 10.82 10.733 10.645 10.555 10.468 10.383 10.303 10.223 10.143 10.065 9.98 9.915 9.877 9.842 9.81 9.772 9.728 9.722 9.772 9.815 9.835 9.82 9.763 9.713 9.688 9.68 9.69 9.71 9.727 9.737 9.73 9.71 9.69 9.675 9.667 9.662 9.657 9.652 9.65 9.645 9.635 9.615 9.582 9.565 9.58 9.612 9.645 9.677 9.705 9.657 9.455 9.258 9.22 9.25 9.283 9.317 9.337 9.297 9.192 9.075 8.98 8.955 9.005 9.067 9.127 9.172 9.195 9.205 9.202 9.205 9.212 9.22 9.225 9.202 9.158
15.518 15.822 15.975 16.027 16.08 16.117 16.12 16.097 16.075 16.073 16.093 16.125 16.165 16.195 16.195 16.178 16.173 16.175 16.175 16.175 16.167 16.145 16.123 16.11 16.105 16.125 16.218 16.365 16.505 16.59 16.617 16.663 16.798 16.978 17.143 17.308 17.467 17.54 17.457 17.297 17.13 16.963 16.835 16.758 16.715 16.705 16.69 16.655 16.62 16.585 16.55 16.498 16.398 16.273 16.195 16.17 16.14 16.09 16.065 16.09 16.13 16.17 16.182 16.157 16.122 16.087 16.05 16.022 16.007 15.995 15.962 15.85 15.685 15.525 15.385 15.308 15.283 15.29 15.325 15.365 15.405 15.427 15.39 15.31 15.227 15.14 15.022 14.85 14.65 14.455 14.26 14.068 13.95 13.928 13.93 13.93 13.922 13.865 13.705 13.485 13.328 13.207 13.06 12.913 12.768 12.622 12.45 12.275 12.128 12.01 11.928 11.848 11.765 11.685 11.618 11.583 11.555 11.505 11.448 11.393 11.335 11.275 11.157 10.99 10.86 10.765 10.675 10.588 10.5 10.413 10.333 10.26 10.188 10.115 10.037 9.935 9.833 9.775 9.745 9.725 9.718 9.715 9.715 9.725 9.745 9.765 9.747 9.683 9.62 9.6 9.613 9.63 9.65 9.667 9.667 9.65 9.627 9.602 9.587 9.585 9.59 9.582 9.567 9.56 9.55 9.542 9.527 9.495 9.463 9.468 9.5 9.53 9.56 9.58 9.512 9.32 9.198 9.21 9.24 9.27 9.305 9.342 9.335 9.27 9.172 9.058 8.97 8.968 9.028 9.095 9.142 9.167 9.192 9.212 9.222 9.225 9.232 9.232 9.2 9.15
15.5 15.795 15.937 15.99 16.037 16.08 16.092 16.075 16.065 16.078 16.108 16.15 16.195 16.212 16.2 16.18 16.17 16.17 16.17 16.162 16.14 16.108 16.09 16.095 16.11 16.14 16.235 16.382 16.477 16.495 16.483 16.535 16.748 16.987 17.16 17.322 17.462 17.535 17.475 17.325 17.16 16.995 16.865 16.783 16.725 16.698 16.68 16.645 16.61 16.583 16.563 16.532 16.452 16.343 16.283 16.252 16.195 16.115 16.065 16.075 16.11 16.147 16.155 16.132 16.105 16.07 16.027 15.978 15.938 15.915 15.85 15.707 15.538 15.388 15.29 15.245 15.215 15.193 15.203 15.24 15.277 15.275 15.2 15.095 14.997 14.9 14.795 14.655 14.47 14.275 14.08 13.923 13.87 13.88 13.885 13.882 13.84 13.737 13.58 13.39 13.263 13.165 13.027 12.88 12.735 12.595 12.403 12.203 12.055 11.948 11.872 11.795 11.715 11.635 11.575 11.54 11.495 11.435 11.375 11.32 11.265 11.2 11.08 10.935 10.823 10.725 10.638 10.552 10.467 10.38 10.3 10.233 10.165 10.095 10.012 9.905 9.785 9.703 9.673 9.67 9.68 9.685 9.675 9.665 9.675 9.695 9.675 9.613 9.563 9.55 9.563 9.58 9.595 9.592 9.567 9.54 9.517 9.49 9.475 9.483 9.515 9.512 9.465 9.435 9.418 9.41 9.407 9.395 9.365 9.358 9.387 9.417 9.437 9.447 9.365 9.223 9.175 9.2 9.23 9.263 9.3 9.34 9.337 9.292 9.23 9.145 9.04 8.965 8.985 9.052 9.097 9.125 9.16 9.197 9.215 9.22 9.232 9.237 9.21 9.155
15.488 15.76 15.9 15.947 15.995 16.04 16.06 16.058 16.073 16.115 16.153 16.185 16.22 16.225 16.205 16.185 16.17 16.165 16.162 16.143 16.113 16.09 16.09 16.115 16.145 16.175 16.26 16.365 16.392 16.385 16.393 16.483 16.74 17.007 17.18 17.322 17.437 17.52 17.48 17.34 17.19 17.028 16.893 16.805 16.74 16.698 16.67 16.638 16.613 16.6 16.59 16.567 16.515 16.44 16.375 16.305 16.212 16.118 16.063 16.063 16.088 16.122 16.13 16.108 16.082 16.05 16 15.93 15.865 15.825 15.735 15.57 15.395 15.273 15.217 15.185 15.155 15.12 15.1 15.117 15.132 15.08 14.975 14.865 14.758 14.655 14.55 14.435 14.282 14.095 13.915 13.823 13.82 13.832 13.84 13.81 13.72 13.595 13.452 13.298 13.19 13.112 12.995 12.85 12.705 12.565 12.367 12.145 11.988 11.888 11.815 11.742 11.665 11.588 11.535 11.49 11.43 11.37 11.31 11.253 11.195 11.122 11.013 10.893 10.788 10.69 10.603 10.518 10.433 10.348 10.27 10.205 10.142 10.075 9.985 9.87 9.763 9.685 9.653 9.65 9.653 9.655 9.645 9.625 9.615 9.625 9.607 9.558 9.523 9.508 9.515 9.527 9.517 9.48 9.443 9.42 9.4 9.378 9.363 9.39 9.457 9.46 9.39 9.333 9.293 9.273 9.273 9.275 9.265 9.255 9.272 9.295 9.305 9.31 9.238 9.16 9.163 9.185 9.22 9.263 9.305 9.337 9.327 9.28 9.232 9.18 9.11 9.02 8.975 9.01 9.055 9.088 9.13 9.18 9.207 9.22 9.235 9.242 9.22 9.167
15.525 15.737 15.852 15.9 15.95 15.997 16.032 16.062 16.107 16.165 16.205 16.227 16.24 16.232 16.215 16.195 16.175 16.16 16.15 16.135 16.12 16.115 16.13 16.16 16.19 16.22 16.267 16.302 16.308 16.323 16.398 16.558 16.788 17.017 17.18 17.3 17.405 17.5 17.477 17.345 17.21 17.057 16.918 16.828 16.762 16.705 16.667 16.645 16.635 16.63 16.62 16.585 16.525 16.475 16.407 16.312 16.218 16.123 16.063 16.055 16.07 16.097 16.105 16.082 16.057 16.022 15.965 15.89 15.81 15.737 15.622 15.455 15.268 15.14 15.102 15.077 15.055 15.03 15.002 14.985 14.94 14.84 14.738 14.655 14.555 14.438 14.32 14.203 14.077 13.915 13.783 13.755 13.77 13.785 13.775 13.697 13.58 13.455 13.325 13.203 13.115 13.05 12.95 12.815 12.677 12.537 12.345 12.1 11.923 11.833 11.758 11.685 11.613 11.545 11.49 11.435 11.375 11.315 11.258 11.2 11.14 11.063 10.962 10.857 10.753 10.655 10.568 10.488 10.408 10.325 10.248 10.178 10.115 10.05 9.958 9.853 9.768 9.698 9.658 9.645 9.638 9.633 9.62 9.6 9.58 9.57 9.55 9.515 9.485 9.465 9.457 9.44 9.4 9.35 9.315 9.298 9.283 9.265 9.265 9.328 9.415 9.415 9.348 9.28 9.215 9.17 9.155 9.153 9.148 9.145 9.153 9.163 9.168 9.173 9.15 9.135 9.153 9.178 9.22 9.27 9.315 9.335 9.312 9.267 9.22 9.17 9.122 9.065 9.005 8.99 9.018 9.063 9.12 9.165 9.185 9.2 9.22 9.237 9.22 9.17
15.51 15.68 15.775 15.825 15.875 15.925 15.972 16.032 16.107 16.182 16.235 16.255 16.247 16.217 16.19 16.172 16.157 16.153 16.16 16.162 16.16 16.16 16.175 16.205 16.235 16.265 16.275 16.26 16.268 16.343 16.5 16.697 16.885 17.045 17.17 17.28 17.387 17.477 17.452 17.327 17.205 17.072 16.942 16.85 16.772 16.692 16.627 16.59 16.577 16.572 16.562 16.522 16.45 16.4 16.37 16.31 16.222 16.128 16.065 16.055 16.065 16.08 16.067 16.022 15.985 15.952 15.9 15.825 15.742 15.655 15.527 15.35 15.135 14.978 14.93 14.912 14.897 14.882 14.867 14.807 14.718 14.635 14.563 14.497 14.39 14.258 14.13 13.998 13.873 13.765 13.723 13.745 13.767 13.747 13.68 13.59 13.478 13.35 13.223 13.11 13.03 12.962 12.862 12.737 12.61 12.48 12.32 12.088 11.885 11.785 11.71 11.635 11.578 11.535 11.483 11.42 11.36 11.303 11.248 11.19 11.122 11.025 10.913 10.81 10.715 10.63 10.553 10.478 10.4 10.32 10.243 10.168 10.098 10.033 9.958 9.883 9.805 9.715 9.658 9.64 9.632 9.622 9.603 9.58 9.56 9.54 9.51 9.475 9.448 9.425 9.4 9.363 9.318 9.273 9.243 9.23 9.22 9.208 9.225 9.305 9.385 9.382 9.323 9.255 9.188 9.135 9.11 9.1 9.088 9.075 9.07 9.075 9.083 9.1 9.125 9.145 9.157 9.163 9.185 9.24 9.307 9.332 9.3 9.255 9.21 9.16 9.11 9.065 9.02 8.988 9.008 9.073 9.132 9.147 9.143 9.155 9.18 9.202 9.195 9.155
15.475 15.597 15.68 15.73 15.778 15.825 15.875 15.943 16.03 16.122 16.205 16.25 16.242 16.198 16.153 16.12 16.11 16.133 16.165 16.187 16.2 16.205 16.22 16.25 16.278 16.305 16.32 16.285 16.3 16.448 16.645 16.827 16.97 17.07 17.165 17.275 17.377 17.445 17.405 17.282 17.162 17.045 16.93 16.83 16.735 16.64 16.55 16.478 16.435 16.418 16.405 16.372 16.32 16.268 16.257 16.257 16.212 16.132 16.068 16.055 16.05 16.007 15.945 15.892 15.858 15.832 15.792 15.727 15.652 15.57 15.427 15.217 14.985 14.813 14.753 14.74 14.728 14.715 14.692 14.62 14.555 14.52 14.46 14.362 14.222 14.083 13.957 13.848 13.773 13.745 13.765 13.782 13.752 13.662 13.56 13.482 13.397 13.287 13.16 13.03 12.93 12.852 12.747 12.623 12.503 12.392 12.267 12.082 11.875 11.743 11.67 11.613 11.583 11.562 11.515 11.445 11.383 11.327 11.27 11.207 11.112 10.98 10.858 10.763 10.688 10.623 10.555 10.48 10.4 10.32 10.245 10.173 10.11 10.063 10.007 9.932 9.835 9.723 9.653 9.633 9.625 9.617 9.592 9.56 9.535 9.515 9.48 9.44 9.412 9.385 9.358 9.33 9.295 9.255 9.23 9.22 9.213 9.205 9.225 9.295 9.35 9.352 9.31 9.24 9.18 9.138 9.115 9.105 9.085 9.055 9.04 9.043 9.06 9.105 9.15 9.17 9.165 9.14 9.125 9.153 9.225 9.277 9.277 9.247 9.202 9.155 9.105 9.06 9.02 9 9.035 9.105 9.135 9.115 9.095 9.103 9.13 9.147 9.147 9.125
15.492 15.537 15.587 15.637 15.683 15.73 15.778 15.84 15.927 16.022 16.12 16.202 16.225 16.187 16.135 16.098 16.108 16.145 16.175 16.208 16.235 16.25 16.268 16.295 16.323 16.348 16.372 16.378 16.433 16.595 16.77 16.9 16.995 17.075 17.168 17.272 17.355 17.4 17.355 17.233 17.108 16.985 16.873 16.768 16.668 16.573 16.48 16.395 16.323 16.268 16.233 16.203 16.168 16.13 16.12 16.14 16.145 16.115 16.07 16.027 15.952 15.845 15.773 15.743 15.72 15.695 15.665 15.617 15.55 15.467 15.305 15.073 14.835 14.65 14.583 14.575 14.565 14.557 14.523 14.475 14.457 14.425 14.335 14.197 14.045 13.895 13.765 13.713 13.735 13.775 13.802 13.76 13.645 13.518 13.418 13.345 13.28 13.205 13.1 12.968 12.843 12.743 12.638 12.523 12.415 12.315 12.192 12.032 11.845 11.708 11.653 11.625 11.61 11.597 11.552 11.478 11.41 11.35 11.29 11.205 11.07 10.92 10.81 10.738 10.678 10.62 10.552 10.477 10.402 10.325 10.255 10.203 10.165 10.127 10.057 9.952 9.837 9.72 9.65 9.63 9.618 9.61 9.585 9.545 9.513 9.49 9.455 9.41 9.375 9.348 9.323 9.3 9.275 9.243 9.223 9.215 9.21 9.205 9.223 9.27 9.3 9.31 9.287 9.23 9.183 9.145 9.118 9.1 9.07 9.035 9.018 9.025 9.065 9.13 9.18 9.187 9.165 9.135 9.105 9.088 9.108 9.158 9.2 9.21 9.192 9.155 9.105 9.065 9.043 9.04 9.077 9.12 9.11 9.075 9.048 9.05 9.077 9.092 9.092 9.082
15.457 15.462 15.493 15.547 15.593 15.64 15.685 15.735 15.813 15.905 15.998 16.105 16.18 16.165 16.108 16.105 16.165 16.212 16.24 16.268 16.293 16.305 16.318 16.343 16.37 16.398 16.433 16.5 16.6 16.717 16.827 16.917 17 17.082 17.17 17.255 17.312 17.345 17.305 17.187 17.06 16.933 16.815 16.705 16.603 16.505 16.413 16.327 16.245 16.165 16.105 16.073 16.045 16.018 16.003 16.01 16.03 16.042 16.022 15.94 15.808 15.69 15.633 15.608 15.583 15.558 15.532 15.497 15.437 15.347 15.175 14.935 14.705 14.55 14.493 14.463 14.428 14.405 14.383 14.365 14.365 14.302 14.148 13.973 13.812 13.648 13.55 13.573 13.643 13.722 13.76 13.685 13.545 13.403 13.293 13.223 13.16 13.1 13.025 12.912 12.775 12.65 12.543 12.44 12.34 12.24 12.115 11.955 11.793 11.693 11.665 11.652 11.64 11.627 11.585 11.515 11.442 11.372 11.295 11.172 11.018 10.878 10.785 10.728 10.672 10.615 10.547 10.472 10.4 10.327 10.267 10.23 10.2 10.155 10.067 9.95 9.833 9.718 9.65 9.628 9.61 9.6 9.575 9.538 9.503 9.472 9.435 9.383 9.338 9.313 9.293 9.273 9.258 9.238 9.223 9.215 9.21 9.205 9.213 9.235 9.25 9.26 9.257 9.227 9.19 9.155 9.123 9.093 9.055 9.018 9 9.025 9.082 9.147 9.187 9.18 9.15 9.12 9.09 9.06 9.04 9.053 9.085 9.113 9.132 9.135 9.11 9.087 9.085 9.09 9.105 9.102 9.07 9.035 9.005 9.003 9.025 9.037 9.037 9.035
15.372 15.365 15.395 15.46 15.505 15.55 15.595 15.633 15.685 15.765 15.863 15.998 16.122 16.135 16.093 16.133 16.235 16.3 16.33 16.355 16.37 16.365 16.37 16.397 16.423 16.463 16.525 16.617 16.71 16.76 16.823 16.912 16.995 17.08 17.162 17.225 17.265 17.295 17.26 17.145 17.015 16.888 16.765 16.65 16.54 16.435 16.345 16.252 16.165 16.098 16.038 15.993 15.963 15.935 15.91 15.903 15.915 15.935 15.915 15.82 15.69 15.573 15.503 15.473 15.448 15.423 15.397 15.367 15.315 15.222 15.045 14.808 14.625 14.543 14.498 14.44 14.378 14.315 14.285 14.285 14.28 14.195 13.993 13.76 13.543 13.39 13.383 13.463 13.55 13.645 13.687 13.622 13.492 13.343 13.223 13.15 13.09 13.025 12.95 12.855 12.725 12.585 12.465 12.36 12.26 12.16 12.035 11.878 11.75 11.695 11.68 11.67 11.657 11.632 11.585 11.52 11.447 11.375 11.29 11.163 11.01 10.875 10.783 10.723 10.667 10.607 10.537 10.46 10.385 10.315 10.26 10.222 10.187 10.14 10.057 9.947 9.83 9.715 9.65 9.625 9.603 9.59 9.567 9.532 9.495 9.458 9.42 9.375 9.33 9.305 9.293 9.28 9.268 9.253 9.235 9.22 9.215 9.21 9.208 9.218 9.23 9.238 9.242 9.23 9.197 9.163 9.132 9.103 9.065 9.025 8.998 9.01 9.06 9.12 9.147 9.13 9.1 9.07 9.04 9.018 9.008 9.01 9.025 9.045 9.07 9.092 9.082 9.065 9.065 9.067 9.067 9.057 9.03 8.995 8.965 8.958 8.972 8.98 8.98 8.988
15.285 15.265 15.293 15.365 15.417 15.462 15.505 15.54 15.575 15.633 15.745 15.913 16.07 16.105 16.1 16.183 16.3 16.382 16.42 16.44 16.437 16.42 16.423 16.453 16.495 16.558 16.635 16.73 16.77 16.75 16.795 16.892 16.982 17.065 17.135 17.187 17.225 17.255 17.217 17.1 16.972 16.845 16.72 16.603 16.485 16.37 16.263 16.165 16.09 16.035 15.98 15.925 15.883 15.853 15.83 15.81 15.805 15.812 15.78 15.695 15.58 15.46 15.38 15.34 15.315 15.29 15.262 15.232 15.187 15.097 14.917 14.713 14.603 14.565 14.52 14.457 14.382 14.29 14.228 14.215 14.197 14.122 13.93 13.668 13.42 13.273 13.29 13.385 13.48 13.575 13.612 13.55 13.44 13.305 13.185 13.11 13.045 12.967 12.877 12.785 12.675 12.54 12.41 12.293 12.185 12.085 11.958 11.825 11.743 11.708 11.692 11.675 11.65 11.61 11.555 11.49 11.42 11.352 11.282 11.18 11.04 10.898 10.788 10.718 10.662 10.6 10.525 10.443 10.365 10.295 10.243 10.207 10.17 10.122 10.045 9.94 9.827 9.715 9.648 9.623 9.6 9.583 9.56 9.525 9.49 9.465 9.438 9.4 9.36 9.333 9.32 9.307 9.292 9.277 9.257 9.235 9.223 9.218 9.215 9.223 9.235 9.237 9.232 9.225 9.202 9.168 9.143 9.122 9.092 9.055 9.015 8.988 9.008 9.065 9.087 9.065 9.035 9.01 8.993 8.985 8.99 9 9.015 9.035 9.047 9.035 8.997 8.973 8.967 8.968 8.975 8.982 8.977 8.955 8.925 8.913 8.918 8.92 8.93 8.955
15.192 15.168 15.19 15.265 15.33 15.375 15.413 15.448 15.488 15.553 15.673 15.84 16.012 16.085 16.128 16.24 16.36 16.457 16.505 16.51 16.497 16.48 16.485 16.528 16.595 16.67 16.747 16.815 16.8 16.738 16.763 16.86 16.955 17.025 17.07 17.112 17.165 17.212 17.172 17.05 16.925 16.802 16.68 16.56 16.433 16.308 16.193 16.1 16.035 15.978 15.923 15.868 15.815 15.775 15.748 15.723 15.703 15.678 15.627 15.557 15.462 15.348 15.258 15.21 15.182 15.155 15.125 15.095 15.06 14.972 14.805 14.668 14.615 14.585 14.537 14.462 14.37 14.268 14.178 14.138 14.107 14.045 13.897 13.675 13.463 13.3 13.253 13.315 13.41 13.505 13.537 13.47 13.37 13.257 13.145 13.06 12.982 12.895 12.802 12.71 12.615 12.497 12.37 12.245 12.123 12.013 11.9 11.813 11.755 11.72 11.7 11.665 11.625 11.58 11.525 11.46 11.393 11.327 11.26 11.18 11.062 10.923 10.805 10.72 10.658 10.595 10.517 10.43 10.348 10.278 10.228 10.19 10.152 10.11 10.032 9.927 9.82 9.713 9.645 9.62 9.6 9.58 9.555 9.53 9.515 9.507 9.485 9.442 9.4 9.365 9.345 9.33 9.315 9.3 9.28 9.257 9.235 9.223 9.223 9.227 9.23 9.227 9.22 9.215 9.202 9.173 9.15 9.135 9.115 9.085 9.042 8.998 8.978 9.01 9.027 9.003 8.983 8.975 8.975 8.978 8.983 8.99 9.005 9.017 9.002 8.955 8.898 8.868 8.865 8.868 8.875 8.885 8.895 8.895 8.88 8.867 8.865 8.878 8.91 8.94
15.095 15.07 15.09 15.163 15.235 15.283 15.328 15.383 15.448 15.543 15.663 15.803 15.962 16.08 16.175 16.295 16.415 16.527 16.577 16.56 16.532 16.505 16.525 16.607 16.7 16.78 16.852 16.865 16.8 16.725 16.73 16.817 16.895 16.937 16.967 17.005 17.067 17.137 17.11 16.995 16.875 16.755 16.635 16.515 16.388 16.265 16.16 16.07 15.995 15.93 15.873 15.818 15.765 15.713 15.675 15.658 15.63 15.57 15.49 15.413 15.332 15.233 15.138 15.08 15.048 15.02 14.988 14.955 14.925 14.847 14.733 14.665 14.63 14.587 14.532 14.45 14.347 14.243 14.14 14.07 14.028 13.982 13.9 13.737 13.535 13.368 13.278 13.273 13.338 13.432 13.46 13.39 13.29 13.19 13.087 12.992 12.905 12.815 12.725 12.635 12.545 12.442 12.322 12.195 12.065 11.955 11.878 11.82 11.765 11.723 11.687 11.64 11.595 11.55 11.495 11.433 11.368 11.3 11.23 11.162 11.072 10.947 10.83 10.733 10.655 10.59 10.51 10.42 10.333 10.26 10.213 10.175 10.137 10.095 10.017 9.915 9.812 9.71 9.645 9.62 9.597 9.575 9.558 9.555 9.562 9.557 9.527 9.48 9.432 9.39 9.362 9.35 9.337 9.32 9.3 9.28 9.255 9.233 9.227 9.227 9.22 9.215 9.21 9.202 9.195 9.177 9.16 9.145 9.127 9.105 9.067 9.025 8.982 8.967 8.97 8.96 8.955 8.96 8.965 8.97 8.975 8.978 8.985 8.972 8.925 8.865 8.808 8.775 8.773 8.778 8.785 8.793 8.8 8.81 8.813 8.813 8.828 8.865 8.905 8.927
15.013 14.988 15.005 15.078 15.158 15.22 15.283 15.358 15.448 15.56 15.68 15.808 15.948 16.082 16.205 16.325 16.435 16.525 16.567 16.55 16.51 16.47 16.505 16.62 16.735 16.835 16.895 16.865 16.777 16.693 16.688 16.76 16.807 16.83 16.855 16.89 16.95 17.015 17 16.905 16.792 16.675 16.572 16.475 16.36 16.243 16.138 16.05 15.975 15.918 15.868 15.813 15.75 15.678 15.635 15.62 15.577 15.497 15.398 15.3 15.21 15.115 15.025 14.955 14.913 14.885 14.853 14.823 14.8 14.75 14.688 14.642 14.595 14.542 14.49 14.42 14.322 14.22 14.118 14.03 13.978 13.942 13.892 13.785 13.607 13.433 13.335 13.29 13.293 13.36 13.382 13.31 13.205 13.09 12.99 12.905 12.815 12.725 12.635 12.545 12.458 12.37 12.26 12.13 12.013 11.93 11.878 11.83 11.775 11.723 11.678 11.63 11.583 11.533 11.48 11.43 11.365 11.283 11.205 11.138 11.065 10.962 10.85 10.753 10.663 10.583 10.5 10.415 10.335 10.255 10.198 10.16 10.12 10.075 10 9.9 9.8 9.703 9.643 9.617 9.59 9.563 9.553 9.562 9.57 9.552 9.51 9.46 9.415 9.382 9.36 9.347 9.337 9.322 9.31 9.292 9.265 9.237 9.215 9.197 9.185 9.18 9.177 9.17 9.165 9.162 9.157 9.145 9.125 9.1 9.05 8.99 8.942 8.91 8.915 8.932 8.935 8.94 8.947 8.952 8.957 8.962 8.955 8.918 8.863 8.81 8.775 8.765 8.758 8.753 8.758 8.763 8.77 8.778 8.783 8.793 8.82 8.865 8.9 8.918
14.957 14.935 14.955 15.035 15.12 15.198 15.27 15.353 15.46 15.58 15.7 15.823 15.953 16.085 16.207 16.305 16.375 16.427 16.465 16.477 16.455 16.415 16.455 16.575 16.685 16.767 16.805 16.787 16.717 16.628 16.625 16.682 16.71 16.728 16.745 16.773 16.83 16.875 16.85 16.775 16.675 16.563 16.48 16.42 16.332 16.22 16.118 16.04 15.98 15.94 15.89 15.82 15.74 15.655 15.61 15.58 15.512 15.427 15.332 15.228 15.133 15.06 14.983 14.888 14.815 14.78 14.758 14.738 14.723 14.69 14.635 14.575 14.52 14.468 14.42 14.372 14.297 14.197 14.095 14.01 13.95 13.907 13.855 13.78 13.66 13.5 13.395 13.345 13.303 13.31 13.305 13.217 13.092 12.963 12.87 12.8 12.715 12.625 12.535 12.45 12.373 12.295 12.19 12.07 11.985 11.93 11.882 11.835 11.783 11.73 11.683 11.637 11.585 11.522 11.468 11.435 11.395 11.318 11.23 11.15 11.068 10.975 10.88 10.79 10.7 10.615 10.535 10.458 10.37 10.265 10.188 10.142 10.097 10.047 9.975 9.88 9.78 9.683 9.625 9.605 9.58 9.55 9.538 9.542 9.53 9.49 9.44 9.398 9.37 9.355 9.342 9.328 9.313 9.3 9.297 9.29 9.265 9.232 9.195 9.158 9.128 9.115 9.115 9.11 9.077 9.075 9.12 9.132 9.115 9.077 9 8.913 8.843 8.81 8.84 8.885 8.902 8.907 8.915 8.92 8.928 8.945 8.932 8.888 8.848 8.823 8.82 8.827 8.82 8.803 8.79 8.79 8.797 8.802 8.808 8.815 8.83 8.868 8.902 8.917
14.897 14.895 14.928 15.015 15.102 15.185 15.265 15.363 15.48 15.6 15.72 15.84 15.962 16.075 16.162 16.22 16.26 16.303 16.342 16.375 16.385 16.365 16.41 16.512 16.58 16.615 16.635 16.645 16.62 16.56 16.553 16.59 16.607 16.623 16.64 16.663 16.71 16.732 16.69 16.625 16.545 16.445 16.368 16.327 16.277 16.192 16.105 16.045 15.997 15.952 15.887 15.8 15.71 15.628 15.572 15.517 15.438 15.355 15.268 15.183 15.125 15.092 15.022 14.903 14.79 14.728 14.708 14.693 14.677 14.642 14.58 14.513 14.45 14.393 14.345 14.307 14.257 14.172 14.078 14 13.933 13.875 13.818 13.75 13.67 13.552 13.455 13.405 13.35 13.305 13.228 13.095 12.953 12.833 12.755 12.692 12.615 12.525 12.44 12.365 12.295 12.222 12.128 12.038 11.983 11.935 11.885 11.837 11.79 11.74 11.69 11.635 11.57 11.5 11.443 11.418 11.405 11.372 11.305 11.215 11.118 11.01 10.923 10.852 10.777 10.7 10.617 10.522 10.407 10.282 10.182 10.12 10.067 10.012 9.947 9.86 9.757 9.655 9.595 9.58 9.562 9.538 9.522 9.51 9.475 9.425 9.383 9.36 9.35 9.34 9.327 9.31 9.29 9.273 9.27 9.275 9.262 9.227 9.185 9.14 9.093 9.058 9.045 9.007 8.94 8.958 9.047 9.1 9.1 9.05 8.96 8.87 8.793 8.748 8.76 8.813 8.857 8.87 8.875 8.885 8.903 8.93 8.92 8.885 8.873 8.875 8.885 8.892 8.89 8.872 8.848 8.83 8.825 8.828 8.833 8.84 8.848 8.875 8.905 8.912
14.818 14.85 14.905 14.995 15.085 15.17 15.263 15.372 15.487 15.605 15.722 15.84 15.95 16.03 16.077 16.113 16.15 16.188 16.225 16.258 16.285 16.305 16.343 16.392 16.42 16.44 16.46 16.472 16.475 16.465 16.468 16.49 16.505 16.52 16.538 16.555 16.585 16.585 16.533 16.465 16.398 16.323 16.263 16.23 16.198 16.153 16.098 16.047 16 15.945 15.877 15.792 15.698 15.608 15.533 15.46 15.383 15.305 15.223 15.165 15.14 15.12 15.06 14.945 14.815 14.71 14.663 14.648 14.632 14.595 14.528 14.455 14.385 14.32 14.27 14.233 14.195 14.137 14.062 13.987 13.915 13.845 13.788 13.73 13.66 13.578 13.5 13.442 13.382 13.317 13.2 13.025 12.848 12.72 12.648 12.583 12.513 12.435 12.36 12.293 12.225 12.158 12.088 12.03 11.985 11.935 11.885 11.84 11.795 11.742 11.685 11.617 11.545 11.475 11.42 11.395 11.385 11.377 11.35 11.282 11.18 11.055 10.965 10.91 10.845 10.762 10.65 10.517 10.382 10.247 10.132 10.062 10.015 9.967 9.917 9.837 9.733 9.63 9.568 9.547 9.532 9.515 9.492 9.46 9.415 9.378 9.355 9.343 9.335 9.325 9.31 9.29 9.27 9.25 9.243 9.25 9.25 9.222 9.178 9.13 9.083 9.035 8.982 8.89 8.835 8.888 8.97 9.042 9.067 9.023 8.948 8.878 8.815 8.763 8.745 8.77 8.803 8.825 8.843 8.863 8.89 8.92 8.925 8.915 8.92 8.93 8.94 8.947 8.95 8.937 8.912 8.887 8.87 8.86 8.86 8.867 8.873 8.888 8.902 8.903
14.775 14.828 14.89 14.97 15.06 15.148 15.245 15.355 15.467 15.582 15.695 15.805 15.895 15.955 15.997 16.03 16.065 16.1 16.145 16.193 16.228 16.26 16.275 16.273 16.27 16.273 16.285 16.3 16.318 16.348 16.375 16.395 16.41 16.425 16.443 16.46 16.475 16.46 16.405 16.338 16.275 16.23 16.2 16.173 16.145 16.125 16.092 16.04 15.992 15.937 15.867 15.79 15.705 15.61 15.523 15.448 15.368 15.283 15.2 15.145 15.122 15.102 15.055 14.962 14.847 14.73 14.64 14.603 14.595 14.565 14.483 14.395 14.325 14.255 14.2 14.163 14.125 14.082 14.03 13.96 13.885 13.81 13.763 13.73 13.67 13.6 13.528 13.455 13.388 13.322 13.215 13.037 12.83 12.678 12.595 12.525 12.45 12.378 12.31 12.245 12.18 12.118 12.065 12.02 11.975 11.925 11.877 11.832 11.787 11.737 11.673 11.598 11.523 11.45 11.398 11.375 11.362 11.345 11.332 11.305 11.217 11.09 10.993 10.93 10.865 10.78 10.635 10.455 10.298 10.155 10.038 9.97 9.93 9.89 9.852 9.8 9.715 9.615 9.543 9.51 9.492 9.477 9.447 9.403 9.37 9.363 9.355 9.333 9.315 9.307 9.295 9.275 9.252 9.228 9.215 9.22 9.225 9.212 9.175 9.125 9.08 9.03 8.94 8.838 8.818 8.875 8.948 9.017 9.047 9.025 8.98 8.925 8.865 8.808 8.783 8.788 8.795 8.803 8.82 8.85 8.88 8.907 8.927 8.937 8.945 8.952 8.96 8.967 8.975 8.967 8.945 8.925 8.905 8.885 8.88 8.887 8.892 8.903 8.91 8.913
14.78 14.833 14.888 14.953 15.035 15.123 15.215 15.318 15.43 15.545 15.655 15.75 15.817 15.87 15.92 15.96 15.993 16.03 16.09 16.162 16.217 16.25 16.255 16.238 16.215 16.198 16.188 16.183 16.2 16.248 16.285 16.305 16.323 16.34 16.363 16.385 16.385 16.357 16.307 16.248 16.203 16.185 16.172 16.148 16.135 16.125 16.087 16.035 15.985 15.925 15.853 15.78 15.707 15.625 15.535 15.45 15.36 15.263 15.178 15.118 15.088 15.065 15.02 14.95 14.857 14.747 14.638 14.575 14.578 14.572 14.49 14.378 14.283 14.195 14.135 14.095 14.052 14.01 13.972 13.917 13.845 13.77 13.73 13.725 13.692 13.63 13.555 13.473 13.395 13.327 13.23 13.062 12.858 12.693 12.595 12.52 12.43 12.348 12.28 12.215 12.153 12.093 12.043 12 11.955 11.908 11.863 11.818 11.78 11.737 11.67 11.59 11.51 11.438 11.373 11.33 11.31 11.293 11.288 11.287 11.232 11.118 11.013 10.935 10.865 10.79 10.64 10.425 10.23 10.068 9.945 9.875 9.832 9.79 9.76 9.74 9.692 9.605 9.525 9.475 9.448 9.432 9.4 9.363 9.355 9.365 9.365 9.338 9.305 9.293 9.28 9.26 9.232 9.2 9.185 9.19 9.195 9.192 9.17 9.127 9.082 9.015 8.905 8.833 8.845 8.9 8.972 9.022 9.032 9.027 9.015 8.975 8.915 8.855 8.823 8.825 8.815 8.787 8.8 8.84 8.87 8.895 8.912 8.927 8.94 8.947 8.953 8.963 8.975 8.97 8.95 8.93 8.913 8.898 8.893 8.9 8.908 8.92 8.932 8.937
14.787 14.84 14.895 14.953 15.018 15.098 15.19 15.288 15.393 15.505 15.605 15.677 15.733 15.785 15.838 15.885 15.92 15.963 16.03 16.11 16.185 16.24 16.255 16.24 16.222 16.207 16.182 16.15 16.143 16.168 16.195 16.218 16.24 16.263 16.288 16.312 16.302 16.263 16.218 16.175 16.158 16.155 16.147 16.138 16.147 16.135 16.083 16.03 15.975 15.91 15.84 15.765 15.685 15.61 15.527 15.435 15.34 15.24 15.155 15.095 15.058 15.025 14.975 14.915 14.84 14.743 14.648 14.595 14.59 14.597 14.537 14.415 14.285 14.155 14.068 14.02 13.975 13.93 13.9 13.865 13.805 13.73 13.688 13.69 13.687 13.652 13.582 13.497 13.415 13.337 13.247 13.09 12.883 12.708 12.595 12.507 12.408 12.32 12.25 12.188 12.13 12.07 12.02 11.98 11.935 11.89 11.848 11.81 11.782 11.74 11.67 11.595 11.535 11.49 11.44 11.345 11.258 11.238 11.245 11.255 11.232 11.145 11.04 10.953 10.87 10.797 10.66 10.445 10.225 10.023 9.868 9.78 9.73 9.69 9.67 9.66 9.64 9.585 9.515 9.458 9.413 9.385 9.363 9.353 9.358 9.365 9.372 9.355 9.313 9.28 9.262 9.24 9.207 9.173 9.155 9.16 9.165 9.165 9.157 9.13 9.077 8.987 8.883 8.845 8.873 8.925 8.982 9.002 8.998 8.997 9.005 8.997 8.96 8.905 8.868 8.865 8.797 8.735 8.775 8.822 8.855 8.88 8.895 8.91 8.928 8.94 8.948 8.96 8.975 8.97 8.953 8.935 8.92 8.91 8.905 8.913 8.925 8.94 8.955 8.957
14.79 14.847 14.902 14.957 15.015 15.082 15.167 15.262 15.36 15.457 15.537 15.598 15.655 15.713 15.768 15.815 15.85 15.898 15.973 16.06 16.148 16.22 16.235 16.212 16.2 16.185 16.16 16.132 16.115 16.11 16.115 16.135 16.163 16.19 16.215 16.237 16.225 16.18 16.145 16.128 16.122 16.117 16.113 16.135 16.165 16.14 16.08 16.022 15.957 15.88 15.8 15.715 15.633 15.562 15.49 15.407 15.317 15.22 15.135 15.075 15.033 14.988 14.93 14.87 14.808 14.738 14.68 14.65 14.632 14.625 14.562 14.427 14.272 14.123 14.013 13.945 13.895 13.85 13.82 13.8 13.757 13.688 13.643 13.64 13.65 13.647 13.602 13.52 13.432 13.345 13.26 13.117 12.91 12.72 12.588 12.488 12.383 12.293 12.223 12.165 12.113 12.055 12.005 11.963 11.918 11.878 11.843 11.813 11.785 11.743 11.69 11.64 11.6 11.57 11.53 11.39 11.245 11.215 11.215 11.218 11.22 11.167 11.07 10.98 10.89 10.807 10.675 10.47 10.248 10.025 9.82 9.685 9.625 9.598 9.585 9.575 9.565 9.553 9.518 9.463 9.408 9.365 9.353 9.358 9.363 9.37 9.377 9.37 9.332 9.283 9.248 9.215 9.18 9.145 9.125 9.127 9.132 9.135 9.135 9.12 9.057 8.953 8.88 8.875 8.9 8.94 8.97 8.97 8.963 8.96 8.965 8.975 8.972 8.945 8.912 8.865 8.74 8.68 8.74 8.795 8.835 8.863 8.883 8.9 8.923 8.943 8.955 8.968 8.98 8.975 8.96 8.947 8.935 8.922 8.918 8.93 8.945 8.96 8.975 8.97
14.77 14.822 14.877 14.932 14.99 15.035 15.095 15.192 15.287 15.387 15.475 15.535 15.595 15.655 15.715 15.757 15.783 15.83 15.915 16.02 16.127 16.207 16.192 16.143 16.13 16.115 16.095 16.08 16.065 16.05 16.043 16.055 16.085 16.115 16.142 16.162 16.132 16.08 16.072 16.077 16.07 16.06 16.063 16.107 16.135 16.1 16.042 15.98 15.907 15.82 15.73 15.645 15.573 15.507 15.44 15.367 15.285 15.193 15.118 15.068 15.025 14.978 14.92 14.86 14.798 14.738 14.695 14.67 14.65 14.63 14.545 14.385 14.215 14.075 13.97 13.883 13.82 13.773 13.74 13.722 13.697 13.645 13.598 13.59 13.6 13.595 13.55 13.465 13.37 13.292 13.23 13.12 12.937 12.74 12.593 12.485 12.383 12.303 12.243 12.19 12.14 12.07 12.005 11.963 11.915 11.865 11.842 11.835 11.81 11.768 11.72 11.68 11.64 11.6 11.522 11.375 11.258 11.225 11.215 11.21 11.212 11.165 11.067 10.975 10.882 10.795 10.685 10.502 10.273 10.043 9.813 9.615 9.528 9.518 9.515 9.515 9.525 9.558 9.555 9.503 9.445 9.39 9.365 9.368 9.375 9.383 9.387 9.382 9.345 9.285 9.23 9.185 9.15 9.115 9.093 9.09 9.092 9.097 9.1 9.095 9.047 8.948 8.893 8.905 8.925 8.94 8.942 8.935 8.928 8.923 8.925 8.935 8.945 8.947 8.927 8.807 8.663 8.658 8.733 8.805 8.853 8.878 8.9 8.923 8.948 8.97 8.985 8.995 8.995 8.975 8.953 8.937 8.925 8.912 8.92 8.942 8.957 8.972 8.98 8.965
14.717 14.765 14.817 14.87 14.91 14.928 14.975 15.07 15.157 15.262 15.395 15.49 15.55 15.61 15.662 15.695 15.713 15.748 15.833 15.95 16.07 16.165 16.14 16.068 16.05 16.04 16.025 16.01 15.997 15.983 15.968 15.973 16 16.03 16.06 16.057 15.987 15.938 15.965 15.997 16 15.99 16.005 16.04 16.037 16.002 15.957 15.9 15.83 15.745 15.66 15.585 15.518 15.453 15.387 15.32 15.242 15.155 15.093 15.06 15.032 14.997 14.942 14.877 14.81 14.745 14.693 14.655 14.628 14.605 14.515 14.338 14.16 14.03 13.933 13.838 13.755 13.695 13.658 13.638 13.625 13.595 13.553 13.54 13.535 13.495 13.423 13.34 13.268 13.213 13.165 13.095 12.955 12.765 12.615 12.508 12.42 12.36 12.31 12.26 12.19 12.093 12.02 11.975 11.915 11.845 11.828 11.85 11.852 11.825 11.76 11.69 11.64 11.6 11.505 11.375 11.285 11.245 11.235 11.23 11.2 11.105 10.992 10.897 10.813 10.753 10.682 10.537 10.327 10.1 9.865 9.618 9.48 9.473 9.478 9.5 9.553 9.615 9.62 9.567 9.502 9.435 9.395 9.388 9.392 9.398 9.402 9.39 9.34 9.275 9.215 9.163 9.123 9.088 9.063 9.053 9.05 9.053 9.057 9.057 9.04 8.972 8.923 8.932 8.942 8.935 8.915 8.9 8.893 8.885 8.885 8.895 8.905 8.917 8.902 8.763 8.648 8.695 8.785 8.862 8.902 8.92 8.943 8.967 8.99 9.012 9.03 9.032 9.012 8.975 8.94 8.91 8.888 8.875 8.9 8.942 8.962 8.972 8.967 8.945
14.655 14.702 14.75 14.787 14.8 14.803 14.848 14.93 15.008 15.093 15.25 15.42 15.51 15.565 15.602 15.622 15.638 15.658 15.73 15.85 15.972 16.082 16.075 16.008 15.985 15.97 15.958 15.943 15.93 15.917 15.9 15.893 15.91 15.94 15.962 15.915 15.808 15.778 15.833 15.89 15.92 15.92 15.935 15.942 15.915 15.885 15.852 15.812 15.75 15.67 15.598 15.53 15.463 15.398 15.333 15.267 15.197 15.118 15.063 15.04 15.017 14.985 14.945 14.89 14.82 14.755 14.7 14.655 14.618 14.585 14.507 14.312 14.11 13.993 13.897 13.8 13.703 13.625 13.578 13.555 13.545 13.53 13.505 13.478 13.435 13.38 13.315 13.25 13.203 13.157 13.11 13.055 12.955 12.79 12.64 12.543 12.478 12.43 12.38 12.312 12.205 12.098 12.032 11.975 11.902 11.828 11.8 11.827 11.86 11.872 11.827 11.74 11.66 11.602 11.515 11.405 11.32 11.27 11.255 11.23 11.145 11.003 10.878 10.798 10.748 10.72 10.665 10.542 10.372 10.177 9.955 9.675 9.483 9.458 9.485 9.543 9.618 9.685 9.687 9.627 9.555 9.483 9.435 9.413 9.408 9.415 9.417 9.39 9.33 9.263 9.203 9.15 9.103 9.063 9.035 9.02 9.013 9.01 9.012 9.01 9.005 8.98 8.952 8.952 8.955 8.942 8.915 8.89 8.87 8.853 8.848 8.855 8.87 8.892 8.875 8.778 8.73 8.785 8.865 8.925 8.947 8.965 8.988 9.01 9.03 9.055 9.072 9.06 9.025 8.985 8.942 8.9 8.865 8.845 8.873 8.932 8.965 8.965 8.95 8.927
14.592 14.637 14.675 14.693 14.695 14.705 14.748 14.81 14.873 14.935 15.073 15.287 15.447 15.512 15.532 15.547 15.562 15.575 15.638 15.758 15.885 16.002 16.007 15.95 15.928 15.908 15.893 15.878 15.863 15.85 15.835 15.818 15.825 15.855 15.847 15.755 15.65 15.643 15.7 15.76 15.813 15.842 15.847 15.827 15.793 15.76 15.73 15.7 15.662 15.61 15.547 15.483 15.415 15.348 15.28 15.215 15.15 15.078 15.025 14.995 14.957 14.917 14.897 14.877 14.827 14.762 14.708 14.665 14.622 14.58 14.497 14.275 14.06 13.958 13.86 13.763 13.665 13.573 13.505 13.475 13.465 13.455 13.463 13.453 13.408 13.36 13.275 13.193 13.148 13.102 13.055 13 12.93 12.805 12.67 12.593 12.545 12.5 12.435 12.332 12.205 12.103 12.032 11.96 11.885 11.81 11.77 11.79 11.83 11.867 11.867 11.8 11.697 11.607 11.53 11.445 11.36 11.3 11.265 11.19 11.055 10.908 10.798 10.745 10.72 10.7 10.647 10.53 10.375 10.21 10.022 9.73 9.495 9.475 9.538 9.615 9.692 9.755 9.75 9.682 9.603 9.528 9.48 9.45 9.433 9.432 9.425 9.385 9.32 9.25 9.19 9.14 9.09 9.045 9.018 9.003 8.988 8.975 8.97 8.968 8.965 8.962 8.957 8.957 8.96 8.952 8.93 8.9 8.87 8.843 8.825 8.828 8.848 8.875 8.868 8.84 8.855 8.895 8.945 8.98 8.992 9.012 9.035 9.055 9.075 9.097 9.1 9.07 9.027 8.985 8.94 8.895 8.853 8.828 8.855 8.92 8.955 8.947 8.93 8.91
14.525 14.57 14.605 14.618 14.628 14.668 14.723 14.77 14.82 14.863 14.973 15.185 15.35 15.4 15.407 15.417 15.428 15.48 15.575 15.68 15.805 15.925 15.942 15.893 15.87 15.85 15.83 15.813 15.798 15.783 15.765 15.745 15.745 15.76 15.707 15.613 15.565 15.58 15.63 15.683 15.738 15.765 15.745 15.708 15.67 15.635 15.605 15.593 15.577 15.54 15.495 15.442 15.382 15.315 15.245 15.178 15.113 15.043 14.973 14.918 14.87 14.833 14.82 14.82 14.805 14.762 14.715 14.657 14.58 14.502 14.362 14.173 14.043 13.943 13.835 13.738 13.64 13.54 13.45 13.403 13.39 13.38 13.438 13.497 13.485 13.427 13.295 13.163 13.093 13.047 12.997 12.94 12.882 12.8 12.705 12.637 12.58 12.52 12.432 12.312 12.195 12.1 12.02 11.943 11.868 11.793 11.743 11.75 11.79 11.827 11.855 11.807 11.695 11.59 11.515 11.455 11.385 11.322 11.25 11.14 11.01 10.885 10.8 10.758 10.725 10.698 10.65 10.543 10.398 10.25 10.09 9.798 9.53 9.518 9.607 9.687 9.765 9.825 9.81 9.735 9.65 9.573 9.525 9.495 9.468 9.452 9.427 9.375 9.313 9.248 9.195 9.153 9.108 9.065 9.038 9.023 9.005 8.983 8.96 8.945 8.94 8.94 8.94 8.945 8.952 8.957 8.945 8.913 8.88 8.85 8.828 8.833 8.858 8.88 8.89 8.91 8.947 8.975 8.987 8.997 9.02 9.047 9.07 9.09 9.11 9.147 9.14 9.07 9.01 8.965 8.92 8.875 8.833 8.815 8.85 8.897 8.91 8.905 8.902 8.89
14.455 14.5 14.542 14.563 14.595 14.67 14.737 14.782 14.822 14.85 14.958 15.13 15.207 15.212 15.215 15.228 15.288 15.43 15.56 15.635 15.73 15.845 15.877 15.838 15.813 15.79 15.77 15.75 15.733 15.717 15.7 15.68 15.668 15.653 15.603 15.56 15.553 15.573 15.62 15.672 15.7 15.677 15.635 15.595 15.555 15.523 15.51 15.53 15.507 15.45 15.417 15.38 15.337 15.287 15.225 15.155 15.087 15.017 14.935 14.855 14.79 14.748 14.738 14.74 14.74 14.72 14.652 14.55 14.44 14.325 14.175 14.09 14.065 13.963 13.833 13.725 13.625 13.525 13.425 13.35 13.32 13.31 13.41 13.55 13.575 13.495 13.34 13.178 13.058 12.993 12.942 12.885 12.83 12.775 12.71 12.637 12.56 12.485 12.39 12.275 12.183 12.108 12.023 11.933 11.853 11.778 11.715 11.71 11.75 11.785 11.817 11.777 11.66 11.553 11.478 11.425 11.375 11.33 11.255 11.148 11.04 10.93 10.85 10.805 10.768 10.733 10.69 10.605 10.48 10.345 10.185 9.903 9.613 9.548 9.632 9.73 9.82 9.885 9.865 9.782 9.698 9.62 9.57 9.54 9.51 9.475 9.432 9.382 9.325 9.268 9.223 9.19 9.155 9.115 9.085 9.067 9.047 9.02 8.988 8.955 8.933 8.925 8.925 8.928 8.935 8.947 8.95 8.927 8.895 8.865 8.845 8.855 8.885 8.91 8.93 8.957 8.985 8.982 8.963 8.975 9.027 9.072 9.095 9.115 9.15 9.22 9.212 9.105 9.008 8.94 8.893 8.848 8.805 8.803 8.84 8.855 8.845 8.838 8.843 8.85
14.435 14.468 14.498 14.528 14.592 14.682 14.745 14.78 14.805 14.83 14.927 15.022 15.023 15.008 15.025 15.103 15.255 15.445 15.57 15.625 15.688 15.777 15.81 15.78 15.758 15.735 15.713 15.69 15.67 15.653 15.635 15.618 15.605 15.59 15.578 15.57 15.56 15.573 15.615 15.645 15.622 15.57 15.525 15.49 15.465 15.453 15.458 15.477 15.435 15.36 15.323 15.29 15.26 15.227 15.185 15.13 15.065 14.992 14.91 14.82 14.738 14.683 14.665 14.663 14.658 14.632 14.535 14.393 14.26 14.148 14.083 14.085 14.095 14.007 13.858 13.725 13.615 13.512 13.413 13.325 13.265 13.255 13.388 13.592 13.657 13.555 13.385 13.215 13.058 12.95 12.888 12.833 12.785 12.745 12.685 12.603 12.52 12.445 12.355 12.26 12.19 12.13 12.05 11.95 11.858 11.77 11.69 11.673 11.707 11.74 11.772 11.745 11.633 11.518 11.44 11.393 11.363 11.34 11.292 11.2 11.09 10.98 10.9 10.855 10.82 10.79 10.752 10.682 10.58 10.455 10.285 10.027 9.753 9.6 9.62 9.727 9.825 9.897 9.89 9.82 9.745 9.668 9.615 9.58 9.535 9.475 9.425 9.39 9.345 9.298 9.258 9.228 9.197 9.163 9.133 9.11 9.082 9.05 9.02 8.987 8.953 8.928 8.915 8.91 8.913 8.923 8.935 8.932 8.91 8.88 8.863 8.875 8.905 8.935 8.962 8.985 8.985 8.945 8.915 8.95 9.025 9.087 9.12 9.158 9.227 9.312 9.295 9.175 9.055 8.95 8.875 8.82 8.778 8.783 8.805 8.8 8.803 8.813 8.813 8.818
14.482 14.477 14.462 14.47 14.542 14.66 14.732 14.757 14.78 14.808 14.858 14.885 14.875 14.873 14.935 15.085 15.27 15.457 15.575 15.625 15.675 15.735 15.77 15.76 15.74 15.72 15.698 15.675 15.653 15.618 15.585 15.573 15.568 15.565 15.562 15.562 15.562 15.572 15.587 15.567 15.517 15.467 15.435 15.422 15.42 15.425 15.43 15.417 15.353 15.273 15.23 15.2 15.168 15.135 15.105 15.073 15.032 14.97 14.888 14.803 14.72 14.665 14.645 14.633 14.62 14.6 14.525 14.385 14.23 14.11 14.07 14.095 14.125 14.06 13.905 13.75 13.613 13.498 13.402 13.317 13.238 13.23 13.383 13.617 13.71 13.602 13.43 13.257 13.085 12.94 12.855 12.81 12.775 12.742 12.68 12.588 12.498 12.418 12.338 12.265 12.205 12.145 12.077 11.99 11.887 11.775 11.66 11.625 11.662 11.695 11.727 11.715 11.615 11.49 11.418 11.393 11.38 11.365 11.322 11.242 11.14 11.03 10.95 10.908 10.875 10.852 10.82 10.75 10.657 10.552 10.392 10.16 9.915 9.7 9.625 9.695 9.78 9.857 9.875 9.827 9.767 9.7 9.64 9.587 9.525 9.458 9.413 9.385 9.355 9.323 9.297 9.275 9.243 9.21 9.18 9.15 9.118 9.083 9.05 9.02 8.985 8.95 8.923 8.903 8.893 8.898 8.91 8.917 8.912 8.89 8.88 8.898 8.925 8.958 8.99 9 8.967 8.908 8.885 8.935 9.015 9.09 9.147 9.207 9.285 9.345 9.327 9.232 9.117 9.002 8.898 8.808 8.755 8.758 8.775 8.793 8.825 8.857 8.855 8.833
14.49 14.45 14.405 14.373 14.43 14.595 14.7 14.722 14.75 14.79 14.84 14.868 14.873 14.89 14.985 15.15 15.325 15.482 15.567 15.607 15.65 15.705 15.765 15.795 15.79 15.77 15.75 15.717 15.67 15.61 15.558 15.54 15.54 15.537 15.533 15.533 15.54 15.532 15.487 15.425 15.367 15.335 15.335 15.342 15.347 15.352 15.357 15.355 15.29 15.19 15.14 15.12 15.098 15.075 15.055 15.038 15.012 14.957 14.88 14.8 14.723 14.675 14.66 14.647 14.63 14.617 14.592 14.5 14.353 14.215 14.133 14.118 14.145 14.102 13.96 13.8 13.642 13.5 13.382 13.285 13.21 13.21 13.358 13.595 13.72 13.637 13.465 13.29 13.12 12.968 12.87 12.828 12.795 12.757 12.69 12.598 12.513 12.443 12.37 12.3 12.238 12.175 12.107 11.992 11.852 11.72 11.59 11.555 11.602 11.645 11.68 11.682 11.605 11.488 11.428 11.415 11.405 11.392 11.35 11.277 11.187 11.08 11 10.96 10.935 10.92 10.89 10.817 10.722 10.63 10.497 10.295 10.062 9.823 9.688 9.708 9.77 9.833 9.852 9.81 9.755 9.7 9.635 9.57 9.505 9.45 9.423 9.4 9.373 9.348 9.335 9.327 9.302 9.27 9.238 9.2 9.165 9.13 9.093 9.06 9.025 8.988 8.953 8.92 8.895 8.883 8.885 8.895 8.903 8.895 8.898 8.928 8.968 9.002 9.017 9.005 8.962 8.903 8.883 8.928 9 9.08 9.155 9.22 9.27 9.29 9.282 9.242 9.155 9.045 8.935 8.825 8.76 8.768 8.805 8.848 8.89 8.92 8.912 8.878
14.43 14.383 14.345 14.313 14.358 14.535 14.66 14.683 14.723 14.788 14.872 14.942 14.967 14.99 15.093 15.26 15.407 15.512 15.557 15.575 15.61 15.675 15.762 15.825 15.85 15.84 15.8 15.74 15.67 15.6 15.535 15.503 15.502 15.502 15.502 15.502 15.502 15.477 15.363 15.238 15.168 15.158 15.2 15.22 15.225 15.23 15.24 15.27 15.257 15.168 15.105 15.095 15.085 15.075 15.065 15.05 15.015 14.955 14.88 14.8 14.728 14.688 14.675 14.66 14.638 14.625 14.625 14.595 14.487 14.35 14.25 14.185 14.168 14.135 14.015 13.855 13.65 13.445 13.323 13.245 13.19 13.19 13.318 13.545 13.707 13.66 13.485 13.315 13.158 13.015 12.915 12.86 12.815 12.772 12.705 12.625 12.563 12.51 12.438 12.36 12.295 12.23 12.125 11.94 11.75 11.6 11.49 11.475 11.525 11.575 11.62 11.65 11.607 11.513 11.46 11.443 11.43 11.417 11.375 11.305 11.227 11.133 11.055 11.018 11 10.99 10.957 10.882 10.782 10.667 10.532 10.375 10.18 9.948 9.798 9.795 9.837 9.855 9.837 9.79 9.735 9.68 9.615 9.55 9.498 9.465 9.447 9.427 9.4 9.375 9.365 9.365 9.357 9.335 9.3 9.26 9.225 9.19 9.15 9.115 9.08 9.037 8.995 8.955 8.917 8.888 8.888 8.908 8.918 8.92 8.943 8.993 9.032 9.04 9.025 9.002 8.97 8.918 8.9 8.935 8.988 9.06 9.135 9.19 9.21 9.207 9.202 9.192 9.152 9.065 8.955 8.86 8.795 8.803 8.862 8.91 8.95 8.977 8.967 8.932
14.415 14.385 14.36 14.343 14.37 14.503 14.615 14.658 14.72 14.795 14.885 14.98 15.045 15.09 15.195 15.337 15.442 15.525 15.56 15.558 15.578 15.648 15.75 15.815 15.845 15.847 15.8 15.73 15.66 15.59 15.52 15.47 15.458 15.46 15.462 15.467 15.467 15.447 15.3 15.085 14.97 14.98 15.055 15.095 15.105 15.115 15.135 15.17 15.2 15.167 15.123 15.115 15.105 15.095 15.085 15.057 15.01 14.952 14.88 14.798 14.733 14.705 14.69 14.662 14.64 14.635 14.635 14.635 14.592 14.487 14.385 14.303 14.235 14.177 14.042 13.843 13.605 13.383 13.28 13.238 13.193 13.183 13.295 13.503 13.69 13.68 13.51 13.353 13.205 13.065 12.965 12.905 12.848 12.798 12.74 12.68 12.63 12.582 12.512 12.425 12.352 12.267 12.105 11.88 11.663 11.485 11.393 11.398 11.445 11.513 11.595 11.65 11.625 11.548 11.5 11.478 11.458 11.442 11.4 11.33 11.26 11.18 11.113 11.083 11.07 11.06 11.025 10.937 10.807 10.655 10.505 10.375 10.235 10.055 9.913 9.882 9.89 9.862 9.817 9.767 9.715 9.66 9.595 9.54 9.51 9.49 9.47 9.45 9.427 9.405 9.395 9.395 9.395 9.385 9.352 9.307 9.267 9.227 9.185 9.145 9.105 9.06 9.012 8.967 8.933 8.91 8.92 8.955 8.982 8.998 9.027 9.065 9.065 9.042 9.02 8.997 8.972 8.933 8.923 8.955 8.99 9.045 9.105 9.132 9.13 9.123 9.118 9.11 9.1 9.062 8.985 8.91 8.845 8.83 8.887 8.957 9.01 9.035 9.02 8.975
14.475 14.46 14.44 14.428 14.445 14.515 14.59 14.653 14.728 14.803 14.89 14.993 15.087 15.167 15.265 15.365 15.447 15.53 15.567 15.56 15.558 15.605 15.697 15.762 15.79 15.795 15.767 15.715 15.65 15.58 15.51 15.445 15.415 15.415 15.418 15.422 15.425 15.412 15.272 15.015 14.84 14.828 14.9 14.96 14.985 15.003 15.033 15.068 15.103 15.12 15.127 15.132 15.125 15.115 15.097 15.057 15.002 14.945 14.877 14.795 14.74 14.722 14.695 14.66 14.645 14.645 14.645 14.645 14.64 14.595 14.51 14.42 14.327 14.237 14.09 13.873 13.648 13.44 13.303 13.24 13.198 13.18 13.283 13.478 13.672 13.695 13.548 13.403 13.26 13.118 13.015 12.955 12.898 12.843 12.788 12.74 12.7 12.657 12.595 12.5 12.405 12.267 12.055 11.825 11.595 11.385 11.3 11.348 11.425 11.523 11.637 11.685 11.64 11.578 11.54 11.515 11.488 11.467 11.425 11.355 11.287 11.215 11.16 11.14 11.13 11.12 11.07 10.95 10.79 10.625 10.478 10.35 10.228 10.1 9.983 9.917 9.882 9.837 9.79 9.742 9.695 9.64 9.585 9.55 9.53 9.51 9.49 9.473 9.455 9.433 9.42 9.42 9.392 9.375 9.365 9.32 9.275 9.23 9.182 9.137 9.092 9.048 9.003 8.968 8.95 8.943 8.96 9 9.045 9.075 9.09 9.09 9.065 9.04 9.017 8.993 8.97 8.945 8.945 8.972 9 9.035 9.07 9.08 9.073 9.07 9.068 9.063 9.06 9.05 9.007 8.95 8.897 8.86 8.89 8.975 9.05 9.085 9.062 9.005
