ncols         200
nrows         76
xllcorner     546000
yllcorner     261235
cellsize      5
NODATA_value  -9999.0
12.51 12.507 12.475 12.425 12.365 12.287 12.185 12.075 11.965 11.868 11.82 11.81 11.813 11.825 11.838 11.855 11.872 11.885 11.887 11.892 11.912 11.937 11.955 11.962 11.967 11.975 11.982 11.98 11.98 11.977 11.957 11.93 11.9 11.855 11.765 11.622 11.485 11.415 11.392 11.38 11.37 11.365 11.388 11.44 11.495 11.545 11.605 11.667 11.717 11.75 11.765 11.78 11.802 11.807 11.775 11.725 11.67 11.61 11.57 11.542 11.505 11.465 11.43 11.39 11.335 11.275 11.22 11.175 11.14 11.11 11.1 11.118 11.142 11.16 11.162 11.15 11.133 11.115 11.098 11.09 11.108 11.142 11.162 11.165 11.165 11.168 11.18 11.2 11.22 11.237 11.237 11.222 11.207 11.135 10.945 10.732 10.39 9.648 9.293 9.805 10.305 10.422 10.413 10.453 10.562 10.682 10.762 10.795 10.807 10.815 10.74 10.615 10.525 10.445 10.39 10.345 10.3 10.247 10.177 10.105 10.035 9.762 9.313 9.116 9.453 9.98 10.185 10.233 10.333 10.435 10.427 10.187 9.935 9.858 9.848 9.838 9.825 9.81 9.783 9.76 9.75 9.745 9.753 9.77 9.79 9.802 9.765 9.673 9.57 9.465 9.413 9.427 9.445 9.457 9.457 9.407 9.328 9.258 9.208 9.238 9.343 9.475 9.595 9.722 9.787 9.72 9.652 9.617 9.575 9.525 9.475 9.425 9.375 9.323 9.29 9.285 9.28 9.275 9.283 9.3 9.302 9.287 9.27 9.25 9.217 9.152 9.07 9 9.008 9.083 9.158 9.235 9.315 9.385 9.44 9.492 9.552 9.602 9.313 9.065
12.475 12.495 12.467 12.415 12.355 12.282 12.185 12.078 11.98 11.905 11.855 11.818 11.795 11.783 11.775 11.783 11.798 11.815 11.825 11.835 11.857 11.885 11.9 11.897 11.892 11.887 11.88 11.865 11.895 11.955 11.962 11.935 11.908 11.885 11.822 11.697 11.55 11.44 11.398 11.385 11.375 11.368 11.388 11.44 11.495 11.545 11.6 11.67 11.75 11.81 11.822 11.81 11.807 11.787 11.725 11.66 11.607 11.552 11.502 11.46 11.42 11.382 11.36 11.33 11.277 11.22 11.183 11.172 11.15 11.113 11.085 11.085 11.11 11.135 11.147 11.14 11.125 11.11 11.09 11.083 11.1 11.135 11.155 11.155 11.155 11.155 11.165 11.185 11.207 11.232 11.237 11.22 11.175 11.042 10.837 10.43 9.648 9.271 9.765 10.26 10.34 10.295 10.313 10.405 10.51 10.61 10.692 10.745 10.777 10.785 10.72 10.615 10.525 10.445 10.39 10.345 10.3 10.252 10.192 10.125 10.055 9.982 9.795 9.383 9.031 9.27 9.82 10.082 10.177 10.267 10.197 10.013 9.905 9.87 9.865 9.86 9.85 9.83 9.79 9.758 9.745 9.745 9.762 9.785 9.805 9.825 9.805 9.728 9.628 9.52 9.435 9.413 9.427 9.442 9.44 9.39 9.31 9.233 9.163 9.16 9.258 9.398 9.545 9.73 9.82 9.735 9.655 9.63 9.595 9.545 9.495 9.445 9.395 9.34 9.283 9.245 9.225 9.21 9.2 9.225 9.25 9.235 9.215 9.195 9.157 9.09 9.008 8.925 8.91 8.98 9.07 9.16 9.25 9.343 9.42 9.467 9.5 9.515 9.255 9.02
12.427 12.44 12.42 12.372 12.32 12.27 12.195 12.1 12.025 11.97 11.925 11.885 11.85 11.81 11.76 11.725 11.725 11.745 11.752 11.745 11.753 11.78 11.79 11.775 11.755 11.74 11.728 11.73 11.803 11.917 11.962 11.94 11.918 11.905 11.837 11.71 11.58 11.455 11.388 11.375 11.365 11.36 11.385 11.438 11.492 11.545 11.6 11.66 11.72 11.767 11.767 11.743 11.735 11.71 11.63 11.535 11.465 11.408 11.355 11.308 11.263 11.23 11.235 11.242 11.21 11.155 11.14 11.17 11.18 11.165 11.128 11.09 11.088 11.105 11.122 11.13 11.125 11.11 11.093 11.085 11.095 11.125 11.145 11.145 11.142 11.135 11.14 11.16 11.188 11.222 11.232 11.195 11.077 10.892 10.525 9.718 9.241 9.693 10.197 10.277 10.218 10.19 10.238 10.333 10.43 10.53 10.615 10.672 10.717 10.735 10.695 10.615 10.525 10.445 10.39 10.345 10.3 10.255 10.202 10.14 10.07 9.998 9.925 9.832 9.46 9.058 9.18 9.615 9.957 10.065 9.993 9.915 9.9 9.898 9.895 9.89 9.877 9.85 9.805 9.76 9.733 9.733 9.765 9.805 9.83 9.85 9.847 9.807 9.732 9.63 9.513 9.425 9.41 9.425 9.42 9.37 9.29 9.21 9.135 9.103 9.175 9.315 9.482 9.65 9.727 9.672 9.605 9.612 9.607 9.565 9.515 9.465 9.407 9.335 9.27 9.23 9.2 9.173 9.15 9.168 9.192 9.18 9.16 9.142 9.102 9.028 8.95 8.89 8.875 8.938 9.043 9.145 9.243 9.34 9.412 9.445 9.463 9.472 9.203 8.883
12.357 12.355 12.337 12.303 12.283 12.272 12.225 12.153 12.093 12.04 11.995 11.957 11.92 11.867 11.795 11.725 11.683 11.678 11.677 11.655 11.638 11.65 11.657 11.635 11.61 11.59 11.575 11.618 11.73 11.86 11.942 11.95 11.935 11.92 11.845 11.715 11.582 11.443 11.363 11.353 11.345 11.348 11.383 11.435 11.49 11.545 11.6 11.637 11.652 11.665 11.663 11.66 11.665 11.64 11.56 11.45 11.35 11.27 11.21 11.16 11.11 11.083 11.095 11.12 11.125 11.095 11.088 11.125 11.162 11.192 11.182 11.135 11.098 11.085 11.09 11.105 11.115 11.107 11.098 11.095 11.098 11.115 11.132 11.132 11.125 11.113 11.115 11.14 11.175 11.215 11.215 11.125 10.96 10.657 9.845 9.211 9.605 10.135 10.215 10.17 10.14 10.128 10.17 10.26 10.352 10.45 10.535 10.592 10.635 10.66 10.642 10.59 10.52 10.445 10.39 10.345 10.3 10.257 10.21 10.152 10.085 10.015 9.945 9.872 9.8 9.525 9.143 9.038 9.373 9.785 9.912 9.925 9.925 9.925 9.925 9.92 9.902 9.867 9.82 9.773 9.733 9.72 9.753 9.802 9.842 9.872 9.872 9.845 9.802 9.732 9.625 9.5 9.42 9.408 9.402 9.35 9.27 9.19 9.12 9.098 9.153 9.25 9.375 9.485 9.557 9.572 9.545 9.565 9.595 9.58 9.535 9.477 9.402 9.317 9.255 9.22 9.19 9.16 9.145 9.155 9.163 9.148 9.12 9.093 9.055 9.003 8.955 8.93 8.93 8.97 9.055 9.155 9.248 9.34 9.41 9.44 9.462 9.495 9.205 8.798
12.285 12.28 12.268 12.263 12.287 12.305 12.275 12.22 12.165 12.11 12.065 12.03 11.985 11.92 11.845 11.77 11.7 11.648 11.615 11.58 11.545 11.533 11.523 11.5 11.483 11.468 11.46 11.525 11.655 11.785 11.895 11.952 11.96 11.932 11.845 11.707 11.56 11.413 11.335 11.33 11.325 11.335 11.38 11.438 11.493 11.547 11.587 11.59 11.575 11.575 11.582 11.59 11.595 11.572 11.495 11.382 11.267 11.158 11.08 11.033 10.995 10.99 11.008 11.023 11.038 11.038 11.048 11.085 11.128 11.172 11.182 11.147 11.105 11.083 11.085 11.095 11.103 11.105 11.105 11.105 11.105 11.113 11.12 11.115 11.105 11.09 11.093 11.128 11.17 11.21 11.18 11.037 10.805 10.067 9.286 9.55 10.12 10.197 10.14 10.113 10.09 10.073 10.093 10.168 10.26 10.352 10.44 10.505 10.547 10.567 10.552 10.52 10.477 10.43 10.39 10.347 10.302 10.26 10.215 10.165 10.105 10.032 9.96 9.888 9.815 9.745 9.567 9.228 8.928 9.138 9.662 9.87 9.877 9.9 9.92 9.937 9.925 9.877 9.825 9.777 9.727 9.708 9.74 9.79 9.84 9.885 9.892 9.862 9.827 9.782 9.71 9.607 9.493 9.418 9.385 9.33 9.25 9.17 9.128 9.15 9.2 9.25 9.305 9.363 9.418 9.46 9.478 9.503 9.547 9.575 9.545 9.462 9.367 9.277 9.22 9.192 9.167 9.147 9.15 9.162 9.165 9.15 9.115 9.08 9.058 9.043 9.025 9.017 9.025 9.04 9.083 9.165 9.257 9.347 9.412 9.445 9.452 9.445 9.197 8.805
12.248 12.24 12.218 12.205 12.23 12.267 12.3 12.29 12.235 12.18 12.135 12.095 12.04 11.97 11.895 11.82 11.753 11.68 11.618 11.573 11.533 11.503 11.475 11.455 11.445 11.44 11.43 11.46 11.565 11.695 11.812 11.895 11.94 11.927 11.827 11.677 11.52 11.38 11.315 11.31 11.31 11.333 11.385 11.442 11.497 11.54 11.547 11.527 11.505 11.495 11.5 11.51 11.517 11.497 11.417 11.3 11.18 11.063 10.98 10.935 10.928 10.965 10.992 10.998 11 10.998 11.015 11.055 11.1 11.147 11.16 11.125 11.093 11.093 11.102 11.108 11.11 11.115 11.118 11.115 11.115 11.118 11.118 11.108 11.095 11.083 11.098 11.143 11.187 11.207 11.117 10.895 10.24 9.416 9.53 10.13 10.272 10.175 10.105 10.085 10.063 10.043 10.043 10.075 10.13 10.205 10.295 10.372 10.43 10.46 10.445 10.41 10.385 10.372 10.357 10.332 10.3 10.26 10.215 10.17 10.117 10.047 9.975 9.905 9.835 9.765 9.692 9.607 9.255 8.906 9.05 9.437 9.707 9.782 9.805 9.86 9.877 9.83 9.775 9.722 9.688 9.703 9.745 9.788 9.835 9.882 9.89 9.855 9.812 9.767 9.74 9.685 9.575 9.468 9.39 9.325 9.255 9.188 9.168 9.205 9.25 9.29 9.325 9.36 9.39 9.405 9.408 9.425 9.467 9.515 9.495 9.397 9.295 9.198 9.14 9.12 9.107 9.107 9.115 9.125 9.145 9.155 9.13 9.105 9.1 9.09 9.075 9.075 9.085 9.095 9.11 9.17 9.265 9.355 9.387 9.375 9.347 9.292 9.175 8.87
12.232 12.215 12.178 12.135 12.115 12.14 12.225 12.307 12.305 12.252 12.207 12.16 12.092 12.02 11.95 11.883 11.817 11.74 11.673 11.63 11.593 11.563 11.533 11.503 11.485 11.48 11.458 11.43 11.478 11.595 11.705 11.782 11.837 11.845 11.77 11.632 11.475 11.348 11.295 11.295 11.305 11.338 11.392 11.447 11.492 11.502 11.485 11.46 11.435 11.418 11.415 11.425 11.43 11.385 11.295 11.195 11.08 10.965 10.885 10.86 10.89 10.952 10.992 11 10.997 10.983 10.988 11.028 11.075 11.122 11.135 11.108 11.095 11.11 11.12 11.125 11.132 11.14 11.137 11.125 11.123 11.125 11.122 11.112 11.1 11.093 11.12 11.175 11.222 11.177 10.97 10.385 9.533 9.508 10.112 10.335 10.282 10.165 10.09 10.07 10.043 10.025 10.03 10.035 10.043 10.075 10.13 10.195 10.268 10.322 10.322 10.298 10.29 10.287 10.28 10.27 10.255 10.232 10.205 10.17 10.122 10.062 9.995 9.922 9.85 9.777 9.703 9.635 9.617 9.4 9.03 8.878 9.148 9.547 9.67 9.718 9.757 9.727 9.673 9.635 9.653 9.715 9.767 9.803 9.84 9.875 9.867 9.825 9.78 9.733 9.725 9.712 9.63 9.525 9.435 9.363 9.3 9.25 9.228 9.248 9.29 9.33 9.365 9.387 9.392 9.377 9.353 9.345 9.373 9.417 9.395 9.302 9.205 9.105 9.045 9.033 9.035 9.045 9.055 9.073 9.115 9.155 9.15 9.135 9.12 9.08 9.05 9.05 9.06 9.07 9.088 9.158 9.262 9.355 9.355 9.27 9.208 9.16 9.145 9.047
12.212 12.185 12.143 12.098 12.053 12.03 12.085 12.21 12.305 12.312 12.275 12.22 12.15 12.083 12.02 11.96 11.887 11.798 11.73 11.695 11.665 11.64 11.61 11.568 11.533 11.517 11.49 11.44 11.423 11.495 11.597 11.657 11.69 11.695 11.66 11.57 11.43 11.315 11.28 11.29 11.308 11.343 11.397 11.445 11.46 11.442 11.418 11.393 11.368 11.345 11.338 11.345 11.325 11.23 11.13 11.06 10.97 10.865 10.8 10.815 10.87 10.935 10.985 10.997 10.987 10.968 10.968 11.003 11.05 11.097 11.11 11.1 11.11 11.127 11.137 11.145 11.155 11.165 11.162 11.145 11.133 11.132 11.127 11.118 11.113 11.11 11.138 11.197 11.207 11.042 10.52 9.681 9.508 10.075 10.357 10.36 10.292 10.153 10.07 10.047 10.015 10.005 10.02 10.025 10.025 10.028 10.043 10.088 10.155 10.21 10.22 10.208 10.205 10.202 10.195 10.185 10.175 10.163 10.152 10.137 10.11 10.07 10.01 9.935 9.858 9.782 9.708 9.663 9.682 9.692 9.53 9.133 8.801 8.96 9.395 9.607 9.637 9.625 9.585 9.595 9.66 9.737 9.792 9.822 9.842 9.855 9.835 9.79 9.745 9.698 9.688 9.705 9.667 9.582 9.505 9.432 9.365 9.32 9.295 9.298 9.33 9.362 9.377 9.372 9.355 9.333 9.31 9.288 9.288 9.32 9.295 9.202 9.108 9.015 8.965 8.965 8.975 8.985 9 9.038 9.102 9.16 9.167 9.137 9.087 9.023 8.983 8.983 8.995 9.005 9.038 9.13 9.252 9.357 9.352 9.238 9.133 9.065 9.06 9.11
12.19 12.155 12.113 12.068 12.023 11.98 11.995 12.095 12.225 12.317 12.33 12.282 12.22 12.16 12.1 12.032 11.947 11.855 11.795 11.77 11.745 11.72 11.69 11.645 11.598 11.565 11.528 11.47 11.415 11.423 11.478 11.51 11.53 11.538 11.513 11.457 11.368 11.29 11.275 11.29 11.31 11.348 11.395 11.415 11.402 11.377 11.352 11.327 11.302 11.278 11.263 11.257 11.197 11.065 10.96 10.9 10.835 10.76 10.74 10.79 10.85 10.915 10.975 10.992 10.975 10.958 10.955 10.983 11.028 11.072 11.097 11.107 11.122 11.137 11.152 11.165 11.177 11.19 11.187 11.172 11.155 11.143 11.135 11.13 11.127 11.125 11.15 11.185 11.082 10.657 9.83 9.491 10 10.357 10.38 10.38 10.3 10.143 10.05 10.02 9.985 9.985 10.01 10.015 10.012 10.005 10.013 10.055 10.115 10.157 10.16 10.143 10.13 10.123 10.115 10.108 10.103 10.095 10.088 10.08 10.072 10.057 10.012 9.94 9.863 9.787 9.71 9.688 9.74 9.767 9.735 9.655 9.275 8.841 8.838 9.182 9.485 9.535 9.54 9.6 9.677 9.747 9.792 9.81 9.812 9.81 9.79 9.747 9.703 9.66 9.65 9.675 9.677 9.632 9.567 9.497 9.435 9.395 9.37 9.358 9.36 9.362 9.35 9.33 9.31 9.29 9.27 9.245 9.225 9.23 9.192 9.103 9.023 8.953 8.92 8.923 8.928 8.933 8.95 9 9.072 9.137 9.147 9.095 9.025 8.958 8.918 8.918 8.93 8.94 8.988 9.098 9.23 9.352 9.355 9.235 9.105 8.995 8.96 8.985
12.233 12.15 12.09 12.048 12.005 11.965 11.97 12.055 12.175 12.282 12.332 12.325 12.29 12.235 12.172 12.095 12.008 11.925 11.873 11.85 11.825 11.8 11.77 11.735 11.71 11.69 11.645 11.578 11.518 11.465 11.425 11.423 11.448 11.46 11.433 11.375 11.31 11.273 11.278 11.295 11.315 11.347 11.37 11.357 11.335 11.31 11.285 11.26 11.235 11.21 11.187 11.155 11.075 10.963 10.875 10.815 10.755 10.705 10.71 10.765 10.825 10.887 10.952 10.982 10.97 10.953 10.945 10.97 11.015 11.05 11.072 11.082 11.09 11.105 11.125 11.147 11.175 11.205 11.21 11.192 11.175 11.155 11.145 11.145 11.14 11.125 11.117 11.072 10.785 9.95 9.441 9.902 10.34 10.4 10.4 10.395 10.302 10.15 10.055 10 9.955 9.965 9.997 9.997 9.987 9.97 9.98 10.03 10.085 10.12 10.12 10.1 10.08 10.053 10.043 10.05 10.05 10.05 10.048 10.04 10.033 10.025 9.997 9.94 9.867 9.79 9.72 9.723 9.792 9.835 9.82 9.772 9.705 9.417 8.943 8.651 8.878 9.317 9.5 9.57 9.635 9.692 9.737 9.757 9.757 9.755 9.74 9.702 9.66 9.62 9.61 9.635 9.66 9.642 9.582 9.518 9.498 9.497 9.472 9.435 9.388 9.353 9.328 9.303 9.278 9.253 9.23 9.208 9.193 9.175 9.115 9.038 8.973 8.92 8.9 8.903 8.913 8.913 8.9 8.923 8.985 9.05 9.075 9.035 8.965 8.895 8.853 8.85 8.863 8.875 8.938 9.065 9.203 9.337 9.332 9.192 9.06 8.925 8.82 8.795
12.332 12.212 12.105 12.038 11.995 11.953 11.958 12.045 12.155 12.237 12.282 12.302 12.305 12.29 12.245 12.17 12.09 12.015 11.965 11.938 11.91 11.885 11.875 11.875 11.883 11.885 11.84 11.768 11.702 11.618 11.513 11.445 11.445 11.46 11.43 11.365 11.298 11.265 11.275 11.297 11.32 11.33 11.32 11.295 11.27 11.245 11.22 11.198 11.173 11.147 11.11 11.062 11.005 10.93 10.863 10.807 10.75 10.708 10.71 10.745 10.795 10.855 10.917 10.955 10.957 10.947 10.938 10.96 11 11.025 11.032 11.028 11.028 11.035 11.05 11.08 11.12 11.175 11.207 11.2 11.185 11.163 11.15 11.15 11.132 11.072 11.012 10.87 10.173 9.466 9.775 10.32 10.422 10.425 10.425 10.405 10.307 10.185 10.1 10.023 9.95 9.95 9.98 9.97 9.955 9.935 9.95 10.002 10.052 10.082 10.08 10.06 10.03 9.978 9.968 10 10.012 10.015 10.015 10.01 10 9.99 9.97 9.93 9.867 9.79 9.743 9.77 9.845 9.902 9.9 9.86 9.812 9.742 9.542 9.043 8.633 8.753 9.195 9.48 9.535 9.59 9.647 9.685 9.697 9.7 9.69 9.657 9.618 9.583 9.573 9.595 9.625 9.622 9.57 9.53 9.573 9.615 9.585 9.517 9.433 9.37 9.335 9.305 9.275 9.253 9.253 9.255 9.23 9.172 9.093 9.015 8.943 8.898 8.895 8.91 8.93 8.92 8.875 8.848 8.873 8.93 8.982 8.972 8.905 8.835 8.795 8.793 8.8 8.818 8.903 9.045 9.185 9.325 9.295 9.115 8.967 8.822 8.673 8.588
12.345 12.26 12.167 12.072 11.993 11.938 11.945 12.027 12.115 12.18 12.225 12.247 12.265 12.29 12.282 12.24 12.187 12.117 12.063 12.03 12.002 11.985 12.005 12.045 12.075 12.085 12.04 11.962 11.887 11.792 11.67 11.55 11.478 11.463 11.432 11.368 11.305 11.268 11.27 11.292 11.315 11.315 11.285 11.245 11.215 11.193 11.168 11.145 11.122 11.085 11.015 10.965 10.942 10.897 10.845 10.795 10.742 10.71 10.718 10.743 10.778 10.828 10.885 10.92 10.93 10.932 10.928 10.945 10.972 10.99 10.995 10.985 10.98 10.978 10.978 11 11.05 11.122 11.172 11.185 11.185 11.167 11.155 11.137 11.072 10.96 10.85 10.367 9.633 9.753 10.307 10.445 10.447 10.45 10.45 10.415 10.327 10.232 10.145 10.052 9.953 9.933 9.955 9.938 9.92 9.903 9.92 9.97 10.02 10.047 10.04 10.01 9.952 9.888 9.885 9.93 9.962 9.977 9.98 9.977 9.97 9.96 9.937 9.902 9.857 9.793 9.77 9.812 9.857 9.887 9.9 9.9 9.89 9.85 9.777 9.672 9.282 8.766 8.648 8.978 9.347 9.49 9.547 9.597 9.627 9.637 9.637 9.612 9.575 9.545 9.535 9.555 9.582 9.595 9.573 9.585 9.67 9.72 9.677 9.587 9.492 9.41 9.358 9.325 9.315 9.325 9.337 9.332 9.277 9.19 9.1 9.015 8.94 8.908 8.92 8.945 8.955 8.925 8.875 8.825 8.798 8.818 8.875 8.897 8.85 8.78 8.74 8.733 8.73 8.753 8.86 9.022 9.172 9.315 9.275 9.055 8.873 8.718 8.555 8.415
12.268 12.21 12.16 12.085 12 11.935 11.93 11.993 12.06 12.12 12.165 12.195 12.223 12.255 12.262 12.242 12.22 12.182 12.142 12.1 12.055 12.03 12.06 12.127 12.19 12.225 12.195 12.122 12.05 11.955 11.83 11.702 11.583 11.498 11.438 11.373 11.31 11.268 11.265 11.285 11.305 11.317 11.292 11.238 11.193 11.155 11.12 11.095 11.06 10.985 10.895 10.853 10.845 10.832 10.802 10.757 10.712 10.7 10.722 10.75 10.78 10.813 10.857 10.887 10.895 10.902 10.902 10.915 10.935 10.95 10.955 10.945 10.94 10.935 10.925 10.938 10.998 11.077 11.125 11.147 11.165 11.167 11.142 11.07 10.955 10.827 10.452 9.758 9.74 10.287 10.47 10.47 10.47 10.47 10.472 10.435 10.347 10.25 10.147 10.04 9.933 9.908 9.925 9.905 9.883 9.868 9.89 9.94 9.99 10.012 9.992 9.935 9.85 9.793 9.803 9.847 9.89 9.922 9.937 9.94 9.937 9.93 9.905 9.87 9.835 9.787 9.767 9.782 9.785 9.78 9.8 9.84 9.87 9.88 9.87 9.815 9.725 9.43 8.888 8.571 8.78 9.217 9.445 9.5 9.547 9.57 9.577 9.565 9.535 9.505 9.498 9.52 9.545 9.568 9.585 9.632 9.715 9.757 9.715 9.625 9.537 9.452 9.387 9.352 9.347 9.355 9.342 9.307 9.252 9.187 9.115 9.038 8.97 8.945 8.96 8.977 8.965 8.92 8.87 8.82 8.77 8.74 8.763 8.807 8.792 8.725 8.683 8.67 8.663 8.688 8.803 8.975 9.14 9.297 9.265 9.025 8.803 8.628 8.463 8.3
12.185 12.12 12.07 12.015 11.96 11.903 11.905 11.97 12.028 12.085 12.125 12.153 12.188 12.222 12.212 12.178 12.162 12.15 12.137 12.1 12.037 11.993 12.02 12.1 12.177 12.222 12.2 12.135 12.087 12.037 11.935 11.81 11.685 11.56 11.468 11.4 11.333 11.278 11.263 11.28 11.303 11.322 11.31 11.26 11.205 11.15 11.1 11.047 10.965 10.858 10.778 10.755 10.75 10.745 10.725 10.685 10.648 10.655 10.705 10.747 10.78 10.807 10.838 10.858 10.865 10.875 10.865 10.845 10.845 10.885 10.915 10.907 10.905 10.9 10.893 10.9 10.955 11.027 11.062 11.08 11.1 11.12 11.085 10.973 10.84 10.56 9.878 9.701 10.24 10.49 10.493 10.505 10.523 10.535 10.495 10.415 10.335 10.235 10.125 10.015 9.915 9.888 9.895 9.875 9.853 9.84 9.863 9.91 9.957 9.967 9.92 9.835 9.74 9.698 9.72 9.763 9.807 9.85 9.882 9.9 9.905 9.9 9.875 9.837 9.797 9.742 9.702 9.687 9.672 9.65 9.65 9.685 9.725 9.765 9.8 9.77 9.682 9.612 9.487 9.097 8.688 8.681 9.04 9.36 9.455 9.49 9.505 9.502 9.48 9.45 9.468 9.512 9.538 9.56 9.58 9.615 9.67 9.712 9.685 9.605 9.525 9.442 9.372 9.335 9.315 9.295 9.27 9.232 9.188 9.165 9.137 9.075 9.01 8.983 8.997 9 8.965 8.915 8.865 8.815 8.765 8.715 8.688 8.708 8.715 8.668 8.63 8.62 8.62 8.663 8.775 8.935 9.105 9.27 9.247 9.017 8.773 8.575 8.41 8.253
12.108 12.033 11.98 11.925 11.87 11.823 11.87 11.975 12.038 12.085 12.11 12.125 12.155 12.185 12.157 12.103 12.078 12.065 12.057 12.04 11.99 11.94 11.965 12.045 12.105 12.125 12.095 12.043 12.025 12.017 11.967 11.87 11.745 11.62 11.523 11.45 11.38 11.318 11.285 11.288 11.308 11.327 11.317 11.277 11.227 11.172 11.115 11.012 10.865 10.733 10.665 10.66 10.662 10.657 10.635 10.598 10.565 10.583 10.652 10.717 10.765 10.8 10.827 10.84 10.845 10.847 10.817 10.765 10.728 10.748 10.812 10.862 10.88 10.875 10.87 10.873 10.918 10.97 10.985 10.995 11.008 11.027 11.002 10.9 10.783 10.533 10.108 10.205 10.54 10.56 10.58 10.61 10.625 10.562 10.437 10.343 10.282 10.205 10.105 9.995 9.908 9.875 9.865 9.848 9.833 9.828 9.843 9.875 9.917 9.902 9.82 9.725 9.63 9.603 9.64 9.68 9.725 9.77 9.81 9.847 9.867 9.865 9.842 9.802 9.74 9.655 9.605 9.587 9.555 9.505 9.473 9.49 9.53 9.572 9.597 9.558 9.5 9.49 9.54 9.637 9.365 8.803 8.546 8.798 9.225 9.402 9.43 9.427 9.407 9.38 9.42 9.507 9.555 9.57 9.57 9.578 9.605 9.65 9.637 9.56 9.475 9.383 9.308 9.268 9.245 9.225 9.197 9.16 9.14 9.16 9.162 9.115 9.053 9.02 9.025 9.007 8.96 8.91 8.86 8.81 8.76 8.71 8.66 8.63 8.635 8.615 8.58 8.583 8.605 8.67 8.783 8.92 9.08 9.23 9.2 8.992 8.758 8.55 8.388 8.26
12.033 11.948 11.89 11.835 11.783 11.74 11.815 11.972 12.06 12.092 12.102 12.11 12.128 12.145 12.115 12.045 11.998 11.98 11.972 11.965 11.935 11.89 11.91 11.98 12.012 12.017 11.99 11.958 11.962 11.962 11.945 11.9 11.802 11.68 11.578 11.5 11.433 11.373 11.33 11.313 11.315 11.33 11.322 11.29 11.247 11.195 11.115 10.967 10.785 10.623 10.548 10.555 10.57 10.57 10.545 10.513 10.488 10.51 10.585 10.66 10.727 10.782 10.82 10.827 10.825 10.81 10.76 10.705 10.655 10.625 10.665 10.743 10.805 10.842 10.85 10.85 10.875 10.903 10.91 10.923 10.94 10.96 10.957 10.925 10.878 10.825 10.747 10.692 10.693 10.708 10.737 10.732 10.637 10.462 10.328 10.267 10.21 10.15 10.072 9.973 9.895 9.858 9.838 9.828 9.823 9.825 9.835 9.848 9.875 9.855 9.74 9.615 9.528 9.515 9.56 9.6 9.643 9.687 9.73 9.772 9.81 9.825 9.805 9.747 9.657 9.558 9.5 9.467 9.415 9.355 9.303 9.295 9.333 9.38 9.398 9.38 9.385 9.423 9.473 9.642 9.745 9.477 8.915 8.556 8.69 9.095 9.352 9.355 9.335 9.313 9.348 9.477 9.57 9.575 9.57 9.57 9.573 9.595 9.585 9.51 9.417 9.32 9.248 9.208 9.178 9.155 9.13 9.118 9.14 9.18 9.185 9.147 9.093 9.06 9.045 9.005 8.955 8.905 8.855 8.805 8.755 8.705 8.655 8.605 8.578 8.555 8.543 8.57 8.608 8.68 8.798 8.923 9.063 9.185 9.132 8.937 8.73 8.533 8.393 8.305
12.035 11.865 11.8 11.748 11.7 11.66 11.735 11.932 12.057 12.085 12.092 12.1 12.11 12.11 12.072 12.003 11.94 11.903 11.888 11.883 11.87 11.838 11.85 11.895 11.908 11.913 11.898 11.885 11.9 11.905 11.89 11.872 11.83 11.737 11.635 11.555 11.49 11.43 11.385 11.358 11.34 11.34 11.327 11.295 11.26 11.205 11.085 10.913 10.743 10.58 10.483 10.463 10.47 10.478 10.46 10.433 10.413 10.443 10.517 10.59 10.665 10.738 10.797 10.817 10.805 10.778 10.73 10.685 10.648 10.613 10.618 10.67 10.745 10.815 10.845 10.853 10.868 10.888 10.903 10.92 10.943 10.947 10.933 10.967 11.032 11.057 11.032 10.98 10.93 10.89 10.857 10.74 10.513 10.328 10.245 10.19 10.133 10.078 10.018 9.94 9.87 9.835 9.823 9.82 9.82 9.825 9.835 9.84 9.85 9.855 9.732 9.535 9.433 9.433 9.478 9.52 9.56 9.605 9.65 9.695 9.748 9.78 9.745 9.652 9.55 9.453 9.388 9.34 9.28 9.22 9.16 9.133 9.163 9.215 9.248 9.278 9.32 9.365 9.41 9.528 9.692 9.727 9.567 9.14 8.673 8.576 8.885 9.202 9.272 9.255 9.265 9.395 9.532 9.555 9.55 9.55 9.547 9.547 9.527 9.452 9.353 9.255 9.188 9.153 9.118 9.095 9.095 9.12 9.157 9.195 9.202 9.17 9.125 9.09 9.055 9.005 8.955 8.902 8.85 8.8 8.75 8.7 8.65 8.6 8.55 8.503 8.5 8.54 8.595 8.688 8.81 8.937 9.065 9.15 9.072 8.878 8.683 8.528 8.435 8.365
12.172 11.835 11.71 11.663 11.62 11.58 11.623 11.795 11.952 12.005 12.015 12.025 12.045 12.065 12.05 11.995 11.928 11.875 11.843 11.823 11.803 11.775 11.778 11.803 11.82 11.835 11.83 11.825 11.837 11.842 11.83 11.815 11.8 11.76 11.687 11.612 11.547 11.485 11.44 11.41 11.382 11.362 11.332 11.295 11.262 11.215 11.117 10.97 10.815 10.665 10.555 10.498 10.465 10.435 10.393 10.355 10.338 10.375 10.45 10.523 10.605 10.703 10.79 10.82 10.803 10.778 10.748 10.715 10.682 10.648 10.655 10.71 10.77 10.83 10.87 10.888 10.91 10.935 10.958 10.98 10.987 10.94 10.875 10.92 11.047 11.145 11.152 11.087 11.017 10.965 10.897 10.715 10.44 10.288 10.25 10.19 10.123 10.058 9.993 9.923 9.855 9.82 9.815 9.815 9.818 9.825 9.835 9.84 9.845 9.86 9.767 9.54 9.385 9.38 9.433 9.485 9.535 9.588 9.638 9.69 9.737 9.725 9.637 9.525 9.418 9.33 9.275 9.23 9.18 9.125 9.065 9.025 9.045 9.093 9.138 9.195 9.245 9.29 9.34 9.43 9.563 9.69 9.712 9.59 9.265 8.76 8.473 8.683 9.077 9.23 9.215 9.275 9.42 9.497 9.492 9.49 9.49 9.485 9.462 9.397 9.3 9.2 9.135 9.103 9.07 9.058 9.07 9.1 9.137 9.172 9.18 9.15 9.112 9.08 9.042 8.995 8.945 8.89 8.835 8.785 8.735 8.685 8.635 8.585 8.537 8.475 8.438 8.46 8.555 8.69 8.815 8.945 9.05 9.085 9.002 8.83 8.638 8.52 8.48 8.425
12.332 11.913 11.648 11.58 11.54 11.5 11.508 11.615 11.777 11.865 11.878 11.905 11.955 12.012 12.032 12.002 11.945 11.888 11.845 11.81 11.778 11.755 11.75 11.765 11.795 11.813 11.8 11.778 11.775 11.78 11.772 11.758 11.743 11.727 11.685 11.615 11.555 11.515 11.48 11.442 11.41 11.38 11.338 11.293 11.255 11.222 11.182 11.102 10.975 10.825 10.715 10.65 10.585 10.503 10.4 10.305 10.265 10.305 10.4 10.515 10.625 10.727 10.805 10.827 10.815 10.795 10.775 10.752 10.72 10.685 10.698 10.755 10.815 10.875 10.912 10.933 10.962 10.99 11.012 11.03 10.995 10.89 10.808 10.853 10.975 11.077 11.085 11.02 10.973 10.948 10.905 10.735 10.453 10.315 10.315 10.277 10.213 10.138 10.06 9.978 9.88 9.818 9.81 9.81 9.815 9.825 9.835 9.843 9.85 9.857 9.802 9.615 9.413 9.373 9.447 9.52 9.58 9.64 9.697 9.737 9.72 9.625 9.498 9.38 9.278 9.205 9.16 9.12 9.08 9.035 8.985 8.943 8.948 8.983 9.028 9.092 9.15 9.2 9.263 9.36 9.475 9.58 9.657 9.662 9.56 9.345 8.903 8.533 8.608 8.982 9.21 9.208 9.29 9.402 9.425 9.41 9.41 9.407 9.385 9.332 9.252 9.158 9.093 9.06 9.045 9.05 9.05 9.053 9.08 9.115 9.12 9.092 9.06 9.035 9.01 8.972 8.922 8.868 8.815 8.765 8.715 8.665 8.615 8.568 8.522 8.455 8.378 8.363 8.505 8.69 8.807 8.905 8.965 8.97 8.892 8.755 8.595 8.505 8.497 8.472
12.315 11.967 11.668 11.533 11.458 11.415 11.41 11.485 11.623 11.725 11.773 11.83 11.898 11.962 11.99 11.977 11.947 11.9 11.855 11.828 11.813 11.803 11.798 11.8 11.817 11.817 11.787 11.753 11.728 11.723 11.717 11.703 11.69 11.675 11.628 11.57 11.543 11.535 11.512 11.468 11.428 11.392 11.348 11.295 11.248 11.215 11.192 11.16 11.097 10.982 10.875 10.805 10.727 10.627 10.495 10.355 10.285 10.33 10.453 10.585 10.687 10.767 10.817 10.827 10.82 10.805 10.79 10.777 10.755 10.725 10.74 10.8 10.86 10.92 10.957 10.98 11.015 11.047 11.07 11.047 10.95 10.82 10.74 10.783 10.895 10.995 11.017 10.983 10.965 10.95 10.915 10.74 10.455 10.328 10.34 10.342 10.32 10.26 10.18 10.077 9.943 9.838 9.808 9.81 9.815 9.828 9.84 9.85 9.862 9.86 9.81 9.682 9.475 9.38 9.45 9.537 9.622 9.697 9.742 9.72 9.617 9.485 9.355 9.235 9.148 9.09 9.045 9.005 8.965 8.93 8.903 8.873 8.855 8.873 8.923 8.985 9.045 9.103 9.175 9.27 9.365 9.46 9.54 9.59 9.582 9.5 9.365 9.04 8.638 8.523 8.805 9.117 9.205 9.288 9.355 9.343 9.33 9.33 9.305 9.255 9.192 9.11 9.05 9.033 9.04 9.055 9.052 9.038 9.035 9.055 9.062 9.037 9.005 8.983 8.965 8.94 8.897 8.845 8.795 8.745 8.695 8.648 8.6 8.555 8.507 8.432 8.335 8.283 8.455 8.675 8.752 8.8 8.835 8.837 8.757 8.633 8.52 8.478 8.492 8.495
12.107 11.888 11.732 11.575 11.443 11.348 11.313 11.375 11.505 11.635 11.725 11.783 11.843 11.91 11.942 11.935 11.92 11.897 11.873 11.86 11.86 11.852 11.842 11.835 11.83 11.812 11.775 11.74 11.705 11.68 11.665 11.65 11.64 11.625 11.593 11.57 11.57 11.57 11.55 11.505 11.458 11.415 11.368 11.313 11.258 11.218 11.195 11.17 11.145 11.095 11.02 10.945 10.86 10.75 10.643 10.563 10.505 10.503 10.57 10.657 10.728 10.792 10.827 10.828 10.823 10.815 10.803 10.79 10.777 10.76 10.78 10.84 10.9 10.96 11.002 11.03 11.065 11.1 11.095 11.01 10.885 10.765 10.683 10.715 10.825 10.927 10.967 10.957 10.95 10.94 10.922 10.727 10.44 10.34 10.353 10.367 10.375 10.357 10.287 10.163 10.02 9.888 9.818 9.815 9.825 9.838 9.852 9.865 9.872 9.855 9.79 9.695 9.538 9.423 9.443 9.518 9.62 9.717 9.72 9.615 9.482 9.35 9.218 9.103 9.028 8.975 8.935 8.91 8.89 8.873 8.863 8.837 8.788 8.773 8.815 8.875 8.935 8.995 9.068 9.155 9.248 9.342 9.42 9.48 9.522 9.497 9.412 9.307 9.095 8.708 8.438 8.635 9.02 9.195 9.272 9.3 9.265 9.253 9.225 9.175 9.122 9.058 9.02 9.028 9.043 9.057 9.057 9.042 9.025 9.02 9.013 8.98 8.948 8.928 8.913 8.895 8.867 8.825 8.775 8.725 8.678 8.635 8.59 8.547 8.495 8.41 8.313 8.235 8.4 8.61 8.64 8.67 8.705 8.705 8.625 8.518 8.44 8.418 8.442 8.472
11.888 11.79 11.745 11.625 11.48 11.338 11.243 11.28 11.43 11.59 11.707 11.768 11.818 11.875 11.907 11.905 11.895 11.89 11.885 11.88 11.877 11.862 11.845 11.835 11.822 11.8 11.765 11.728 11.695 11.67 11.65 11.635 11.623 11.61 11.608 11.61 11.61 11.61 11.59 11.545 11.492 11.435 11.397 11.37 11.32 11.273 11.243 11.218 11.195 11.162 11.105 11.035 10.962 10.885 10.825 10.785 10.735 10.677 10.67 10.723 10.785 10.835 10.85 10.843 10.838 10.833 10.822 10.808 10.8 10.805 10.838 10.895 10.953 11.002 11.042 11.075 11.11 11.13 11.092 10.998 10.885 10.775 10.68 10.678 10.773 10.877 10.917 10.907 10.902 10.897 10.872 10.675 10.423 10.35 10.365 10.395 10.44 10.467 10.415 10.29 10.15 10.01 9.89 9.838 9.843 9.855 9.868 9.88 9.872 9.837 9.767 9.675 9.57 9.475 9.46 9.51 9.595 9.682 9.635 9.483 9.345 9.215 9.098 9.008 8.94 8.898 8.878 8.87 8.87 8.865 8.855 8.817 8.748 8.705 8.715 8.76 8.82 8.88 8.95 9.038 9.132 9.22 9.29 9.352 9.415 9.435 9.38 9.285 9.185 9.077 8.755 8.456 8.555 8.92 9.187 9.235 9.222 9.188 9.15 9.103 9.058 9.013 9 9.025 9.047 9.065 9.065 9.047 9.03 9.012 8.988 8.948 8.915 8.9 8.885 8.86 8.833 8.8 8.758 8.715 8.678 8.64 8.592 8.542 8.482 8.397 8.303 8.228 8.395 8.582 8.575 8.575 8.583 8.573 8.513 8.44 8.38 8.34 8.353 8.397
11.738 11.73 11.717 11.627 11.49 11.353 11.25 11.278 11.4 11.54 11.687 11.78 11.827 11.87 11.895 11.895 11.89 11.89 11.885 11.877 11.865 11.84 11.823 11.815 11.805 11.785 11.752 11.718 11.693 11.68 11.667 11.652 11.635 11.618 11.622 11.642 11.65 11.65 11.632 11.587 11.52 11.435 11.405 11.422 11.407 11.365 11.328 11.305 11.272 11.215 11.148 11.083 11.023 10.985 10.96 10.92 10.865 10.805 10.778 10.803 10.857 10.897 10.895 10.878 10.865 10.855 10.845 10.84 10.85 10.875 10.918 10.972 11.017 11.047 11.075 11.107 11.132 11.117 11.075 11.02 10.937 10.835 10.73 10.683 10.735 10.827 10.86 10.843 10.835 10.832 10.77 10.57 10.418 10.428 10.475 10.54 10.6 10.617 10.57 10.462 10.33 10.187 10.038 9.913 9.865 9.873 9.885 9.887 9.865 9.817 9.745 9.655 9.565 9.485 9.485 9.53 9.583 9.623 9.535 9.368 9.218 9.1 9.015 8.948 8.895 8.875 8.873 8.87 8.867 8.862 8.842 8.792 8.73 8.683 8.663 8.67 8.708 8.765 8.835 8.922 9.01 9.085 9.15 9.215 9.255 9.247 9.195 9.107 9.023 9.038 9.15 8.972 8.585 8.466 8.758 9.102 9.175 9.143 9.098 9.058 9.023 8.988 8.975 8.997 9.027 9.055 9.065 9.05 9.03 9.01 8.982 8.938 8.9 8.892 8.89 8.867 8.835 8.805 8.77 8.735 8.7 8.652 8.592 8.53 8.465 8.39 8.3 8.245 8.4 8.592 8.607 8.575 8.55 8.515 8.448 8.378 8.32 8.265 8.26 8.3
11.65 11.67 11.682 11.622 11.495 11.375 11.325 11.375 11.46 11.558 11.68 11.782 11.84 11.875 11.892 11.892 11.89 11.89 11.885 11.87 11.845 11.815 11.798 11.79 11.78 11.765 11.74 11.715 11.7 11.692 11.685 11.67 11.647 11.62 11.62 11.65 11.672 11.685 11.672 11.615 11.525 11.425 11.39 11.422 11.445 11.44 11.417 11.382 11.325 11.255 11.19 11.127 11.068 11.03 11.022 11.015 10.985 10.935 10.898 10.895 10.932 10.96 10.945 10.925 10.902 10.88 10.878 10.897 10.927 10.96 10.997 11.037 11.065 11.085 11.105 11.13 11.12 11.067 11.025 10.992 10.947 10.882 10.792 10.718 10.715 10.775 10.805 10.785 10.77 10.765 10.68 10.55 10.545 10.625 10.702 10.76 10.777 10.77 10.717 10.62 10.505 10.365 10.212 10.058 9.935 9.893 9.897 9.885 9.85 9.8 9.725 9.638 9.555 9.483 9.505 9.61 9.76 9.713 9.493 9.32 9.143 9.03 8.96 8.903 8.875 8.87 8.87 8.87 8.865 8.86 8.83 8.775 8.725 8.678 8.65 8.635 8.635 8.663 8.72 8.8 8.875 8.945 9.005 9.032 9.008 8.953 8.923 8.915 9.005 9.225 9.443 9.427 9.145 8.68 8.378 8.603 8.987 9.112 9.073 9.038 9.005 8.973 8.948 8.955 8.988 9.028 9.05 9.045 9.03 9.01 8.977 8.923 8.878 8.87 8.88 8.88 8.867 8.842 8.805 8.76 8.705 8.642 8.575 8.508 8.442 8.375 8.295 8.265 8.4 8.605 8.672 8.637 8.605 8.557 8.465 8.36 8.273 8.2 8.178 8.203
11.603 11.618 11.632 11.605 11.517 11.428 11.418 11.482 11.557 11.632 11.71 11.785 11.835 11.865 11.882 11.887 11.89 11.887 11.875 11.85 11.82 11.793 11.775 11.765 11.755 11.742 11.725 11.71 11.702 11.697 11.69 11.677 11.657 11.63 11.618 11.637 11.667 11.69 11.682 11.617 11.52 11.42 11.38 11.405 11.435 11.46 11.462 11.42 11.35 11.28 11.215 11.162 11.112 11.075 11.068 11.07 11.065 11.045 11.02 11.005 11.015 11.015 10.985 10.957 10.927 10.893 10.895 10.932 10.97 11.005 11.037 11.067 11.09 11.11 11.132 11.13 11.07 11.005 10.97 10.94 10.907 10.872 10.82 10.755 10.725 10.742 10.752 10.735 10.715 10.708 10.685 10.7 10.78 10.852 10.895 10.897 10.882 10.865 10.817 10.745 10.662 10.542 10.39 10.235 10.08 9.96 9.908 9.873 9.83 9.78 9.71 9.633 9.563 9.498 9.525 9.863 10.187 10.002 9.592 9.29 9.093 8.983 8.915 8.878 8.87 8.87 8.87 8.867 8.862 8.855 8.822 8.772 8.725 8.672 8.64 8.628 8.615 8.61 8.64 8.705 8.775 8.843 8.88 8.86 8.808 8.778 8.87 9 9.263 9.722 10.037 10.087 9.885 9.432 8.788 8.403 8.505 8.857 9.067 9.03 8.995 8.963 8.93 8.928 8.965 9.017 9.033 9.02 9.017 9.005 8.967 8.905 8.855 8.845 8.855 8.862 8.867 8.845 8.795 8.737 8.675 8.615 8.552 8.485 8.42 8.355 8.283 8.283 8.44 8.655 8.732 8.695 8.657 8.61 8.52 8.4 8.283 8.18 8.113 8.103
11.588 11.6 11.61 11.592 11.525 11.443 11.45 11.527 11.595 11.665 11.732 11.785 11.82 11.847 11.865 11.875 11.88 11.872 11.85 11.82 11.79 11.765 11.75 11.742 11.73 11.707 11.69 11.68 11.672 11.665 11.657 11.652 11.64 11.617 11.595 11.592 11.61 11.627 11.622 11.577 11.507 11.42 11.37 11.385 11.407 11.422 11.427 11.402 11.347 11.28 11.215 11.17 11.137 11.115 11.11 11.11 11.11 11.107 11.082 11.052 11.042 11.027 10.995 10.957 10.92 10.883 10.885 10.925 10.962 10.992 11.025 11.062 11.092 11.115 11.13 11.092 11.008 10.94 10.9 10.87 10.837 10.805 10.775 10.735 10.702 10.702 10.715 10.712 10.695 10.69 10.735 10.815 10.882 10.92 10.905 10.867 10.84 10.812 10.772 10.72 10.672 10.602 10.475 10.317 10.165 10.035 9.955 9.905 9.86 9.815 9.75 9.685 9.633 9.575 9.785 10.26 10.422 10.04 9.54 9.22 9.032 8.935 8.88 8.865 8.865 8.865 8.865 8.863 8.86 8.775 8.72 8.717 8.668 8.64 8.628 8.625 8.62 8.61 8.62 8.673 8.737 8.787 8.8 8.77 8.743 8.755 8.873 9.13 9.455 9.965 10.37 10.527 10.49 9.955 9.382 8.937 8.515 8.393 8.71 9.012 9.01 8.975 8.94 8.935 8.975 9.035 9.037 8.993 8.98 8.977 8.94 8.877 8.828 8.815 8.822 8.825 8.817 8.772 8.705 8.647 8.592 8.535 8.475 8.412 8.35 8.287 8.238 8.283 8.463 8.682 8.765 8.725 8.682 8.625 8.53 8.412 8.297 8.19 8.11 8.078
11.587 11.605 11.615 11.582 11.5 11.41 11.41 11.507 11.595 11.662 11.725 11.772 11.805 11.832 11.847 11.852 11.855 11.845 11.822 11.795 11.765 11.74 11.725 11.712 11.687 11.658 11.64 11.63 11.62 11.61 11.603 11.602 11.595 11.575 11.55 11.523 11.515 11.525 11.52 11.487 11.442 11.382 11.343 11.347 11.357 11.365 11.365 11.352 11.322 11.265 11.203 11.163 11.148 11.145 11.145 11.145 11.142 11.135 11.09 11.028 11 10.99 10.972 10.942 10.905 10.87 10.875 10.912 10.942 10.965 10.995 11.037 11.077 11.105 11.095 11.032 10.95 10.87 10.81 10.775 10.745 10.712 10.68 10.647 10.625 10.643 10.68 10.7 10.697 10.695 10.742 10.807 10.835 10.835 10.802 10.743 10.695 10.667 10.627 10.58 10.558 10.545 10.455 10.308 10.188 10.1 10.04 9.99 9.963 9.945 9.88 9.793 9.725 9.673 10.057 10.462 10.222 9.665 9.117 8.612 8.223 8.487 8.862 8.86 8.86 8.86 8.86 8.859 8.532 8.055 7.963 8.307 8.595 8.603 8.61 8.615 8.62 8.617 8.622 8.66 8.707 8.74 8.745 8.72 8.718 8.75 8.803 9 9.377 9.845 10.193 10.413 10.595 10.27 9.665 9.36 9.077 8.585 8.301 8.538 8.897 9.005 8.97 8.963 9.003 9.065 9.062 8.995 8.948 8.93 8.895 8.838 8.79 8.77 8.77 8.765 8.73 8.655 8.58 8.522 8.465 8.405 8.345 8.285 8.235 8.203 8.195 8.283 8.473 8.687 8.775 8.732 8.677 8.605 8.507 8.39 8.29 8.223 8.18 8.15
11.577 11.602 11.61 11.565 11.473 11.38 11.358 11.45 11.572 11.657 11.715 11.755 11.777 11.795 11.812 11.82 11.82 11.812 11.792 11.767 11.74 11.717 11.7 11.672 11.635 11.605 11.59 11.578 11.565 11.558 11.55 11.55 11.547 11.527 11.5 11.465 11.435 11.428 11.42 11.385 11.348 11.318 11.298 11.295 11.298 11.302 11.3 11.29 11.275 11.24 11.195 11.17 11.17 11.177 11.177 11.172 11.165 11.155 11.105 11.018 10.958 10.935 10.927 10.915 10.89 10.86 10.863 10.892 10.915 10.933 10.963 11.01 11.055 11.082 11.052 10.975 10.895 10.813 10.74 10.69 10.653 10.613 10.575 10.548 10.55 10.587 10.625 10.657 10.68 10.695 10.725 10.745 10.74 10.73 10.715 10.655 10.57 10.52 10.485 10.46 10.46 10.465 10.427 10.345 10.262 10.19 10.13 10.098 10.105 10.112 10.05 9.938 9.835 9.893 10.225 10.412 9.915 8.943 8.148 7.655 7.356 7.668 8.462 8.86 8.463 8.11 8.11 8.065 7.738 7.341 7.288 7.765 8.402 8.585 8.59 8.595 8.602 8.587 8.585 8.62 8.655 8.685 8.692 8.688 8.71 8.75 8.8 8.87 9.198 9.797 10.21 10.407 10.605 10.305 9.683 9.455 9.387 9.172 8.655 8.296 8.425 8.782 9 8.988 9.028 9.092 9.085 9.015 8.947 8.895 8.85 8.8 8.752 8.72 8.71 8.685 8.62 8.535 8.458 8.395 8.335 8.275 8.218 8.18 8.168 8.173 8.195 8.303 8.493 8.697 8.782 8.727 8.655 8.575 8.485 8.398 8.34 8.305 8.272 8.24
11.56 11.595 11.6 11.542 11.448 11.355 11.308 11.375 11.518 11.635 11.69 11.71 11.72 11.725 11.745 11.767 11.777 11.775 11.757 11.735 11.712 11.69 11.665 11.633 11.598 11.57 11.555 11.54 11.523 11.51 11.5 11.5 11.502 11.485 11.452 11.415 11.377 11.35 11.33 11.305 11.285 11.273 11.26 11.253 11.248 11.243 11.235 11.225 11.215 11.205 11.193 11.185 11.187 11.197 11.202 11.195 11.185 11.175 11.122 11.025 10.935 10.885 10.873 10.867 10.857 10.84 10.843 10.865 10.882 10.898 10.93 10.977 11.017 11.037 11.005 10.93 10.85 10.77 10.695 10.635 10.588 10.543 10.5 10.475 10.49 10.53 10.565 10.592 10.617 10.64 10.647 10.642 10.635 10.625 10.617 10.575 10.483 10.393 10.338 10.315 10.302 10.287 10.295 10.315 10.317 10.28 10.235 10.237 10.265 10.277 10.222 10.117 10.01 10.147 10.367 10.172 9.577 8.33 7.363 7.27 7.27 7.271 8.065 8.859 8.065 7.316 7.316 7.668 8.005 7.608 7.27 7.423 7.748 8.235 8.532 8.502 8.472 8.455 8.488 8.54 8.58 8.618 8.645 8.673 8.707 8.745 8.782 8.823 8.985 9.697 10.304 10.347 10.347 9.965 9.508 9.433 9.452 9.397 9.205 8.807 8.415 8.321 8.68 9.012 9.05 9.112 9.095 9.012 8.927 8.845 8.777 8.732 8.7 8.67 8.64 8.583 8.5 8.415 8.333 8.265 8.208 8.163 8.138 8.138 8.153 8.17 8.21 8.333 8.52 8.715 8.775 8.695 8.612 8.527 8.447 8.395 8.367 8.34 8.307 8.275
11.55 11.587 11.592 11.542 11.463 11.375 11.303 11.345 11.487 11.595 11.63 11.632 11.635 11.64 11.66 11.692 11.72 11.73 11.715 11.685 11.668 11.662 11.648 11.62 11.593 11.568 11.548 11.533 11.513 11.488 11.47 11.465 11.457 11.43 11.387 11.345 11.305 11.29 11.283 11.26 11.245 11.235 11.225 11.215 11.205 11.195 11.185 11.175 11.165 11.173 11.187 11.19 11.193 11.202 11.212 11.212 11.207 11.195 11.137 11.04 10.94 10.858 10.82 10.813 10.818 10.83 10.835 10.838 10.848 10.865 10.897 10.937 10.96 10.962 10.942 10.887 10.81 10.73 10.658 10.598 10.545 10.498 10.453 10.435 10.445 10.455 10.472 10.49 10.507 10.525 10.527 10.522 10.517 10.515 10.512 10.487 10.407 10.282 10.165 10.093 10.053 10.033 10.053 10.118 10.207 10.265 10.297 10.33 10.347 10.357 10.325 10.255 10.193 10.257 10.342 9.985 9.4 8.218 7.271 7.27 7.27 7.27 7.668 8.065 7.668 7.27 7.518 8.312 8.799 8.065 7.33 7.27 7.27 7.583 7.877 8.057 8.252 8.3 8.382 8.438 8.495 8.588 8.65 8.668 8.695 8.73 8.752 8.758 8.78 9.193 9.642 9.725 9.72 9.535 9.385 9.4 9.415 9.43 9.35 9.155 8.902 8.475 8.231 8.645 9.047 9.077 9.045 8.957 8.86 8.765 8.68 8.618 8.59 8.572 8.56 8.512 8.415 8.31 8.213 8.145 8.113 8.108 8.12 8.135 8.15 8.17 8.228 8.368 8.552 8.727 8.747 8.63 8.528 8.438 8.365 8.32 8.292 8.265 8.248 8.248
11.552 11.582 11.582 11.55 11.502 11.43 11.345 11.365 11.48 11.542 11.55 11.55 11.55 11.553 11.573 11.607 11.637 11.655 11.64 11.61 11.613 11.64 11.647 11.627 11.605 11.58 11.555 11.537 11.512 11.48 11.46 11.44 11.397 11.342 11.29 11.245 11.233 11.265 11.272 11.238 11.21 11.195 11.185 11.175 11.165 11.155 11.145 11.135 11.135 11.16 11.182 11.188 11.195 11.208 11.22 11.227 11.23 11.215 11.152 11.055 10.955 10.858 10.798 10.79 10.815 10.85 10.855 10.838 10.83 10.835 10.855 10.877 10.88 10.87 10.86 10.832 10.77 10.69 10.62 10.56 10.503 10.453 10.415 10.4 10.377 10.345 10.343 10.358 10.382 10.405 10.405 10.395 10.385 10.385 10.39 10.377 10.3 10.16 10.005 9.873 9.793 9.78 9.828 9.908 10.013 10.125 10.23 10.31 10.345 10.352 10.335 10.295 10.265 10.275 10.287 10 9.507 8.638 7.626 7.27 7.27 7.27 7.27 7.27 7.27 7.27 7.517 8.047 8.594 8.522 7.728 7.27 7.27 7.27 7.27 7.483 7.922 8.207 8.288 8.363 8.483 8.652 8.73 8.683 8.675 8.707 8.725 8.72 8.725 8.805 8.995 9.208 9.325 9.345 9.345 9.36 9.375 9.39 9.327 9.18 9.03 8.855 8.438 8.563 8.992 8.975 8.945 8.872 8.778 8.685 8.595 8.513 8.455 8.428 8.45 8.472 8.412 8.298 8.183 8.103 8.083 8.1 8.118 8.133 8.15 8.17 8.243 8.4 8.577 8.727 8.722 8.58 8.448 8.333 8.25 8.21 8.203 8.208 8.225 8.26
11.55 11.572 11.565 11.535 11.505 11.457 11.39 11.395 11.452 11.467 11.465 11.465 11.465 11.468 11.488 11.517 11.54 11.555 11.548 11.545 11.578 11.622 11.64 11.625 11.607 11.587 11.562 11.535 11.5 11.467 11.437 11.385 11.31 11.238 11.183 11.17 11.223 11.275 11.265 11.225 11.19 11.163 11.145 11.135 11.125 11.115 11.105 11.103 11.123 11.16 11.18 11.188 11.2 11.212 11.225 11.237 11.247 11.232 11.165 11.07 10.983 10.898 10.838 10.828 10.85 10.882 10.89 10.868 10.845 10.823 10.805 10.795 10.788 10.78 10.77 10.757 10.72 10.652 10.585 10.525 10.465 10.41 10.37 10.33 10.267 10.215 10.208 10.228 10.257 10.282 10.285 10.275 10.26 10.25 10.25 10.232 10.16 10.03 9.875 9.725 9.618 9.618 10.3 10.705 10.226 10.026 10.113 10.205 10.283 10.33 10.325 10.288 10.25 10.238 10.297 10.147 9.713 9.265 8.43 7.541 7.27 7.27 7.27 7.27 7.27 7.27 7.27 7.403 7.8 8.462 8.347 7.553 7.27 7.27 7.27 7.27 7.593 8.05 8.24 8.383 8.563 8.765 8.832 8.743 8.683 8.683 8.695 8.713 8.758 8.835 9.01 9.187 9.267 9.297 9.305 9.32 9.335 9.35 9.282 9.13 9.018 8.94 8.925 8.98 8.963 8.89 8.748 8.687 8.697 8.608 8.52 8.433 8.35 8.293 8.305 8.37 8.4 8.347 8.248 8.16 8.115 8.11 8.12 8.133 8.15 8.168 8.255 8.42 8.582 8.72 8.707 8.563 8.418 8.28 8.19 8.173 8.2 8.238 8.275 8.285
11.54 11.555 11.54 11.51 11.48 11.447 11.407 11.392 11.395 11.385 11.38 11.38 11.38 11.383 11.398 11.42 11.44 11.455 11.473 11.508 11.555 11.602 11.625 11.615 11.6 11.587 11.562 11.525 11.483 11.44 11.383 11.303 11.22 11.143 11.115 11.165 11.25 11.285 11.255 11.215 11.178 11.15 11.133 11.115 11.098 11.08 11.07 11.085 11.12 11.157 11.18 11.192 11.205 11.215 11.225 11.237 11.25 11.247 11.197 11.115 11.04 10.968 10.918 10.905 10.91 10.925 10.925 10.897 10.867 10.82 10.768 10.735 10.713 10.695 10.68 10.67 10.652 10.61 10.55 10.493 10.438 10.385 10.323 10.238 10.148 10.085 10.078 10.105 10.135 10.16 10.165 10.155 10.14 10.125 10.118 10.088 10.018 9.91 9.773 9.638 9.548 9.571 11.135 12.376 11.672 10.99 10.491 10.226 10.255 10.333 10.35 10.318 10.28 10.29 10.442 10.475 10.135 9.79 9.345 8.408 7.546 7.27 7.27 7.27 7.27 7.27 7.27 7.27 7.27 7.668 8.342 8.269 7.595 7.27 7.27 7.27 7.395 7.84 8.27 8.475 8.67 8.872 8.925 8.827 8.738 8.69 8.705 8.763 8.837 8.91 9.027 9.137 9.195 9.243 9.265 9.28 9.295 9.31 9.28 9.2 9.16 9.157 9.175 9.13 9 8.88 8.565 8.288 8.472 8.627 8.53 8.428 8.325 8.23 8.213 8.273 8.338 8.362 8.317 8.247 8.185 8.145 8.138 8.145 8.155 8.173 8.268 8.425 8.577 8.71 8.697 8.56 8.423 8.293 8.213 8.215 8.255 8.292 8.305 8.252
11.512 11.527 11.515 11.485 11.455 11.425 11.395 11.368 11.345 11.33 11.328 11.333 11.335 11.323 11.32 11.34 11.36 11.37 11.408 11.472 11.525 11.57 11.602 11.607 11.595 11.585 11.56 11.52 11.47 11.42 11.37 11.3 11.22 11.14 11.14 11.218 11.28 11.285 11.245 11.205 11.173 11.16 11.15 11.125 11.1 11.075 11.065 11.09 11.13 11.155 11.165 11.175 11.185 11.195 11.205 11.215 11.227 11.24 11.232 11.185 11.115 11.043 10.998 10.99 10.987 10.975 10.95 10.917 10.877 10.807 10.743 10.708 10.673 10.64 10.618 10.603 10.59 10.575 10.538 10.485 10.438 10.392 10.318 10.21 10.103 10.02 9.995 10.005 10.02 10.04 10.045 10.038 10.033 10.03 10.03 10.01 9.95 9.845 9.715 9.588 9.513 10.273 12.115 13.182 13.017 12.577 11.89 11.235 10.773 10.493 10.43 10.41 10.368 10.435 10.61 10.69 10.57 10.352 10.082 9.515 8.503 7.581 7.27 7.27 7.27 7.27 7.27 7.27 7.27 7.27 7.663 8.119 7.727 7.27 7.27 7.27 7.285 7.735 8.3 8.545 8.752 8.935 8.972 8.867 8.765 8.713 8.75 8.827 8.902 8.975 9.043 9.105 9.165 9.22 9.243 9.248 9.26 9.275 9.285 9.28 9.275 9.275 9.247 9.152 9.02 8.905 8.7 8.428 8.158 8.355 8.65 8.535 8.42 8.305 8.27 8.325 8.382 8.38 8.312 8.25 8.197 8.16 8.155 8.162 8.168 8.185 8.275 8.425 8.577 8.71 8.707 8.585 8.455 8.328 8.255 8.268 8.31 8.327 8.285 8.19
11.47 11.487 11.485 11.46 11.43 11.403 11.377 11.352 11.328 11.318 11.33 11.343 11.345 11.298 11.263 11.282 11.295 11.295 11.333 11.412 11.477 11.527 11.57 11.597 11.6 11.59 11.562 11.517 11.455 11.405 11.39 11.362 11.3 11.22 11.22 11.282 11.297 11.27 11.23 11.195 11.178 11.177 11.167 11.143 11.12 11.095 11.085 11.11 11.14 11.145 11.135 11.135 11.145 11.155 11.165 11.178 11.193 11.208 11.225 11.222 11.182 11.118 11.078 11.067 11.045 11.01 10.968 10.93 10.875 10.788 10.718 10.68 10.648 10.615 10.588 10.565 10.555 10.567 10.555 10.508 10.465 10.42 10.342 10.235 10.123 10.023 9.978 9.97 9.965 9.965 9.96 9.958 9.965 9.973 9.98 9.98 9.942 9.832 9.68 9.543 9.481 11.158 13.014 13.2 13.21 13.202 13.029 12.652 12.065 11.418 10.933 10.615 10.498 10.555 10.647 10.682 10.695 10.62 10.397 10.097 9.529 8.463 7.561 7.293 7.27 7.27 7.27 7.27 7.27 7.27 7.27 7.403 7.403 7.27 7.27 7.27 7.28 7.795 8.442 8.655 8.775 8.912 8.955 8.855 8.75 8.728 8.793 8.87 8.947 9.015 9.065 9.115 9.175 9.23 9.245 9.23 9.23 9.245 9.255 9.25 9.245 9.242 9.222 9.14 9.02 8.938 8.9 8.87 8.448 8.141 8.385 8.58 8.57 8.455 8.418 8.47 8.477 8.375 8.24 8.165 8.135 8.133 8.152 8.172 8.182 8.193 8.278 8.43 8.58 8.715 8.725 8.615 8.49 8.36 8.295 8.32 8.347 8.315 8.23 8.125
11.427 11.442 11.45 11.435 11.408 11.383 11.36 11.338 11.325 11.335 11.36 11.377 11.357 11.265 11.208 11.22 11.22 11.215 11.248 11.33 11.412 11.48 11.53 11.567 11.592 11.595 11.565 11.505 11.428 11.373 11.368 11.375 11.355 11.298 11.29 11.315 11.292 11.255 11.218 11.195 11.19 11.192 11.182 11.16 11.14 11.115 11.108 11.125 11.132 11.125 11.113 11.103 11.105 11.115 11.125 11.14 11.157 11.173 11.19 11.207 11.207 11.18 11.15 11.12 11.075 11.03 10.985 10.935 10.86 10.765 10.695 10.655 10.622 10.59 10.56 10.538 10.543 10.572 10.572 10.535 10.492 10.445 10.365 10.252 10.138 10.033 9.985 9.98 9.965 9.945 9.928 9.92 9.923 9.928 9.933 9.935 9.92 9.827 9.66 9.503 10.273 12.15 13.194 13.205 13.215 13.227 13.22 13.192 13.012 12.66 12.132 11.505 11.04 10.725 10.603 10.625 10.647 10.602 10.44 10.202 9.925 9.362 8.478 7.868 7.523 7.295 7.27 7.27 7.27 7.27 7.27 7.27 7.27 7.27 7.27 7.27 7.528 8.18 8.692 8.792 8.768 8.848 8.91 8.832 8.75 8.76 8.837 8.915 8.995 9.055 9.09 9.133 9.19 9.245 9.257 9.233 9.215 9.218 9.225 9.22 9.212 9.205 9.19 9.127 9.043 8.99 8.96 8.947 8.912 8.575 8.293 8.29 8.465 8.605 8.565 8.572 8.482 8.323 8.168 8.085 8.083 8.105 8.135 8.165 8.187 8.2 8.283 8.432 8.577 8.717 8.735 8.63 8.515 8.39 8.335 8.345 8.317 8.247 8.157 8.057
11.385 11.4 11.417 11.415 11.393 11.368 11.343 11.33 11.343 11.365 11.39 11.405 11.347 11.223 11.153 11.148 11.143 11.135 11.163 11.24 11.33 11.415 11.48 11.522 11.56 11.585 11.557 11.48 11.393 11.338 11.333 11.347 11.357 11.347 11.335 11.315 11.278 11.243 11.218 11.21 11.21 11.21 11.2 11.18 11.157 11.133 11.122 11.122 11.115 11.105 11.095 11.08 11.07 11.075 11.088 11.105 11.122 11.138 11.155 11.172 11.187 11.19 11.162 11.115 11.065 11.02 10.975 10.92 10.842 10.75 10.678 10.633 10.598 10.565 10.535 10.513 10.52 10.547 10.547 10.52 10.485 10.452 10.382 10.267 10.155 10.048 9.993 9.982 9.96 9.935 9.915 9.9 9.89 9.885 9.888 9.89 9.887 9.817 9.655 9.476 11.179 13.08 13.199 13.21 13.22 13.232 13.245 13.245 13.21 13.165 12.987 12.665 12.2 11.565 11.063 10.74 10.603 10.568 10.428 10.243 10.035 9.792 9.385 8.872 8.23 7.556 7.281 7.27 7.27 7.27 7.27 7.27 7.27 7.27 7.27 7.355 8.005 8.705 8.872 8.865 8.79 8.808 8.86 8.808 8.76 8.803 8.88 8.96 9.037 9.09 9.12 9.155 9.205 9.26 9.27 9.245 9.22 9.203 9.195 9.185 9.178 9.17 9.158 9.13 9.09 9.05 9.02 9.007 8.995 8.947 8.732 8.428 8.118 8.315 8.677 8.592 8.448 8.293 8.14 8.06 8.07 8.1 8.13 8.16 8.188 8.208 8.285 8.427 8.575 8.722 8.742 8.635 8.527 8.415 8.342 8.3 8.232 8.155 8.07 7.975
11.353 11.368 11.382 11.392 11.382 11.36 11.335 11.335 11.362 11.387 11.412 11.422 11.367 11.25 11.17 11.148 11.13 11.103 11.09 11.14 11.23 11.32 11.407 11.472 11.515 11.552 11.53 11.447 11.36 11.303 11.298 11.318 11.34 11.36 11.35 11.31 11.27 11.235 11.22 11.222 11.227 11.23 11.217 11.192 11.167 11.142 11.123 11.113 11.105 11.092 11.077 11.06 11.045 11.045 11.058 11.073 11.088 11.105 11.122 11.137 11.15 11.15 11.117 11.063 11.012 10.967 10.925 10.887 10.827 10.74 10.665 10.615 10.578 10.545 10.515 10.485 10.475 10.49 10.485 10.458 10.443 10.445 10.392 10.28 10.17 10.06 9.998 9.98 9.955 9.92 9.892 9.88 9.865 9.85 9.848 9.853 9.855 9.81 9.67 9.488 10.34 11.292 12.237 13.179 13.202 13.227 13.247 13.26 13.27 13.25 13.175 13.117 12.957 12.66 12.222 11.59 11.073 10.72 10.478 10.355 10.21 10.005 9.787 9.522 9.112 8.592 8.14 7.73 7.385 7.27 7.27 7.27 7.27 7.27 7.39 7.853 8.55 8.955 8.985 8.92 8.84 8.795 8.813 8.793 8.778 8.848 8.925 9.005 9.075 9.117 9.145 9.175 9.22 9.272 9.282 9.257 9.23 9.205 9.183 9.163 9.155 9.15 9.14 9.137 9.132 9.11 9.082 9.065 9.06 9.042 8.982 8.89 8.408 8.078 8.363 8.552 8.49 8.35 8.21 8.113 8.1 8.128 8.155 8.185 8.21 8.22 8.283 8.418 8.565 8.712 8.725 8.61 8.502 8.397 8.3 8.213 8.135 8.062 7.98 7.9
11.327 11.34 11.35 11.365 11.372 11.36 11.335 11.34 11.372 11.4 11.422 11.425 11.4 11.327 11.257 11.22 11.167 11.095 11.035 11.045 11.12 11.21 11.31 11.402 11.465 11.505 11.48 11.4 11.323 11.278 11.283 11.31 11.34 11.365 11.355 11.313 11.27 11.233 11.218 11.225 11.232 11.235 11.222 11.195 11.167 11.14 11.118 11.108 11.097 11.08 11.06 11.04 11.028 11.03 11.038 11.045 11.058 11.073 11.087 11.1 11.105 11.1 11.065 11.005 10.95 10.903 10.865 10.842 10.807 10.732 10.655 10.605 10.563 10.525 10.492 10.455 10.43 10.43 10.423 10.41 10.42 10.44 10.397 10.29 10.18 10.07 10.003 9.977 9.94 9.885 9.853 9.845 9.832 9.82 9.815 9.82 9.827 9.812 9.7 9.543 9.451 9.416 10.328 11.28 12.227 13.146 13.167 13.192 13.217 13.24 13.242 13.185 13.07 13.017 12.935 12.682 12.082 11.235 10.723 10.577 10.44 10.235 10.035 9.84 9.65 9.485 9.247 8.797 8.06 7.441 7.27 7.27 7.271 7.645 8.172 8.57 8.882 9.015 9.07 9.005 8.905 8.818 8.798 8.795 8.813 8.895 8.975 9.052 9.11 9.142 9.17 9.2 9.24 9.285 9.295 9.27 9.24 9.212 9.185 9.158 9.145 9.14 9.133 9.133 9.14 9.14 9.13 9.122 9.12 9.115 9.085 9.012 8.917 8.543 8.27 8.25 8.357 8.47 8.33 8.203 8.153 8.173 8.2 8.227 8.24 8.233 8.285 8.41 8.548 8.685 8.687 8.568 8.453 8.345 8.245 8.145 8.053 7.97 7.888 7.843
11.3 11.307 11.318 11.332 11.347 11.352 11.335 11.34 11.375 11.407 11.425 11.415 11.4 11.37 11.312 11.242 11.155 11.058 10.985 10.975 11.023 11.1 11.2 11.305 11.397 11.45 11.422 11.355 11.3 11.273 11.288 11.32 11.35 11.375 11.362 11.318 11.275 11.233 11.213 11.217 11.217 11.212 11.202 11.185 11.162 11.135 11.115 11.102 11.082 11.06 11.038 11.018 11.013 11.02 11.028 11.033 11.038 11.045 11.053 11.055 11.055 11.05 11.015 10.955 10.893 10.838 10.805 10.787 10.767 10.717 10.648 10.595 10.552 10.51 10.47 10.43 10.395 10.378 10.378 10.393 10.415 10.437 10.402 10.3 10.192 10.085 10.008 9.96 9.902 9.838 9.805 9.802 9.795 9.788 9.785 9.79 9.8 9.802 9.727 9.618 9.55 9.49 9.433 9.421 10.326 11.255 11.995 12.884 13.082 13.107 13.145 13.13 13.042 12.965 12.99 13.092 12.575 12.012 11.368 10.726 10.658 10.482 10.285 10.085 9.88 9.638 9.527 9.507 9.012 8.3 7.9 7.888 8.113 8.617 9.04 9.035 9.028 9.088 9.155 9.122 9.008 8.9 8.83 8.813 8.858 8.942 9.025 9.095 9.14 9.17 9.2 9.23 9.263 9.3 9.307 9.28 9.25 9.22 9.19 9.16 9.14 9.13 9.125 9.127 9.13 9.11 8.822 8.63 8.777 8.922 9.025 9.047 9.007 8.93 8.715 8.405 8.051 8.178 8.45 8.31 8.225 8.223 8.247 8.26 8.25 8.238 8.295 8.415 8.54 8.657 8.65 8.53 8.41 8.298 8.195 8.095 8 7.913 7.83 7.808
11.265 11.273 11.283 11.298 11.315 11.332 11.33 11.338 11.373 11.41 11.425 11.413 11.397 11.375 11.312 11.215 11.115 11.015 10.935 10.92 10.953 11.003 11.09 11.195 11.3 11.385 11.39 11.343 11.3 11.273 11.285 11.322 11.357 11.382 11.367 11.325 11.282 11.233 11.203 11.198 11.193 11.185 11.173 11.16 11.147 11.127 11.107 11.087 11.062 11.037 11.013 11 11.003 11.01 11.02 11.025 11.025 11.028 11.028 11.023 11.018 11.01 10.972 10.91 10.848 10.785 10.748 10.73 10.712 10.687 10.637 10.585 10.542 10.497 10.453 10.41 10.37 10.353 10.368 10.39 10.41 10.435 10.405 10.305 10.195 10.082 9.993 9.925 9.858 9.793 9.76 9.76 9.758 9.755 9.755 9.76 9.773 9.788 9.762 9.705 9.65 9.59 9.528 9.47 9.421 9.426 10.153 11.072 11.335 12.19 13.006 12.99 12.948 12.95 13.032 13.002 12.555 12.57 12.35 11.802 11.28 10.671 10.53 10.33 10.117 9.798 9.595 9.61 9.405 9.065 8.775 8.822 9.192 9.367 9.365 9.325 9.285 9.265 9.28 9.277 9.247 9.225 9.135 8.963 8.908 8.988 9.072 9.135 9.17 9.2 9.23 9.26 9.29 9.32 9.32 9.29 9.26 9.23 9.2 9.17 9.142 9.112 9.077 9.042 9.005 8.945 8.43 8.103 8.398 8.668 8.84 8.922 8.965 8.967 8.937 8.88 8.395 8.066 8.235 8.322 8.315 8.275 8.28 8.27 8.253 8.243 8.3 8.42 8.54 8.637 8.617 8.505 8.393 8.28 8.183 8.095 8.01 7.92 7.83 7.803
11.23 11.24 11.25 11.265 11.285 11.305 11.315 11.335 11.375 11.415 11.43 11.417 11.395 11.36 11.29 11.19 11.088 10.985 10.915 10.908 10.94 10.978 11.015 11.085 11.19 11.292 11.352 11.345 11.303 11.27 11.28 11.32 11.36 11.387 11.372 11.325 11.275 11.223 11.19 11.18 11.175 11.17 11.158 11.143 11.13 11.107 11.077 11.052 11.027 11 10.978 10.985 11 11.005 11.013 11.015 11.015 11.015 11.015 11.01 11 10.987 10.95 10.89 10.83 10.755 10.7 10.68 10.663 10.645 10.615 10.572 10.525 10.48 10.435 10.39 10.358 10.355 10.375 10.395 10.417 10.425 10.38 10.282 10.167 10.053 9.96 9.89 9.82 9.758 9.735 9.74 9.738 9.738 9.748 9.765 9.785 9.81 9.802 9.76 9.722 9.682 9.625 9.563 9.508 9.455 9.425 9.451 9.544 10.455 11.34 12.15 12.922 12.915 12.92 12.803 12.645 12.715 12.765 12.742 12.23 11.757 11.23 10.556 10.355 10.035 9.77 9.655 9.478 9.293 9.178 9.28 9.517 9.567 9.522 9.49 9.46 9.43 9.402 9.405 9.455 9.532 9.527 9.34 9.098 9.035 9.115 9.17 9.2 9.23 9.26 9.29 9.322 9.34 9.315 9.275 9.245 9.212 9.18 9.15 9.122 9.067 8.945 8.825 8.75 8.675 8.288 8.088 8.37 8.567 8.66 8.72 8.803 8.91 8.995 8.99 8.915 8.597 8.328 8.08 8.088 8.335 8.31 8.29 8.275 8.265 8.303 8.405 8.522 8.615 8.615 8.527 8.423 8.315 8.223 8.145 8.057 7.94 7.838 7.81
11.203 11.205 11.218 11.235 11.253 11.273 11.298 11.335 11.382 11.425 11.437 11.415 11.38 11.337 11.267 11.168 11.073 11.005 10.97 10.96 10.983 11.02 11 10.995 11.08 11.18 11.262 11.312 11.305 11.273 11.28 11.32 11.357 11.38 11.362 11.312 11.258 11.208 11.18 11.17 11.165 11.16 11.15 11.135 11.112 11.072 11.033 11.007 10.98 10.953 10.94 10.963 10.995 11.007 11.01 11.008 11.005 11.005 11.002 10.997 10.987 10.97 10.94 10.89 10.825 10.733 10.66 10.635 10.618 10.6 10.58 10.55 10.505 10.46 10.417 10.375 10.355 10.365 10.385 10.405 10.417 10.39 10.322 10.232 10.123 10.018 9.935 9.865 9.8 9.748 9.75 9.775 9.773 9.775 9.79 9.813 9.835 9.86 9.842 9.78 9.743 9.725 9.695 9.652 9.6 9.543 9.493 9.445 9.428 9.468 9.584 10.529 12.145 12.865 12.798 12.733 12.705 12.677 12.553 12.475 12.502 12.594 12.187 11.725 11.138 10.443 10.27 10.07 9.868 9.678 9.508 9.52 9.647 9.67 9.618 9.565 9.53 9.5 9.48 9.485 9.515 9.575 9.63 9.62 9.432 9.198 9.155 9.2 9.23 9.263 9.298 9.33 9.36 9.365 9.308 9.235 9.195 9.162 9.128 9.1 9.092 9.032 8.815 8.588 8.48 8.407 8.148 8.073 8.295 8.4 8.473 8.568 8.695 8.845 8.995 9.082 9.05 8.962 8.82 8.37 7.966 8.135 8.35 8.333 8.32 8.313 8.33 8.39 8.485 8.577 8.602 8.557 8.475 8.372 8.28 8.192 8.077 7.933 7.838 7.825
11.195 11.175 11.183 11.203 11.228 11.255 11.29 11.335 11.385 11.43 11.435 11.4 11.357 11.312 11.245 11.165 11.11 11.085 11.07 11.05 11.048 11.07 11.03 10.953 10.978 11.067 11.145 11.22 11.27 11.267 11.275 11.31 11.337 11.355 11.337 11.29 11.238 11.193 11.17 11.163 11.158 11.15 11.14 11.122 11.085 11.03 10.988 10.96 10.933 10.908 10.905 10.938 10.982 11.007 11.01 11.005 10.998 10.995 10.99 10.982 10.97 10.95 10.93 10.89 10.812 10.708 10.625 10.59 10.575 10.56 10.54 10.517 10.485 10.442 10.4 10.368 10.363 10.378 10.395 10.41 10.39 10.33 10.257 10.177 10.078 9.983 9.915 9.855 9.8 9.755 9.775 9.83 9.847 9.855 9.865 9.877 9.892 9.912 9.887 9.81 9.75 9.725 9.712 9.695 9.667 9.627 9.58 9.53 9.478 9.42 9.436 10.423 12.117 12.849 12.802 12.747 12.69 12.622 12.428 12.248 12.22 12.243 12.372 12.577 12.185 11.752 11.225 10.578 10.393 10.137 9.905 9.76 9.745 9.777 9.74 9.66 9.605 9.57 9.558 9.57 9.587 9.6 9.598 9.627 9.645 9.447 9.26 9.253 9.273 9.31 9.347 9.377 9.397 9.397 9.33 9.22 9.145 9.105 9.078 9.068 9.085 9.035 8.772 8.435 8.235 8.137 8.008 8.01 8.142 8.233 8.353 8.495 8.65 8.81 8.968 9.112 9.142 9.065 8.98 8.835 8.358 8.215 8.427 8.393 8.373 8.368 8.383 8.413 8.465 8.535 8.56 8.537 8.495 8.42 8.33 8.217 8.072 7.92 7.843 7.843
11.21 11.163 11.155 11.183 11.217 11.252 11.287 11.33 11.38 11.422 11.415 11.37 11.327 11.285 11.245 11.213 11.192 11.18 11.165 11.147 11.135 11.13 11.077 10.97 10.915 10.953 11.028 11.103 11.177 11.232 11.262 11.285 11.303 11.32 11.308 11.27 11.243 11.22 11.198 11.178 11.158 11.143 11.13 11.097 11.045 10.985 10.943 10.915 10.888 10.865 10.873 10.915 10.962 11 11.012 11.005 10.995 10.985 10.975 10.965 10.95 10.93 10.912 10.875 10.79 10.68 10.593 10.55 10.535 10.523 10.503 10.48 10.455 10.42 10.38 10.363 10.375 10.392 10.405 10.392 10.335 10.26 10.19 10.115 10.032 9.96 9.905 9.855 9.805 9.763 9.788 9.865 9.91 9.922 9.93 9.937 9.945 9.955 9.922 9.847 9.775 9.728 9.708 9.695 9.682 9.667 9.642 9.6 9.542 9.478 9.448 10.375 11.329 11.992 12.686 12.705 12.64 12.59 12.455 12.268 12.14 12.075 12.143 12.303 12.457 12.614 12.195 11.76 11.205 10.518 10.325 10.093 9.935 9.9 9.868 9.78 9.7 9.648 9.625 9.62 9.62 9.608 9.578 9.593 9.667 9.637 9.522 9.455 9.42 9.398 9.398 9.417 9.427 9.427 9.365 9.243 9.133 9.063 9.045 9.063 9.09 9.047 8.767 8.368 8.06 7.855 7.803 7.885 8.008 8.15 8.31 8.47 8.633 8.798 8.963 9.117 9.16 9.1 9.027 8.88 8.717 8.627 8.562 8.5 8.445 8.425 8.44 8.46 8.482 8.51 8.515 8.493 8.47 8.43 8.345 8.212 8.058 7.915 7.855 7.86
11.195 11.148 11.143 11.172 11.205 11.24 11.277 11.318 11.365 11.407 11.392 11.335 11.29 11.25 11.24 11.252 11.25 11.237 11.222 11.21 11.2 11.187 11.127 11.022 10.915 10.873 10.925 11.003 11.078 11.18 11.25 11.263 11.278 11.31 11.323 11.308 11.305 11.3 11.278 11.243 11.208 11.175 11.135 11.083 11.025 10.968 10.925 10.893 10.858 10.835 10.853 10.898 10.943 10.987 11.005 10.995 10.982 10.965 10.94 10.917 10.9 10.88 10.86 10.83 10.755 10.645 10.563 10.528 10.513 10.5 10.478 10.448 10.42 10.39 10.365 10.363 10.377 10.395 10.38 10.312 10.23 10.152 10.077 10 9.94 9.905 9.875 9.845 9.807 9.77 9.795 9.87 9.922 9.947 9.957 9.962 9.967 9.97 9.937 9.87 9.798 9.738 9.71 9.7 9.688 9.678 9.665 9.632 9.582 9.523 9.488 9.553 9.714 10.443 11.182 11.79 12.477 12.602 12.472 12.335 12.218 12.1 12.093 12.195 12.298 12.408 12.532 12.677 12.225 11.74 11.165 10.458 10.255 10.105 10.05 10.02 9.935 9.823 9.735 9.68 9.663 9.648 9.63 9.64 9.68 9.732 9.727 9.65 9.57 9.48 9.433 9.44 9.445 9.445 9.385 9.265 9.153 9.083 9.068 9.075 9.095 9.06 8.762 8.335 7.98 7.705 7.668 7.81 7.973 8.138 8.303 8.468 8.635 8.802 8.967 9.12 9.16 9.105 9.027 8.905 8.78 8.67 8.582 8.515 8.457 8.445 8.457 8.465 8.48 8.485 8.47 8.45 8.422 8.382 8.315 8.205 8.053 7.918 7.873 7.877
11.158 11.13 11.135 11.158 11.188 11.223 11.263 11.305 11.35 11.392 11.375 11.308 11.253 11.21 11.205 11.237 11.262 11.262 11.25 11.238 11.23 11.235 11.185 11.07 10.94 10.833 10.835 10.915 11.013 11.152 11.24 11.253 11.293 11.37 11.417 11.41 11.398 11.39 11.37 11.335 11.292 11.237 11.17 11.105 11.045 10.99 10.945 10.905 10.865 10.835 10.85 10.895 10.935 10.97 10.98 10.967 10.95 10.922 10.882 10.845 10.818 10.795 10.775 10.76 10.707 10.608 10.543 10.523 10.508 10.497 10.477 10.438 10.4 10.37 10.353 10.355 10.365 10.375 10.32 10.2 10.09 10 9.92 9.845 9.803 9.79 9.78 9.77 9.753 9.75 9.788 9.845 9.895 9.93 9.952 9.965 9.972 9.975 9.942 9.875 9.815 9.77 9.74 9.723 9.708 9.695 9.677 9.645 9.605 9.557 9.523 9.515 9.573 9.658 9.703 10.288 11.072 11.672 12.304 12.492 12.357 12.195 12.088 12.11 12.2 12.322 12.452 12.543 12.622 12.739 12.272 11.74 11.128 10.421 10.385 10.39 10.265 10.123 9.98 9.863 9.79 9.75 9.733 9.74 9.755 9.785 9.78 9.707 9.62 9.515 9.455 9.453 9.455 9.455 9.395 9.283 9.203 9.168 9.163 9.165 9.143 9.075 8.758 8.408 8.335 8.053 7.798 7.893 8.018 8.153 8.308 8.473 8.64 8.807 8.972 9.122 9.16 9.102 9.002 8.84 8.68 8.555 8.465 8.405 8.408 8.455 8.458 8.435 8.44 8.445 8.427 8.397 8.352 8.3 8.247 8.177 8.065 7.943 7.888 7.888
11.14 11.123 11.13 11.148 11.173 11.208 11.25 11.295 11.337 11.377 11.36 11.29 11.225 11.173 11.165 11.2 11.24 11.267 11.272 11.263 11.27 11.29 11.235 11.102 10.96 10.82 10.768 10.838 10.985 11.152 11.24 11.288 11.373 11.477 11.542 11.537 11.508 11.487 11.46 11.412 11.355 11.29 11.22 11.15 11.08 11.02 10.975 10.935 10.892 10.853 10.86 10.897 10.922 10.945 10.947 10.927 10.9 10.862 10.82 10.778 10.738 10.708 10.688 10.68 10.652 10.583 10.533 10.52 10.51 10.502 10.487 10.445 10.395 10.36 10.343 10.34 10.345 10.335 10.25 10.11 9.975 9.855 9.76 9.698 9.67 9.66 9.65 9.658 9.693 9.748 9.783 9.815 9.865 9.9 9.93 9.952 9.97 9.98 9.947 9.89 9.85 9.823 9.795 9.77 9.747 9.722 9.695 9.66 9.62 9.58 9.548 9.53 9.518 9.54 9.565 9.575 9.648 10.168 10.96 11.567 12.209 12.474 12.29 12.175 12.15 12.213 12.35 12.49 12.59 12.663 12.727 12.817 12.335 11.76 11.328 11.253 11.247 10.653 10.311 10.16 10.02 9.913 9.85 9.835 9.84 9.863 9.843 9.752 9.647 9.535 9.475 9.47 9.468 9.465 9.412 9.333 9.295 9.272 9.272 9.295 9.285 9.152 8.85 8.76 8.967 8.617 8.11 8.1 8.183 8.278 8.39 8.513 8.653 8.813 8.978 9.125 9.16 9.095 8.972 8.79 8.605 8.45 8.348 8.328 8.408 8.495 8.492 8.443 8.415 8.4 8.367 8.32 8.268 8.213 8.16 8.108 8.045 7.965 7.91 7.898
11.128 11.115 11.125 11.142 11.163 11.195 11.237 11.282 11.325 11.362 11.345 11.275 11.205 11.14 11.128 11.165 11.203 11.24 11.27 11.29 11.327 11.35 11.275 11.13 10.983 10.835 10.733 10.79 10.98 11.16 11.28 11.38 11.485 11.59 11.667 11.672 11.62 11.552 11.497 11.447 11.395 11.337 11.27 11.2 11.125 11.053 10.995 10.947 10.9 10.852 10.85 10.877 10.895 10.912 10.907 10.877 10.84 10.8 10.76 10.718 10.675 10.643 10.623 10.61 10.593 10.558 10.53 10.523 10.517 10.51 10.497 10.46 10.403 10.355 10.332 10.327 10.325 10.282 10.17 10.03 9.89 9.75 9.628 9.563 9.545 9.54 9.563 9.625 9.715 9.792 9.797 9.795 9.835 9.87 9.9 9.927 9.955 9.972 9.96 9.932 9.905 9.875 9.84 9.802 9.765 9.74 9.72 9.685 9.645 9.605 9.575 9.555 9.535 9.518 9.505 9.47 9.455 9.523 9.631 10.043 10.845 11.465 12.117 12.494 12.327 12.258 12.288 12.395 12.53 12.635 12.715 12.787 12.862 12.744 12.265 12.3 12.339 11.767 11.46 11.225 10.86 10.578 10.408 10.343 10.398 10.435 10.135 9.785 9.668 9.555 9.498 9.493 9.488 9.48 9.445 9.405 9.382 9.355 9.342 9.35 9.365 9.285 9.105 9.127 9.252 8.952 8.473 8.345 8.428 8.51 8.593 8.675 8.77 8.888 9.01 9.13 9.155 9.08 8.945 8.753 8.56 8.38 8.273 8.308 8.427 8.52 8.522 8.462 8.245 7.958 8.082 8.282 8.23 8.178 8.125 8.073 8.02 7.97 7.933 7.915
11.113 11.105 11.113 11.13 11.153 11.183 11.22 11.265 11.31 11.34 11.32 11.255 11.185 11.115 11.105 11.155 11.195 11.23 11.27 11.308 11.355 11.385 11.34 11.22 11.068 10.915 10.788 10.765 10.89 11.072 11.23 11.362 11.485 11.612 11.722 11.73 11.64 11.53 11.455 11.417 11.38 11.34 11.292 11.227 11.152 11.075 11.002 10.915 10.835 10.785 10.775 10.808 10.84 10.868 10.862 10.828 10.79 10.75 10.71 10.673 10.635 10.613 10.598 10.575 10.558 10.543 10.535 10.53 10.525 10.52 10.51 10.475 10.415 10.355 10.305 10.283 10.277 10.227 10.11 9.97 9.83 9.693 9.565 9.493 9.473 9.475 9.535 9.635 9.73 9.792 9.802 9.79 9.805 9.84 9.87 9.903 9.932 9.947 9.947 9.942 9.927 9.892 9.845 9.795 9.758 9.755 9.755 9.72 9.675 9.638 9.61 9.59 9.573 9.558 9.53 9.47 9.395 9.37 9.408 9.495 9.613 9.923 10.735 11.362 12.022 12.541 12.427 12.423 12.53 12.64 12.68 12.713 12.787 12.653 12.587 12.66 12.58 12.502 12.427 12.227 11.897 11.65 11.505 11.447 11.502 11.457 10.665 9.858 9.69 9.578 9.525 9.52 9.51 9.482 9.445 9.42 9.395 9.37 9.355 9.345 9.337 9.332 9.285 9.262 9.28 9.172 8.813 8.595 8.675 8.755 8.837 8.922 9.005 9.072 9.1 9.122 9.127 9.067 8.95 8.775 8.58 8.39 8.28 8.313 8.42 8.522 8.535 8.47 8.245 7.895 7.643 7.888 8.225 8.197 8.145 8.09 8.035 7.985 7.948 7.93
11.095 11.09 11.098 11.115 11.14 11.168 11.2 11.245 11.282 11.292 11.272 11.225 11.16 11.09 11.088 11.152 11.207 11.25 11.29 11.32 11.353 11.387 11.385 11.325 11.207 11.065 10.943 10.845 10.823 10.913 11.055 11.21 11.373 11.54 11.662 11.667 11.575 11.463 11.39 11.353 11.32 11.3 11.272 11.22 11.157 11.085 11.01 10.915 10.803 10.698 10.668 10.755 10.85 10.872 10.835 10.788 10.753 10.715 10.675 10.638 10.608 10.6 10.592 10.57 10.555 10.545 10.54 10.537 10.535 10.53 10.52 10.487 10.427 10.36 10.288 10.23 10.205 10.17 10.07 9.93 9.793 9.66 9.543 9.478 9.458 9.463 9.525 9.62 9.687 9.72 9.745 9.757 9.778 9.818 9.853 9.887 9.907 9.91 9.905 9.902 9.9 9.87 9.82 9.78 9.77 9.787 9.797 9.762 9.708 9.67 9.648 9.635 9.625 9.617 9.59 9.52 9.438 9.383 9.368 9.385 9.38 9.43 9.576 9.801 10.623 11.275 11.962 12.631 12.642 12.707 12.685 12.638 12.635 12.65 12.667 12.635 12.555 12.478 12.4 12.322 12.25 12.187 12.137 12.102 12.09 12.017 11.082 9.995 9.713 9.605 9.555 9.547 9.517 9.46 9.403 9.375 9.357 9.34 9.327 9.315 9.302 9.29 9.28 9.277 9.28 9.272 9.035 8.845 8.925 9.005 9.08 9.125 9.14 9.125 9.07 9.015 9.052 9.065 8.962 8.825 8.65 8.46 8.343 8.343 8.413 8.515 8.54 8.477 8.412 8.297 7.883 7.486 7.673 8.06 8.167 8.11 8.055 8.005 7.96 7.935
11.08 11.073 11.08 11.102 11.13 11.157 11.185 11.217 11.232 11.22 11.2 11.17 11.125 11.065 11.065 11.135 11.202 11.262 11.307 11.335 11.358 11.382 11.38 11.352 11.297 11.2 11.092 10.99 10.89 10.85 10.938 11.1 11.28 11.467 11.562 11.55 11.49 11.395 11.325 11.29 11.27 11.262 11.237 11.195 11.147 11.087 11.02 10.95 10.858 10.735 10.733 10.867 10.942 10.91 10.835 10.768 10.72 10.682 10.645 10.605 10.588 10.595 10.59 10.573 10.558 10.545 10.54 10.54 10.54 10.537 10.53 10.5 10.437 10.365 10.292 10.22 10.16 10.117 10.03 9.893 9.76 9.63 9.518 9.463 9.453 9.455 9.507 9.577 9.605 9.618 9.64 9.688 9.752 9.805 9.845 9.87 9.872 9.867 9.862 9.858 9.855 9.837 9.798 9.78 9.795 9.82 9.84 9.81 9.743 9.705 9.697 9.695 9.69 9.685 9.65 9.58 9.518 9.483 9.48 9.472 9.413 9.358 9.338 9.375 9.495 9.641 10.503 11.28 12.037 12.8 12.737 12.625 12.515 12.545 12.645 12.622 12.545 12.465 12.39 12.33 12.28 12.24 12.2 12.15 12.112 11.952 11.102 10.098 9.74 9.635 9.58 9.555 9.5 9.433 9.37 9.325 9.308 9.297 9.28 9.265 9.25 9.235 9.23 9.238 9.252 9.26 9.177 9.112 9.14 9.157 9.167 9.132 9.052 8.967 8.895 8.838 8.957 9.06 8.955 8.837 8.702 8.53 8.42 8.413 8.443 8.51 8.535 8.485 8.42 8.35 8.3 7.875 7.513 7.59 7.892 8.137 8.082 8.028 7.975 7.943
11.068 11.06 11.065 11.087 11.11 11.132 11.155 11.167 11.16 11.14 11.12 11.095 11.068 11.033 11.043 11.107 11.175 11.242 11.295 11.33 11.36 11.382 11.37 11.332 11.292 11.227 11.13 11.02 10.92 10.86 10.925 11.085 11.253 11.402 11.45 11.417 11.377 11.315 11.263 11.242 11.232 11.225 11.2 11.157 11.107 11.055 11.025 11.02 11.007 10.94 10.952 11.022 10.99 10.917 10.843 10.77 10.703 10.65 10.613 10.583 10.58 10.59 10.585 10.575 10.56 10.545 10.54 10.54 10.54 10.54 10.537 10.507 10.442 10.367 10.295 10.225 10.15 10.087 10 9.865 9.73 9.603 9.498 9.453 9.45 9.453 9.475 9.498 9.503 9.513 9.555 9.64 9.735 9.797 9.825 9.832 9.828 9.823 9.818 9.813 9.808 9.8 9.787 9.79 9.81 9.83 9.847 9.83 9.765 9.723 9.725 9.737 9.747 9.75 9.717 9.662 9.615 9.588 9.59 9.6 9.61 9.565 9.42 9.285 9.285 9.405 9.565 9.719 11.34 12.842 12.72 12.575 12.43 12.523 12.667 12.608 12.535 12.47 12.418 12.378 12.343 12.307 12.265 12.215 12.067 11.37 10.473 9.975 9.753 9.66 9.595 9.545 9.483 9.423 9.373 9.303 9.253 9.24 9.223 9.207 9.19 9.178 9.18 9.193 9.21 9.225 9.225 9.207 9.172 9.12 9.05 8.957 8.858 8.783 8.727 8.673 8.805 8.985 8.947 8.832 8.715 8.577 8.495 8.495 8.507 8.532 8.537 8.492 8.425 8.355 8.285 8.245 8.057 7.763 7.473 7.645 8.04 8.055 7.998 7.955
11.063 11.058 11.043 11.04 11.055 11.07 11.09 11.092 11.078 11.07 11.063 11.043 11.02 11 11.008 11.053 11.115 11.18 11.235 11.28 11.32 11.35 11.332 11.28 11.23 11.172 11.085 10.98 10.908 10.88 10.955 11.115 11.255 11.327 11.322 11.288 11.253 11.22 11.193 11.175 11.165 11.157 11.13 11.077 11.017 10.97 10.977 11.035 11.095 11.102 11.095 11.07 10.997 10.923 10.85 10.78 10.705 10.633 10.585 10.557 10.537 10.537 10.557 10.57 10.56 10.545 10.543 10.545 10.543 10.54 10.532 10.5 10.437 10.362 10.29 10.22 10.148 10.08 10.002 9.888 9.75 9.61 9.505 9.475 9.483 9.49 9.48 9.463 9.46 9.468 9.525 9.625 9.725 9.785 9.792 9.79 9.788 9.785 9.783 9.78 9.775 9.763 9.76 9.772 9.787 9.8 9.807 9.805 9.767 9.72 9.715 9.737 9.762 9.78 9.765 9.727 9.692 9.677 9.682 9.687 9.692 9.695 9.63 9.477 9.36 9.368 9.495 9.678 11.32 12.794 12.645 12.498 12.388 12.533 12.677 12.61 12.558 12.515 12.48 12.445 12.41 12.375 12.33 12.28 11.53 10.283 9.795 9.813 9.755 9.673 9.603 9.545 9.485 9.435 9.4 9.315 9.215 9.178 9.165 9.15 9.133 9.128 9.135 9.15 9.165 9.162 9.137 9.103 9.053 8.965 8.855 8.753 8.673 8.613 8.56 8.505 8.563 8.745 8.782 8.657 8.548 8.515 8.517 8.515 8.525 8.53 8.495 8.445 8.41 8.355 8.285 8.22 8.195 8.215 7.775 7.398 7.583 7.875 8.03 7.975
11.068 11.065 11.033 10.985 10.975 10.99 11.007 11.008 11.003 11.015 11.025 11.017 11 10.98 10.975 10.995 11.04 11.1 11.155 11.2 11.245 11.285 11.272 11.218 11.165 11.115 11.04 10.963 10.928 10.913 10.985 11.13 11.212 11.222 11.198 11.168 11.148 11.142 11.115 11.068 11.045 11.04 11.012 10.955 10.893 10.865 10.888 10.938 11.007 11.065 11.077 11.05 10.997 10.93 10.86 10.79 10.715 10.635 10.547 10.477 10.44 10.45 10.5 10.542 10.557 10.547 10.543 10.547 10.547 10.54 10.515 10.475 10.42 10.35 10.28 10.21 10.143 10.082 10.017 9.932 9.815 9.668 9.563 9.54 9.553 9.562 9.54 9.5 9.483 9.48 9.528 9.623 9.717 9.767 9.768 9.763 9.76 9.76 9.76 9.76 9.755 9.73 9.715 9.727 9.74 9.747 9.752 9.757 9.75 9.715 9.703 9.725 9.75 9.775 9.772 9.745 9.73 9.737 9.745 9.745 9.745 9.745 9.69 9.577 9.468 9.425 9.543 9.743 10.585 12.047 12.664 12.475 12.408 12.557 12.677 12.655 12.62 12.585 12.548 12.512 12.477 12.442 12.4 12.257 10.96 9.641 9.62 9.755 9.747 9.68 9.608 9.55 9.498 9.463 9.427 9.33 9.193 9.12 9.105 9.09 9.078 9.08 9.092 9.102 9.092 9.065 9.045 9.04 9.002 8.845 8.66 8.58 8.56 8.545 8.53 8.518 8.523 8.525 8.425 8.328 8.348 8.45 8.497 8.475 8.485 8.467 8.38 8.318 8.32 8.302 8.27 8.22 8.163 8.145 8.17 7.912 7.6 7.465 7.7 8.005
11.075 11.072 11.042 10.975 10.92 10.913 10.925 10.93 10.943 10.965 10.98 10.982 10.975 10.96 10.955 10.965 10.985 11.028 11.078 11.125 11.18 11.225 11.215 11.16 11.105 11.055 11.008 10.978 10.962 10.945 11.005 11.097 11.112 11.098 11.08 11.07 11.075 11.085 11.05 10.978 10.925 10.903 10.875 10.823 10.773 10.768 10.803 10.845 10.902 10.945 10.957 10.96 10.947 10.91 10.857 10.795 10.722 10.627 10.485 10.365 10.338 10.375 10.432 10.487 10.532 10.545 10.54 10.545 10.547 10.53 10.49 10.443 10.395 10.337 10.273 10.208 10.145 10.087 10.022 9.95 9.862 9.74 9.648 9.625 9.632 9.635 9.605 9.555 9.518 9.498 9.535 9.625 9.715 9.76 9.758 9.75 9.745 9.745 9.743 9.74 9.727 9.69 9.67 9.68 9.688 9.693 9.698 9.703 9.71 9.698 9.693 9.715 9.74 9.767 9.767 9.753 9.76 9.777 9.79 9.795 9.795 9.795 9.74 9.635 9.543 9.51 9.623 9.782 9.836 10.575 11.265 11.91 12.579 12.56 12.625 12.692 12.687 12.652 12.615 12.58 12.545 12.507 12.465 11.67 10.288 9.61 9.595 9.67 9.705 9.68 9.615 9.56 9.523 9.5 9.452 9.34 9.19 9.085 9.048 9.03 9.025 9.035 9.037 9.025 9.01 9.005 9.018 9.042 9.027 8.833 8.648 8.643 8.668 8.693 8.72 8.735 8.707 8.558 8.355 8.285 8.348 8.465 8.49 8.445 8.445 8.392 8.263 8.178 8.17 8.175 8.18 8.167 8.135 8.1 8.095 8.127 8.07 7.705 7.423 7.595
11.08 11.077 11.05 10.985 10.91 10.858 10.848 10.865 10.89 10.915 10.93 10.935 10.937 10.935 10.935 10.945 10.955 10.975 11.01 11.06 11.117 11.162 11.155 11.1 11.045 11.015 11.013 11.007 10.992 10.972 10.987 11.01 11 10.99 10.985 10.995 11.012 11.025 10.992 10.918 10.845 10.793 10.753 10.708 10.673 10.68 10.72 10.758 10.797 10.823 10.825 10.828 10.832 10.827 10.81 10.772 10.712 10.597 10.425 10.283 10.253 10.305 10.365 10.42 10.475 10.52 10.537 10.545 10.54 10.507 10.463 10.415 10.37 10.33 10.278 10.213 10.153 10.092 10.025 9.955 9.882 9.792 9.73 9.717 9.717 9.707 9.67 9.62 9.573 9.533 9.548 9.623 9.707 9.755 9.755 9.743 9.733 9.73 9.727 9.717 9.688 9.643 9.625 9.635 9.643 9.65 9.658 9.665 9.675 9.678 9.685 9.708 9.733 9.76 9.77 9.773 9.787 9.8 9.815 9.83 9.84 9.845 9.797 9.707 9.63 9.6 9.677 9.785 9.817 9.803 9.789 10.535 11.247 11.937 12.646 12.662 12.715 12.717 12.682 12.648 12.612 12.575 12.447 11.035 9.651 9.54 9.533 9.58 9.628 9.65 9.625 9.585 9.56 9.537 9.475 9.35 9.2 9.065 8.993 8.975 8.975 8.978 8.973 8.97 8.983 9.008 9.033 9.057 9.055 8.87 8.77 8.88 8.932 8.957 8.952 8.915 8.86 8.747 8.63 8.552 8.51 8.517 8.49 8.425 8.387 8.3 8.155 8.05 8.018 8.023 8.028 8.033 8.037 8.025 8.023 8.075 8.13 8.162 7.845 7.52
11.045 11.042 11.017 10.957 10.885 10.82 10.793 10.81 10.84 10.865 10.88 10.885 10.89 10.9 10.91 10.92 10.93 10.938 10.958 11 11.052 11.1 11.095 11.04 11.005 11.018 11.037 11.032 11.015 10.97 10.933 10.925 10.918 10.91 10.905 10.915 10.935 10.955 10.947 10.893 10.823 10.758 10.708 10.665 10.615 10.603 10.635 10.672 10.705 10.723 10.723 10.72 10.72 10.72 10.718 10.705 10.67 10.56 10.385 10.243 10.208 10.255 10.315 10.37 10.425 10.48 10.517 10.535 10.53 10.495 10.45 10.405 10.368 10.347 10.305 10.235 10.17 10.098 10.018 9.942 9.867 9.8 9.775 9.78 9.782 9.772 9.735 9.685 9.637 9.59 9.575 9.618 9.69 9.745 9.755 9.743 9.728 9.718 9.71 9.693 9.663 9.63 9.618 9.625 9.635 9.645 9.655 9.665 9.673 9.673 9.678 9.7 9.728 9.758 9.78 9.79 9.8 9.81 9.825 9.845 9.862 9.862 9.82 9.75 9.68 9.648 9.69 9.765 9.8 9.787 9.762 9.738 9.739 10.503 11.232 11.977 12.724 12.735 12.75 12.715 12.68 12.642 11.81 10.3 9.548 9.483 9.49 9.533 9.575 9.618 9.632 9.617 9.597 9.572 9.5 9.362 9.21 9.06 8.953 8.92 8.928 8.935 8.948 8.973 8.997 9.023 9.047 9.072 9.08 8.93 8.89 9.072 9.132 9.092 9.017 8.94 8.882 8.815 8.74 8.665 8.602 8.565 8.51 8.425 8.333 8.2 8.048 7.918 7.863 7.875 7.898 7.923 7.948 7.97 7.983 8.013 8.077 8.155 8.16 7.985
10.98 10.965 10.942 10.89 10.83 10.793 10.775 10.775 10.793 10.815 10.83 10.838 10.848 10.863 10.875 10.885 10.895 10.9 10.915 10.948 10.993 11.04 11.035 11 11.008 11.045 11.065 11.055 11.007 10.92 10.868 10.86 10.85 10.84 10.83 10.83 10.845 10.87 10.895 10.885 10.835 10.773 10.72 10.665 10.593 10.543 10.55 10.588 10.62 10.642 10.647 10.643 10.638 10.64 10.655 10.658 10.62 10.517 10.358 10.235 10.198 10.225 10.285 10.34 10.387 10.43 10.47 10.505 10.52 10.495 10.45 10.413 10.393 10.385 10.345 10.275 10.2 10.112 10.008 9.91 9.83 9.78 9.783 9.802 9.815 9.812 9.787 9.747 9.702 9.655 9.628 9.638 9.683 9.74 9.757 9.745 9.733 9.723 9.713 9.695 9.675 9.655 9.643 9.645 9.655 9.665 9.672 9.68 9.682 9.673 9.673 9.695 9.728 9.765 9.787 9.795 9.805 9.818 9.835 9.852 9.85 9.82 9.77 9.71 9.658 9.638 9.675 9.737 9.765 9.752 9.727 9.702 9.678 9.658 9.691 10.498 11.242 12.02 12.801 12.775 12.747 12.634 11.112 9.606 9.5 9.473 9.49 9.53 9.57 9.612 9.637 9.637 9.627 9.607 9.525 9.378 9.23 9.093 8.968 8.91 8.918 8.938 8.963 8.988 9.013 9.038 9.063 9.087 9.105 9.02 9.038 9.162 9.14 9.052 8.953 8.873 8.807 8.735 8.66 8.59 8.565 8.585 8.55 8.455 8.343 8.19 8.023 7.878 7.808 7.82 7.865 7.91 7.95 7.98 7.977 7.94 7.955 8.06 8.062 8.062
10.938 10.9 10.87 10.83 10.795 10.783 10.775 10.765 10.763 10.77 10.783 10.795 10.81 10.827 10.84 10.847 10.855 10.86 10.873 10.903 10.942 10.982 10.993 11 11.035 11.072 11.087 11.047 10.952 10.85 10.8 10.79 10.78 10.77 10.76 10.755 10.76 10.78 10.815 10.84 10.83 10.785 10.725 10.655 10.577 10.505 10.483 10.508 10.533 10.555 10.57 10.585 10.605 10.633 10.667 10.655 10.58 10.475 10.343 10.243 10.195 10.2 10.25 10.297 10.335 10.37 10.41 10.455 10.495 10.49 10.458 10.44 10.435 10.427 10.382 10.307 10.225 10.135 10.013 9.883 9.795 9.768 9.787 9.81 9.83 9.837 9.825 9.797 9.76 9.72 9.698 9.695 9.708 9.745 9.762 9.753 9.748 9.748 9.745 9.727 9.705 9.685 9.668 9.663 9.67 9.68 9.687 9.69 9.682 9.667 9.67 9.697 9.735 9.772 9.792 9.8 9.81 9.822 9.835 9.83 9.795 9.745 9.69 9.643 9.62 9.615 9.638 9.672 9.69 9.685 9.662 9.64 9.625 9.62 9.63 9.658 9.711 10.518 11.295 12.06 12.806 11.944 10.323 9.528 9.495 9.48 9.495 9.535 9.575 9.617 9.64 9.64 9.65 9.635 9.557 9.442 9.323 9.21 9.07 8.978 8.973 8.983 8.998 9.013 9.03 9.053 9.078 9.103 9.127 9.112 9.122 9.102 9.015 8.95 8.875 8.803 8.73 8.655 8.585 8.55 8.578 8.622 8.592 8.497 8.395 8.255 8.095 7.973 7.895 7.873 7.903 7.94 7.967 7.987 7.972 7.908 7.855 7.9 7.94 7.993
10.925 10.875 10.833 10.803 10.785 10.778 10.77 10.762 10.752 10.738 10.735 10.747 10.765 10.785 10.802 10.81 10.815 10.82 10.83 10.857 10.892 10.925 10.957 10.995 11.037 11.077 11.072 10.99 10.875 10.788 10.75 10.738 10.725 10.715 10.703 10.693 10.688 10.695 10.725 10.76 10.785 10.772 10.707 10.622 10.538 10.473 10.453 10.465 10.485 10.505 10.533 10.583 10.637 10.685 10.697 10.637 10.54 10.44 10.338 10.258 10.208 10.193 10.213 10.243 10.275 10.31 10.35 10.395 10.45 10.48 10.477 10.477 10.48 10.467 10.412 10.327 10.24 10.152 10.032 9.88 9.778 9.763 9.785 9.805 9.827 9.845 9.84 9.815 9.787 9.767 9.757 9.755 9.755 9.762 9.767 9.77 9.777 9.785 9.782 9.762 9.738 9.715 9.695 9.683 9.685 9.695 9.7 9.692 9.665 9.627 9.63 9.675 9.725 9.772 9.8 9.81 9.817 9.82 9.807 9.773 9.725 9.678 9.64 9.623 9.623 9.623 9.62 9.618 9.615 9.608 9.595 9.588 9.588 9.595 9.61 9.635 9.665 9.698 9.746 10.548 11.329 10.528 9.626 9.528 9.51 9.493 9.508 9.55 9.588 9.625 9.665 9.7 9.7 9.642 9.56 9.482 9.415 9.357 9.22 9.085 9.063 9.065 9.068 9.073 9.08 9.093 9.108 9.123 9.142 9.14 9.077 8.97 8.883 8.828 8.795 8.75 8.668 8.59 8.555 8.583 8.635 8.665 8.63 8.542 8.447 8.327 8.205 8.115 8.032 7.963 7.938 7.95 7.97 7.99 7.967 7.895 7.815 7.778 7.813 7.907
10.935 10.885 10.84 10.81 10.793 10.778 10.762 10.75 10.735 10.71 10.69 10.69 10.705 10.725 10.742 10.752 10.758 10.77 10.785 10.803 10.83 10.86 10.9 10.945 10.99 11.032 11.007 10.905 10.805 10.753 10.735 10.723 10.708 10.695 10.682 10.662 10.627 10.608 10.63 10.667 10.705 10.712 10.652 10.56 10.485 10.453 10.45 10.458 10.475 10.493 10.528 10.595 10.67 10.722 10.7 10.613 10.518 10.428 10.35 10.29 10.245 10.218 10.215 10.233 10.255 10.283 10.33 10.39 10.445 10.472 10.48 10.49 10.495 10.482 10.43 10.345 10.255 10.167 10.057 9.903 9.775 9.743 9.76 9.78 9.8 9.82 9.822 9.8 9.783 9.785 9.79 9.79 9.787 9.77 9.755 9.765 9.782 9.797 9.807 9.8 9.778 9.753 9.73 9.715 9.713 9.702 9.672 9.635 9.585 9.535 9.545 9.605 9.67 9.742 9.787 9.8 9.81 9.812 9.788 9.745 9.7 9.665 9.655 9.653 9.655 9.66 9.65 9.63 9.61 9.595 9.59 9.59 9.593 9.603 9.613 9.625 9.65 9.675 9.713 9.765 9.808 9.755 9.628 9.56 9.54 9.515 9.515 9.575 9.635 9.7 9.775 9.79 9.73 9.63 9.533 9.448 9.398 9.39 9.322 9.21 9.16 9.153 9.155 9.16 9.165 9.17 9.175 9.157 9.115 9.052 8.95 8.83 8.76 8.75 8.765 8.73 8.655 8.633 8.675 8.738 8.757 8.697 8.61 8.532 8.452 8.372 8.287 8.202 8.112 8.02 7.953 7.935 7.95 7.967 7.94 7.865 7.785 7.72 7.725 7.785
10.95 10.905 10.863 10.832 10.807 10.777 10.747 10.725 10.705 10.68 10.655 10.64 10.64 10.655 10.67 10.68 10.698 10.73 10.747 10.748 10.763 10.79 10.83 10.875 10.917 10.955 10.92 10.828 10.77 10.75 10.738 10.725 10.712 10.695 10.665 10.617 10.553 10.515 10.535 10.575 10.612 10.627 10.577 10.498 10.458 10.45 10.45 10.453 10.463 10.478 10.518 10.59 10.67 10.732 10.712 10.625 10.535 10.458 10.4 10.348 10.298 10.263 10.255 10.27 10.29 10.315 10.37 10.44 10.47 10.46 10.46 10.477 10.485 10.472 10.427 10.355 10.27 10.18 10.077 9.935 9.78 9.713 9.725 9.743 9.76 9.777 9.785 9.783 9.785 9.8 9.81 9.805 9.787 9.75 9.728 9.738 9.758 9.783 9.81 9.827 9.822 9.8 9.775 9.763 9.757 9.715 9.61 9.515 9.455 9.425 9.455 9.523 9.6 9.685 9.747 9.77 9.79 9.81 9.795 9.753 9.718 9.708 9.707 9.7 9.698 9.7 9.69 9.67 9.655 9.648 9.643 9.64 9.645 9.663 9.668 9.66 9.665 9.673 9.698 9.737 9.762 9.742 9.662 9.598 9.572 9.543 9.533 9.585 9.68 9.81 9.872 9.802 9.7 9.6 9.502 9.405 9.35 9.358 9.357 9.317 9.268 9.245 9.245 9.247 9.242 9.207 9.15 9.08 9.003 8.923 8.815 8.718 8.7 8.75 8.775 8.743 8.74 8.813 8.91 8.93 8.837 8.675 8.54 8.463 8.405 8.362 8.3 8.215 8.122 8.03 7.955 7.913 7.908 7.922 7.89 7.813 7.75 7.715 7.71 7.72
10.95 10.917 10.882 10.85 10.807 10.757 10.718 10.695 10.673 10.648 10.625 10.605 10.588 10.588 10.603 10.625 10.665 10.707 10.72 10.713 10.713 10.728 10.763 10.803 10.84 10.875 10.845 10.785 10.765 10.755 10.742 10.727 10.702 10.66 10.6 10.53 10.46 10.425 10.443 10.48 10.518 10.542 10.51 10.46 10.45 10.45 10.45 10.45 10.453 10.465 10.51 10.582 10.655 10.722 10.732 10.665 10.583 10.52 10.47 10.415 10.36 10.313 10.3 10.323 10.35 10.38 10.43 10.47 10.462 10.438 10.438 10.462 10.477 10.462 10.415 10.352 10.28 10.195 10.09 9.957 9.8 9.7 9.693 9.708 9.725 9.74 9.75 9.772 9.8 9.82 9.825 9.805 9.767 9.723 9.703 9.713 9.735 9.765 9.795 9.825 9.845 9.842 9.825 9.813 9.805 9.747 9.585 9.415 9.325 9.318 9.375 9.455 9.543 9.63 9.705 9.745 9.775 9.81 9.805 9.77 9.758 9.765 9.765 9.755 9.745 9.74 9.732 9.718 9.707 9.7 9.695 9.7 9.718 9.745 9.752 9.74 9.728 9.713 9.703 9.705 9.713 9.715 9.68 9.63 9.597 9.565 9.56 9.585 9.615 9.757 9.847 9.755 9.65 9.55 9.45 9.363 9.33 9.345 9.365 9.37 9.352 9.335 9.31 9.27 9.225 9.15 9.05 8.96 8.93 8.928 8.855 8.778 8.765 8.79 8.815 8.84 8.905 8.997 9 8.917 8.795 8.615 8.473 8.398 8.363 8.337 8.285 8.21 8.127 8.04 7.965 7.91 7.878 7.875 7.837 7.775 7.745 7.725 7.72 7.73
10.932 10.92 10.887 10.837 10.782 10.728 10.693 10.675 10.653 10.63 10.61 10.59 10.568 10.55 10.56 10.6 10.65 10.687 10.695 10.688 10.68 10.68 10.703 10.738 10.773 10.805 10.8 10.773 10.76 10.75 10.742 10.715 10.658 10.59 10.518 10.445 10.373 10.338 10.358 10.395 10.435 10.468 10.465 10.45 10.45 10.45 10.45 10.45 10.45 10.458 10.498 10.565 10.633 10.697 10.74 10.71 10.643 10.59 10.54 10.485 10.422 10.355 10.335 10.37 10.41 10.447 10.472 10.465 10.438 10.41 10.41 10.44 10.465 10.455 10.405 10.343 10.278 10.205 10.097 9.965 9.825 9.703 9.66 9.675 9.692 9.7 9.708 9.74 9.785 9.82 9.825 9.795 9.75 9.703 9.68 9.693 9.72 9.75 9.78 9.813 9.845 9.867 9.87 9.857 9.845 9.782 9.605 9.383 9.238 9.238 9.325 9.418 9.513 9.608 9.68 9.71 9.742 9.797 9.817 9.81 9.812 9.817 9.815 9.805 9.79 9.777 9.772 9.765 9.755 9.747 9.75 9.767 9.797 9.83 9.84 9.827 9.802 9.765 9.72 9.688 9.68 9.685 9.675 9.645 9.615 9.585 9.537 9.468 9.39 9.568 9.765 9.695 9.592 9.49 9.39 9.328 9.323 9.353 9.375 9.375 9.377 9.375 9.332 9.253 9.173 9.093 9.008 8.925 8.945 9.052 9.06 8.995 8.943 8.905 8.913 8.97 9.047 8.935 8.755 8.725 8.672 8.537 8.408 8.348 8.328 8.31 8.265 8.195 8.12 8.05 7.985 7.923 7.87 7.835 7.8 7.77 7.755 7.735 7.73 7.74
10.92 10.917 10.877 10.81 10.753 10.703 10.688 10.687 10.67 10.65 10.63 10.61 10.588 10.56 10.56 10.595 10.637 10.667 10.67 10.663 10.655 10.65 10.665 10.7 10.735 10.762 10.77 10.757 10.742 10.733 10.732 10.697 10.625 10.553 10.478 10.403 10.34 10.32 10.343 10.38 10.42 10.445 10.445 10.44 10.44 10.44 10.442 10.445 10.445 10.445 10.483 10.555 10.62 10.685 10.747 10.752 10.707 10.66 10.6 10.53 10.455 10.373 10.343 10.38 10.43 10.467 10.472 10.447 10.415 10.385 10.383 10.413 10.442 10.44 10.4 10.343 10.28 10.212 10.105 9.968 9.835 9.703 9.635 9.642 9.65 9.645 9.655 9.693 9.737 9.78 9.81 9.805 9.765 9.715 9.69 9.705 9.735 9.765 9.795 9.828 9.86 9.885 9.897 9.892 9.882 9.817 9.625 9.388 9.245 9.258 9.355 9.455 9.558 9.642 9.672 9.655 9.648 9.69 9.732 9.742 9.757 9.79 9.802 9.787 9.772 9.757 9.75 9.745 9.737 9.735 9.75 9.792 9.852 9.907 9.92 9.89 9.842 9.785 9.733 9.693 9.67 9.668 9.662 9.64 9.612 9.585 9.522 9.393 9.2 9.383 9.667 9.625 9.535 9.43 9.34 9.305 9.333 9.375 9.382 9.37 9.372 9.372 9.342 9.27 9.183 9.095 9.005 8.93 8.985 9.135 9.195 9.18 9.145 9.092 9.053 9.078 9.152 8.77 8.433 8.517 8.49 8.41 8.338 8.31 8.295 8.28 8.24 8.168 8.11 8.095 8.073 8.013 7.945 7.875 7.815 7.783 7.765 7.748 7.743 7.75
10.915 10.912 10.87 10.793 10.725 10.675 10.675 10.702 10.705 10.69 10.67 10.647 10.62 10.59 10.58 10.6 10.625 10.64 10.645 10.642 10.638 10.635 10.65 10.682 10.712 10.732 10.737 10.73 10.718 10.715 10.722 10.69 10.62 10.548 10.475 10.41 10.373 10.368 10.388 10.425 10.452 10.452 10.438 10.425 10.42 10.423 10.427 10.43 10.425 10.415 10.463 10.557 10.63 10.695 10.755 10.772 10.747 10.705 10.632 10.545 10.462 10.378 10.34 10.37 10.412 10.435 10.442 10.432 10.403 10.37 10.368 10.397 10.415 10.407 10.387 10.352 10.297 10.227 10.12 9.98 9.845 9.71 9.618 9.595 9.59 9.583 9.603 9.642 9.677 9.718 9.77 9.807 9.797 9.758 9.735 9.745 9.77 9.8 9.832 9.862 9.885 9.9 9.91 9.912 9.902 9.812 9.608 9.428 9.355 9.368 9.448 9.55 9.632 9.672 9.657 9.608 9.558 9.538 9.558 9.595 9.648 9.715 9.737 9.713 9.695 9.68 9.67 9.668 9.665 9.668 9.685 9.74 9.825 9.922 9.96 9.915 9.857 9.8 9.748 9.708 9.675 9.658 9.647 9.625 9.593 9.56 9.525 9.455 9.263 9.343 9.562 9.54 9.47 9.37 9.305 9.313 9.362 9.387 9.377 9.37 9.37 9.367 9.355 9.3 9.21 9.12 9.03 8.973 9.043 9.167 9.227 9.255 9.26 9.245 9.217 9.21 8.912 8.383 8.233 8.312 8.295 8.26 8.26 8.272 8.267 8.25 8.205 8.158 8.155 8.19 8.215 8.18 8.11 8.02 7.905 7.815 7.775 7.76 7.755 7.76
10.907 10.907 10.867 10.785 10.705 10.65 10.65 10.69 10.72 10.725 10.707 10.68 10.65 10.62 10.6 10.6 10.597 10.59 10.6 10.615 10.622 10.622 10.635 10.662 10.682 10.697 10.705 10.7 10.698 10.71 10.717 10.68 10.613 10.545 10.48 10.44 10.425 10.42 10.435 10.46 10.465 10.45 10.435 10.42 10.408 10.408 10.41 10.402 10.382 10.37 10.43 10.545 10.642 10.717 10.765 10.775 10.762 10.73 10.655 10.562 10.473 10.385 10.34 10.355 10.38 10.39 10.4 10.405 10.392 10.365 10.365 10.385 10.38 10.365 10.352 10.335 10.302 10.245 10.14 10 9.855 9.703 9.595 9.558 9.545 9.533 9.545 9.58 9.61 9.653 9.71 9.765 9.8 9.795 9.78 9.785 9.805 9.835 9.865 9.887 9.902 9.915 9.922 9.92 9.89 9.773 9.62 9.545 9.515 9.498 9.545 9.622 9.655 9.655 9.625 9.573 9.52 9.478 9.483 9.535 9.603 9.662 9.67 9.64 9.618 9.603 9.595 9.595 9.598 9.603 9.613 9.66 9.758 9.9 9.967 9.922 9.87 9.815 9.76 9.72 9.685 9.655 9.633 9.605 9.575 9.548 9.52 9.493 9.445 9.448 9.475 9.448 9.398 9.323 9.298 9.352 9.392 9.382 9.368 9.365 9.365 9.362 9.36 9.32 9.235 9.145 9.055 9.015 9.085 9.18 9.232 9.265 9.285 9.305 9.317 9.299 8.622 8.033 8.118 8.138 8.133 8.14 8.175 8.21 8.232 8.223 8.2 8.215 8.255 8.3 8.342 8.337 8.292 8.202 8.055 7.91 7.81 7.77 7.765 7.765
10.895 10.9 10.865 10.785 10.698 10.63 10.625 10.662 10.697 10.72 10.712 10.685 10.652 10.62 10.592 10.57 10.542 10.518 10.525 10.555 10.58 10.595 10.613 10.633 10.648 10.665 10.675 10.678 10.69 10.71 10.712 10.67 10.605 10.545 10.5 10.485 10.48 10.475 10.477 10.475 10.465 10.45 10.435 10.42 10.405 10.395 10.38 10.355 10.325 10.32 10.39 10.508 10.622 10.725 10.772 10.767 10.755 10.73 10.665 10.575 10.482 10.395 10.335 10.325 10.338 10.345 10.353 10.36 10.365 10.357 10.355 10.352 10.337 10.323 10.308 10.295 10.28 10.252 10.165 10.02 9.86 9.698 9.62 9.623 9.613 9.57 9.54 9.54 9.553 9.595 9.655 9.713 9.77 9.807 9.817 9.827 9.845 9.867 9.887 9.902 9.917 9.93 9.932 9.91 9.857 9.773 9.705 9.675 9.645 9.615 9.62 9.642 9.645 9.63 9.59 9.543 9.498 9.483 9.51 9.55 9.595 9.622 9.61 9.578 9.545 9.528 9.525 9.528 9.533 9.538 9.543 9.593 9.72 9.88 9.945 9.91 9.867 9.82 9.772 9.735 9.7 9.665 9.643 9.623 9.6 9.58 9.558 9.55 9.572 9.572 9.498 9.408 9.348 9.308 9.335 9.395 9.4 9.373 9.36 9.36 9.36 9.357 9.355 9.33 9.26 9.17 9.078 9.05 9.11 9.18 9.237 9.275 9.295 9.315 9.335 8.935 8.245 8.065 8.137 8.093 8.07 8.085 8.123 8.16 8.198 8.213 8.238 8.292 8.342 8.392 8.445 8.48 8.472 8.38 8.225 8.065 7.915 7.81 7.773 7.763
10.878 10.89 10.862 10.788 10.703 10.625 10.588 10.6 10.63 10.655 10.66 10.642 10.612 10.58 10.55 10.517 10.485 10.47 10.485 10.515 10.545 10.575 10.605 10.625 10.638 10.653 10.658 10.665 10.685 10.705 10.71 10.677 10.623 10.57 10.538 10.53 10.525 10.51 10.492 10.48 10.47 10.455 10.44 10.425 10.41 10.4 10.375 10.338 10.303 10.295 10.365 10.483 10.602 10.702 10.722 10.687 10.66 10.635 10.58 10.495 10.415 10.358 10.318 10.3 10.303 10.31 10.318 10.323 10.33 10.335 10.325 10.308 10.295 10.28 10.265 10.255 10.243 10.242 10.217 10.122 9.978 9.823 9.768 9.79 9.75 9.66 9.6 9.57 9.565 9.605 9.665 9.725 9.785 9.82 9.832 9.847 9.862 9.877 9.892 9.907 9.92 9.932 9.93 9.887 9.83 9.787 9.755 9.725 9.695 9.665 9.645 9.638 9.632 9.61 9.568 9.525 9.498 9.51 9.55 9.582 9.602 9.602 9.58 9.545 9.513 9.485 9.465 9.463 9.468 9.475 9.48 9.513 9.622 9.767 9.84 9.83 9.795 9.765 9.76 9.75 9.717 9.685 9.675 9.675 9.657 9.635 9.618 9.625 9.652 9.667 9.542 9.378 9.337 9.353 9.395 9.412 9.39 9.365 9.355 9.355 9.355 9.345 9.325 9.3 9.255 9.195 9.122 9.083 9.115 9.177 9.24 9.282 9.305 9.325 8.892 8.101 7.913 8.162 8.22 8.158 8.1 8.09 8.123 8.158 8.19 8.215 8.252 8.31 8.367 8.422 8.488 8.572 8.565 8.435 8.282 8.125 7.967 7.863 7.84 7.835
10.86 10.885 10.87 10.8 10.72 10.643 10.578 10.545 10.548 10.565 10.577 10.575 10.557 10.527 10.495 10.463 10.445 10.455 10.48 10.51 10.543 10.578 10.615 10.642 10.655 10.665 10.66 10.653 10.665 10.685 10.695 10.682 10.657 10.62 10.583 10.567 10.55 10.512 10.483 10.48 10.48 10.465 10.45 10.435 10.425 10.422 10.4 10.36 10.323 10.305 10.365 10.485 10.587 10.645 10.632 10.578 10.528 10.483 10.433 10.38 10.338 10.315 10.308 10.3 10.29 10.288 10.293 10.298 10.305 10.31 10.295 10.27 10.253 10.238 10.225 10.218 10.218 10.235 10.255 10.242 10.172 10.043 9.978 9.952 9.845 9.73 9.67 9.648 9.645 9.678 9.735 9.795 9.83 9.827 9.828 9.84 9.855 9.87 9.885 9.9 9.913 9.93 9.917 9.865 9.815 9.78 9.752 9.725 9.695 9.665 9.645 9.635 9.622 9.595 9.555 9.52 9.518 9.547 9.575 9.587 9.592 9.59 9.57 9.538 9.527 9.497 9.435 9.405 9.405 9.415 9.423 9.433 9.478 9.58 9.68 9.697 9.663 9.678 9.737 9.757 9.735 9.708 9.705 9.72 9.712 9.69 9.685 9.702 9.715 9.71 9.555 9.315 9.28 9.38 9.455 9.455 9.4 9.358 9.333 9.315 9.297 9.275 9.24 9.205 9.175 9.155 9.14 9.133 9.138 9.173 9.237 9.285 9.31 9.207 8.318 7.741 8.077 8.27 8.295 8.23 8.16 8.12 8.135 8.172 8.197 8.208 8.238 8.293 8.35 8.42 8.513 8.63 8.577 8.375 8.212 8.058 7.943 7.93 7.98 8.002
10.868 10.9 10.882 10.815 10.742 10.667 10.602 10.548 10.505 10.488 10.49 10.495 10.492 10.472 10.44 10.42 10.428 10.45 10.473 10.503 10.54 10.58 10.62 10.655 10.677 10.682 10.667 10.648 10.64 10.653 10.662 10.657 10.652 10.637 10.612 10.585 10.545 10.495 10.468 10.475 10.485 10.475 10.46 10.45 10.45 10.447 10.422 10.385 10.348 10.32 10.373 10.472 10.527 10.56 10.555 10.505 10.443 10.39 10.36 10.343 10.328 10.313 10.308 10.307 10.295 10.283 10.275 10.275 10.283 10.287 10.272 10.24 10.213 10.195 10.188 10.193 10.21 10.235 10.255 10.27 10.27 10.222 10.155 10.055 9.915 9.803 9.748 9.735 9.735 9.755 9.805 9.842 9.832 9.818 9.825 9.835 9.848 9.86 9.875 9.893 9.91 9.925 9.902 9.853 9.808 9.77 9.745 9.72 9.692 9.665 9.645 9.63 9.61 9.582 9.545 9.525 9.54 9.562 9.57 9.573 9.577 9.577 9.558 9.54 9.555 9.527 9.443 9.375 9.35 9.355 9.368 9.38 9.393 9.435 9.52 9.557 9.558 9.638 9.73 9.755 9.747 9.735 9.74 9.76 9.765 9.755 9.755 9.762 9.755 9.74 9.607 9.4 9.363 9.44 9.528 9.555 9.493 9.42 9.348 9.273 9.203 9.155 9.123 9.098 9.09 9.103 9.135 9.185 9.202 9.198 9.235 9.285 9.314 8.697 7.928 7.983 8.23 8.315 8.33 8.287 8.23 8.168 8.153 8.185 8.2 8.193 8.22 8.278 8.35 8.455 8.578 8.702 8.63 8.35 8.128 8.008 7.985 8.045 8.12 8.175
10.887 10.897 10.855 10.787 10.722 10.662 10.61 10.555 10.493 10.443 10.425 10.423 10.42 10.41 10.398 10.403 10.422 10.445 10.465 10.495 10.537 10.58 10.622 10.665 10.697 10.697 10.675 10.655 10.635 10.628 10.628 10.625 10.62 10.615 10.602 10.567 10.52 10.473 10.453 10.465 10.48 10.482 10.477 10.475 10.48 10.475 10.447 10.412 10.375 10.338 10.36 10.415 10.445 10.475 10.477 10.443 10.398 10.365 10.35 10.337 10.325 10.31 10.305 10.312 10.305 10.29 10.275 10.265 10.263 10.262 10.247 10.215 10.185 10.163 10.163 10.185 10.21 10.235 10.255 10.27 10.285 10.287 10.24 10.125 9.985 9.875 9.83 9.825 9.827 9.837 9.855 9.847 9.818 9.81 9.82 9.833 9.848 9.86 9.873 9.89 9.91 9.917 9.89 9.845 9.802 9.763 9.735 9.71 9.685 9.663 9.64 9.618 9.593 9.568 9.54 9.533 9.545 9.55 9.553 9.558 9.56 9.563 9.558 9.568 9.587 9.55 9.47 9.383 9.323 9.315 9.328 9.338 9.345 9.358 9.393 9.433 9.5 9.627 9.722 9.745 9.75 9.76 9.775 9.795 9.81 9.812 9.807 9.797 9.78 9.76 9.695 9.635 9.63 9.632 9.657 9.675 9.63 9.54 9.445 9.355 9.255 9.15 9.068 9.045 9.07 9.105 9.153 9.222 9.265 9.26 9.268 9.297 8.757 7.808 7.763 8.172 8.272 8.32 8.32 8.302 8.272 8.222 8.188 8.193 8.195 8.18 8.208 8.288 8.398 8.523 8.65 8.777 8.722 8.363 8.075 8.043 8.092 8.162 8.227 8.265
10.82 10.795 10.742 10.675 10.61 10.575 10.56 10.527 10.47 10.413 10.385 10.375 10.368 10.365 10.375 10.395 10.415 10.435 10.452 10.475 10.515 10.56 10.605 10.65 10.682 10.685 10.665 10.645 10.625 10.613 10.603 10.593 10.588 10.582 10.567 10.532 10.488 10.453 10.448 10.463 10.475 10.482 10.485 10.485 10.485 10.477 10.452 10.417 10.38 10.348 10.333 10.343 10.37 10.4 10.42 10.41 10.38 10.355 10.34 10.33 10.322 10.31 10.305 10.317 10.315 10.3 10.285 10.27 10.257 10.245 10.227 10.2 10.173 10.148 10.15 10.182 10.21 10.235 10.255 10.27 10.277 10.267 10.245 10.175 10.053 9.95 9.913 9.907 9.907 9.892 9.86 9.825 9.805 9.813 9.828 9.843 9.858 9.87 9.883 9.9 9.917 9.917 9.885 9.838 9.795 9.755 9.725 9.702 9.678 9.668 9.663 9.645 9.62 9.588 9.553 9.54 9.548 9.55 9.553 9.555 9.555 9.56 9.598 9.65 9.65 9.582 9.485 9.375 9.305 9.305 9.323 9.33 9.335 9.345 9.353 9.39 9.493 9.632 9.725 9.75 9.765 9.785 9.808 9.83 9.835 9.8 9.762 9.745 9.722 9.697 9.7 9.725 9.737 9.737 9.732 9.727 9.692 9.62 9.545 9.472 9.38 9.22 9.075 9.048 9.078 9.113 9.165 9.25 9.31 9.322 9.325 8.967 7.851 7.468 8.017 8.22 8.28 8.31 8.3 8.285 8.27 8.245 8.215 8.203 8.2 8.193 8.228 8.33 8.46 8.587 8.715 8.845 8.81 8.393 8.08 8.115 8.177 8.235 8.287 8.262
10.66 10.62 10.572 10.513 10.46 10.445 10.455 10.455 10.43 10.382 10.35 10.343 10.343 10.35 10.365 10.385 10.402 10.42 10.435 10.45 10.48 10.52 10.565 10.607 10.632 10.637 10.625 10.61 10.603 10.608 10.602 10.575 10.558 10.55 10.532 10.498 10.463 10.448 10.453 10.465 10.47 10.47 10.47 10.467 10.462 10.455 10.435 10.403 10.37 10.348 10.323 10.3 10.308 10.335 10.37 10.387 10.37 10.345 10.33 10.32 10.315 10.308 10.305 10.32 10.322 10.31 10.295 10.277 10.25 10.222 10.207 10.19 10.167 10.14 10.14 10.175 10.21 10.237 10.255 10.262 10.257 10.242 10.225 10.19 10.105 10.01 9.972 9.965 9.945 9.892 9.833 9.803 9.81 9.835 9.852 9.865 9.872 9.88 9.895 9.912 9.925 9.92 9.885 9.835 9.788 9.745 9.715 9.695 9.685 9.708 9.73 9.712 9.677 9.635 9.583 9.555 9.56 9.567 9.572 9.575 9.575 9.588 9.682 9.755 9.695 9.585 9.46 9.333 9.278 9.3 9.327 9.345 9.355 9.363 9.373 9.425 9.533 9.662 9.75 9.78 9.8 9.82 9.842 9.855 9.83 9.748 9.655 9.61 9.588 9.57 9.59 9.635 9.672 9.697 9.707 9.707 9.687 9.645 9.57 9.475 9.385 9.222 9.085 9.068 9.088 9.12 9.178 9.27 9.347 9.375 9.374 8.385 7.503 7.88 8.175 8.228 8.28 8.297 8.283 8.267 8.25 8.233 8.22 8.238 8.26 8.258 8.275 8.36 8.49 8.62 8.75 8.88 8.845 8.413 8.108 8.162 8.217 8.27 8.3 8.217
10.485 10.44 10.398 10.35 10.323 10.325 10.335 10.345 10.347 10.332 10.32 10.323 10.33 10.34 10.355 10.373 10.388 10.403 10.415 10.43 10.45 10.48 10.522 10.557 10.577 10.587 10.588 10.59 10.6 10.612 10.617 10.59 10.548 10.523 10.5 10.473 10.458 10.452 10.455 10.46 10.455 10.448 10.445 10.442 10.437 10.43 10.415 10.39 10.368 10.352 10.327 10.29 10.268 10.275 10.308 10.345 10.352 10.335 10.32 10.31 10.308 10.308 10.31 10.322 10.327 10.32 10.295 10.257 10.215 10.185 10.177 10.17 10.155 10.133 10.133 10.165 10.205 10.237 10.25 10.245 10.232 10.215 10.195 10.175 10.13 10.053 10.008 9.987 9.935 9.86 9.8 9.793 9.825 9.857 9.875 9.882 9.887 9.895 9.907 9.917 9.925 9.92 9.885 9.835 9.785 9.738 9.705 9.7 9.725 9.765 9.785 9.762 9.717 9.67 9.618 9.575 9.565 9.577 9.59 9.597 9.6 9.633 9.735 9.77 9.67 9.54 9.413 9.3 9.263 9.29 9.32 9.347 9.37 9.38 9.405 9.48 9.585 9.705 9.787 9.815 9.835 9.855 9.867 9.85 9.8 9.715 9.595 9.498 9.453 9.448 9.48 9.525 9.57 9.615 9.647 9.67 9.672 9.637 9.55 9.435 9.332 9.195 9.1 9.098 9.108 9.133 9.198 9.295 9.385 9.424 8.732 7.643 7.688 8.15 8.193 8.24 8.277 8.283 8.268 8.253 8.238 8.223 8.228 8.287 8.347 8.355 8.345 8.388 8.5 8.63 8.76 8.875 8.785 8.373 8.13 8.19 8.247 8.302 8.285 8.148
