ncols         200
nrows         72
xllcorner     546000
yllcorner     255585
cellsize      5
NODATA_value  -9999.0
15.573 15.78 15.98 16.117 16.162 16.163 16.168 16.195 16.235 16.285 16.39 16.532 16.665 16.735 16.73 16.705 16.672 16.632 16.602 16.582 16.553 16.538 16.552 16.567 16.565 16.558 16.55 16.542 16.532 16.515 16.497 16.47 16.43 16.385 16.358 16.358 16.37 16.395 16.433 16.478 16.523 16.572 16.6 16.592 16.575 16.55 16.54 16.54 16.52 16.49 16.473 16.468 16.46 16.443 16.413 16.383 16.358 16.34 16.375 16.455 16.532 16.602 16.615 16.57 16.522 16.478 16.443 16.412 16.38 16.347 16.245 16.06 15.847 15.613 15.523 15.59 15.655 15.712 15.75 15.767 15.77 15.755 15.725 15.68 15.615 15.52 15.407 15.267 15.09 14.918 14.77 14.63 14.47 14.282 14.088 13.898 13.723 13.585 13.472 13.352 13.192 12.97 12.798 12.72 12.652 12.57 12.485 12.402 12.312 12.217 12.123 12.035 11.95 11.855 11.728 11.595 11.503 11.42 11.22 10.862 10.448 10.24 10.273 10.353 10.453 10.513 10.59 10.72 10.85 10.98 11.112 11.192 11.18 11.123 11.075 11.045 11.015 10.987 10.955 10.902 10.8 10.685 10.615 10.57 10.525 10.48 10.445 10.413 10.393 10.37 10.333 10.348 10.412 10.45 10.438 10.418 10.423 10.44 10.48 10.517 10.497 10.437 10.38 10.33 10.285 10.237 10.135 9.975 9.8 9.645 9.54 9.465 9.405 9.35 9.295 9.253 9.23 9.225 9.215 9.198 9.188 9.19 9.188 9.185 9.195 9.205 9.22 9.235 9.245 9.25 9.245 9.222 9.175 9.11 9.07 9.063 9.063 9.073 9.093 9.125
15.42 15.63 15.835 16.007 16.085 16.098 16.125 16.165 16.208 16.258 16.36 16.507 16.637 16.687 16.665 16.63 16.585 16.535 16.505 16.492 16.472 16.46 16.475 16.502 16.52 16.522 16.515 16.502 16.485 16.465 16.45 16.432 16.405 16.365 16.34 16.343 16.348 16.363 16.398 16.443 16.493 16.547 16.577 16.575 16.562 16.543 16.533 16.54 16.54 16.522 16.507 16.497 16.482 16.462 16.425 16.38 16.345 16.33 16.37 16.448 16.525 16.602 16.622 16.577 16.525 16.475 16.44 16.417 16.387 16.332 16.195 15.995 15.792 15.595 15.528 15.59 15.655 15.715 15.745 15.74 15.715 15.675 15.635 15.595 15.555 15.492 15.39 15.26 15.11 14.945 14.79 14.635 14.452 14.257 14.063 13.88 13.735 13.625 13.522 13.395 13.2 12.958 12.793 12.715 12.632 12.54 12.455 12.38 12.302 12.212 12.118 12.028 11.94 11.842 11.71 11.548 11.4 11.282 11.052 10.588 10.228 10.205 10.318 10.465 10.555 10.55 10.605 10.735 10.865 10.995 11.127 11.21 11.192 11.125 11.078 11.05 11.017 10.987 10.955 10.877 10.748 10.618 10.535 10.49 10.45 10.413 10.38 10.348 10.318 10.298 10.313 10.37 10.44 10.487 10.48 10.445 10.43 10.44 10.467 10.46 10.4 10.33 10.27 10.228 10.205 10.177 10.107 9.985 9.82 9.673 9.575 9.495 9.428 9.373 9.32 9.27 9.228 9.203 9.185 9.178 9.195 9.225 9.22 9.19 9.18 9.185 9.2 9.212 9.212 9.2 9.185 9.18 9.162 9.115 9.078 9.07 9.08 9.098 9.122 9.145
15.283 15.505 15.725 15.92 16.02 16.055 16.095 16.135 16.18 16.23 16.33 16.48 16.597 16.625 16.588 16.54 16.49 16.44 16.408 16.395 16.383 16.378 16.395 16.425 16.458 16.48 16.477 16.46 16.44 16.423 16.408 16.39 16.37 16.343 16.325 16.33 16.335 16.34 16.368 16.415 16.468 16.522 16.552 16.55 16.543 16.533 16.528 16.535 16.545 16.542 16.53 16.515 16.497 16.48 16.445 16.395 16.345 16.323 16.365 16.44 16.515 16.595 16.62 16.577 16.525 16.475 16.44 16.42 16.392 16.302 16.13 15.93 15.73 15.593 15.573 15.618 15.675 15.732 15.74 15.698 15.65 15.603 15.555 15.51 15.475 15.435 15.357 15.237 15.105 14.96 14.797 14.62 14.428 14.233 14.038 13.87 13.752 13.655 13.557 13.41 13.187 12.945 12.785 12.7 12.605 12.51 12.428 12.355 12.285 12.21 12.123 12.03 11.94 11.838 11.703 11.548 11.393 11.227 10.9 10.39 10.168 10.303 10.475 10.645 10.662 10.575 10.62 10.75 10.877 11.002 11.127 11.21 11.195 11.128 11.08 11.05 11.015 10.977 10.937 10.845 10.7 10.555 10.46 10.418 10.388 10.358 10.328 10.3 10.273 10.273 10.323 10.395 10.465 10.52 10.522 10.487 10.457 10.44 10.42 10.368 10.295 10.225 10.175 10.158 10.152 10.117 10.05 9.967 9.835 9.7 9.61 9.53 9.455 9.395 9.345 9.295 9.248 9.205 9.175 9.185 9.235 9.282 9.28 9.235 9.195 9.175 9.175 9.173 9.155 9.13 9.115 9.115 9.113 9.098 9.085 9.09 9.105 9.125 9.137 9.13
15.255 15.49 15.722 15.892 15.97 16.017 16.06 16.102 16.15 16.203 16.305 16.455 16.56 16.573 16.533 16.488 16.443 16.39 16.348 16.333 16.328 16.328 16.345 16.378 16.413 16.442 16.45 16.438 16.42 16.403 16.385 16.365 16.345 16.328 16.32 16.323 16.328 16.33 16.353 16.403 16.455 16.505 16.532 16.533 16.528 16.525 16.53 16.54 16.545 16.535 16.52 16.507 16.495 16.48 16.45 16.405 16.35 16.318 16.353 16.427 16.502 16.58 16.605 16.565 16.515 16.468 16.435 16.415 16.382 16.265 16.07 15.87 15.693 15.62 15.64 15.678 15.727 15.77 15.752 15.695 15.64 15.583 15.518 15.455 15.413 15.375 15.31 15.197 15.065 14.94 14.79 14.603 14.41 14.218 14.028 13.865 13.75 13.655 13.55 13.385 13.158 12.93 12.785 12.71 12.63 12.548 12.455 12.373 12.305 12.24 12.16 12.065 11.973 11.868 11.735 11.585 11.435 11.235 10.857 10.388 10.298 10.495 10.65 10.797 10.745 10.595 10.623 10.747 10.87 10.99 11.11 11.2 11.195 11.138 11.085 11.038 11 10.96 10.907 10.8 10.65 10.53 10.448 10.39 10.355 10.328 10.303 10.278 10.253 10.268 10.332 10.405 10.472 10.53 10.537 10.502 10.47 10.435 10.375 10.3 10.23 10.16 10.12 10.12 10.117 10.072 9.998 9.925 9.83 9.722 9.627 9.535 9.48 9.448 9.4 9.35 9.303 9.255 9.203 9.188 9.23 9.282 9.285 9.242 9.197 9.175 9.173 9.155 9.128 9.1 9.088 9.093 9.098 9.103 9.115 9.13 9.145 9.155 9.14 9.115
15.323 15.557 15.76 15.87 15.92 15.967 16.012 16.057 16.102 16.155 16.27 16.432 16.537 16.567 16.55 16.51 16.47 16.408 16.348 16.323 16.313 16.31 16.328 16.362 16.392 16.417 16.43 16.427 16.415 16.395 16.375 16.355 16.338 16.325 16.32 16.32 16.325 16.33 16.35 16.398 16.447 16.49 16.52 16.527 16.523 16.528 16.537 16.542 16.537 16.515 16.495 16.485 16.472 16.455 16.432 16.4 16.353 16.315 16.34 16.413 16.488 16.565 16.587 16.548 16.503 16.46 16.43 16.402 16.337 16.2 16.01 15.81 15.688 15.68 15.71 15.743 15.785 15.812 15.78 15.718 15.66 15.595 15.518 15.438 15.375 15.33 15.26 15.143 15.018 14.91 14.777 14.597 14.405 14.223 14.05 13.888 13.753 13.645 13.52 13.333 13.138 12.99 12.89 12.823 12.758 12.68 12.568 12.45 12.365 12.3 12.22 12.125 12.03 11.925 11.795 11.645 11.465 11.205 10.852 10.428 10.395 10.695 10.867 10.935 10.822 10.64 10.625 10.738 10.855 10.975 11.095 11.192 11.197 11.158 11.107 11.033 10.98 10.94 10.872 10.75 10.64 10.588 10.51 10.425 10.378 10.338 10.3 10.265 10.24 10.265 10.333 10.398 10.457 10.512 10.522 10.49 10.46 10.422 10.357 10.275 10.2 10.13 10.093 10.09 10.087 10.047 9.97 9.89 9.797 9.695 9.59 9.51 9.51 9.522 9.487 9.44 9.387 9.335 9.263 9.19 9.183 9.225 9.23 9.19 9.173 9.198 9.215 9.195 9.16 9.125 9.118 9.13 9.14 9.15 9.165 9.18 9.185 9.177 9.155 9.128
15.39 15.607 15.75 15.815 15.862 15.902 15.947 15.992 16.028 16.065 16.195 16.397 16.517 16.567 16.592 16.575 16.522 16.44 16.37 16.333 16.305 16.295 16.313 16.342 16.368 16.392 16.405 16.405 16.4 16.387 16.37 16.353 16.338 16.325 16.32 16.32 16.325 16.33 16.348 16.39 16.435 16.475 16.51 16.522 16.523 16.533 16.542 16.537 16.517 16.493 16.475 16.462 16.445 16.427 16.407 16.38 16.347 16.313 16.33 16.4 16.473 16.55 16.572 16.535 16.495 16.455 16.422 16.365 16.255 16.117 15.947 15.78 15.723 15.75 15.782 15.815 15.85 15.857 15.81 15.742 15.677 15.605 15.522 15.435 15.353 15.292 15.212 15.098 14.993 14.895 14.767 14.598 14.42 14.255 14.095 13.935 13.778 13.643 13.505 13.353 13.238 13.162 13.09 13.002 12.905 12.8 12.685 12.562 12.448 12.363 12.28 12.185 12.09 11.985 11.855 11.687 11.45 11.15 10.832 10.445 10.43 10.827 11.055 11.055 10.925 10.738 10.665 10.743 10.853 10.965 11.08 11.185 11.21 11.19 11.145 11.053 10.975 10.925 10.848 10.755 10.725 10.7 10.598 10.495 10.44 10.39 10.34 10.293 10.27 10.298 10.35 10.398 10.443 10.49 10.505 10.48 10.45 10.41 10.345 10.26 10.178 10.103 10.065 10.06 10.052 10.017 9.945 9.855 9.742 9.628 9.538 9.513 9.555 9.59 9.575 9.527 9.47 9.412 9.335 9.24 9.175 9.173 9.175 9.163 9.193 9.247 9.27 9.247 9.207 9.17 9.163 9.175 9.187 9.2 9.212 9.217 9.207 9.195 9.175 9.145
15.457 15.63 15.707 15.75 15.787 15.82 15.867 15.92 15.955 15.983 16.12 16.355 16.495 16.548 16.595 16.612 16.555 16.458 16.39 16.35 16.315 16.29 16.295 16.32 16.345 16.37 16.38 16.38 16.38 16.377 16.368 16.355 16.343 16.328 16.32 16.323 16.328 16.33 16.343 16.378 16.42 16.46 16.497 16.52 16.53 16.54 16.542 16.525 16.495 16.47 16.452 16.435 16.418 16.402 16.38 16.353 16.327 16.3 16.32 16.39 16.463 16.537 16.56 16.525 16.487 16.45 16.39 16.285 16.155 16.025 15.88 15.785 15.762 15.75 15.742 15.735 15.755 15.822 15.83 15.762 15.69 15.61 15.525 15.435 15.345 15.27 15.188 15.085 14.988 14.893 14.775 14.62 14.46 14.305 14.145 13.985 13.82 13.665 13.54 13.452 13.385 13.307 13.212 13.097 12.972 12.85 12.74 12.637 12.525 12.425 12.337 12.242 12.147 12.045 11.907 11.692 11.405 11.095 10.785 10.435 10.45 10.88 11.125 11.112 11.017 10.863 10.735 10.758 10.863 10.968 11.075 11.182 11.235 11.232 11.185 11.093 11.003 10.935 10.883 10.86 10.865 10.815 10.69 10.573 10.503 10.445 10.403 10.38 10.373 10.393 10.43 10.468 10.5 10.518 10.508 10.48 10.448 10.405 10.34 10.258 10.175 10.098 10.05 10.03 10.018 9.987 9.91 9.798 9.675 9.565 9.52 9.55 9.605 9.647 9.647 9.607 9.55 9.487 9.405 9.31 9.22 9.158 9.148 9.177 9.227 9.277 9.297 9.275 9.235 9.2 9.19 9.202 9.217 9.232 9.24 9.232 9.217 9.207 9.19 9.16
15.485 15.597 15.637 15.67 15.7 15.73 15.78 15.847 15.895 15.925 16.065 16.302 16.465 16.537 16.585 16.612 16.567 16.47 16.403 16.365 16.327 16.285 16.275 16.302 16.327 16.35 16.36 16.36 16.36 16.363 16.365 16.36 16.35 16.338 16.33 16.333 16.338 16.34 16.348 16.375 16.415 16.453 16.493 16.53 16.55 16.56 16.553 16.528 16.498 16.46 16.43 16.41 16.395 16.38 16.355 16.33 16.308 16.285 16.31 16.382 16.457 16.527 16.545 16.51 16.475 16.44 16.375 16.265 16.133 16 15.85 15.693 15.58 15.512 15.46 15.428 15.5 15.697 15.81 15.772 15.695 15.608 15.52 15.433 15.348 15.27 15.2 15.12 15.025 14.93 14.817 14.67 14.513 14.355 14.195 14.035 13.873 13.713 13.6 13.53 13.457 13.367 13.247 13.115 12.99 12.868 12.755 12.657 12.56 12.465 12.377 12.29 12.202 12.105 11.932 11.657 11.345 11.035 10.725 10.415 10.475 10.917 11.16 11.14 11.07 10.965 10.815 10.78 10.878 10.983 11.088 11.195 11.275 11.295 11.245 11.155 11.073 11.018 11.01 11.022 10.997 10.907 10.77 10.643 10.555 10.508 10.495 10.5 10.508 10.523 10.555 10.585 10.592 10.572 10.535 10.498 10.463 10.422 10.363 10.285 10.21 10.148 10.103 10.062 10.017 9.96 9.875 9.76 9.635 9.535 9.523 9.572 9.6 9.59 9.51 9.447 9.465 9.497 9.465 9.367 9.272 9.18 9.145 9.175 9.217 9.262 9.285 9.265 9.225 9.193 9.183 9.192 9.205 9.22 9.225 9.215 9.203 9.208 9.2 9.163
15.472 15.532 15.553 15.58 15.61 15.64 15.69 15.765 15.827 15.868 16.008 16.24 16.43 16.535 16.585 16.602 16.565 16.48 16.41 16.375 16.327 16.27 16.255 16.285 16.312 16.335 16.345 16.345 16.345 16.35 16.36 16.365 16.36 16.35 16.345 16.347 16.353 16.358 16.365 16.388 16.423 16.458 16.497 16.542 16.575 16.59 16.58 16.552 16.51 16.448 16.408 16.392 16.377 16.36 16.335 16.31 16.293 16.278 16.303 16.375 16.45 16.515 16.527 16.49 16.455 16.42 16.377 16.31 16.195 16.06 15.877 15.608 15.353 15.165 15.055 15.1 15.298 15.552 15.745 15.775 15.695 15.605 15.515 15.43 15.353 15.28 15.22 15.165 15.09 15 14.88 14.727 14.57 14.41 14.25 14.088 13.925 13.765 13.65 13.577 13.495 13.395 13.272 13.138 13.01 12.885 12.77 12.673 12.578 12.488 12.403 12.32 12.242 12.157 11.955 11.638 11.315 10.993 10.67 10.395 10.505 10.96 11.197 11.17 11.1 11.022 10.903 10.833 10.893 10.998 11.105 11.215 11.317 11.37 11.33 11.245 11.188 11.165 11.175 11.165 11.085 10.967 10.835 10.715 10.623 10.59 10.605 10.62 10.637 10.655 10.667 10.662 10.64 10.605 10.565 10.528 10.493 10.455 10.405 10.342 10.277 10.212 10.152 10.087 10.005 9.917 9.832 9.737 9.632 9.535 9.507 9.515 9.475 9.405 9.24 9.06 9.135 9.385 9.477 9.402 9.305 9.21 9.16 9.163 9.188 9.23 9.252 9.235 9.2 9.173 9.163 9.16 9.165 9.18 9.185 9.178 9.185 9.217 9.212 9.163
15.452 15.49 15.49 15.5 15.52 15.553 15.603 15.675 15.75 15.81 15.95 16.175 16.385 16.522 16.58 16.582 16.545 16.48 16.418 16.375 16.315 16.253 16.24 16.268 16.295 16.32 16.33 16.333 16.335 16.34 16.35 16.36 16.365 16.36 16.358 16.363 16.368 16.373 16.383 16.403 16.43 16.463 16.5 16.545 16.587 16.615 16.607 16.562 16.495 16.423 16.385 16.372 16.357 16.34 16.318 16.298 16.283 16.27 16.295 16.363 16.437 16.502 16.51 16.47 16.435 16.4 16.36 16.317 16.247 16.132 15.925 15.635 15.33 15.035 14.848 14.923 15.165 15.403 15.637 15.745 15.69 15.6 15.515 15.438 15.363 15.29 15.23 15.185 15.132 15.06 14.94 14.782 14.625 14.467 14.307 14.142 13.978 13.815 13.7 13.62 13.525 13.42 13.297 13.163 13.03 12.903 12.788 12.688 12.598 12.512 12.427 12.348 12.273 12.195 12.01 11.7 11.37 11.045 10.728 10.48 10.605 11.027 11.235 11.2 11.13 11.055 10.97 10.89 10.908 11.015 11.125 11.235 11.345 11.43 11.42 11.36 11.335 11.325 11.317 11.26 11.142 11.02 10.9 10.798 10.71 10.673 10.69 10.712 10.735 10.75 10.735 10.7 10.67 10.635 10.597 10.562 10.525 10.482 10.427 10.362 10.29 10.207 10.122 10.035 9.948 9.863 9.778 9.692 9.607 9.525 9.438 9.35 9.27 9.19 9.025 8.78 8.85 9.23 9.415 9.385 9.325 9.243 9.19 9.18 9.183 9.205 9.217 9.205 9.177 9.155 9.145 9.138 9.135 9.143 9.148 9.16 9.2 9.24 9.227 9.175
15.43 15.46 15.455 15.45 15.45 15.47 15.515 15.585 15.665 15.743 15.888 16.105 16.32 16.492 16.57 16.56 16.52 16.47 16.415 16.36 16.295 16.235 16.225 16.253 16.28 16.308 16.32 16.323 16.325 16.33 16.34 16.353 16.365 16.373 16.378 16.38 16.385 16.39 16.4 16.42 16.442 16.467 16.497 16.54 16.585 16.622 16.612 16.545 16.465 16.398 16.363 16.348 16.335 16.323 16.308 16.293 16.278 16.263 16.285 16.35 16.422 16.485 16.49 16.453 16.418 16.38 16.34 16.3 16.257 16.18 15.98 15.688 15.39 15.1 14.875 14.905 15.13 15.35 15.58 15.7 15.655 15.565 15.495 15.442 15.377 15.302 15.24 15.195 15.147 15.082 14.965 14.805 14.645 14.5 14.357 14.197 14.033 13.87 13.748 13.652 13.55 13.445 13.322 13.188 13.053 12.923 12.805 12.708 12.62 12.53 12.448 12.377 12.307 12.23 12.09 11.835 11.525 11.22 10.923 10.69 10.765 11.057 11.225 11.227 11.157 11.083 11.01 10.933 10.935 11.038 11.153 11.265 11.378 11.48 11.507 11.485 11.475 11.462 11.422 11.327 11.202 11.082 10.975 10.885 10.8 10.755 10.768 10.787 10.805 10.817 10.788 10.738 10.7 10.66 10.622 10.585 10.537 10.48 10.407 10.32 10.232 10.15 10.065 9.978 9.892 9.807 9.722 9.638 9.555 9.508 9.448 9.365 9.175 8.975 8.81 8.665 8.773 9.11 9.315 9.305 9.287 9.25 9.217 9.205 9.197 9.192 9.185 9.17 9.15 9.138 9.13 9.123 9.115 9.113 9.13 9.173 9.227 9.262 9.245 9.192
15.402 15.427 15.422 15.415 15.408 15.408 15.45 15.535 15.623 15.71 15.858 16.063 16.265 16.457 16.55 16.527 16.482 16.435 16.38 16.32 16.258 16.215 16.225 16.26 16.29 16.318 16.333 16.335 16.335 16.345 16.365 16.385 16.403 16.42 16.43 16.433 16.437 16.42 16.405 16.42 16.442 16.465 16.48 16.505 16.547 16.59 16.572 16.497 16.425 16.373 16.35 16.338 16.325 16.315 16.305 16.29 16.275 16.26 16.275 16.335 16.405 16.467 16.477 16.442 16.405 16.368 16.333 16.295 16.252 16.192 16.032 15.77 15.487 15.203 14.945 14.943 15.167 15.39 15.59 15.652 15.58 15.493 15.432 15.397 15.352 15.297 15.242 15.187 15.127 15.057 14.94 14.78 14.635 14.52 14.402 14.25 14.085 13.923 13.785 13.677 13.572 13.467 13.35 13.215 13.08 12.948 12.825 12.727 12.637 12.545 12.468 12.405 12.34 12.267 12.17 11.985 11.715 11.422 11.13 10.895 10.848 10.968 11.12 11.207 11.182 11.11 11.038 10.983 11.01 11.113 11.23 11.348 11.457 11.535 11.557 11.55 11.54 11.52 11.465 11.365 11.245 11.128 11.032 10.96 10.885 10.838 10.84 10.857 10.878 10.895 10.86 10.793 10.73 10.675 10.632 10.582 10.52 10.45 10.365 10.263 10.17 10.09 10.007 9.922 9.837 9.753 9.667 9.583 9.518 9.508 9.52 9.512 9.365 8.975 8.67 8.685 8.83 9.063 9.215 9.213 9.218 9.225 9.22 9.205 9.192 9.177 9.16 9.143 9.13 9.125 9.12 9.11 9.1 9.108 9.143 9.192 9.25 9.282 9.257 9.2
15.347 15.38 15.382 15.375 15.368 15.363 15.413 15.52 15.627 15.728 15.873 16.065 16.253 16.437 16.515 16.475 16.425 16.375 16.32 16.258 16.213 16.208 16.24 16.282 16.317 16.345 16.36 16.365 16.373 16.398 16.43 16.457 16.48 16.5 16.51 16.515 16.5 16.432 16.388 16.403 16.427 16.45 16.458 16.46 16.485 16.525 16.507 16.438 16.385 16.355 16.345 16.34 16.33 16.317 16.305 16.29 16.273 16.255 16.268 16.323 16.39 16.457 16.472 16.435 16.4 16.37 16.337 16.3 16.257 16.2 16.06 15.832 15.58 15.305 15.023 14.988 15.203 15.425 15.575 15.577 15.492 15.405 15.348 15.312 15.277 15.242 15.2 15.145 15.08 15.01 14.897 14.755 14.645 14.557 14.45 14.302 14.135 13.963 13.808 13.69 13.59 13.492 13.38 13.247 13.113 12.978 12.848 12.74 12.65 12.565 12.495 12.435 12.372 12.302 12.22 12.097 11.887 11.61 11.323 11.108 10.995 10.968 11.015 11.115 11.175 11.135 11.063 11.048 11.125 11.238 11.352 11.465 11.545 11.575 11.575 11.562 11.542 11.51 11.455 11.375 11.27 11.153 11.065 11.005 10.945 10.908 10.905 10.923 10.952 10.975 10.94 10.86 10.768 10.683 10.62 10.555 10.485 10.415 10.325 10.213 10.113 10.03 9.95 9.867 9.783 9.698 9.613 9.538 9.508 9.523 9.537 9.542 9.547 9.317 9.07 9.07 9.095 9.13 9.153 9.16 9.18 9.2 9.2 9.183 9.168 9.153 9.138 9.128 9.12 9.113 9.107 9.1 9.098 9.13 9.167 9.205 9.26 9.287 9.262 9.203
15.265 15.305 15.32 15.327 15.325 15.318 15.373 15.49 15.61 15.72 15.872 16.072 16.262 16.422 16.465 16.415 16.365 16.315 16.258 16.21 16.2 16.215 16.248 16.292 16.337 16.372 16.39 16.403 16.428 16.462 16.495 16.525 16.552 16.577 16.59 16.575 16.515 16.415 16.365 16.385 16.41 16.43 16.44 16.435 16.438 16.46 16.445 16.395 16.365 16.345 16.335 16.335 16.332 16.322 16.307 16.29 16.267 16.245 16.26 16.315 16.378 16.445 16.462 16.43 16.403 16.375 16.34 16.302 16.265 16.21 16.07 15.855 15.63 15.387 15.115 15.05 15.238 15.447 15.537 15.49 15.405 15.318 15.263 15.225 15.19 15.155 15.113 15.065 15.01 14.955 14.873 14.77 14.685 14.602 14.495 14.347 14.175 13.995 13.823 13.693 13.602 13.515 13.407 13.28 13.145 13.01 12.875 12.755 12.663 12.588 12.525 12.465 12.405 12.337 12.255 12.16 12.025 11.795 11.538 11.375 11.28 11.185 11.108 11.095 11.135 11.142 11.11 11.145 11.25 11.362 11.472 11.552 11.585 11.592 11.59 11.57 11.535 11.495 11.44 11.367 11.28 11.175 11.09 11.038 10.998 10.97 10.97 10.995 11.027 11.052 11.02 10.932 10.817 10.698 10.603 10.52 10.445 10.372 10.28 10.165 10.055 9.965 9.887 9.81 9.727 9.642 9.56 9.515 9.52 9.54 9.55 9.547 9.545 9.537 9.492 9.412 9.32 9.217 9.158 9.155 9.168 9.182 9.18 9.16 9.145 9.13 9.118 9.113 9.107 9.1 9.095 9.09 9.108 9.162 9.19 9.215 9.26 9.28 9.267 9.215
15.175 15.215 15.235 15.255 15.267 15.27 15.328 15.44 15.55 15.655 15.815 16.032 16.242 16.387 16.405 16.355 16.305 16.255 16.21 16.198 16.21 16.223 16.253 16.3 16.347 16.387 16.42 16.455 16.492 16.527 16.56 16.59 16.62 16.647 16.65 16.595 16.498 16.393 16.348 16.367 16.39 16.412 16.425 16.42 16.415 16.42 16.408 16.38 16.36 16.34 16.328 16.328 16.33 16.32 16.3 16.28 16.257 16.235 16.253 16.31 16.37 16.432 16.455 16.432 16.405 16.375 16.34 16.305 16.27 16.217 16.08 15.865 15.645 15.427 15.193 15.115 15.27 15.44 15.46 15.362 15.267 15.22 15.197 15.16 15.125 15.09 15.05 15.01 14.968 14.93 14.88 14.805 14.725 14.64 14.525 14.367 14.192 14.015 13.835 13.693 13.597 13.51 13.417 13.305 13.172 13.037 12.903 12.775 12.68 12.615 12.555 12.495 12.435 12.372 12.292 12.195 12.095 11.947 11.782 11.665 11.567 11.47 11.37 11.272 11.213 11.178 11.178 11.25 11.35 11.452 11.542 11.585 11.597 11.605 11.592 11.56 11.52 11.483 11.43 11.355 11.275 11.19 11.123 11.085 11.055 11.03 11.035 11.07 11.105 11.13 11.095 10.992 10.862 10.728 10.615 10.515 10.423 10.335 10.233 10.115 10 9.903 9.823 9.745 9.667 9.585 9.525 9.52 9.543 9.567 9.567 9.543 9.523 9.505 9.462 9.395 9.322 9.242 9.183 9.165 9.167 9.17 9.16 9.14 9.125 9.113 9.105 9.1 9.095 9.09 9.083 9.088 9.133 9.197 9.213 9.225 9.255 9.265 9.267 9.232
15.092 15.138 15.163 15.188 15.213 15.235 15.283 15.37 15.47 15.57 15.73 15.953 16.177 16.325 16.335 16.285 16.235 16.198 16.185 16.195 16.21 16.222 16.25 16.292 16.335 16.375 16.42 16.47 16.517 16.56 16.595 16.622 16.647 16.67 16.662 16.6 16.5 16.393 16.335 16.34 16.362 16.387 16.412 16.422 16.42 16.42 16.41 16.39 16.37 16.348 16.333 16.333 16.33 16.3 16.265 16.245 16.225 16.213 16.243 16.305 16.365 16.427 16.452 16.43 16.403 16.38 16.353 16.318 16.28 16.23 16.095 15.88 15.66 15.445 15.233 15.165 15.307 15.385 15.298 15.165 15.058 15.07 15.145 15.152 15.115 15.06 15.008 14.992 14.977 14.942 14.897 14.832 14.755 14.67 14.545 14.375 14.198 14.02 13.845 13.693 13.575 13.48 13.4 13.312 13.195 13.062 12.928 12.805 12.725 12.67 12.613 12.555 12.497 12.415 12.31 12.21 12.11 12.015 11.915 11.81 11.71 11.61 11.51 11.41 11.31 11.238 11.235 11.295 11.382 11.477 11.547 11.577 11.595 11.612 11.605 11.57 11.528 11.488 11.433 11.355 11.278 11.205 11.153 11.122 11.095 11.075 11.085 11.125 11.17 11.202 11.155 11.027 10.89 10.755 10.64 10.535 10.428 10.323 10.205 10.075 9.953 9.845 9.755 9.678 9.61 9.548 9.525 9.548 9.575 9.602 9.595 9.558 9.525 9.49 9.438 9.37 9.305 9.243 9.188 9.158 9.15 9.147 9.132 9.115 9.115 9.115 9.103 9.09 9.085 9.08 9.073 9.1 9.17 9.232 9.24 9.233 9.243 9.25 9.26 9.237
15.05 15.1 15.13 15.16 15.19 15.22 15.25 15.3 15.385 15.485 15.648 15.87 16.095 16.245 16.255 16.21 16.175 16.16 16.165 16.18 16.195 16.208 16.23 16.265 16.305 16.343 16.388 16.44 16.49 16.535 16.572 16.605 16.63 16.65 16.642 16.597 16.522 16.42 16.345 16.318 16.323 16.348 16.385 16.422 16.437 16.44 16.43 16.41 16.39 16.365 16.35 16.345 16.32 16.267 16.22 16.195 16.18 16.183 16.228 16.297 16.36 16.422 16.445 16.423 16.405 16.395 16.375 16.34 16.3 16.25 16.115 15.9 15.683 15.47 15.258 15.208 15.352 15.387 15.218 14.985 14.833 14.883 15.052 15.14 15.107 15.02 14.953 14.955 14.975 14.957 14.912 14.852 14.782 14.7 14.567 14.387 14.203 14.02 13.853 13.7 13.56 13.45 13.37 13.3 13.207 13.085 12.95 12.848 12.803 12.765 12.715 12.657 12.572 12.44 12.308 12.205 12.113 12.03 11.927 11.813 11.71 11.61 11.51 11.41 11.333 11.305 11.305 11.323 11.383 11.47 11.532 11.563 11.59 11.622 11.63 11.602 11.565 11.525 11.465 11.383 11.3 11.223 11.17 11.148 11.133 11.12 11.125 11.16 11.207 11.222 11.15 11.017 10.882 10.757 10.65 10.545 10.435 10.325 10.202 10.065 9.93 9.808 9.718 9.655 9.6 9.555 9.55 9.58 9.61 9.637 9.63 9.592 9.55 9.492 9.428 9.363 9.3 9.243 9.19 9.145 9.12 9.113 9.1 9.098 9.12 9.137 9.122 9.093 9.075 9.068 9.078 9.13 9.21 9.267 9.272 9.255 9.248 9.248 9.255 9.232
15.04 15.092 15.12 15.153 15.185 15.215 15.24 15.26 15.308 15.398 15.563 15.788 16.015 16.167 16.185 16.158 16.145 16.14 16.145 16.158 16.173 16.185 16.205 16.238 16.273 16.308 16.355 16.405 16.445 16.485 16.525 16.567 16.605 16.625 16.612 16.575 16.525 16.445 16.375 16.33 16.3 16.308 16.345 16.395 16.435 16.455 16.45 16.43 16.407 16.383 16.367 16.345 16.292 16.23 16.178 16.148 16.145 16.16 16.21 16.285 16.355 16.42 16.44 16.425 16.418 16.412 16.395 16.36 16.317 16.267 16.135 15.922 15.71 15.497 15.283 15.248 15.392 15.47 15.31 14.98 14.753 14.798 15.013 15.12 15.067 14.965 14.898 14.9 14.94 14.957 14.925 14.865 14.802 14.725 14.587 14.4 14.21 14.023 13.858 13.71 13.56 13.43 13.34 13.275 13.205 13.102 12.98 12.908 12.89 12.872 12.825 12.732 12.595 12.435 12.303 12.205 12.125 12.05 11.947 11.825 11.713 11.61 11.51 11.43 11.398 11.395 11.395 11.395 11.413 11.468 11.523 11.558 11.595 11.637 11.65 11.625 11.597 11.567 11.507 11.42 11.33 11.248 11.198 11.182 11.175 11.165 11.163 11.187 11.21 11.177 11.087 10.968 10.848 10.74 10.642 10.542 10.437 10.33 10.207 10.073 9.94 9.815 9.73 9.68 9.63 9.585 9.58 9.61 9.642 9.672 9.665 9.62 9.562 9.495 9.425 9.36 9.303 9.25 9.2 9.15 9.108 9.083 9.08 9.1 9.13 9.157 9.152 9.115 9.08 9.068 9.1 9.17 9.247 9.3 9.307 9.295 9.28 9.268 9.262 9.227
15.03 15.087 15.115 15.148 15.182 15.215 15.242 15.253 15.263 15.32 15.478 15.705 15.937 16.097 16.132 16.125 16.12 16.118 16.125 16.138 16.153 16.165 16.185 16.215 16.245 16.278 16.32 16.363 16.4 16.44 16.48 16.525 16.573 16.592 16.57 16.53 16.492 16.442 16.39 16.347 16.305 16.283 16.305 16.355 16.405 16.447 16.457 16.442 16.422 16.4 16.37 16.32 16.258 16.193 16.133 16.108 16.12 16.145 16.198 16.273 16.348 16.417 16.445 16.44 16.435 16.43 16.412 16.367 16.312 16.255 16.125 15.925 15.722 15.517 15.31 15.298 15.485 15.58 15.412 15.075 14.82 14.85 15.067 15.127 15.025 14.913 14.84 14.843 14.887 14.925 14.92 14.87 14.812 14.747 14.62 14.44 14.26 14.08 13.913 13.755 13.6 13.455 13.343 13.265 13.193 13.108 13.025 12.98 12.96 12.937 12.875 12.75 12.6 12.45 12.323 12.225 12.145 12.07 11.97 11.845 11.723 11.613 11.528 11.49 11.485 11.485 11.485 11.488 11.49 11.5 11.53 11.57 11.61 11.652 11.667 11.645 11.62 11.595 11.532 11.44 11.353 11.28 11.23 11.208 11.202 11.197 11.195 11.192 11.17 11.112 11.028 10.925 10.823 10.725 10.63 10.535 10.437 10.337 10.217 10.087 9.962 9.842 9.76 9.71 9.657 9.61 9.608 9.64 9.675 9.707 9.692 9.632 9.565 9.495 9.428 9.365 9.313 9.265 9.215 9.165 9.118 9.093 9.105 9.138 9.17 9.197 9.195 9.163 9.125 9.103 9.123 9.183 9.257 9.315 9.33 9.32 9.305 9.29 9.272 9.22
15.017 15.08 15.112 15.145 15.177 15.207 15.237 15.257 15.258 15.278 15.408 15.633 15.867 16.027 16.07 16.068 16.075 16.1 16.123 16.14 16.155 16.155 16.165 16.198 16.23 16.26 16.305 16.355 16.395 16.433 16.47 16.515 16.565 16.582 16.528 16.46 16.422 16.387 16.35 16.31 16.272 16.25 16.27 16.32 16.37 16.417 16.437 16.427 16.41 16.4 16.377 16.323 16.258 16.19 16.13 16.118 16.143 16.175 16.23 16.305 16.378 16.435 16.465 16.468 16.463 16.457 16.42 16.347 16.28 16.212 16.08 15.887 15.693 15.518 15.405 15.46 15.65 15.695 15.477 15.158 14.91 14.935 15.112 15.115 14.99 14.865 14.785 14.788 14.83 14.87 14.885 14.855 14.802 14.75 14.675 14.54 14.37 14.2 14.03 13.858 13.69 13.533 13.398 13.3 13.218 13.14 13.088 13.055 13.025 12.982 12.91 12.808 12.68 12.54 12.415 12.308 12.213 12.125 12.02 11.895 11.768 11.653 11.593 11.588 11.593 11.595 11.598 11.602 11.592 11.565 11.568 11.605 11.645 11.685 11.69 11.663 11.637 11.61 11.545 11.453 11.378 11.32 11.27 11.23 11.213 11.21 11.202 11.167 11.118 11.06 10.988 10.902 10.81 10.715 10.62 10.525 10.433 10.342 10.215 10.072 9.947 9.832 9.757 9.71 9.657 9.61 9.608 9.642 9.677 9.71 9.692 9.625 9.555 9.485 9.43 9.385 9.338 9.293 9.245 9.195 9.16 9.158 9.18 9.213 9.242 9.262 9.255 9.225 9.19 9.158 9.155 9.188 9.245 9.312 9.34 9.327 9.312 9.295 9.267 9.202
15.01 15.075 15.103 15.135 15.162 15.188 15.22 15.257 15.272 15.29 15.4 15.59 15.805 15.955 15.998 16.015 16.05 16.1 16.137 16.16 16.167 16.15 16.15 16.183 16.218 16.253 16.31 16.377 16.427 16.465 16.498 16.54 16.585 16.592 16.512 16.403 16.34 16.303 16.268 16.233 16.21 16.21 16.24 16.29 16.337 16.382 16.402 16.39 16.38 16.393 16.405 16.37 16.3 16.233 16.185 16.185 16.213 16.245 16.302 16.37 16.425 16.467 16.495 16.502 16.5 16.482 16.415 16.32 16.24 16.162 16.025 15.833 15.693 15.64 15.665 15.752 15.825 15.765 15.535 15.25 15.008 15.015 15.137 15.085 14.96 14.838 14.755 14.74 14.77 14.81 14.832 14.82 14.777 14.73 14.695 14.632 14.5 14.33 14.16 13.985 13.81 13.64 13.48 13.365 13.288 13.22 13.175 13.14 13.095 13.035 12.965 12.887 12.79 12.675 12.557 12.448 12.345 12.248 12.143 12.02 11.893 11.773 11.713 11.713 11.72 11.727 11.722 11.705 11.672 11.628 11.62 11.655 11.695 11.735 11.73 11.688 11.655 11.622 11.557 11.475 11.415 11.365 11.315 11.265 11.228 11.205 11.18 11.137 11.083 11.023 10.957 10.882 10.797 10.705 10.61 10.518 10.44 10.36 10.21 10.03 9.89 9.785 9.72 9.677 9.632 9.588 9.583 9.617 9.65 9.68 9.67 9.61 9.54 9.468 9.41 9.392 9.372 9.328 9.283 9.243 9.228 9.24 9.265 9.292 9.312 9.325 9.315 9.285 9.252 9.218 9.21 9.23 9.26 9.31 9.342 9.332 9.31 9.285 9.252 9.182
15.02 15.085 15.1 15.12 15.14 15.165 15.203 15.247 15.28 15.328 15.448 15.61 15.782 15.907 15.965 16.015 16.065 16.115 16.155 16.175 16.167 16.14 16.14 16.173 16.21 16.248 16.305 16.382 16.45 16.5 16.535 16.567 16.6 16.6 16.517 16.385 16.28 16.22 16.19 16.173 16.17 16.18 16.21 16.257 16.302 16.347 16.367 16.363 16.37 16.395 16.42 16.407 16.353 16.29 16.258 16.267 16.292 16.317 16.362 16.412 16.45 16.49 16.52 16.535 16.535 16.49 16.4 16.303 16.21 16.115 15.993 15.893 15.865 15.875 15.892 15.905 15.875 15.785 15.602 15.353 15.11 15.095 15.157 15.053 14.94 14.855 14.79 14.745 14.73 14.75 14.78 14.777 14.747 14.71 14.675 14.65 14.59 14.455 14.282 14.105 13.927 13.75 13.585 13.455 13.365 13.307 13.26 13.205 13.142 13.075 13.005 12.93 12.85 12.767 12.682 12.592 12.495 12.397 12.292 12.18 12.067 11.945 11.863 11.848 11.85 11.84 11.81 11.77 11.728 11.683 11.67 11.702 11.745 11.78 11.772 11.725 11.68 11.637 11.577 11.51 11.455 11.402 11.347 11.29 11.235 11.188 11.15 11.107 11.052 10.99 10.922 10.852 10.777 10.692 10.6 10.523 10.47 10.392 10.23 10.023 9.845 9.735 9.68 9.64 9.6 9.56 9.558 9.59 9.62 9.65 9.647 9.595 9.525 9.45 9.378 9.363 9.385 9.365 9.323 9.303 9.305 9.32 9.345 9.365 9.375 9.382 9.37 9.342 9.315 9.28 9.27 9.29 9.31 9.335 9.35 9.333 9.298 9.265 9.235 9.167
15.042 15.105 15.115 15.122 15.133 15.15 15.185 15.232 15.275 15.348 15.477 15.63 15.765 15.862 15.935 16 16.062 16.125 16.17 16.18 16.16 16.13 16.13 16.165 16.205 16.243 16.3 16.375 16.442 16.502 16.545 16.572 16.6 16.6 16.517 16.385 16.258 16.168 16.14 16.143 16.15 16.16 16.188 16.228 16.268 16.31 16.338 16.355 16.378 16.405 16.435 16.452 16.425 16.365 16.32 16.31 16.322 16.335 16.367 16.417 16.465 16.512 16.545 16.562 16.565 16.513 16.418 16.325 16.233 16.108 15.995 15.967 15.96 15.925 15.885 15.84 15.785 15.732 15.642 15.46 15.22 15.155 15.15 15.043 14.97 14.917 14.865 14.805 14.75 14.718 14.728 14.73 14.71 14.69 14.66 14.635 14.622 14.55 14.39 14.21 14.03 13.858 13.71 13.578 13.458 13.378 13.315 13.245 13.18 13.115 13.042 12.968 12.893 12.825 12.782 12.73 12.64 12.54 12.425 12.312 12.215 12.107 12.015 11.972 11.95 11.912 11.87 11.83 11.785 11.74 11.718 11.733 11.767 11.79 11.787 11.755 11.705 11.655 11.6 11.537 11.477 11.417 11.355 11.29 11.228 11.173 11.125 11.075 11.02 10.96 10.89 10.82 10.75 10.675 10.603 10.55 10.51 10.425 10.257 10.048 9.843 9.705 9.648 9.613 9.575 9.543 9.543 9.568 9.593 9.62 9.625 9.58 9.508 9.433 9.358 9.32 9.347 9.377 9.375 9.375 9.387 9.402 9.42 9.43 9.435 9.44 9.425 9.398 9.37 9.338 9.33 9.347 9.362 9.377 9.375 9.348 9.31 9.273 9.24 9.17
15.017 15.072 15.107 15.117 15.125 15.135 15.163 15.21 15.26 15.343 15.467 15.6 15.71 15.795 15.87 15.942 16.017 16.092 16.157 16.177 16.155 16.128 16.128 16.16 16.2 16.235 16.278 16.337 16.4 16.46 16.505 16.537 16.572 16.577 16.5 16.37 16.245 16.158 16.145 16.165 16.175 16.185 16.21 16.248 16.283 16.32 16.355 16.385 16.415 16.448 16.483 16.515 16.515 16.47 16.393 16.318 16.293 16.3 16.335 16.392 16.45 16.502 16.535 16.55 16.572 16.582 16.547 16.475 16.385 16.245 16.038 15.903 15.86 15.82 15.777 15.728 15.68 15.663 15.647 15.53 15.32 15.205 15.155 15.09 15.045 14.975 14.91 14.86 14.802 14.743 14.705 14.693 14.685 14.675 14.653 14.638 14.647 14.62 14.49 14.31 14.133 13.975 13.84 13.7 13.553 13.438 13.36 13.288 13.218 13.152 13.08 13.008 12.945 12.89 12.867 12.85 12.78 12.677 12.552 12.43 12.335 12.237 12.13 12.062 12.027 11.983 11.94 11.898 11.853 11.808 11.773 11.765 11.778 11.783 11.78 11.742 11.68 11.637 11.597 11.54 11.473 11.408 11.345 11.283 11.223 11.168 11.113 11.05 10.988 10.928 10.86 10.795 10.735 10.67 10.613 10.57 10.532 10.452 10.295 10.095 9.885 9.723 9.643 9.603 9.568 9.54 9.54 9.56 9.58 9.603 9.62 9.593 9.515 9.43 9.345 9.28 9.293 9.362 9.422 9.45 9.465 9.48 9.487 9.493 9.497 9.5 9.485 9.455 9.425 9.398 9.385 9.39 9.4 9.41 9.407 9.382 9.345 9.308 9.272 9.195
14.922 14.968 15.042 15.082 15.1 15.11 15.138 15.185 15.24 15.323 15.442 15.56 15.65 15.727 15.803 15.878 15.953 16.035 16.125 16.167 16.152 16.13 16.13 16.16 16.195 16.22 16.245 16.285 16.338 16.395 16.442 16.483 16.527 16.542 16.47 16.343 16.235 16.168 16.17 16.21 16.23 16.24 16.265 16.307 16.347 16.382 16.415 16.448 16.48 16.512 16.545 16.575 16.6 16.585 16.502 16.385 16.295 16.268 16.3 16.352 16.402 16.45 16.48 16.505 16.553 16.615 16.655 16.66 16.615 16.492 16.19 15.873 15.755 15.715 15.67 15.625 15.61 15.635 15.652 15.56 15.393 15.28 15.222 15.165 15.085 14.975 14.912 14.887 14.832 14.775 14.72 14.688 14.68 14.668 14.653 14.66 14.685 14.687 14.585 14.405 14.24 14.097 13.955 13.797 13.638 13.508 13.418 13.34 13.265 13.195 13.125 13.063 13.01 12.963 12.945 12.95 12.912 12.815 12.678 12.55 12.447 12.317 12.18 12.118 12.1 12.062 12.017 11.972 11.927 11.877 11.833 11.818 11.812 11.79 11.77 11.715 11.625 11.578 11.562 11.53 11.467 11.398 11.335 11.278 11.223 11.17 11.115 11.045 10.975 10.915 10.855 10.8 10.747 10.685 10.62 10.573 10.54 10.462 10.32 10.145 9.945 9.77 9.665 9.605 9.565 9.54 9.54 9.56 9.583 9.615 9.65 9.65 9.61 9.543 9.45 9.333 9.288 9.355 9.442 9.505 9.532 9.547 9.555 9.557 9.56 9.555 9.54 9.515 9.488 9.462 9.44 9.43 9.433 9.44 9.44 9.415 9.378 9.347 9.31 9.233
14.805 14.843 14.93 15.01 15.06 15.082 15.115 15.168 15.225 15.3 15.405 15.505 15.585 15.662 15.737 15.813 15.895 15.99 16.09 16.142 16.14 16.128 16.128 16.152 16.18 16.2 16.225 16.255 16.288 16.333 16.382 16.427 16.475 16.502 16.44 16.328 16.245 16.185 16.183 16.23 16.27 16.292 16.32 16.365 16.41 16.445 16.478 16.512 16.545 16.575 16.605 16.638 16.672 16.685 16.625 16.507 16.38 16.278 16.263 16.303 16.345 16.39 16.425 16.468 16.525 16.587 16.65 16.712 16.742 16.707 16.437 15.995 15.71 15.608 15.57 15.56 15.585 15.625 15.657 15.6 15.475 15.375 15.285 15.185 15.065 14.938 14.88 14.88 14.845 14.788 14.74 14.7 14.678 14.668 14.67 14.695 14.725 14.747 14.672 14.508 14.355 14.207 14.045 13.88 13.723 13.588 13.485 13.4 13.323 13.253 13.19 13.135 13.085 13.04 13.025 13.035 13.03 12.95 12.8 12.66 12.525 12.36 12.22 12.17 12.165 12.137 12.09 12.042 11.995 11.943 11.893 11.873 11.857 11.81 11.765 11.702 11.585 11.51 11.505 11.497 11.465 11.403 11.338 11.285 11.233 11.18 11.125 11.06 10.995 10.935 10.88 10.83 10.77 10.7 10.63 10.578 10.54 10.45 10.312 10.167 9.995 9.82 9.7 9.628 9.57 9.538 9.54 9.568 9.608 9.66 9.702 9.715 9.715 9.695 9.627 9.465 9.328 9.35 9.442 9.53 9.587 9.615 9.625 9.622 9.615 9.602 9.587 9.57 9.55 9.525 9.503 9.488 9.478 9.475 9.47 9.45 9.42 9.395 9.35 9.285
14.69 14.72 14.803 14.898 14.98 15.04 15.092 15.15 15.21 15.273 15.347 15.43 15.51 15.587 15.665 15.755 15.855 15.955 16.055 16.112 16.12 16.117 16.12 16.137 16.16 16.18 16.202 16.227 16.25 16.277 16.32 16.367 16.417 16.457 16.42 16.335 16.265 16.203 16.198 16.243 16.29 16.332 16.37 16.415 16.465 16.507 16.542 16.575 16.605 16.637 16.67 16.702 16.735 16.762 16.735 16.622 16.475 16.32 16.255 16.283 16.315 16.35 16.38 16.425 16.485 16.547 16.61 16.67 16.73 16.767 16.58 16.165 15.773 15.553 15.515 15.55 15.598 15.643 15.68 15.655 15.565 15.46 15.325 15.17 15.028 14.9 14.828 14.84 14.847 14.808 14.763 14.718 14.685 14.683 14.705 14.735 14.765 14.795 14.752 14.615 14.455 14.29 14.123 13.963 13.808 13.668 13.555 13.463 13.385 13.325 13.273 13.218 13.165 13.12 13.105 13.115 13.112 13.047 12.912 12.762 12.605 12.44 12.313 12.253 12.238 12.21 12.16 12.11 12.06 12.01 11.96 11.932 11.902 11.84 11.775 11.695 11.573 11.488 11.473 11.465 11.453 11.415 11.36 11.31 11.258 11.205 11.153 11.09 11.025 10.965 10.91 10.855 10.787 10.713 10.64 10.585 10.537 10.44 10.3 10.16 10.013 9.858 9.743 9.668 9.595 9.55 9.558 9.603 9.66 9.717 9.752 9.76 9.757 9.755 9.715 9.565 9.375 9.34 9.435 9.53 9.612 9.67 9.687 9.677 9.66 9.645 9.63 9.615 9.602 9.582 9.562 9.545 9.527 9.512 9.5 9.49 9.472 9.447 9.402 9.355
14.618 14.64 14.718 14.813 14.903 14.985 15.06 15.125 15.185 15.237 15.275 15.323 15.395 15.472 15.555 15.657 15.77 15.877 15.982 16.055 16.072 16.067 16.067 16.08 16.1 16.112 16.125 16.145 16.165 16.185 16.22 16.272 16.327 16.362 16.38 16.355 16.282 16.215 16.21 16.257 16.302 16.337 16.37 16.415 16.467 16.515 16.55 16.582 16.615 16.65 16.685 16.717 16.75 16.782 16.78 16.682 16.52 16.348 16.273 16.297 16.317 16.312 16.318 16.365 16.425 16.485 16.548 16.61 16.672 16.695 16.57 16.25 15.84 15.59 15.553 15.59 15.645 15.695 15.722 15.697 15.627 15.53 15.385 15.205 15.033 14.875 14.773 14.79 14.847 14.837 14.793 14.747 14.695 14.68 14.712 14.745 14.777 14.817 14.812 14.702 14.535 14.365 14.203 14.048 13.893 13.748 13.63 13.535 13.463 13.41 13.36 13.305 13.25 13.2 13.18 13.187 13.16 13.095 12.995 12.865 12.72 12.56 12.44 12.373 12.33 12.288 12.233 12.18 12.128 12.075 12.025 11.987 11.94 11.87 11.803 11.73 11.635 11.553 11.52 11.505 11.488 11.46 11.413 11.358 11.303 11.25 11.2 11.14 11.07 11.003 10.94 10.875 10.805 10.73 10.655 10.598 10.55 10.462 10.328 10.185 10.043 9.905 9.808 9.738 9.663 9.608 9.605 9.65 9.707 9.762 9.792 9.795 9.792 9.787 9.747 9.63 9.438 9.35 9.425 9.52 9.61 9.695 9.727 9.71 9.687 9.665 9.645 9.627 9.612 9.602 9.587 9.565 9.545 9.525 9.51 9.505 9.5 9.485 9.452 9.41
14.578 14.603 14.675 14.765 14.85 14.932 15.015 15.087 15.15 15.2 15.215 15.22 15.258 15.325 15.41 15.513 15.627 15.742 15.855 15.94 15.972 15.972 15.973 15.982 15.992 15.993 15.998 16.015 16.035 16.055 16.093 16.145 16.185 16.203 16.255 16.317 16.295 16.228 16.22 16.27 16.302 16.308 16.328 16.375 16.422 16.465 16.5 16.533 16.567 16.602 16.637 16.672 16.707 16.74 16.74 16.665 16.535 16.378 16.295 16.302 16.285 16.24 16.24 16.295 16.358 16.42 16.485 16.552 16.615 16.612 16.52 16.267 15.905 15.718 15.685 15.675 15.705 15.755 15.77 15.732 15.675 15.595 15.455 15.275 15.093 14.913 14.775 14.773 14.857 14.872 14.83 14.775 14.695 14.655 14.68 14.718 14.768 14.835 14.84 14.747 14.607 14.447 14.288 14.133 13.98 13.83 13.71 13.623 13.55 13.495 13.445 13.392 13.337 13.283 13.258 13.245 13.195 13.13 13.055 12.952 12.827 12.68 12.57 12.51 12.45 12.388 12.325 12.268 12.213 12.158 12.103 12.045 11.98 11.913 11.853 11.8 11.735 11.655 11.61 11.595 11.575 11.542 11.49 11.43 11.37 11.313 11.258 11.2 11.132 11.052 10.97 10.895 10.822 10.748 10.675 10.615 10.57 10.497 10.385 10.252 10.108 9.975 9.888 9.827 9.758 9.7 9.683 9.703 9.745 9.797 9.827 9.828 9.825 9.822 9.775 9.665 9.505 9.388 9.415 9.51 9.608 9.705 9.74 9.717 9.687 9.652 9.625 9.605 9.59 9.595 9.587 9.558 9.533 9.513 9.5 9.495 9.49 9.475 9.45 9.41
14.53 14.573 14.635 14.715 14.795 14.878 14.96 15.04 15.112 15.16 15.172 15.165 15.168 15.198 15.265 15.368 15.483 15.598 15.71 15.8 15.847 15.863 15.87 15.877 15.875 15.868 15.87 15.885 15.905 15.925 15.96 15.997 16.015 16.025 16.07 16.172 16.25 16.237 16.233 16.265 16.272 16.265 16.283 16.327 16.37 16.41 16.447 16.48 16.513 16.548 16.583 16.617 16.65 16.677 16.67 16.602 16.505 16.39 16.305 16.26 16.198 16.153 16.173 16.233 16.298 16.363 16.428 16.495 16.542 16.515 16.435 16.25 16.008 15.895 15.86 15.82 15.803 15.82 15.815 15.765 15.71 15.642 15.522 15.357 15.183 15.01 14.858 14.813 14.882 14.91 14.86 14.785 14.695 14.635 14.65 14.715 14.795 14.86 14.835 14.745 14.647 14.522 14.373 14.22 14.07 13.923 13.805 13.718 13.638 13.575 13.525 13.475 13.422 13.37 13.332 13.29 13.227 13.165 13.102 13.02 12.925 12.805 12.703 12.642 12.577 12.51 12.443 12.378 12.318 12.262 12.2 12.12 12.04 11.975 11.92 11.87 11.817 11.748 11.7 11.682 11.66 11.625 11.57 11.51 11.45 11.39 11.327 11.265 11.187 11.09 10.998 10.918 10.84 10.765 10.695 10.633 10.585 10.517 10.42 10.307 10.172 10.045 9.965 9.912 9.852 9.8 9.78 9.783 9.8 9.837 9.862 9.862 9.858 9.855 9.8 9.68 9.547 9.418 9.405 9.508 9.62 9.717 9.74 9.707 9.667 9.625 9.593 9.575 9.578 9.597 9.592 9.557 9.523 9.498 9.485 9.472 9.452 9.427 9.405 9.377
14.528 14.578 14.62 14.685 14.763 14.84 14.918 14.998 15.075 15.12 15.127 15.122 15.118 15.118 15.158 15.248 15.358 15.468 15.575 15.67 15.728 15.758 15.773 15.773 15.765 15.753 15.748 15.76 15.78 15.795 15.813 15.828 15.835 15.845 15.883 15.978 16.105 16.192 16.227 16.235 16.228 16.223 16.238 16.275 16.315 16.355 16.393 16.428 16.46 16.493 16.528 16.56 16.587 16.615 16.602 16.53 16.44 16.355 16.282 16.205 16.12 16.08 16.11 16.175 16.242 16.307 16.372 16.437 16.457 16.407 16.33 16.22 16.12 16.075 16.035 15.98 15.92 15.887 15.857 15.8 15.745 15.67 15.55 15.415 15.277 15.117 14.96 14.895 14.925 14.932 14.875 14.793 14.71 14.643 14.66 14.755 14.852 14.89 14.845 14.773 14.703 14.605 14.465 14.315 14.168 14.035 13.925 13.828 13.738 13.66 13.603 13.555 13.508 13.46 13.395 13.318 13.25 13.192 13.135 13.075 13.012 12.923 12.835 12.77 12.703 12.637 12.57 12.5 12.433 12.367 12.287 12.19 12.108 12.048 11.993 11.94 11.89 11.833 11.79 11.768 11.742 11.705 11.65 11.587 11.525 11.462 11.397 11.33 11.23 11.115 11.023 10.943 10.865 10.788 10.715 10.65 10.597 10.532 10.44 10.34 10.227 10.115 10.04 9.99 9.937 9.895 9.88 9.877 9.875 9.885 9.895 9.895 9.892 9.887 9.822 9.695 9.57 9.443 9.418 9.523 9.645 9.727 9.73 9.688 9.643 9.6 9.565 9.558 9.577 9.597 9.587 9.55 9.51 9.477 9.455 9.43 9.4 9.373 9.35 9.332
14.577 14.612 14.64 14.685 14.75 14.825 14.9 14.975 15.045 15.08 15.082 15.077 15.07 15.078 15.123 15.203 15.305 15.41 15.515 15.608 15.668 15.695 15.708 15.71 15.7 15.688 15.678 15.683 15.7 15.708 15.69 15.678 15.683 15.69 15.738 15.848 15.985 16.12 16.192 16.197 16.193 16.188 16.2 16.235 16.275 16.315 16.355 16.393 16.425 16.455 16.478 16.498 16.525 16.552 16.535 16.46 16.375 16.303 16.255 16.19 16.098 16.053 16.068 16.118 16.185 16.252 16.317 16.377 16.372 16.303 16.24 16.203 16.177 16.157 16.115 16.04 15.975 15.95 15.91 15.843 15.787 15.692 15.545 15.413 15.305 15.182 15.052 14.99 14.985 14.967 14.917 14.843 14.768 14.695 14.703 14.795 14.897 14.945 14.913 14.855 14.795 14.702 14.565 14.418 14.283 14.165 14.058 13.955 13.858 13.768 13.698 13.645 13.598 13.552 13.472 13.36 13.265 13.198 13.143 13.132 13.115 13.038 12.965 12.9 12.83 12.765 12.7 12.63 12.552 12.457 12.35 12.25 12.175 12.12 12.067 12.015 11.963 11.913 11.88 11.858 11.832 11.787 11.723 11.655 11.59 11.525 11.46 11.387 11.272 11.148 11.05 10.968 10.89 10.813 10.738 10.668 10.61 10.547 10.46 10.36 10.26 10.165 10.095 10.042 9.992 9.957 9.942 9.935 9.925 9.92 9.92 9.92 9.92 9.91 9.86 9.757 9.635 9.515 9.475 9.558 9.68 9.742 9.725 9.68 9.635 9.59 9.545 9.533 9.55 9.567 9.555 9.515 9.475 9.44 9.41 9.38 9.35 9.32 9.3 9.288
14.62 14.645 14.67 14.7 14.748 14.818 14.892 14.965 15.017 15.037 15.037 15.03 15.035 15.07 15.13 15.213 15.31 15.41 15.515 15.602 15.647 15.65 15.66 15.677 15.67 15.66 15.653 15.653 15.662 15.667 15.63 15.578 15.56 15.565 15.635 15.782 15.935 16.067 16.14 16.157 16.165 16.16 16.17 16.205 16.243 16.28 16.327 16.377 16.415 16.442 16.45 16.45 16.465 16.487 16.467 16.395 16.323 16.263 16.23 16.185 16.11 16.07 16.065 16.08 16.128 16.195 16.262 16.305 16.275 16.215 16.208 16.212 16.173 16.14 16.1 16.028 16 16.017 15.97 15.885 15.825 15.71 15.545 15.39 15.27 15.175 15.085 15.037 15.027 15.012 14.982 14.925 14.85 14.77 14.755 14.83 14.935 15.015 15.01 14.95 14.89 14.8 14.665 14.528 14.41 14.3 14.19 14.085 13.985 13.895 13.82 13.753 13.695 13.647 13.562 13.438 13.315 13.21 13.135 13.172 13.227 13.175 13.1 13.03 12.963 12.897 12.83 12.752 12.647 12.52 12.4 12.313 12.25 12.193 12.14 12.09 12.038 11.993 11.97 11.952 11.927 11.88 11.803 11.723 11.653 11.587 11.522 11.445 11.322 11.185 11.08 10.995 10.915 10.838 10.76 10.685 10.623 10.565 10.483 10.38 10.28 10.188 10.118 10.065 10.025 9.995 9.97 9.955 9.945 9.94 9.94 9.94 9.932 9.91 9.88 9.83 9.74 9.628 9.578 9.62 9.717 9.767 9.732 9.685 9.635 9.58 9.525 9.495 9.498 9.515 9.505 9.465 9.428 9.393 9.36 9.33 9.303 9.288 9.285 9.275
14.652 14.678 14.703 14.728 14.76 14.813 14.885 14.945 14.975 14.99 14.99 14.995 15.03 15.08 15.14 15.225 15.322 15.418 15.517 15.59 15.605 15.59 15.605 15.637 15.64 15.633 15.63 15.627 15.628 15.63 15.595 15.523 15.468 15.453 15.535 15.705 15.875 16.012 16.082 16.107 16.127 16.13 16.143 16.177 16.21 16.245 16.295 16.355 16.405 16.435 16.44 16.43 16.425 16.432 16.408 16.345 16.285 16.228 16.195 16.17 16.128 16.1 16.09 16.083 16.093 16.138 16.205 16.225 16.195 16.195 16.245 16.25 16.18 16.13 16.083 16.043 16.06 16.095 16.04 15.935 15.85 15.715 15.548 15.383 15.24 15.133 15.06 15.033 15.025 15.018 15.022 15.002 14.933 14.85 14.815 14.87 14.975 15.077 15.1 15.045 14.985 14.895 14.77 14.65 14.54 14.433 14.325 14.218 14.115 14.025 13.95 13.875 13.805 13.743 13.648 13.523 13.4 13.28 13.173 13.188 13.292 13.305 13.24 13.167 13.097 13.03 12.95 12.845 12.71 12.57 12.458 12.383 12.327 12.27 12.213 12.16 12.113 12.078 12.06 12.045 12.022 11.98 11.9 11.805 11.72 11.65 11.585 11.502 11.377 11.228 11.108 11.023 10.945 10.865 10.785 10.71 10.653 10.605 10.522 10.41 10.303 10.2 10.128 10.088 10.058 10.032 10.005 9.983 9.968 9.958 9.955 9.95 9.93 9.9 9.87 9.842 9.8 9.732 9.705 9.725 9.77 9.78 9.73 9.677 9.62 9.56 9.505 9.47 9.46 9.467 9.455 9.415 9.38 9.347 9.315 9.293 9.283 9.29 9.297 9.282
14.687 14.712 14.737 14.762 14.787 14.82 14.87 14.907 14.922 14.938 14.955 14.99 15.04 15.09 15.153 15.238 15.335 15.43 15.507 15.547 15.547 15.533 15.55 15.595 15.612 15.61 15.607 15.6 15.595 15.595 15.56 15.488 15.415 15.38 15.463 15.633 15.808 15.955 16.027 16.053 16.078 16.095 16.118 16.15 16.182 16.218 16.265 16.325 16.385 16.422 16.425 16.417 16.41 16.405 16.385 16.333 16.268 16.2 16.16 16.155 16.145 16.13 16.12 16.11 16.1 16.108 16.145 16.168 16.188 16.24 16.295 16.28 16.2 16.13 16.088 16.095 16.135 16.172 16.12 15.995 15.872 15.72 15.553 15.385 15.225 15.095 15.03 15.025 15.065 15.095 15.083 15.072 15.032 14.948 14.88 14.913 15.02 15.13 15.177 15.14 15.08 15 14.895 14.785 14.675 14.568 14.462 14.355 14.25 14.158 14.083 14.013 13.94 13.865 13.765 13.645 13.528 13.41 13.29 13.223 13.302 13.375 13.332 13.275 13.215 13.142 13.037 12.905 12.76 12.62 12.523 12.46 12.403 12.345 12.288 12.235 12.193 12.165 12.15 12.135 12.115 12.08 12.005 11.905 11.807 11.72 11.645 11.557 11.43 11.277 11.143 11.048 10.97 10.89 10.813 10.743 10.693 10.655 10.58 10.465 10.35 10.245 10.175 10.135 10.098 10.068 10.043 10.018 9.995 9.978 9.965 9.948 9.92 9.893 9.863 9.83 9.805 9.777 9.77 9.787 9.795 9.767 9.715 9.66 9.6 9.543 9.488 9.45 9.435 9.425 9.395 9.352 9.32 9.287 9.265 9.267 9.285 9.307 9.31 9.285
14.662 14.687 14.715 14.74 14.765 14.797 14.832 14.857 14.87 14.883 14.923 14.987 15.047 15.1 15.165 15.247 15.325 15.392 15.44 15.465 15.47 15.463 15.483 15.53 15.562 15.567 15.562 15.555 15.55 15.555 15.525 15.453 15.39 15.368 15.45 15.613 15.78 15.925 15.992 16.015 16.043 16.068 16.093 16.12 16.153 16.188 16.235 16.295 16.36 16.405 16.41 16.403 16.398 16.397 16.392 16.357 16.293 16.218 16.175 16.175 16.175 16.165 16.155 16.145 16.135 16.128 16.135 16.17 16.228 16.292 16.342 16.337 16.275 16.198 16.16 16.18 16.22 16.245 16.177 16.04 15.9 15.74 15.568 15.395 15.228 15.1 15.09 15.158 15.21 15.207 15.15 15.13 15.135 15.072 14.993 15.02 15.13 15.22 15.252 15.222 15.165 15.1 15.022 14.925 14.815 14.705 14.598 14.493 14.393 14.305 14.233 14.168 14.1 14.027 13.927 13.808 13.69 13.573 13.452 13.328 13.32 13.387 13.375 13.33 13.282 13.202 13.08 12.942 12.803 12.68 12.6 12.54 12.48 12.42 12.363 12.313 12.278 12.255 12.24 12.225 12.205 12.167 12.08 11.975 11.885 11.795 11.712 11.61 11.462 11.295 11.15 11.062 10.995 10.915 10.838 10.773 10.728 10.7 10.645 10.542 10.428 10.328 10.26 10.21 10.163 10.125 10.1 10.08 10.06 10.033 10.003 9.978 9.953 9.928 9.885 9.828 9.79 9.765 9.758 9.77 9.767 9.737 9.69 9.637 9.582 9.527 9.47 9.43 9.412 9.377 9.313 9.253 9.215 9.187 9.18 9.197 9.225 9.252 9.25 9.222
14.562 14.59 14.62 14.645 14.68 14.737 14.782 14.802 14.815 14.828 14.875 14.957 15.032 15.095 15.152 15.21 15.257 15.295 15.33 15.357 15.37 15.373 15.395 15.44 15.485 15.502 15.497 15.493 15.498 15.515 15.49 15.425 15.393 15.395 15.473 15.627 15.785 15.92 15.985 16 16.025 16.05 16.07 16.093 16.12 16.155 16.205 16.268 16.335 16.387 16.4 16.393 16.39 16.395 16.395 16.38 16.34 16.275 16.235 16.227 16.218 16.205 16.195 16.185 16.183 16.19 16.2 16.223 16.273 16.337 16.387 16.407 16.395 16.342 16.285 16.285 16.325 16.307 16.195 16.063 15.935 15.78 15.608 15.435 15.278 15.235 15.305 15.352 15.325 15.255 15.195 15.185 15.215 15.192 15.145 15.19 15.277 15.32 15.32 15.287 15.237 15.18 15.12 15.047 14.952 14.845 14.735 14.633 14.545 14.47 14.4 14.333 14.267 14.2 14.1 13.975 13.855 13.737 13.615 13.485 13.39 13.4 13.415 13.37 13.312 13.222 13.1 12.965 12.858 12.798 12.74 12.665 12.598 12.533 12.468 12.405 12.363 12.34 12.325 12.31 12.282 12.235 12.117 11.965 11.86 11.782 11.702 11.592 11.44 11.263 11.113 11.047 11.01 10.942 10.865 10.803 10.77 10.752 10.707 10.62 10.51 10.415 10.355 10.305 10.263 10.233 10.21 10.193 10.17 10.125 10.08 10.053 10.03 10.002 9.942 9.86 9.793 9.75 9.738 9.74 9.73 9.702 9.66 9.61 9.56 9.507 9.45 9.408 9.377 9.317 9.228 9.143 9.085 9.065 9.073 9.088 9.105 9.123 9.13 9.14
14.44 14.478 14.508 14.545 14.608 14.685 14.735 14.75 14.76 14.778 14.83 14.912 14.992 15.067 15.105 15.12 15.153 15.187 15.217 15.243 15.265 15.278 15.303 15.35 15.4 15.43 15.433 15.438 15.458 15.48 15.46 15.42 15.418 15.433 15.498 15.632 15.777 15.91 15.98 15.99 16.008 16.03 16.05 16.07 16.093 16.125 16.175 16.243 16.315 16.37 16.387 16.385 16.388 16.395 16.395 16.385 16.367 16.325 16.29 16.277 16.26 16.245 16.238 16.24 16.255 16.277 16.292 16.295 16.323 16.38 16.422 16.445 16.467 16.465 16.42 16.403 16.41 16.337 16.2 16.083 15.977 15.832 15.66 15.493 15.423 15.462 15.475 15.427 15.36 15.29 15.24 15.243 15.277 15.292 15.295 15.33 15.367 15.382 15.38 15.35 15.307 15.255 15.197 15.14 15.07 14.98 14.877 14.785 14.71 14.638 14.568 14.5 14.435 14.37 14.272 14.147 14.022 13.897 13.772 13.645 13.515 13.453 13.442 13.402 13.33 13.235 13.118 13.01 12.965 12.95 12.9 12.822 12.75 12.682 12.612 12.535 12.465 12.423 12.405 12.382 12.34 12.29 12.167 11.973 11.805 11.693 11.603 11.495 11.362 11.21 11.068 11.005 10.995 10.957 10.893 10.84 10.822 10.807 10.762 10.69 10.59 10.503 10.455 10.418 10.39 10.368 10.345 10.322 10.282 10.22 10.17 10.14 10.112 10.075 10.007 9.922 9.838 9.765 9.723 9.705 9.69 9.668 9.63 9.58 9.53 9.48 9.43 9.382 9.325 9.245 9.153 9.065 9.008 8.995 9.008 9.02 9.03 9.043 9.075 9.133
14.338 14.383 14.425 14.483 14.558 14.635 14.685 14.698 14.705 14.728 14.785 14.868 14.953 15.03 15.05 15.03 15.045 15.078 15.103 15.13 15.16 15.18 15.21 15.26 15.31 15.353 15.378 15.398 15.423 15.445 15.445 15.44 15.452 15.468 15.518 15.628 15.763 15.897 15.972 15.985 15.998 16.015 16.033 16.05 16.07 16.098 16.148 16.218 16.29 16.35 16.377 16.38 16.385 16.395 16.395 16.385 16.375 16.352 16.335 16.325 16.305 16.293 16.295 16.315 16.342 16.362 16.37 16.372 16.382 16.417 16.455 16.475 16.5 16.525 16.525 16.512 16.46 16.337 16.21 16.11 16.017 15.885 15.715 15.61 15.61 15.59 15.515 15.45 15.385 15.318 15.285 15.303 15.338 15.372 15.402 15.417 15.425 15.437 15.435 15.405 15.365 15.32 15.27 15.215 15.155 15.087 15.01 14.937 14.872 14.802 14.732 14.667 14.6 14.527 14.432 14.307 14.172 14.045 13.922 13.797 13.672 13.558 13.485 13.425 13.338 13.243 13.153 13.098 13.082 13.06 12.992 12.912 12.845 12.78 12.715 12.645 12.575 12.518 12.48 12.44 12.39 12.34 12.23 12.043 11.84 11.665 11.528 11.403 11.275 11.143 11.018 10.958 10.955 10.945 10.912 10.875 10.852 10.827 10.787 10.737 10.665 10.602 10.572 10.547 10.525 10.502 10.477 10.44 10.38 10.31 10.26 10.23 10.192 10.14 10.067 9.977 9.887 9.8 9.735 9.705 9.683 9.65 9.6 9.542 9.49 9.44 9.392 9.337 9.26 9.173 9.095 9.03 8.99 8.985 8.995 9.005 9.018 9.035 9.073 9.135
14.298 14.345 14.4 14.465 14.535 14.605 14.647 14.655 14.66 14.688 14.753 14.84 14.922 14.99 15.007 14.97 14.958 14.985 15.018 15.053 15.088 15.123 15.17 15.233 15.288 15.328 15.353 15.37 15.393 15.417 15.435 15.445 15.46 15.475 15.515 15.618 15.75 15.885 15.965 15.98 15.99 16.003 16.018 16.035 16.055 16.085 16.14 16.21 16.28 16.34 16.37 16.377 16.385 16.395 16.395 16.385 16.372 16.363 16.37 16.377 16.365 16.353 16.36 16.385 16.41 16.412 16.397 16.397 16.415 16.445 16.472 16.49 16.51 16.527 16.547 16.55 16.475 16.338 16.218 16.13 16.047 15.93 15.805 15.752 15.702 15.613 15.535 15.47 15.405 15.348 15.343 15.373 15.405 15.44 15.475 15.495 15.498 15.502 15.49 15.452 15.407 15.362 15.317 15.265 15.205 15.145 15.085 15.025 14.965 14.902 14.832 14.76 14.685 14.605 14.53 14.43 14.295 14.172 14.06 13.94 13.817 13.693 13.583 13.49 13.4 13.313 13.235 13.19 13.17 13.137 13.055 12.958 12.885 12.82 12.76 12.7 12.645 12.63 12.615 12.565 12.513 12.44 12.315 12.137 11.94 11.74 11.57 11.435 11.303 11.148 11.003 10.943 10.938 10.933 10.912 10.867 10.822 10.787 10.755 10.72 10.69 10.657 10.627 10.607 10.585 10.565 10.54 10.495 10.432 10.367 10.315 10.275 10.225 10.165 10.095 10.01 9.92 9.835 9.78 9.747 9.712 9.67 9.588 9.498 9.438 9.385 9.335 9.272 9.19 9.115 9.068 9.025 8.99 8.985 8.995 9.008 9.025 9.045 9.07 9.113
14.295 14.34 14.395 14.46 14.527 14.587 14.62 14.628 14.643 14.675 14.74 14.822 14.89 14.947 14.97 14.935 14.925 14.97 15.023 15.073 15.115 15.16 15.22 15.28 15.32 15.345 15.352 15.355 15.37 15.395 15.415 15.425 15.438 15.45 15.495 15.605 15.74 15.875 15.955 15.97 15.98 15.99 16.005 16.025 16.053 16.093 16.15 16.22 16.287 16.34 16.362 16.367 16.375 16.387 16.39 16.38 16.368 16.37 16.395 16.42 16.427 16.418 16.42 16.442 16.45 16.43 16.403 16.385 16.395 16.427 16.45 16.465 16.48 16.498 16.517 16.512 16.455 16.34 16.223 16.14 16.068 15.975 15.887 15.81 15.715 15.628 15.555 15.49 15.425 15.39 15.42 15.457 15.48 15.513 15.552 15.58 15.585 15.577 15.542 15.485 15.432 15.385 15.337 15.287 15.232 15.175 15.115 15.057 15 14.94 14.867 14.783 14.7 14.62 14.565 14.512 14.405 14.285 14.185 14.075 13.952 13.828 13.715 13.618 13.53 13.447 13.355 13.28 13.245 13.21 13.125 13.013 12.925 12.86 12.8 12.748 12.738 12.8 12.822 12.767 12.69 12.565 12.41 12.242 12.057 11.865 11.705 11.555 11.38 11.18 11.015 10.958 10.952 10.942 10.91 10.84 10.768 10.725 10.693 10.67 10.682 10.657 10.595 10.565 10.547 10.527 10.5 10.462 10.412 10.355 10.3 10.252 10.205 10.15 10.088 10.018 9.94 9.87 9.823 9.785 9.745 9.705 9.61 9.478 9.388 9.33 9.275 9.205 9.13 9.073 9.05 9.025 8.993 8.99 9 9.015 9.035 9.058 9.083 9.108
14.303 14.338 14.388 14.448 14.51 14.565 14.595 14.613 14.643 14.678 14.728 14.79 14.847 14.9 14.927 14.918 14.94 15.005 15.067 15.13 15.185 15.235 15.282 15.315 15.335 15.352 15.357 15.355 15.36 15.375 15.392 15.405 15.415 15.425 15.475 15.59 15.727 15.862 15.94 15.957 15.97 15.983 15.998 16.023 16.063 16.105 16.16 16.227 16.287 16.335 16.355 16.355 16.36 16.37 16.373 16.368 16.368 16.385 16.415 16.445 16.47 16.477 16.482 16.487 16.47 16.443 16.418 16.39 16.37 16.38 16.4 16.418 16.443 16.467 16.472 16.45 16.412 16.33 16.228 16.153 16.105 16.037 15.925 15.82 15.728 15.645 15.575 15.51 15.448 15.443 15.507 15.55 15.563 15.588 15.627 15.662 15.675 15.65 15.587 15.515 15.453 15.403 15.355 15.305 15.255 15.202 15.145 15.09 15.035 14.973 14.895 14.805 14.718 14.635 14.58 14.552 14.492 14.392 14.295 14.197 14.085 13.965 13.86 13.765 13.67 13.583 13.49 13.393 13.328 13.285 13.2 13.08 12.975 12.9 12.853 12.853 12.918 13.012 13.03 12.945 12.815 12.655 12.49 12.33 12.162 11.98 11.797 11.602 11.385 11.165 11.015 10.973 10.965 10.95 10.917 10.84 10.738 10.668 10.638 10.645 10.682 10.662 10.58 10.515 10.483 10.46 10.43 10.395 10.355 10.305 10.25 10.205 10.168 10.135 10.093 10.033 9.965 9.905 9.858 9.815 9.775 9.735 9.647 9.503 9.368 9.28 9.213 9.145 9.09 9.04 9.022 9.015 8.995 8.998 9.013 9.03 9.053 9.08 9.107 9.128
14.317 14.345 14.383 14.433 14.488 14.542 14.58 14.607 14.64 14.672 14.71 14.755 14.803 14.85 14.885 14.915 14.968 15.032 15.095 15.15 15.195 15.23 15.267 15.312 15.342 15.357 15.365 15.365 15.363 15.363 15.373 15.385 15.395 15.405 15.458 15.575 15.715 15.847 15.92 15.94 15.957 15.972 15.993 16.03 16.075 16.115 16.167 16.227 16.282 16.327 16.345 16.345 16.353 16.36 16.363 16.368 16.383 16.41 16.44 16.467 16.495 16.52 16.532 16.52 16.49 16.463 16.435 16.405 16.375 16.358 16.363 16.385 16.42 16.435 16.415 16.385 16.355 16.307 16.245 16.2 16.185 16.115 15.965 15.835 15.743 15.665 15.595 15.53 15.485 15.51 15.592 15.642 15.652 15.665 15.7 15.745 15.752 15.705 15.632 15.56 15.49 15.427 15.375 15.325 15.277 15.23 15.178 15.133 15.093 15.04 14.948 14.833 14.735 14.65 14.595 14.568 14.538 14.483 14.4 14.31 14.212 14.107 14.007 13.912 13.815 13.722 13.63 13.525 13.43 13.362 13.275 13.155 13.038 12.963 12.967 13.037 13.132 13.215 13.192 13.05 12.882 12.715 12.545 12.377 12.212 12.032 11.822 11.598 11.375 11.155 11.018 10.985 10.97 10.95 10.922 10.847 10.733 10.635 10.605 10.638 10.68 10.67 10.595 10.505 10.435 10.393 10.36 10.325 10.29 10.25 10.2 10.158 10.135 10.132 10.117 10.07 10.008 9.948 9.898 9.853 9.808 9.765 9.685 9.547 9.393 9.255 9.163 9.105 9.055 9.005 8.983 8.99 8.995 9.008 9.03 9.053 9.08 9.107 9.132 9.152
14.317 14.34 14.373 14.42 14.47 14.52 14.56 14.59 14.62 14.655 14.695 14.735 14.775 14.818 14.858 14.918 14.992 15.047 15.09 15.12 15.14 15.158 15.195 15.26 15.315 15.355 15.375 15.372 15.365 15.358 15.36 15.37 15.38 15.39 15.445 15.563 15.7 15.83 15.902 15.925 15.942 15.958 15.985 16.03 16.075 16.112 16.16 16.215 16.267 16.307 16.32 16.32 16.343 16.367 16.373 16.385 16.41 16.437 16.465 16.493 16.52 16.552 16.575 16.562 16.53 16.5 16.47 16.44 16.41 16.378 16.36 16.373 16.392 16.385 16.355 16.325 16.293 16.27 16.252 16.237 16.237 16.177 16.025 15.865 15.758 15.685 15.615 15.553 15.538 15.593 15.677 15.727 15.73 15.722 15.712 15.72 15.715 15.66 15.59 15.52 15.45 15.395 15.352 15.307 15.263 15.253 15.248 15.22 15.195 15.162 15.065 14.915 14.783 14.673 14.613 14.61 14.628 14.607 14.535 14.445 14.335 14.215 14.115 14.027 13.94 13.852 13.762 13.66 13.55 13.453 13.35 13.233 13.115 13.028 13.023 13.092 13.187 13.262 13.225 13.072 12.9 12.727 12.552 12.38 12.212 12.037 11.83 11.6 11.373 11.148 11.018 10.99 10.973 10.955 10.927 10.852 10.74 10.648 10.62 10.65 10.685 10.68 10.612 10.512 10.415 10.35 10.31 10.27 10.23 10.19 10.15 10.125 10.125 10.135 10.135 10.105 10.05 9.99 9.94 9.895 9.847 9.8 9.717 9.582 9.425 9.275 9.188 9.14 9.085 9.033 9.008 9.015 9.018 9.028 9.053 9.08 9.107 9.133 9.16 9.177
14.3 14.323 14.36 14.407 14.452 14.495 14.53 14.563 14.598 14.638 14.68 14.72 14.76 14.8 14.84 14.912 14.985 15.012 15.03 15.047 15.063 15.08 15.113 15.17 15.24 15.312 15.357 15.365 15.362 15.355 15.355 15.365 15.372 15.38 15.438 15.553 15.685 15.812 15.885 15.91 15.927 15.945 15.975 16.017 16.06 16.095 16.14 16.195 16.24 16.27 16.278 16.293 16.343 16.38 16.39 16.41 16.437 16.463 16.49 16.52 16.553 16.59 16.622 16.617 16.583 16.553 16.525 16.495 16.46 16.42 16.39 16.375 16.355 16.325 16.295 16.268 16.245 16.24 16.242 16.238 16.247 16.22 16.09 15.925 15.82 15.76 15.7 15.645 15.618 15.66 15.747 15.77 15.737 15.715 15.657 15.595 15.57 15.525 15.455 15.39 15.338 15.308 15.282 15.243 15.238 15.313 15.36 15.34 15.315 15.29 15.207 15.063 14.923 14.803 14.74 14.763 14.802 14.775 14.695 14.6 14.452 14.285 14.175 14.1 14.033 13.967 13.887 13.787 13.68 13.568 13.445 13.323 13.208 13.098 13.02 13.013 13.075 13.155 13.142 13.03 12.885 12.715 12.54 12.37 12.208 12.042 11.84 11.61 11.38 11.168 11.045 11.003 10.978 10.96 10.932 10.86 10.76 10.69 10.67 10.688 10.71 10.7 10.622 10.513 10.41 10.335 10.288 10.243 10.195 10.163 10.138 10.123 10.13 10.14 10.145 10.13 10.087 10.03 9.98 9.935 9.877 9.787 9.67 9.552 9.427 9.318 9.265 9.235 9.187 9.138 9.113 9.097 9.073 9.068 9.085 9.108 9.133 9.16 9.187 9.203
14.283 14.308 14.347 14.39 14.428 14.465 14.503 14.54 14.58 14.62 14.663 14.705 14.743 14.78 14.82 14.885 14.935 14.945 14.958 14.973 14.988 15.003 15.028 15.08 15.155 15.24 15.3 15.327 15.347 15.35 15.35 15.36 15.365 15.37 15.433 15.553 15.68 15.797 15.865 15.89 15.913 15.935 15.965 16.003 16.04 16.075 16.118 16.165 16.2 16.225 16.248 16.295 16.36 16.395 16.41 16.435 16.463 16.49 16.523 16.555 16.59 16.63 16.665 16.675 16.645 16.608 16.58 16.547 16.507 16.462 16.427 16.38 16.313 16.265 16.24 16.228 16.225 16.23 16.235 16.243 16.265 16.262 16.163 16.033 15.96 15.91 15.858 15.802 15.748 15.74 15.792 15.78 15.708 15.665 15.595 15.498 15.435 15.383 15.325 15.283 15.255 15.235 15.208 15.21 15.293 15.42 15.475 15.455 15.427 15.395 15.347 15.267 15.18 15.097 15.023 15.002 14.992 14.932 14.852 14.737 14.55 14.358 14.248 14.188 14.135 14.085 14.01 13.91 13.805 13.692 13.563 13.425 13.303 13.193 13.095 13.018 12.995 13.045 13.037 12.945 12.837 12.695 12.53 12.363 12.205 12.047 11.85 11.628 11.423 11.245 11.13 11.065 11.013 10.97 10.937 10.877 10.8 10.743 10.72 10.735 10.752 10.735 10.642 10.518 10.408 10.323 10.27 10.228 10.2 10.193 10.17 10.143 10.138 10.145 10.152 10.145 10.117 10.07 10.02 9.955 9.845 9.708 9.58 9.49 9.418 9.36 9.33 9.312 9.282 9.245 9.212 9.175 9.138 9.123 9.13 9.143 9.163 9.188 9.212 9.23
14.303 14.293 14.33 14.37 14.408 14.445 14.483 14.518 14.558 14.602 14.647 14.69 14.725 14.76 14.8 14.845 14.875 14.885 14.895 14.905 14.918 14.93 14.945 14.998 15.088 15.18 15.24 15.275 15.313 15.335 15.353 15.363 15.358 15.363 15.433 15.558 15.682 15.79 15.85 15.875 15.9 15.928 15.958 15.99 16.023 16.058 16.095 16.13 16.163 16.195 16.245 16.315 16.377 16.415 16.435 16.46 16.49 16.523 16.557 16.592 16.63 16.665 16.692 16.717 16.705 16.657 16.617 16.58 16.54 16.497 16.455 16.375 16.268 16.213 16.205 16.21 16.218 16.225 16.233 16.253 16.285 16.307 16.262 16.182 16.127 16.075 16.02 15.96 15.902 15.86 15.84 15.79 15.703 15.633 15.555 15.458 15.37 15.3 15.255 15.225 15.195 15.168 15.178 15.268 15.4 15.532 15.582 15.55 15.512 15.47 15.447 15.432 15.395 15.34 15.267 15.19 15.122 15.06 14.985 14.825 14.598 14.43 14.35 14.3 14.25 14.197 14.12 14.02 13.917 13.815 13.69 13.545 13.408 13.288 13.19 13.098 13.015 12.978 12.93 12.84 12.748 12.645 12.515 12.36 12.205 12.05 11.873 11.683 11.51 11.35 11.235 11.165 11.095 11.025 10.965 10.907 10.85 10.798 10.773 10.78 10.79 10.77 10.677 10.543 10.415 10.315 10.263 10.248 10.255 10.25 10.215 10.178 10.153 10.148 10.155 10.152 10.135 10.105 10.047 9.953 9.828 9.705 9.59 9.495 9.433 9.398 9.38 9.365 9.347 9.32 9.282 9.242 9.205 9.18 9.182 9.195 9.207 9.222 9.242 9.257
14.35 14.293 14.315 14.355 14.395 14.432 14.465 14.495 14.535 14.583 14.633 14.685 14.728 14.768 14.81 14.835 14.843 14.85 14.863 14.885 14.913 14.935 14.948 14.983 15.065 15.163 15.225 15.26 15.3 15.338 15.387 15.422 15.42 15.418 15.468 15.575 15.7 15.8 15.85 15.875 15.9 15.93 15.96 15.99 16.02 16.055 16.093 16.125 16.16 16.2 16.26 16.335 16.395 16.435 16.462 16.49 16.522 16.557 16.585 16.607 16.635 16.665 16.692 16.725 16.732 16.662 16.585 16.545 16.505 16.472 16.45 16.392 16.28 16.213 16.215 16.225 16.235 16.243 16.248 16.265 16.295 16.327 16.322 16.277 16.24 16.202 16.15 16.09 16.03 15.972 15.925 15.863 15.778 15.71 15.67 15.61 15.52 15.448 15.403 15.365 15.325 15.283 15.28 15.368 15.502 15.637 15.675 15.62 15.573 15.53 15.505 15.505 15.497 15.462 15.412 15.312 15.183 15.105 15.027 14.832 14.625 14.52 14.458 14.405 14.355 14.297 14.215 14.118 14.023 13.935 13.82 13.675 13.533 13.405 13.305 13.215 13.125 13.023 12.908 12.808 12.72 12.633 12.523 12.378 12.223 12.068 11.91 11.747 11.585 11.433 11.318 11.237 11.162 11.085 11.005 10.935 10.882 10.837 10.813 10.812 10.817 10.802 10.72 10.585 10.448 10.34 10.303 10.32 10.327 10.3 10.26 10.22 10.183 10.163 10.163 10.16 10.145 10.122 10.077 9.998 9.9 9.8 9.678 9.553 9.47 9.433 9.417 9.402 9.385 9.362 9.33 9.295 9.26 9.225 9.212 9.22 9.23 9.24 9.257 9.275
14.372 14.305 14.305 14.345 14.382 14.412 14.44 14.473 14.513 14.563 14.628 14.697 14.757 14.807 14.845 14.863 14.88 14.91 14.943 14.983 15.018 15.035 15.04 15.05 15.095 15.177 15.242 15.28 15.32 15.363 15.427 15.502 15.54 15.54 15.545 15.613 15.732 15.817 15.855 15.882 15.91 15.94 15.97 16 16.03 16.065 16.105 16.142 16.18 16.22 16.28 16.352 16.41 16.452 16.48 16.5 16.522 16.545 16.565 16.585 16.61 16.645 16.682 16.717 16.707 16.597 16.495 16.458 16.43 16.42 16.422 16.412 16.342 16.268 16.255 16.265 16.272 16.275 16.273 16.275 16.295 16.325 16.322 16.293 16.29 16.285 16.242 16.182 16.12 16.065 16.032 15.995 15.925 15.865 15.875 15.892 15.835 15.763 15.715 15.675 15.63 15.575 15.52 15.513 15.598 15.732 15.772 15.705 15.638 15.59 15.565 15.563 15.567 15.562 15.535 15.427 15.25 15.115 15 14.835 14.703 14.63 14.565 14.51 14.46 14.397 14.31 14.218 14.135 14.06 13.95 13.805 13.67 13.55 13.45 13.357 13.252 13.125 12.985 12.863 12.765 12.677 12.562 12.412 12.257 12.102 11.947 11.79 11.63 11.49 11.38 11.285 11.2 11.12 11.04 10.96 10.895 10.853 10.833 10.832 10.835 10.83 10.765 10.635 10.51 10.425 10.395 10.397 10.38 10.34 10.3 10.262 10.225 10.193 10.177 10.167 10.15 10.127 10.105 10.067 9.992 9.895 9.772 9.625 9.515 9.47 9.455 9.44 9.418 9.395 9.367 9.332 9.295 9.255 9.22 9.205 9.213 9.225 9.245 9.277
14.365 14.305 14.293 14.327 14.36 14.387 14.415 14.448 14.49 14.555 14.635 14.71 14.78 14.845 14.898 14.945 15.003 15.06 15.107 15.137 15.147 15.145 15.14 15.145 15.16 15.205 15.26 15.3 15.343 15.388 15.453 15.542 15.622 15.66 15.655 15.675 15.757 15.827 15.86 15.89 15.92 15.95 15.98 16.01 16.043 16.077 16.115 16.155 16.195 16.238 16.297 16.362 16.405 16.435 16.455 16.465 16.48 16.5 16.528 16.557 16.585 16.617 16.65 16.665 16.617 16.498 16.41 16.39 16.385 16.39 16.395 16.395 16.377 16.325 16.295 16.302 16.305 16.302 16.298 16.295 16.3 16.32 16.32 16.31 16.335 16.347 16.32 16.267 16.205 16.16 16.138 16.115 16.067 16.008 16.025 16.1 16.117 16.075 16.022 15.977 15.925 15.865 15.81 15.755 15.745 15.83 15.885 15.825 15.73 15.658 15.625 15.62 15.625 15.627 15.61 15.507 15.33 15.16 15.013 14.9 14.818 14.743 14.675 14.62 14.567 14.497 14.413 14.333 14.26 14.19 14.082 13.943 13.815 13.698 13.592 13.485 13.355 13.215 13.075 12.94 12.82 12.722 12.602 12.448 12.292 12.138 11.985 11.828 11.675 11.55 11.443 11.34 11.245 11.16 11.08 10.995 10.913 10.86 10.845 10.845 10.845 10.847 10.802 10.698 10.608 10.547 10.497 10.447 10.4 10.36 10.32 10.282 10.245 10.21 10.187 10.17 10.15 10.13 10.11 10.09 10.052 9.982 9.867 9.71 9.573 9.51 9.493 9.475 9.452 9.43 9.405 9.37 9.327 9.285 9.24 9.203 9.193 9.2 9.223 9.27
14.35 14.308 14.275 14.27 14.295 14.337 14.382 14.422 14.472 14.55 14.642 14.73 14.81 14.89 14.972 15.057 15.142 15.21 15.245 15.25 15.242 15.235 15.212 15.19 15.177 15.217 15.285 15.325 15.368 15.413 15.478 15.567 15.665 15.737 15.755 15.752 15.782 15.827 15.86 15.892 15.925 15.958 15.99 16.023 16.058 16.09 16.125 16.168 16.21 16.255 16.303 16.34 16.363 16.378 16.395 16.413 16.432 16.457 16.487 16.515 16.535 16.557 16.575 16.547 16.47 16.393 16.355 16.353 16.355 16.36 16.365 16.365 16.37 16.355 16.335 16.335 16.332 16.327 16.325 16.322 16.317 16.323 16.333 16.353 16.387 16.4 16.382 16.345 16.295 16.26 16.243 16.225 16.197 16.148 16.16 16.247 16.322 16.345 16.312 16.265 16.212 16.155 16.1 16.045 15.99 15.98 16 15.955 15.85 15.75 15.683 15.655 15.647 15.635 15.605 15.515 15.36 15.188 15.055 14.987 14.93 14.857 14.79 14.733 14.678 14.61 14.535 14.465 14.395 14.32 14.215 14.085 13.96 13.837 13.715 13.585 13.445 13.305 13.165 13.03 12.9 12.775 12.637 12.483 12.328 12.175 12.022 11.865 11.728 11.618 11.51 11.403 11.3 11.205 11.118 11.03 10.94 10.888 10.878 10.875 10.873 10.87 10.843 10.775 10.705 10.642 10.57 10.483 10.4 10.345 10.305 10.268 10.235 10.213 10.193 10.17 10.15 10.13 10.11 10.09 10.07 10.037 9.945 9.792 9.638 9.553 9.53 9.51 9.488 9.465 9.44 9.405 9.36 9.315 9.272 9.228 9.193 9.18 9.2 9.258
14.37 14.342 14.29 14.233 14.203 14.208 14.25 14.308 14.395 14.523 14.652 14.767 14.865 14.952 15.042 15.137 15.227 15.295 15.317 15.31 15.295 15.242 15.152 15.077 15.035 15.16 15.32 15.36 15.4 15.44 15.495 15.572 15.657 15.732 15.765 15.765 15.777 15.807 15.84 15.872 15.908 15.97 16.03 16.063 16.095 16.13 16.17 16.213 16.255 16.295 16.328 16.348 16.365 16.383 16.378 16.365 16.375 16.395 16.417 16.442 16.465 16.485 16.47 16.405 16.35 16.345 16.363 16.37 16.37 16.373 16.375 16.375 16.38 16.367 16.337 16.325 16.322 16.317 16.315 16.312 16.31 16.32 16.347 16.385 16.43 16.457 16.448 16.418 16.388 16.365 16.348 16.33 16.31 16.275 16.292 16.357 16.402 16.435 16.445 16.442 16.42 16.372 16.322 16.275 16.227 16.18 16.145 16.085 15.98 15.872 15.745 15.653 15.625 15.605 15.565 15.482 15.347 15.18 15.07 15.037 15.007 14.96 14.905 14.855 14.818 14.77 14.705 14.635 14.56 14.46 14.337 14.212 14.087 13.967 13.832 13.683 13.538 13.393 13.243 13.097 12.962 12.82 12.67 12.517 12.365 12.212 12.058 11.913 11.79 11.682 11.575 11.467 11.362 11.258 11.155 11.057 10.965 10.923 10.945 10.967 10.965 10.958 10.92 10.847 10.775 10.702 10.617 10.52 10.42 10.335 10.285 10.258 10.235 10.22 10.2 10.173 10.15 10.13 10.113 10.095 10.075 10.055 9.98 9.835 9.688 9.605 9.58 9.558 9.533 9.51 9.465 9.41 9.367 9.325 9.287 9.247 9.207 9.178 9.188 9.253
14.425 14.397 14.337 14.263 14.185 14.125 14.115 14.183 14.328 14.505 14.667 14.8 14.91 15.01 15.105 15.195 15.272 15.33 15.35 15.332 15.277 15.15 15.023 14.905 14.808 15.063 15.36 15.4 15.44 15.477 15.505 15.545 15.61 15.677 15.71 15.715 15.738 15.772 15.805 15.835 15.895 16.007 16.095 16.13 16.165 16.213 16.26 16.298 16.33 16.36 16.393 16.422 16.445 16.462 16.43 16.363 16.325 16.325 16.345 16.368 16.392 16.39 16.35 16.318 16.323 16.355 16.395 16.42 16.425 16.427 16.43 16.43 16.42 16.367 16.305 16.278 16.267 16.262 16.26 16.265 16.278 16.305 16.345 16.398 16.475 16.532 16.532 16.51 16.493 16.478 16.46 16.44 16.42 16.38 16.362 16.375 16.375 16.385 16.415 16.455 16.477 16.477 16.46 16.422 16.38 16.34 16.29 16.212 16.112 16.002 15.833 15.663 15.595 15.572 15.522 15.44 15.325 15.17 15.073 15.053 15.038 15.03 15.022 15.008 14.992 14.96 14.9 14.827 14.73 14.595 14.453 14.325 14.205 14.095 13.96 13.795 13.64 13.487 13.315 13.143 12.995 12.852 12.702 12.55 12.4 12.247 12.095 11.963 11.85 11.74 11.63 11.522 11.417 11.31 11.193 11.08 10.985 10.943 10.992 11.067 11.097 11.097 11.032 10.918 10.83 10.755 10.665 10.562 10.458 10.355 10.288 10.26 10.243 10.227 10.207 10.18 10.155 10.135 10.117 10.1 10.08 10.06 9.99 9.86 9.738 9.65 9.62 9.612 9.59 9.555 9.472 9.393 9.348 9.307 9.272 9.237 9.202 9.183 9.215 9.285
14.485 14.45 14.382 14.307 14.23 14.158 14.128 14.193 14.338 14.51 14.677 14.815 14.932 15.047 15.15 15.235 15.307 15.362 15.367 15.307 15.195 15.033 14.932 14.812 14.628 14.97 15.405 15.442 15.48 15.52 15.53 15.523 15.56 15.625 15.655 15.668 15.7 15.735 15.765 15.82 15.928 16.062 16.157 16.205 16.25 16.305 16.355 16.387 16.41 16.433 16.465 16.502 16.532 16.547 16.51 16.425 16.343 16.29 16.28 16.295 16.303 16.29 16.288 16.31 16.335 16.365 16.41 16.45 16.472 16.482 16.485 16.48 16.43 16.34 16.275 16.235 16.208 16.2 16.208 16.23 16.26 16.298 16.358 16.443 16.545 16.62 16.632 16.62 16.607 16.592 16.575 16.54 16.49 16.42 16.355 16.333 16.328 16.335 16.365 16.405 16.445 16.485 16.51 16.512 16.497 16.462 16.407 16.332 16.242 16.125 15.94 15.723 15.585 15.533 15.475 15.39 15.292 15.165 15.083 15.073 15.08 15.108 15.142 15.167 15.172 15.147 15.09 14.997 14.865 14.718 14.573 14.438 14.325 14.227 14.095 13.923 13.755 13.592 13.405 13.205 13.033 12.885 12.735 12.58 12.43 12.28 12.135 12.01 11.9 11.79 11.68 11.573 11.47 11.36 11.228 11.103 11.005 10.96 11.01 11.11 11.19 11.212 11.135 10.998 10.89 10.805 10.71 10.605 10.495 10.39 10.308 10.265 10.25 10.235 10.212 10.187 10.163 10.14 10.12 10.1 10.08 10.062 10.007 9.905 9.8 9.698 9.643 9.65 9.645 9.58 9.47 9.38 9.325 9.283 9.247 9.213 9.183 9.205 9.28 9.322
14.53 14.497 14.422 14.345 14.265 14.21 14.213 14.275 14.38 14.52 14.682 14.825 14.945 15.06 15.16 15.245 15.322 15.377 15.342 15.22 15.08 14.913 14.828 14.748 14.568 14.94 15.422 15.465 15.51 15.56 15.572 15.54 15.53 15.57 15.605 15.628 15.662 15.695 15.748 15.853 15.988 16.122 16.225 16.287 16.34 16.395 16.44 16.465 16.485 16.507 16.54 16.577 16.612 16.63 16.59 16.505 16.415 16.328 16.265 16.243 16.24 16.26 16.295 16.325 16.353 16.383 16.423 16.465 16.505 16.532 16.54 16.502 16.403 16.303 16.25 16.22 16.198 16.205 16.243 16.29 16.313 16.323 16.39 16.497 16.605 16.685 16.705 16.7 16.697 16.682 16.645 16.577 16.495 16.413 16.338 16.298 16.285 16.293 16.325 16.365 16.405 16.445 16.485 16.525 16.552 16.557 16.522 16.447 16.362 16.24 16.045 15.815 15.615 15.498 15.425 15.34 15.25 15.158 15.118 15.14 15.18 15.223 15.26 15.297 15.325 15.325 15.262 15.135 14.985 14.84 14.695 14.558 14.45 14.36 14.23 14.057 13.882 13.692 13.487 13.285 13.093 12.923 12.768 12.615 12.463 12.31 12.173 12.055 11.948 11.84 11.733 11.63 11.527 11.407 11.265 11.13 11.025 10.98 11.03 11.13 11.222 11.252 11.18 11.06 10.952 10.852 10.75 10.645 10.535 10.43 10.338 10.28 10.26 10.245 10.22 10.193 10.167 10.143 10.12 10.1 10.08 10.062 10.022 9.942 9.847 9.752 9.67 9.668 9.675 9.59 9.47 9.373 9.31 9.263 9.223 9.185 9.188 9.265 9.327 9.315
14.547 14.532 14.455 14.375 14.31 14.288 14.31 14.375 14.465 14.568 14.7 14.835 14.95 15.055 15.15 15.235 15.312 15.362 15.305 15.163 15.018 15.465 15.8 15.135 14.61 14.893 15.365 15.56 15.615 15.622 15.61 15.575 15.54 15.535 15.555 15.578 15.6 15.633 15.755 15.925 16.065 16.195 16.29 16.355 16.41 16.457 16.492 16.515 16.535 16.56 16.592 16.627 16.665 16.692 16.68 16.615 16.528 16.44 16.355 16.308 16.318 16.338 16.345 16.358 16.38 16.41 16.445 16.485 16.527 16.567 16.572 16.5 16.385 16.323 16.335 16.353 16.345 16.368 16.425 16.44 16.385 16.353 16.415 16.525 16.635 16.707 16.715 16.7 16.697 16.685 16.63 16.55 16.47 16.398 16.338 16.308 16.31 16.33 16.36 16.395 16.435 16.475 16.515 16.555 16.595 16.625 16.615 16.552 16.47 16.35 16.155 15.925 15.71 15.57 15.493 15.415 15.335 15.24 15.21 15.26 15.307 15.345 15.38 15.415 15.445 15.462 15.395 15.25 15.1 14.952 14.802 14.665 14.56 14.477 14.357 14.187 14.002 13.775 13.545 13.35 13.16 12.983 12.815 12.653 12.498 12.345 12.213 12.103 12 11.895 11.79 11.69 11.58 11.45 11.307 11.165 11.048 11 11.05 11.147 11.212 11.217 11.155 11.055 10.962 10.875 10.785 10.685 10.577 10.473 10.373 10.305 10.275 10.253 10.227 10.2 10.172 10.145 10.12 10.1 10.08 10.057 10.02 9.955 9.87 9.78 9.69 9.68 9.677 9.585 9.47 9.368 9.3 9.248 9.198 9.18 9.233 9.33 9.37 9.343
14.545 14.55 14.485 14.415 14.383 14.383 14.408 14.475 14.565 14.655 14.753 14.85 14.945 15.045 15.14 15.225 15.295 15.335 15.28 15.145 15.008 16.147 17.033 15.71 14.633 14.938 15.5 15.712 15.72 15.675 15.635 15.602 15.57 15.568 15.593 15.603 15.588 15.585 15.723 15.967 16.155 16.272 16.35 16.405 16.45 16.487 16.52 16.545 16.565 16.59 16.618 16.648 16.685 16.72 16.745 16.737 16.677 16.593 16.51 16.475 16.485 16.472 16.45 16.443 16.445 16.455 16.475 16.51 16.55 16.59 16.587 16.512 16.41 16.368 16.432 16.522 16.577 16.605 16.595 16.517 16.395 16.358 16.435 16.545 16.65 16.705 16.697 16.673 16.655 16.633 16.588 16.535 16.483 16.433 16.398 16.393 16.413 16.438 16.463 16.493 16.53 16.57 16.61 16.65 16.68 16.687 16.677 16.64 16.572 16.465 16.28 16.065 15.9 15.798 15.725 15.658 15.575 15.428 15.348 15.387 15.43 15.465 15.495 15.522 15.542 15.557 15.497 15.35 15.192 15.037 14.88 14.743 14.645 14.575 14.475 14.315 14.1 13.835 13.595 13.403 13.23 13.07 12.895 12.715 12.548 12.39 12.263 12.16 12.057 11.953 11.85 11.75 11.63 11.49 11.35 11.205 11.075 11.018 11.065 11.142 11.172 11.162 11.102 11.01 10.933 10.865 10.792 10.707 10.615 10.515 10.41 10.338 10.298 10.263 10.233 10.205 10.177 10.15 10.12 10.095 10.075 10.052 10.01 9.947 9.877 9.792 9.7 9.68 9.66 9.567 9.465 9.363 9.29 9.235 9.19 9.208 9.285 9.372 9.417 9.412
14.532 14.557 14.52 14.478 14.473 14.475 14.503 14.575 14.665 14.755 14.835 14.895 14.955 15.038 15.13 15.207 15.265 15.305 15.252 15.123 15.013 16.087 17.156 16.08 15.193 15.502 15.7 15.742 15.74 15.695 15.655 15.625 15.607 15.637 15.69 15.732 15.677 15.588 15.65 15.95 16.242 16.342 16.4 16.442 16.475 16.51 16.545 16.572 16.595 16.62 16.645 16.667 16.698 16.733 16.767 16.8 16.8 16.745 16.673 16.642 16.632 16.603 16.578 16.565 16.557 16.545 16.528 16.535 16.568 16.605 16.602 16.54 16.45 16.385 16.435 16.565 16.675 16.707 16.632 16.508 16.393 16.368 16.45 16.56 16.652 16.692 16.685 16.665 16.64 16.62 16.61 16.595 16.568 16.533 16.508 16.51 16.528 16.545 16.57 16.597 16.628 16.665 16.705 16.735 16.742 16.72 16.68 16.637 16.627 16.58 16.423 16.263 16.16 16.083 16.01 15.942 15.822 15.623 15.503 15.512 15.545 15.57 15.582 15.587 15.59 15.592 15.56 15.44 15.27 15.105 14.945 14.81 14.725 14.667 14.585 14.427 14.177 13.888 13.65 13.475 13.325 13.172 12.997 12.813 12.63 12.46 12.325 12.22 12.115 12.01 11.91 11.805 11.675 11.53 11.39 11.245 11.105 11.035 11.062 11.102 11.115 11.107 11.052 10.975 10.913 10.85 10.777 10.702 10.625 10.54 10.447 10.37 10.317 10.273 10.235 10.208 10.182 10.155 10.123 10.09 10.065 10.042 9.997 9.935 9.875 9.802 9.723 9.677 9.625 9.535 9.443 9.355 9.295 9.25 9.235 9.278 9.343 9.412 9.452 9.457
14.523 14.567 14.572 14.563 14.565 14.568 14.6 14.675 14.765 14.852 14.92 14.965 15.005 15.058 15.125 15.185 15.235 15.28 15.245 15.145 15.068 15.85 17.012 16.61 15.952 15.89 15.645 15.618 15.705 15.71 15.675 15.635 15.597 15.617 15.677 15.712 15.66 15.595 15.61 15.913 16.282 16.39 16.43 16.465 16.498 16.533 16.565 16.595 16.617 16.637 16.657 16.68 16.718 16.757 16.79 16.823 16.855 16.857 16.825 16.792 16.762 16.727 16.7 16.682 16.662 16.63 16.588 16.57 16.588 16.62 16.612 16.552 16.477 16.403 16.435 16.555 16.64 16.672 16.615 16.495 16.4 16.39 16.468 16.575 16.652 16.68 16.677 16.657 16.633 16.635 16.655 16.662 16.657 16.637 16.622 16.627 16.642 16.657 16.672 16.695 16.725 16.757 16.78 16.765 16.725 16.667 16.595 16.53 16.545 16.595 16.582 16.525 16.445 16.367 16.295 16.205 16.037 15.815 15.643 15.585 15.592 15.595 15.59 15.58 15.567 15.56 15.585 15.53 15.363 15.193 15.028 14.885 14.803 14.755 14.69 14.517 14.235 13.945 13.725 13.575 13.437 13.28 13.1 12.915 12.73 12.553 12.4 12.283 12.175 12.07 11.97 11.855 11.717 11.573 11.43 11.287 11.143 11.048 11.035 11.05 11.058 11.055 11.015 10.95 10.895 10.835 10.762 10.687 10.612 10.537 10.457 10.382 10.327 10.282 10.242 10.212 10.185 10.155 10.125 10.092 10.063 10.032 9.985 9.925 9.865 9.802 9.737 9.67 9.595 9.515 9.435 9.373 9.338 9.308 9.313 9.365 9.417 9.47 9.502 9.508
14.54 14.595 14.627 14.64 14.65 14.66 14.695 14.767 14.85 14.927 14.985 15.025 15.065 15.108 15.155 15.205 15.25 15.28 15.27 15.212 15.148 15.63 16.845 17.119 16.138 15.62 15.53 15.44 15.525 15.615 15.535 15.33 15.16 15.3 15.567 15.593 15.575 15.572 15.568 15.863 16.29 16.432 16.465 16.5 16.535 16.57 16.603 16.625 16.628 16.633 16.65 16.685 16.742 16.79 16.82 16.85 16.88 16.9 16.895 16.87 16.842 16.815 16.792 16.767 16.725 16.675 16.633 16.615 16.618 16.637 16.622 16.558 16.49 16.418 16.433 16.515 16.565 16.602 16.582 16.485 16.408 16.415 16.49 16.592 16.652 16.665 16.667 16.65 16.633 16.65 16.677 16.692 16.705 16.712 16.72 16.727 16.737 16.747 16.747 16.755 16.782 16.815 16.815 16.745 16.64 16.553 16.478 16.405 16.375 16.445 16.557 16.61 16.62 16.62 16.572 16.435 16.22 15.998 15.788 15.623 15.56 15.55 15.54 15.527 15.508 15.51 15.58 15.595 15.47 15.298 15.128 14.978 14.875 14.815 14.76 14.58 14.28 14.018 13.835 13.695 13.545 13.37 13.192 13.015 12.83 12.65 12.49 12.358 12.238 12.13 12.025 11.9 11.76 11.615 11.47 11.33 11.185 11.06 11.015 11.025 11.03 11.02 10.982 10.927 10.875 10.817 10.747 10.667 10.585 10.507 10.435 10.37 10.317 10.275 10.237 10.205 10.175 10.145 10.115 10.087 10.06 10.025 9.978 9.92 9.863 9.802 9.74 9.673 9.603 9.535 9.465 9.42 9.402 9.383 9.388 9.435 9.49 9.54 9.57 9.575
14.582 14.635 14.672 14.695 14.715 14.732 14.77 14.835 14.905 14.977 15.035 15.075 15.118 15.165 15.215 15.255 15.28 15.292 15.295 15.273 15.228 15.413 16.63 17.397 16.093 15.303 15.51 15.44 15.448 15.387 15.053 14.61 14.338 14.76 15.405 15.53 15.517 15.5 15.51 15.815 16.277 16.48 16.52 16.553 16.587 16.62 16.652 16.662 16.643 16.628 16.648 16.702 16.767 16.82 16.855 16.882 16.9 16.897 16.882 16.867 16.85 16.83 16.817 16.802 16.765 16.715 16.678 16.663 16.658 16.657 16.627 16.565 16.503 16.435 16.418 16.448 16.478 16.515 16.535 16.472 16.413 16.44 16.513 16.6 16.642 16.65 16.655 16.64 16.64 16.672 16.7 16.715 16.73 16.758 16.79 16.805 16.81 16.815 16.807 16.793 16.8 16.832 16.84 16.76 16.625 16.508 16.4 16.298 16.223 16.243 16.34 16.44 16.552 16.667 16.727 16.617 16.388 16.18 15.97 15.74 15.565 15.5 15.49 15.47 15.44 15.46 15.55 15.627 15.57 15.403 15.238 15.088 14.955 14.863 14.8 14.62 14.34 14.123 13.965 13.822 13.645 13.44 13.268 13.107 12.93 12.75 12.59 12.448 12.31 12.193 12.075 11.94 11.8 11.657 11.513 11.37 11.225 11.085 11.02 11.02 11.012 10.987 10.945 10.895 10.842 10.785 10.712 10.625 10.543 10.473 10.41 10.35 10.293 10.245 10.21 10.18 10.152 10.125 10.095 10.07 10.053 10.032 9.992 9.935 9.872 9.803 9.745 9.697 9.637 9.572 9.508 9.47 9.462 9.453 9.46 9.505 9.56 9.612 9.642 9.642
14.622 14.675 14.715 14.74 14.76 14.785 14.83 14.892 14.958 15.025 15.085 15.13 15.175 15.222 15.257 15.278 15.293 15.31 15.328 15.355 15.35 15.328 16.517 17.539 16.17 15.291 15.602 15.572 15.537 15.387 14.905 14.321 14.163 14.785 15.41 15.468 15.428 15.4 15.468 15.775 16.207 16.492 16.585 16.61 16.64 16.672 16.697 16.692 16.66 16.625 16.643 16.713 16.785 16.85 16.887 16.897 16.892 16.878 16.86 16.845 16.83 16.81 16.8 16.802 16.792 16.755 16.72 16.707 16.697 16.672 16.63 16.577 16.52 16.458 16.42 16.418 16.425 16.438 16.465 16.443 16.42 16.465 16.532 16.6 16.63 16.637 16.642 16.635 16.653 16.697 16.723 16.743 16.773 16.81 16.85 16.872 16.877 16.882 16.872 16.845 16.83 16.848 16.865 16.807 16.685 16.55 16.41 16.278 16.163 16.125 16.2 16.318 16.445 16.593 16.74 16.73 16.567 16.38 16.157 15.922 15.69 15.515 15.44 15.413 15.38 15.413 15.517 15.622 15.635 15.51 15.353 15.205 15.06 14.933 14.842 14.67 14.435 14.255 14.095 13.935 13.735 13.513 13.335 13.19 13.027 12.85 12.688 12.543 12.4 12.26 12.122 11.982 11.84 11.7 11.557 11.413 11.267 11.123 11.03 11 10.975 10.945 10.905 10.852 10.795 10.735 10.66 10.578 10.51 10.45 10.39 10.33 10.27 10.218 10.18 10.153 10.128 10.103 10.078 10.06 10.055 10.052 10.017 9.95 9.875 9.795 9.743 9.717 9.672 9.608 9.55 9.523 9.52 9.515 9.53 9.577 9.632 9.687 9.715 9.705
14.657 14.717 14.757 14.78 14.8 14.83 14.88 14.942 15.007 15.07 15.13 15.182 15.23 15.275 15.3 15.318 15.34 15.368 15.403 15.475 15.55 15.483 16.537 17.591 16.505 15.575 15.622 15.577 15.545 15.53 15.32 14.99 14.963 15.315 15.555 15.495 15.405 15.325 15.395 15.705 16.11 16.475 16.652 16.675 16.697 16.727 16.738 16.715 16.678 16.64 16.665 16.748 16.833 16.905 16.927 16.913 16.893 16.87 16.85 16.83 16.81 16.79 16.783 16.788 16.792 16.782 16.757 16.737 16.712 16.67 16.622 16.575 16.525 16.475 16.448 16.44 16.433 16.425 16.428 16.428 16.443 16.488 16.55 16.6 16.615 16.623 16.628 16.635 16.673 16.725 16.758 16.79 16.83 16.867 16.905 16.93 16.937 16.945 16.937 16.91 16.883 16.873 16.875 16.845 16.747 16.61 16.473 16.34 16.22 16.165 16.233 16.365 16.498 16.638 16.77 16.807 16.735 16.565 16.325 16.087 15.85 15.613 15.47 15.438 15.375 15.368 15.47 15.582 15.667 15.617 15.467 15.322 15.177 15.032 14.905 14.745 14.557 14.39 14.222 14.032 13.81 13.583 13.403 13.265 13.115 12.947 12.785 12.637 12.482 12.31 12.155 12.02 11.88 11.74 11.6 11.455 11.305 11.147 11.033 10.983 10.95 10.92 10.875 10.815 10.755 10.695 10.63 10.565 10.503 10.438 10.373 10.31 10.25 10.19 10.15 10.133 10.115 10.098 10.083 10.075 10.075 10.075 10.037 9.958 9.873 9.79 9.743 9.727 9.7 9.645 9.595 9.58 9.575 9.563 9.583 9.64 9.702 9.76 9.78 9.76
14.68 14.735 14.785 14.82 14.84 14.87 14.92 14.98 15.045 15.112 15.172 15.225 15.283 15.337 15.37 15.395 15.425 15.46 15.505 15.598 15.727 15.655 16.44 17.469 16.912 15.898 15.545 15.545 15.568 15.595 15.595 15.577 15.537 15.537 15.61 15.61 15.508 15.383 15.383 15.648 16.053 16.445 16.647 16.67 16.695 16.765 16.812 16.793 16.763 16.74 16.78 16.865 16.942 17 17 16.97 16.945 16.915 16.89 16.865 16.838 16.8 16.78 16.785 16.788 16.805 16.787 16.735 16.697 16.655 16.605 16.555 16.513 16.483 16.478 16.48 16.473 16.468 16.46 16.46 16.483 16.52 16.565 16.592 16.6 16.613 16.623 16.648 16.705 16.762 16.805 16.845 16.885 16.917 16.94 16.955 16.965 16.975 16.977 16.96 16.93 16.903 16.89 16.882 16.807 16.673 16.543 16.428 16.338 16.295 16.355 16.488 16.622 16.74 16.81 16.827 16.805 16.67 16.442 16.21 15.965 15.72 15.575 15.512 15.39 15.325 15.405 15.525 15.637 15.657 15.55 15.402 15.257 15.112 14.965 14.815 14.655 14.485 14.312 14.11 13.882 13.655 13.47 13.33 13.187 13.035 12.875 12.712 12.537 12.35 12.188 12.053 11.917 11.78 11.627 11.465 11.3 11.125 11.01 10.975 10.947 10.915 10.865 10.8 10.74 10.68 10.63 10.59 10.54 10.475 10.405 10.34 10.278 10.21 10.163 10.145 10.135 10.125 10.113 10.105 10.102 10.1 10.06 9.975 9.885 9.813 9.763 9.733 9.717 9.68 9.643 9.63 9.617 9.6 9.618 9.683 9.757 9.815 9.825 9.8
14.68 14.725 14.782 14.845 14.882 14.913 14.96 15.023 15.088 15.155 15.215 15.27 15.34 15.41 15.45 15.478 15.518 15.56 15.62 15.73 15.767 15.595 16.03 17.137 17.144 16.085 15.57 15.62 15.665 15.685 15.682 15.652 15.578 15.538 15.615 15.702 15.667 15.555 15.513 15.68 16.04 16.402 16.57 16.6 16.678 16.832 16.927 16.917 16.897 16.893 16.937 17.005 17.065 17.105 17.09 17.053 17.025 16.995 16.97 16.942 16.897 16.828 16.79 16.795 16.808 16.85 16.83 16.743 16.68 16.633 16.585 16.54 16.51 16.495 16.505 16.522 16.52 16.513 16.51 16.518 16.538 16.567 16.59 16.598 16.605 16.618 16.638 16.683 16.747 16.807 16.855 16.895 16.927 16.947 16.955 16.96 16.97 16.98 16.99 16.985 16.957 16.923 16.905 16.905 16.855 16.743 16.633 16.548 16.475 16.425 16.478 16.612 16.727 16.79 16.8 16.793 16.785 16.695 16.505 16.287 16.057 15.82 15.658 15.54 15.38 15.285 15.335 15.447 15.53 15.572 15.55 15.44 15.292 15.145 14.997 14.855 14.707 14.545 14.365 14.162 13.945 13.725 13.538 13.387 13.245 13.1 12.942 12.77 12.59 12.408 12.24 12.095 11.957 11.817 11.645 11.445 11.255 11.075 10.97 10.957 10.947 10.917 10.865 10.8 10.74 10.68 10.633 10.605 10.577 10.537 10.482 10.42 10.355 10.285 10.225 10.193 10.18 10.17 10.153 10.135 10.128 10.125 10.082 9.998 9.923 9.873 9.813 9.75 9.725 9.705 9.685 9.67 9.653 9.638 9.655 9.72 9.785 9.812 9.807 9.79
14.67 14.715 14.77 14.842 14.907 14.952 15 15.065 15.132 15.197 15.258 15.323 15.4 15.477 15.532 15.572 15.618 15.663 15.74 15.785 15.668 15.49 15.596 16.38 16.55 15.878 15.678 15.732 15.76 15.77 15.767 15.715 15.62 15.55 15.595 15.725 15.78 15.735 15.698 15.788 16.055 16.352 16.503 16.593 16.753 16.947 17.04 17.028 17.015 17.023 17.065 17.122 17.18 17.207 17.182 17.14 17.105 17.075 17.045 17 16.927 16.843 16.803 16.818 16.858 16.912 16.892 16.793 16.695 16.62 16.568 16.538 16.525 16.515 16.528 16.557 16.567 16.563 16.568 16.583 16.6 16.617 16.625 16.625 16.628 16.635 16.665 16.725 16.792 16.855 16.905 16.935 16.95 16.957 16.96 16.965 16.975 16.985 16.995 17 16.98 16.94 16.92 16.917 16.897 16.832 16.752 16.685 16.617 16.56 16.603 16.712 16.767 16.775 16.767 16.76 16.75 16.697 16.545 16.335 16.12 15.9 15.713 15.545 15.37 15.245 15.258 15.34 15.387 15.422 15.452 15.427 15.315 15.168 15.025 14.885 14.745 14.597 14.417 14.205 13.982 13.763 13.578 13.425 13.28 13.132 12.975 12.81 12.64 12.467 12.297 12.142 11.997 11.85 11.672 11.453 11.228 11.03 10.933 10.93 10.937 10.92 10.865 10.8 10.74 10.68 10.63 10.6 10.58 10.56 10.53 10.487 10.432 10.367 10.303 10.25 10.225 10.215 10.197 10.175 10.16 10.155 10.11 10.033 9.983 9.947 9.885 9.798 9.738 9.715 9.707 9.7 9.687 9.673 9.693 9.742 9.765 9.755 9.74 9.73
14.705 14.733 14.773 14.835 14.91 14.977 15.038 15.105 15.175 15.242 15.307 15.38 15.46 15.517 15.567 15.65 15.722 15.772 15.797 15.743 15.643 15.59 15.57 15.775 15.833 15.72 15.803 15.84 15.85 15.858 15.84 15.765 15.66 15.565 15.583 15.715 15.84 15.897 15.885 15.94 16.12 16.333 16.505 16.673 16.868 17.06 17.147 17.135 17.133 17.145 17.183 17.24 17.297 17.31 17.275 17.23 17.187 17.15 17.1 17.027 16.937 16.85 16.825 16.868 16.922 16.975 16.957 16.86 16.75 16.655 16.598 16.573 16.558 16.543 16.553 16.588 16.613 16.625 16.638 16.653 16.663 16.663 16.66 16.66 16.658 16.658 16.693 16.762 16.835 16.9 16.94 16.952 16.957 16.96 16.962 16.967 16.975 16.982 16.99 17 16.992 16.96 16.93 16.91 16.892 16.862 16.822 16.782 16.74 16.692 16.702 16.747 16.75 16.74 16.732 16.725 16.715 16.692 16.58 16.383 16.173 15.965 15.77 15.58 15.393 15.228 15.183 15.218 15.238 15.268 15.305 15.332 15.302 15.192 15.05 14.913 14.775 14.637 14.462 14.237 14.003 13.775 13.593 13.445 13.297 13.142 12.977 12.815 12.652 12.485 12.322 12.175 12.03 11.88 11.71 11.492 11.248 11.013 10.898 10.9 10.915 10.912 10.867 10.805 10.745 10.683 10.628 10.595 10.575 10.555 10.535 10.512 10.482 10.44 10.382 10.32 10.278 10.258 10.24 10.22 10.2 10.185 10.145 10.09 10.055 10.025 9.962 9.868 9.783 9.728 9.713 9.715 9.713 9.705 9.71 9.72 9.713 9.698 9.69 9.683
14.787 14.785 14.805 14.858 14.928 15 15.07 15.14 15.187 15.205 15.305 15.44 15.517 15.522 15.53 15.645 15.77 15.855 15.858 15.815 15.805 15.8 15.798 15.828 15.888 15.953 16.003 16.008 15.99 15.97 15.92 15.835 15.74 15.648 15.64 15.755 15.905 16.012 16.045 16.123 16.285 16.46 16.635 16.81 16.99 17.17 17.255 17.253 17.258 17.275 17.31 17.358 17.405 17.405 17.365 17.32 17.252 17.17 17.085 16.992 16.905 16.838 16.848 16.922 16.985 17.035 17.022 16.93 16.825 16.745 16.7 16.673 16.648 16.615 16.608 16.64 16.683 16.713 16.728 16.74 16.735 16.72 16.715 16.715 16.71 16.705 16.725 16.775 16.84 16.905 16.937 16.942 16.945 16.945 16.95 16.957 16.962 16.968 16.978 16.993 17 16.98 16.923 16.865 16.83 16.805 16.787 16.77 16.75 16.727 16.72 16.72 16.71 16.7 16.69 16.68 16.67 16.67 16.61 16.445 16.24 16.035 15.84 15.65 15.445 15.248 15.18 15.2 15.205 15.22 15.24 15.258 15.267 15.21 15.08 14.945 14.813 14.677 14.5 14.27 14.022 13.78 13.593 13.445 13.29 13.122 12.95 12.782 12.617 12.45 12.3 12.175 12.05 11.91 11.747 11.537 11.29 11.018 10.87 10.875 10.887 10.895 10.87 10.815 10.755 10.693 10.635 10.598 10.57 10.548 10.53 10.513 10.497 10.472 10.432 10.385 10.34 10.307 10.282 10.26 10.237 10.215 10.19 10.16 10.13 10.1 10.037 9.945 9.86 9.798 9.778 9.78 9.775 9.75 9.715 9.695 9.685 9.678 9.685 9.693
14.84 14.833 14.86 14.905 14.963 15.03 15.092 15.125 15.115 15.075 15.228 15.47 15.572 15.52 15.468 15.58 15.753 15.92 16.007 16.02 16.015 16.01 16.015 16.068 16.155 16.23 16.262 16.245 16.197 16.13 16.048 15.963 15.878 15.798 15.78 15.853 15.98 16.097 16.165 16.323 16.55 16.728 16.885 17.038 17.195 17.325 17.375 17.378 17.385 17.408 17.44 17.478 17.507 17.495 17.432 17.345 17.235 17.112 17.005 16.92 16.863 16.825 16.855 16.95 17.035 17.095 17.085 17 16.92 16.87 16.835 16.807 16.772 16.72 16.695 16.72 16.772 16.815 16.832 16.835 16.815 16.793 16.785 16.782 16.778 16.778 16.783 16.795 16.825 16.878 16.912 16.915 16.915 16.915 16.92 16.932 16.943 16.953 16.97 16.99 17.005 16.992 16.92 16.82 16.758 16.73 16.71 16.69 16.675 16.67 16.67 16.665 16.657 16.65 16.64 16.63 16.63 16.65 16.627 16.5 16.307 16.105 15.91 15.712 15.472 15.268 15.235 15.277 15.288 15.293 15.295 15.295 15.275 15.207 15.102 14.985 14.857 14.722 14.542 14.305 14.037 13.775 13.58 13.425 13.257 13.08 12.905 12.733 12.563 12.398 12.26 12.15 12.042 11.927 11.782 11.577 11.307 11.008 10.855 10.858 10.865 10.875 10.86 10.817 10.767 10.71 10.655 10.615 10.578 10.548 10.53 10.515 10.5 10.477 10.447 10.412 10.375 10.34 10.307 10.283 10.262 10.243 10.235 10.227 10.205 10.175 10.115 10.03 9.963 9.92 9.905 9.89 9.85 9.782 9.72 9.698 9.69 9.685 9.698 9.727
14.86 14.88 14.92 14.96 15.005 15.042 15.052 15.025 14.98 14.935 15.078 15.352 15.525 15.48 15.405 15.543 15.773 16.007 16.15 16.2 16.22 16.22 16.238 16.313 16.415 16.5 16.52 16.472 16.395 16.3 16.203 16.115 16.028 15.953 15.943 15.983 16.065 16.18 16.288 16.515 16.812 17.02 17.18 17.317 17.427 17.49 17.505 17.505 17.515 17.54 17.57 17.602 17.597 17.53 17.418 17.285 17.155 17.028 16.933 16.885 16.855 16.825 16.855 16.955 17.06 17.147 17.155 17.093 17.043 17.005 16.97 16.935 16.885 16.825 16.79 16.805 16.86 16.915 16.932 16.92 16.895 16.87 16.858 16.85 16.845 16.85 16.855 16.855 16.858 16.875 16.887 16.885 16.885 16.885 16.89 16.908 16.927 16.947 16.967 16.985 17.002 17 16.93 16.808 16.705 16.653 16.633 16.618 16.61 16.61 16.61 16.605 16.6 16.595 16.588 16.59 16.613 16.645 16.627 16.535 16.375 16.177 15.977 15.742 15.455 15.27 15.278 15.345 15.375 15.378 15.38 15.367 15.295 15.185 15.09 14.997 14.892 14.767 14.582 14.325 14.035 13.763 13.565 13.402 13.225 13.045 12.868 12.69 12.515 12.353 12.223 12.117 12.015 11.912 11.795 11.592 11.29 10.985 10.845 10.845 10.848 10.855 10.842 10.807 10.77 10.725 10.675 10.632 10.592 10.555 10.533 10.517 10.5 10.48 10.45 10.412 10.375 10.342 10.317 10.3 10.285 10.27 10.268 10.272 10.27 10.252 10.197 10.13 10.085 10.045 10.007 9.955 9.878 9.79 9.725 9.703 9.698 9.695 9.703 9.74
14.903 14.945 14.983 15.02 15.04 15.015 14.965 14.913 14.863 14.813 14.888 15.083 15.25 15.308 15.37 15.588 15.865 16.112 16.25 16.317 16.38 16.417 16.472 16.562 16.655 16.732 16.732 16.652 16.555 16.455 16.358 16.267 16.168 16.103 16.11 16.14 16.185 16.273 16.425 16.695 17.032 17.297 17.45 17.525 17.557 17.572 17.61 17.637 17.635 17.637 17.645 17.67 17.67 17.583 17.445 17.308 17.173 17.033 16.948 16.923 16.898 16.893 16.945 17.038 17.135 17.225 17.237 17.195 17.162 17.13 17.095 17.047 16.99 16.93 16.885 16.893 16.947 17.002 17.015 16.995 16.972 16.95 16.93 16.918 16.917 16.922 16.92 16.91 16.9 16.88 16.863 16.86 16.86 16.86 16.865 16.885 16.91 16.932 16.955 16.975 16.995 17.002 16.937 16.815 16.692 16.598 16.563 16.558 16.553 16.55 16.55 16.545 16.54 16.54 16.55 16.575 16.607 16.64 16.622 16.55 16.427 16.245 16.012 15.725 15.415 15.27 15.315 15.392 15.447 15.462 15.46 15.405 15.277 15.153 15.062 14.977 14.892 14.787 14.6 14.325 14.025 13.75 13.543 13.37 13.19 13.01 12.83 12.65 12.473 12.308 12.175 12.07 11.97 11.865 11.747 11.545 11.25 10.965 10.835 10.835 10.835 10.835 10.822 10.793 10.76 10.725 10.68 10.637 10.6 10.56 10.532 10.512 10.49 10.467 10.435 10.395 10.355 10.328 10.32 10.32 10.312 10.3 10.295 10.3 10.307 10.3 10.26 10.207 10.16 10.107 10.06 10.002 9.92 9.833 9.763 9.728 9.715 9.708 9.708 9.738
14.967 15.01 15.047 15.08 15.05 14.96 14.89 14.838 14.783 14.753 14.845 15 15.123 15.248 15.445 15.725 16.012 16.235 16.325 16.373 16.45 16.517 16.58 16.655 16.735 16.795 16.795 16.75 16.692 16.61 16.512 16.417 16.305 16.25 16.275 16.307 16.34 16.39 16.528 16.772 17.055 17.305 17.475 17.555 17.57 17.59 17.695 17.76 17.702 17.648 17.628 17.675 17.74 17.695 17.57 17.43 17.28 17.123 17.035 17.015 17.015 17.058 17.133 17.218 17.297 17.34 17.312 17.255 17.217 17.195 17.162 17.115 17.065 17.015 16.973 16.973 17.015 17.06 17.072 17.055 17.035 17.017 16.997 16.977 16.967 16.96 16.945 16.925 16.902 16.865 16.84 16.84 16.84 16.837 16.84 16.86 16.887 16.91 16.935 16.96 16.985 16.995 16.915 16.777 16.65 16.538 16.495 16.5 16.495 16.49 16.49 16.488 16.488 16.5 16.53 16.565 16.597 16.632 16.615 16.537 16.44 16.265 15.992 15.687 15.395 15.288 15.353 15.428 15.502 15.542 15.512 15.4 15.245 15.122 15.03 14.93 14.83 14.71 14.515 14.247 13.962 13.705 13.5 13.317 13.135 12.955 12.78 12.605 12.425 12.253 12.115 12.01 11.91 11.81 11.667 11.445 11.175 10.928 10.818 10.815 10.812 10.807 10.8 10.782 10.752 10.717 10.672 10.625 10.587 10.55 10.52 10.495 10.467 10.437 10.402 10.365 10.325 10.3 10.3 10.31 10.315 10.317 10.312 10.302 10.295 10.282 10.265 10.227 10.17 10.108 10.072 10.052 9.992 9.908 9.83 9.78 9.755 9.74 9.73 9.735
