ncols         200
nrows         71
xllcorner     546000
yllcorner     257620
cellsize      5
NODATA_value  -9999.0
15.23 15.257 15.265 15.29 15.327 15.36 15.392 15.412 15.382 15.32 15.278 15.28 15.315 15.355 15.395 15.43 15.457 15.432 15.317 15.16 15.005 14.918 14.93 14.978 15.025 15.072 15.117 15.145 15.127 15.093 15.09 15.115 15.15 15.188 15.223 15.26 15.297 15.312 15.293 15.255 15.21 15.163 15.125 15.093 15.06 15.043 15.045 15.055 15.065 15.078 15.093 15.115 15.14 15.15 15.14 15.12 15.097 15.072 15.035 14.972 14.905 14.888 14.912 14.937 14.95 14.937 14.915 14.892 14.878 14.908 14.973 15.04 15.102 15.15 15.2 15.26 15.32 15.362 15.357 15.287 15.188 15.098 15.063 15.078 15.095 15.118 15.143 15.193 15.27 15.35 15.372 15.37 15.4 15.42 15.375 15.272 15.162 15.047 14.932 14.828 14.74 14.66 14.618 14.618 14.623 14.63 14.653 14.703 14.757 14.792 14.818 14.845 14.872 14.895 14.882 14.84 14.8 14.75 14.73 14.765 14.822 14.87 14.897 14.92 14.94 14.963 15.005 15.065 15.12 15.157 15.165 15.155 15.142 15.117 15.062 14.965 14.843 14.775 14.772 14.775 14.775 14.772 14.77 14.762 14.745 14.73 14.717 14.703 14.69 14.68 14.695 14.745 14.805 14.862 14.877 14.842 14.795 14.757 14.737 14.72 14.702 14.687 14.67 14.652 14.642 14.622 14.58 14.535 14.492 14.445 14.405 14.375 14.345 14.315 14.285 14.253 14.22 14.195 14.18 14.163 14.14 14.115 14.002 13.815 13.64 13.533 13.495 13.468 13.448 13.455 13.453 13.413 13.36 13.305 13.26 13.22 13.175 13.122 13.06 12.993
15.222 15.252 15.272 15.3 15.33 15.36 15.39 15.417 15.407 15.355 15.315 15.325 15.365 15.402 15.432 15.452 15.45 15.372 15.225 15.088 14.988 14.94 14.953 14.995 15.043 15.088 15.135 15.152 15.128 15.095 15.09 15.113 15.143 15.178 15.215 15.255 15.295 15.315 15.3 15.265 15.223 15.185 15.158 15.133 15.108 15.088 15.085 15.095 15.105 15.115 15.125 15.14 15.162 15.155 15.113 15.08 15.057 15.032 15.012 14.97 14.908 14.895 14.922 14.95 14.97 14.962 14.94 14.917 14.9 14.93 15 15.06 15.105 15.145 15.193 15.25 15.31 15.357 15.372 15.327 15.228 15.118 15.078 15.098 15.118 15.145 15.158 15.188 15.26 15.317 15.257 15.15 15.145 15.185 15.147 15.042 14.935 14.828 14.81 14.81 14.738 14.668 14.643 14.653 14.66 14.668 14.69 14.743 14.79 14.818 14.843 14.87 14.897 14.92 14.907 14.865 14.823 14.778 14.77 14.81 14.863 14.9 14.923 14.945 14.968 14.99 15.025 15.078 15.135 15.192 15.2 15.17 15.15 15.125 15.095 15.017 14.895 14.82 14.808 14.815 14.822 14.827 14.827 14.815 14.795 14.78 14.767 14.752 14.737 14.725 14.733 14.772 14.83 14.887 14.905 14.867 14.815 14.772 14.74 14.715 14.695 14.675 14.655 14.638 14.64 14.642 14.612 14.568 14.523 14.48 14.45 14.427 14.405 14.38 14.347 14.313 14.28 14.25 14.225 14.2 14.175 14.15 14.055 13.885 13.71 13.59 13.54 13.513 13.485 13.455 13.43 13.428 13.435 13.398 13.33 13.268 13.208 13.153 13.09 13.028
15.215 15.247 15.267 15.285 15.313 15.35 15.385 15.412 15.417 15.382 15.355 15.375 15.41 15.432 15.442 15.45 15.41 15.295 15.173 15.088 15.033 15.003 15.003 15.025 15.063 15.108 15.152 15.167 15.145 15.115 15.11 15.13 15.153 15.185 15.225 15.265 15.305 15.332 15.332 15.307 15.27 15.238 15.21 15.185 15.16 15.135 15.125 15.13 15.14 15.15 15.157 15.165 15.185 15.162 15.088 15.025 14.985 14.955 14.945 14.937 14.9 14.89 14.915 14.94 14.965 14.975 14.96 14.933 14.93 14.972 15.03 15.07 15.102 15.138 15.178 15.23 15.285 15.325 15.35 15.352 15.295 15.18 15.118 15.133 15.16 15.19 15.19 15.18 15.225 15.235 15.092 14.888 14.755 14.725 14.7 14.615 14.568 14.608 14.753 14.832 14.77 14.7 14.675 14.692 14.705 14.713 14.743 14.79 14.822 14.845 14.87 14.897 14.92 14.94 14.932 14.895 14.853 14.818 14.825 14.87 14.915 14.945 14.963 14.98 15.003 15.028 15.06 15.1 15.148 15.205 15.192 15.125 15.088 15.063 15.06 15.04 14.947 14.863 14.843 14.85 14.855 14.86 14.87 14.865 14.845 14.827 14.808 14.79 14.775 14.76 14.758 14.775 14.815 14.865 14.875 14.835 14.793 14.757 14.723 14.69 14.665 14.645 14.625 14.618 14.633 14.65 14.64 14.602 14.558 14.518 14.488 14.465 14.45 14.435 14.41 14.38 14.35 14.32 14.295 14.267 14.237 14.207 14.13 13.968 13.78 13.65 13.59 13.56 13.53 13.5 13.475 13.485 13.53 13.535 13.475 13.39 13.308 13.235 13.168 13.115
15.182 15.217 15.24 15.268 15.31 15.352 15.382 15.405 15.42 15.403 15.393 15.417 15.435 15.437 15.435 15.427 15.365 15.268 15.2 15.15 15.1 15.068 15.065 15.075 15.095 15.133 15.167 15.175 15.16 15.135 15.13 15.15 15.168 15.195 15.235 15.275 15.315 15.347 15.355 15.342 15.322 15.292 15.26 15.235 15.21 15.185 15.168 15.165 15.175 15.177 15.172 15.18 15.2 15.17 15.09 15.01 14.94 14.888 14.868 14.878 14.878 14.883 14.905 14.928 14.952 14.975 14.98 14.958 14.955 14.993 15.033 15.065 15.098 15.13 15.163 15.208 15.252 15.285 15.31 15.33 15.332 15.27 15.203 15.19 15.205 15.235 15.225 15.183 15.2 15.152 14.955 14.74 14.535 14.378 14.295 14.305 14.435 14.65 14.832 14.86 14.797 14.733 14.708 14.727 14.747 14.76 14.79 14.825 14.848 14.872 14.897 14.92 14.94 14.96 14.957 14.928 14.898 14.883 14.895 14.932 14.972 15.005 15.022 15.028 15.04 15.065 15.1 15.135 15.17 15.215 15.19 15.1 15.035 15 15 15.015 14.977 14.905 14.878 14.882 14.883 14.888 14.905 14.91 14.895 14.875 14.85 14.828 14.81 14.795 14.795 14.802 14.818 14.85 14.85 14.81 14.775 14.74 14.705 14.67 14.638 14.615 14.6 14.605 14.625 14.647 14.657 14.635 14.593 14.553 14.523 14.5 14.483 14.468 14.455 14.442 14.42 14.39 14.36 14.327 14.293 14.26 14.215 14.072 13.863 13.71 13.64 13.61 13.577 13.545 13.525 13.547 13.6 13.642 13.632 13.56 13.475 13.393 13.318 13.258
15.112 15.162 15.212 15.267 15.317 15.352 15.375 15.395 15.417 15.42 15.422 15.437 15.437 15.43 15.422 15.412 15.37 15.313 15.265 15.217 15.17 15.133 15.125 15.135 15.148 15.17 15.183 15.175 15.168 15.155 15.153 15.17 15.185 15.21 15.248 15.285 15.325 15.362 15.375 15.365 15.355 15.335 15.31 15.287 15.26 15.235 15.213 15.2 15.2 15.19 15.175 15.188 15.207 15.17 15.09 15.008 14.93 14.868 14.84 14.85 14.868 14.878 14.893 14.915 14.937 14.96 14.982 14.987 14.995 15.022 15.05 15.078 15.103 15.128 15.153 15.185 15.217 15.245 15.27 15.29 15.315 15.317 15.297 15.275 15.263 15.275 15.255 15.198 15.165 15.047 14.818 14.598 14.393 14.23 14.22 14.38 14.578 14.787 14.912 14.885 14.825 14.765 14.743 14.763 14.785 14.805 14.828 14.853 14.875 14.898 14.923 14.943 14.96 14.98 14.987 14.975 14.96 14.952 14.96 14.988 15.025 15.062 15.09 15.095 15.093 15.105 15.132 15.165 15.195 15.22 15.182 15.092 15.008 14.948 14.94 14.962 14.97 14.937 14.913 14.912 14.908 14.915 14.935 14.947 14.935 14.91 14.887 14.862 14.84 14.825 14.82 14.82 14.82 14.83 14.827 14.798 14.763 14.725 14.69 14.655 14.618 14.588 14.58 14.592 14.607 14.625 14.64 14.645 14.627 14.59 14.56 14.54 14.52 14.5 14.485 14.48 14.472 14.45 14.417 14.382 14.347 14.313 14.28 14.175 13.97 13.778 13.685 13.655 13.622 13.59 13.55 13.552 13.607 13.665 13.71 13.697 13.635 13.562 13.49 13.42
15.028 15.095 15.167 15.237 15.29 15.317 15.337 15.36 15.385 15.405 15.412 15.412 15.407 15.4 15.39 15.397 15.397 15.37 15.33 15.282 15.238 15.198 15.188 15.2 15.212 15.222 15.218 15.203 15.193 15.185 15.18 15.188 15.203 15.228 15.262 15.3 15.34 15.38 15.395 15.385 15.375 15.362 15.35 15.332 15.307 15.282 15.255 15.223 15.198 15.182 15.173 15.195 15.21 15.16 15.083 15.013 14.953 14.9 14.87 14.878 14.892 14.89 14.89 14.903 14.92 14.943 14.968 14.995 15.025 15.05 15.072 15.095 15.115 15.135 15.163 15.173 15.175 15.2 15.225 15.253 15.29 15.33 15.347 15.337 15.322 15.315 15.287 15.232 15.132 14.932 14.685 14.458 14.3 14.31 14.5 14.707 14.812 14.91 14.967 14.925 14.868 14.81 14.79 14.81 14.833 14.878 14.913 14.923 14.935 14.945 14.955 14.97 14.99 15.01 15.025 15.025 15.015 15.005 15.01 15.035 15.07 15.11 15.147 15.162 15.15 15.135 15.138 15.16 15.19 15.207 15.165 15.077 14.988 14.915 14.9 14.923 14.945 14.95 14.943 14.938 14.933 14.94 14.96 14.96 14.922 14.885 14.862 14.837 14.81 14.792 14.787 14.785 14.78 14.782 14.8 14.795 14.76 14.72 14.685 14.65 14.613 14.585 14.548 14.523 14.53 14.54 14.55 14.575 14.602 14.61 14.6 14.58 14.56 14.543 14.525 14.51 14.502 14.49 14.465 14.432 14.397 14.362 14.33 14.257 14.067 13.853 13.74 13.695 13.665 13.635 13.548 13.465 13.485 13.545 13.622 13.705 13.715 13.66 13.595 13.52
14.95 15.025 15.102 15.175 15.232 15.26 15.273 15.29 15.315 15.34 15.352 15.355 15.352 15.345 15.34 15.36 15.385 15.387 15.37 15.34 15.302 15.263 15.253 15.262 15.27 15.275 15.27 15.257 15.245 15.235 15.223 15.213 15.22 15.243 15.275 15.315 15.355 15.395 15.412 15.405 15.395 15.385 15.377 15.367 15.35 15.325 15.295 15.248 15.195 15.17 15.17 15.207 15.215 15.16 15.1 15.048 15 14.953 14.913 14.91 14.922 14.915 14.905 14.9 14.908 14.928 14.953 14.988 15.027 15.055 15.078 15.102 15.125 15.153 15.197 15.17 15.133 15.17 15.208 15.248 15.295 15.342 15.36 15.355 15.352 15.35 15.327 15.272 15.117 14.855 14.585 14.38 14.358 14.533 14.767 14.915 14.935 14.94 14.967 14.962 14.925 14.87 14.848 14.868 14.91 14.99 15.047 15.055 15.053 15.04 15.015 15.01 15.03 15.052 15.067 15.065 15.055 15.048 15.055 15.078 15.108 15.145 15.185 15.205 15.19 15.163 15.143 15.143 15.165 15.185 15.145 15.055 14.965 14.9 14.89 14.91 14.935 14.962 14.97 14.963 14.958 14.963 14.975 14.947 14.878 14.823 14.79 14.765 14.728 14.703 14.707 14.71 14.708 14.718 14.762 14.787 14.76 14.723 14.688 14.653 14.633 14.62 14.545 14.448 14.408 14.405 14.415 14.445 14.498 14.572 14.627 14.627 14.613 14.598 14.58 14.558 14.535 14.523 14.505 14.475 14.44 14.405 14.372 14.305 14.13 13.943 13.83 13.75 13.705 13.665 13.542 13.375 13.315 13.353 13.438 13.572 13.677 13.682 13.625 13.545
14.89 14.963 15.038 15.11 15.175 15.21 15.215 15.223 15.24 15.258 15.273 15.285 15.29 15.288 15.293 15.32 15.355 15.37 15.367 15.36 15.342 15.32 15.312 15.317 15.322 15.325 15.32 15.31 15.302 15.295 15.28 15.26 15.25 15.258 15.285 15.325 15.365 15.405 15.427 15.425 15.418 15.41 15.403 15.397 15.387 15.367 15.335 15.28 15.213 15.168 15.168 15.205 15.212 15.177 15.14 15.097 15.052 15.007 14.96 14.943 14.945 14.935 14.925 14.915 14.91 14.915 14.938 14.98 15.027 15.062 15.085 15.11 15.145 15.19 15.237 15.198 15.148 15.183 15.228 15.273 15.32 15.36 15.372 15.37 15.373 15.377 15.367 15.29 15.085 14.833 14.605 14.48 14.545 14.725 14.93 15.007 14.945 14.913 14.935 14.96 14.962 14.927 14.905 14.94 15.015 15.11 15.18 15.2 15.187 15.15 15.098 15.07 15.078 15.097 15.11 15.105 15.095 15.093 15.105 15.125 15.145 15.175 15.215 15.237 15.225 15.197 15.17 15.148 15.15 15.165 15.125 15.035 14.945 14.893 14.893 14.918 14.958 14.992 15 14.99 14.983 14.985 14.977 14.925 14.845 14.773 14.723 14.685 14.638 14.615 14.623 14.628 14.633 14.653 14.71 14.765 14.76 14.725 14.695 14.675 14.677 14.667 14.585 14.455 14.348 14.29 14.28 14.315 14.398 14.525 14.637 14.675 14.672 14.66 14.642 14.617 14.585 14.563 14.542 14.515 14.48 14.44 14.4 14.325 14.19 14.055 13.942 13.835 13.758 13.682 13.535 13.34 13.193 13.163 13.255 13.4 13.55 13.652 13.645 13.557
14.855 14.925 14.995 15.065 15.127 15.16 15.168 15.175 15.185 15.195 15.205 15.215 15.225 15.233 15.248 15.28 15.32 15.347 15.352 15.347 15.342 15.34 15.342 15.35 15.357 15.365 15.367 15.36 15.355 15.35 15.335 15.315 15.292 15.278 15.293 15.332 15.375 15.415 15.445 15.45 15.442 15.435 15.427 15.422 15.415 15.405 15.372 15.31 15.24 15.178 15.155 15.17 15.182 15.17 15.14 15.107 15.072 15.035 14.995 14.973 14.968 14.96 14.95 14.94 14.93 14.925 14.943 14.983 15.028 15.068 15.1 15.135 15.185 15.242 15.277 15.255 15.218 15.23 15.268 15.308 15.35 15.38 15.392 15.395 15.397 15.402 15.402 15.322 15.13 14.93 14.768 14.723 14.8 14.92 15.055 15.067 14.975 14.908 14.898 14.925 14.952 14.96 14.975 15.043 15.135 15.23 15.312 15.335 15.3 15.245 15.185 15.145 15.138 15.148 15.152 15.148 15.14 15.14 15.155 15.175 15.19 15.21 15.245 15.267 15.257 15.23 15.203 15.175 15.155 15.147 15.102 15.015 14.925 14.885 14.905 14.945 14.995 15.03 15.032 15.02 15.01 15 14.962 14.893 14.815 14.738 14.675 14.62 14.575 14.563 14.568 14.573 14.58 14.603 14.655 14.727 14.755 14.733 14.718 14.72 14.73 14.722 14.645 14.513 14.378 14.255 14.183 14.223 14.365 14.533 14.66 14.71 14.715 14.71 14.697 14.672 14.64 14.607 14.577 14.545 14.502 14.457 14.412 14.342 14.242 14.135 14.022 13.912 13.812 13.695 13.527 13.333 13.14 13.023 13.075 13.23 13.388 13.545 13.622 13.557
14.838 14.905 14.975 15.04 15.09 15.115 15.125 15.135 15.145 15.157 15.165 15.17 15.18 15.19 15.21 15.245 15.283 15.317 15.335 15.335 15.333 15.335 15.345 15.352 15.362 15.377 15.385 15.382 15.38 15.382 15.367 15.337 15.31 15.285 15.29 15.327 15.37 15.412 15.447 15.455 15.447 15.44 15.432 15.427 15.42 15.417 15.397 15.34 15.27 15.198 15.145 15.128 15.133 15.135 15.115 15.085 15.052 15.02 15.013 15.02 15.013 14.995 14.98 14.973 14.965 14.96 14.975 15.01 15.048 15.083 15.11 15.145 15.197 15.255 15.302 15.317 15.298 15.295 15.325 15.36 15.387 15.397 15.405 15.41 15.41 15.415 15.412 15.355 15.24 15.105 14.998 14.995 15.057 15.11 15.142 15.105 15.015 14.93 14.9 14.925 14.953 14.988 15.053 15.145 15.242 15.34 15.422 15.44 15.395 15.335 15.275 15.223 15.2 15.202 15.2 15.195 15.19 15.19 15.205 15.222 15.238 15.255 15.275 15.287 15.287 15.267 15.24 15.215 15.185 15.15 15.085 14.995 14.91 14.89 14.935 14.985 15.037 15.07 15.067 15.052 15.037 15.01 14.953 14.88 14.808 14.738 14.675 14.618 14.58 14.573 14.578 14.583 14.595 14.623 14.665 14.72 14.755 14.755 14.753 14.76 14.767 14.765 14.725 14.635 14.51 14.368 14.245 14.283 14.46 14.62 14.712 14.74 14.745 14.745 14.73 14.697 14.662 14.627 14.592 14.55 14.5 14.452 14.407 14.34 14.242 14.135 14.025 13.92 13.812 13.685 13.527 13.34 13.145 12.973 12.97 13.13 13.295 13.46 13.577 13.545
14.823 14.887 14.95 15.002 15.045 15.072 15.085 15.095 15.105 15.12 15.132 15.14 15.148 15.16 15.185 15.218 15.25 15.285 15.312 15.325 15.33 15.335 15.342 15.348 15.358 15.37 15.375 15.375 15.383 15.402 15.39 15.345 15.305 15.273 15.278 15.315 15.355 15.397 15.43 15.435 15.43 15.425 15.415 15.413 15.413 15.412 15.4 15.357 15.295 15.223 15.16 15.118 15.093 15.09 15.085 15.06 15.028 15.005 15.055 15.102 15.077 15.043 15.018 15.008 15.003 15 15.015 15.05 15.085 15.115 15.128 15.133 15.163 15.213 15.275 15.342 15.37 15.368 15.388 15.42 15.417 15.398 15.4 15.407 15.413 15.417 15.397 15.34 15.267 15.195 15.147 15.147 15.167 15.18 15.175 15.13 15.052 14.968 14.938 14.963 14.998 15.05 15.13 15.23 15.325 15.405 15.465 15.49 15.47 15.42 15.36 15.303 15.268 15.258 15.25 15.245 15.24 15.24 15.252 15.267 15.282 15.292 15.295 15.3 15.312 15.31 15.285 15.255 15.225 15.175 15.09 14.993 14.91 14.913 14.975 15.025 15.08 15.107 15.1 15.082 15.055 15.017 14.96 14.893 14.828 14.765 14.705 14.658 14.63 14.623 14.625 14.63 14.658 14.702 14.742 14.772 14.78 14.778 14.782 14.787 14.79 14.785 14.775 14.747 14.682 14.57 14.435 14.46 14.622 14.722 14.755 14.767 14.775 14.775 14.75 14.703 14.66 14.625 14.587 14.538 14.488 14.44 14.39 14.312 14.205 14.095 13.985 13.88 13.767 13.645 13.512 13.35 13.162 12.973 12.953 13.105 13.268 13.432 13.552 13.525
14.808 14.873 14.93 14.968 14.998 15.028 15.045 15.055 15.068 15.083 15.097 15.107 15.115 15.135 15.165 15.195 15.225 15.257 15.285 15.305 15.317 15.327 15.337 15.345 15.355 15.365 15.37 15.378 15.4 15.43 15.42 15.37 15.32 15.273 15.265 15.3 15.342 15.385 15.412 15.415 15.408 15.405 15.403 15.403 15.405 15.405 15.39 15.355 15.307 15.245 15.185 15.138 15.093 15.06 15.048 15.03 15 15.028 15.137 15.182 15.137 15.095 15.065 15.048 15.04 15.04 15.055 15.09 15.125 15.152 15.16 15.148 15.148 15.168 15.215 15.305 15.392 15.427 15.45 15.46 15.417 15.388 15.395 15.405 15.415 15.417 15.38 15.32 15.273 15.235 15.208 15.188 15.178 15.178 15.17 15.135 15.077 15.003 14.975 15.01 15.065 15.13 15.21 15.297 15.367 15.42 15.465 15.5 15.51 15.49 15.44 15.385 15.34 15.315 15.305 15.298 15.29 15.288 15.297 15.307 15.31 15.305 15.303 15.313 15.33 15.342 15.332 15.3 15.265 15.205 15.113 15.018 14.933 14.925 14.995 15.065 15.122 15.142 15.125 15.098 15.063 15.028 14.978 14.915 14.855 14.795 14.74 14.705 14.685 14.673 14.673 14.688 14.728 14.782 14.825 14.837 14.815 14.798 14.805 14.81 14.81 14.805 14.795 14.785 14.77 14.722 14.623 14.63 14.732 14.77 14.78 14.792 14.802 14.8 14.767 14.713 14.663 14.623 14.58 14.528 14.475 14.427 14.37 14.277 14.165 14.055 13.945 13.837 13.72 13.595 13.47 13.332 13.17 12.983 12.95 13.09 13.248 13.407 13.527 13.505
14.798 14.865 14.927 14.96 14.975 14.995 15.01 15.02 15.035 15.05 15.063 15.073 15.088 15.115 15.145 15.175 15.203 15.23 15.255 15.275 15.29 15.305 15.32 15.332 15.345 15.358 15.373 15.395 15.425 15.455 15.447 15.4 15.347 15.293 15.273 15.295 15.33 15.37 15.395 15.397 15.393 15.393 15.395 15.398 15.4 15.4 15.385 15.35 15.31 15.265 15.213 15.163 15.115 15.068 15.033 15.005 15.01 15.108 15.225 15.24 15.187 15.143 15.115 15.095 15.083 15.08 15.095 15.128 15.16 15.187 15.195 15.182 15.17 15.163 15.18 15.253 15.36 15.447 15.487 15.462 15.405 15.385 15.395 15.405 15.415 15.417 15.388 15.348 15.323 15.295 15.27 15.245 15.22 15.203 15.177 15.135 15.085 15.028 15.02 15.075 15.137 15.202 15.27 15.327 15.375 15.42 15.465 15.5 15.52 15.532 15.515 15.47 15.42 15.38 15.36 15.352 15.345 15.335 15.332 15.33 15.32 15.31 15.313 15.33 15.348 15.362 15.372 15.355 15.307 15.233 15.143 15.055 14.97 14.925 14.975 15.075 15.152 15.175 15.153 15.123 15.093 15.063 15.013 14.95 14.888 14.828 14.785 14.76 14.74 14.723 14.723 14.755 14.805 14.86 14.895 14.882 14.845 14.82 14.82 14.822 14.817 14.81 14.8 14.79 14.782 14.775 14.742 14.74 14.775 14.79 14.8 14.812 14.825 14.82 14.782 14.728 14.673 14.623 14.575 14.522 14.465 14.412 14.345 14.243 14.13 14.018 13.908 13.795 13.67 13.545 13.42 13.29 13.155 12.993 12.95 13.078 13.232 13.387 13.505 13.482
14.798 14.86 14.927 14.97 14.985 14.995 15.003 15.01 15.023 15.035 15.045 15.058 15.075 15.1 15.13 15.158 15.183 15.215 15.238 15.25 15.265 15.28 15.298 15.313 15.328 15.348 15.375 15.405 15.435 15.487 15.492 15.43 15.37 15.315 15.295 15.31 15.335 15.368 15.385 15.385 15.385 15.388 15.39 15.392 15.395 15.395 15.38 15.345 15.31 15.303 15.293 15.253 15.203 15.15 15.098 15.048 15.07 15.187 15.27 15.255 15.213 15.185 15.165 15.148 15.133 15.123 15.135 15.165 15.195 15.225 15.232 15.218 15.205 15.2 15.208 15.25 15.338 15.445 15.492 15.45 15.405 15.4 15.41 15.42 15.428 15.425 15.412 15.4 15.382 15.357 15.332 15.307 15.28 15.242 15.195 15.148 15.1 15.05 15.058 15.12 15.18 15.245 15.302 15.345 15.388 15.43 15.48 15.52 15.543 15.57 15.572 15.535 15.487 15.44 15.408 15.397 15.387 15.37 15.35 15.335 15.325 15.318 15.33 15.355 15.37 15.385 15.402 15.402 15.357 15.278 15.193 15.105 15.023 14.988 15.045 15.15 15.212 15.217 15.2 15.178 15.155 15.12 15.06 14.995 14.933 14.875 14.84 14.82 14.8 14.78 14.783 14.822 14.875 14.927 14.942 14.912 14.875 14.843 14.83 14.822 14.807 14.795 14.785 14.775 14.77 14.768 14.772 14.775 14.773 14.782 14.795 14.807 14.823 14.835 14.807 14.745 14.685 14.628 14.573 14.517 14.46 14.402 14.325 14.225 14.123 14.015 13.908 13.778 13.635 13.508 13.38 13.25 13.122 12.983 12.945 13.063 13.215 13.367 13.47 13.442
14.81 14.86 14.922 14.975 15 15.01 15.015 15.02 15.03 15.04 15.05 15.063 15.075 15.093 15.12 15.145 15.175 15.225 15.25 15.245 15.25 15.265 15.285 15.3 15.315 15.34 15.37 15.408 15.47 15.557 15.562 15.48 15.403 15.338 15.315 15.333 15.363 15.395 15.415 15.413 15.398 15.388 15.385 15.388 15.39 15.39 15.375 15.34 15.343 15.385 15.402 15.387 15.352 15.3 15.24 15.18 15.158 15.23 15.28 15.253 15.235 15.228 15.217 15.202 15.185 15.173 15.18 15.205 15.235 15.262 15.267 15.255 15.253 15.268 15.288 15.303 15.353 15.45 15.49 15.45 15.425 15.43 15.44 15.45 15.45 15.435 15.423 15.42 15.415 15.405 15.39 15.365 15.325 15.27 15.215 15.17 15.125 15.075 15.078 15.138 15.2 15.265 15.325 15.372 15.415 15.463 15.52 15.562 15.59 15.62 15.617 15.575 15.527 15.48 15.443 15.425 15.41 15.39 15.365 15.34 15.325 15.32 15.345 15.382 15.4 15.415 15.43 15.43 15.405 15.342 15.255 15.168 15.115 15.138 15.222 15.29 15.29 15.265 15.25 15.237 15.22 15.177 15.113 15.05 14.99 14.938 14.905 14.885 14.865 14.848 14.85 14.878 14.92 14.967 14.97 14.935 14.9 14.865 14.838 14.813 14.79 14.775 14.765 14.755 14.753 14.763 14.785 14.79 14.773 14.765 14.77 14.783 14.838 14.88 14.842 14.775 14.71 14.645 14.573 14.503 14.44 14.385 14.325 14.245 14.15 14.05 13.94 13.783 13.618 13.485 13.355 13.225 13.095 12.963 12.935 13.045 13.19 13.34 13.415 13.377
14.83 14.873 14.923 14.98 15.015 15.022 15.028 15.033 15.04 15.048 15.055 15.068 15.08 15.093 15.113 15.14 15.188 15.255 15.282 15.268 15.26 15.263 15.275 15.29 15.308 15.335 15.378 15.453 15.565 15.655 15.637 15.552 15.465 15.378 15.34 15.363 15.4 15.437 15.47 15.475 15.45 15.423 15.403 15.39 15.385 15.385 15.37 15.37 15.438 15.495 15.5 15.495 15.482 15.452 15.4 15.337 15.28 15.283 15.295 15.28 15.277 15.272 15.267 15.255 15.235 15.228 15.235 15.25 15.275 15.3 15.305 15.303 15.32 15.357 15.382 15.38 15.39 15.457 15.492 15.468 15.46 15.463 15.467 15.47 15.46 15.44 15.428 15.425 15.423 15.42 15.422 15.405 15.352 15.29 15.235 15.19 15.145 15.095 15.095 15.155 15.22 15.285 15.347 15.398 15.45 15.517 15.575 15.61 15.64 15.667 15.657 15.61 15.56 15.51 15.468 15.445 15.432 15.415 15.387 15.355 15.33 15.32 15.35 15.402 15.432 15.447 15.452 15.442 15.43 15.392 15.315 15.258 15.258 15.31 15.367 15.37 15.34 15.31 15.293 15.287 15.275 15.232 15.172 15.115 15.055 15.005 14.978 14.96 14.943 14.93 14.93 14.943 14.968 14.997 14.99 14.955 14.92 14.885 14.848 14.808 14.778 14.758 14.745 14.74 14.75 14.775 14.805 14.807 14.785 14.765 14.753 14.758 14.867 14.94 14.88 14.815 14.75 14.677 14.588 14.5 14.423 14.363 14.32 14.267 14.187 14.092 13.97 13.793 13.61 13.465 13.335 13.205 13.075 12.948 12.93 13.035 13.165 13.302 13.347 13.295
14.855 14.895 14.938 14.987 15.025 15.035 15.04 15.045 15.05 15.055 15.063 15.08 15.095 15.108 15.123 15.153 15.215 15.29 15.315 15.3 15.29 15.28 15.275 15.283 15.303 15.35 15.438 15.555 15.685 15.755 15.715 15.625 15.53 15.423 15.365 15.388 15.432 15.477 15.517 15.535 15.52 15.49 15.46 15.43 15.408 15.393 15.395 15.455 15.55 15.592 15.587 15.58 15.572 15.56 15.52 15.452 15.38 15.333 15.315 15.312 15.315 15.315 15.315 15.307 15.29 15.285 15.295 15.305 15.32 15.34 15.355 15.375 15.405 15.437 15.46 15.462 15.458 15.485 15.505 15.495 15.495 15.495 15.492 15.482 15.465 15.445 15.433 15.433 15.438 15.443 15.452 15.432 15.372 15.31 15.255 15.208 15.163 15.115 15.115 15.175 15.24 15.305 15.37 15.433 15.508 15.582 15.63 15.657 15.68 15.695 15.682 15.64 15.59 15.54 15.495 15.468 15.455 15.44 15.412 15.378 15.345 15.325 15.35 15.41 15.457 15.475 15.467 15.453 15.44 15.422 15.393 15.39 15.42 15.45 15.45 15.42 15.387 15.355 15.33 15.317 15.307 15.275 15.222 15.167 15.11 15.065 15.047 15.04 15.027 15.015 15.015 15.025 15.032 15.035 15.017 14.983 14.945 14.908 14.868 14.823 14.78 14.745 14.73 14.74 14.768 14.803 14.837 14.843 14.818 14.793 14.768 14.773 14.9 14.977 14.915 14.853 14.785 14.707 14.618 14.528 14.443 14.375 14.323 14.27 14.21 14.132 14 13.81 13.613 13.448 13.315 13.185 13.058 12.935 12.93 13.04 13.158 13.262 13.272 13.21
14.89 14.928 14.965 15.003 15.033 15.048 15.055 15.06 15.065 15.07 15.083 15.107 15.125 15.14 15.158 15.188 15.245 15.315 15.342 15.327 15.315 15.302 15.28 15.275 15.303 15.38 15.515 15.667 15.81 15.855 15.782 15.677 15.57 15.455 15.385 15.4 15.45 15.505 15.557 15.592 15.592 15.563 15.53 15.5 15.47 15.438 15.423 15.475 15.567 15.617 15.622 15.615 15.605 15.597 15.562 15.49 15.417 15.365 15.335 15.323 15.322 15.33 15.337 15.337 15.335 15.342 15.355 15.365 15.375 15.385 15.395 15.417 15.445 15.467 15.487 15.497 15.502 15.51 15.512 15.51 15.507 15.505 15.49 15.465 15.445 15.43 15.433 15.453 15.472 15.487 15.49 15.452 15.38 15.302 15.257 15.227 15.183 15.138 15.138 15.193 15.257 15.322 15.388 15.473 15.572 15.635 15.66 15.677 15.69 15.692 15.682 15.657 15.617 15.57 15.523 15.493 15.478 15.462 15.437 15.403 15.37 15.343 15.36 15.42 15.472 15.492 15.485 15.472 15.458 15.448 15.45 15.47 15.505 15.512 15.482 15.45 15.417 15.385 15.352 15.33 15.322 15.302 15.255 15.2 15.15 15.115 15.1 15.095 15.09 15.082 15.08 15.08 15.075 15.065 15.05 15.02 14.983 14.945 14.91 14.87 14.82 14.775 14.758 14.778 14.815 14.853 14.89 14.915 14.905 14.875 14.845 14.9 15.012 15.025 14.965 14.905 14.827 14.738 14.652 14.565 14.48 14.413 14.355 14.293 14.233 14.165 14.03 13.833 13.625 13.44 13.3 13.183 13.07 12.95 12.945 13.063 13.18 13.252 13.232 13.17
14.93 14.975 15.008 15.042 15.062 15.068 15.075 15.08 15.083 15.088 15.105 15.135 15.16 15.18 15.2 15.233 15.28 15.337 15.365 15.35 15.327 15.3 15.27 15.27 15.313 15.403 15.552 15.727 15.87 15.9 15.82 15.71 15.6 15.485 15.405 15.41 15.465 15.535 15.602 15.645 15.657 15.637 15.605 15.575 15.54 15.497 15.415 15.405 15.5 15.565 15.595 15.61 15.61 15.602 15.565 15.495 15.438 15.395 15.36 15.333 15.318 15.32 15.327 15.333 15.35 15.38 15.407 15.425 15.435 15.44 15.43 15.423 15.438 15.462 15.48 15.49 15.5 15.505 15.505 15.505 15.5 15.495 15.47 15.425 15.4 15.405 15.435 15.475 15.505 15.525 15.515 15.452 15.357 15.26 15.228 15.235 15.205 15.16 15.16 15.21 15.273 15.338 15.41 15.505 15.592 15.637 15.655 15.665 15.675 15.675 15.662 15.647 15.625 15.59 15.545 15.515 15.503 15.487 15.462 15.43 15.397 15.365 15.38 15.437 15.485 15.507 15.505 15.495 15.483 15.475 15.473 15.483 15.512 15.525 15.5 15.463 15.43 15.4 15.368 15.343 15.335 15.325 15.287 15.235 15.193 15.165 15.145 15.13 15.125 15.122 15.115 15.105 15.095 15.088 15.082 15.062 15.028 14.995 14.97 14.937 14.89 14.85 14.838 14.853 14.883 14.918 14.955 14.995 15.015 15 14.97 15.042 15.115 15.08 15.03 14.965 14.877 14.778 14.688 14.603 14.52 14.45 14.392 14.335 14.272 14.192 14.065 13.892 13.693 13.495 13.353 13.248 13.132 13 12.975 13.09 13.22 13.267 13.225 13.167
14.945 15.012 15.06 15.092 15.097 15.09 15.092 15.097 15.1 15.103 15.123 15.155 15.185 15.215 15.242 15.277 15.322 15.37 15.382 15.355 15.32 15.28 15.255 15.278 15.335 15.423 15.567 15.722 15.812 15.825 15.78 15.71 15.625 15.515 15.425 15.423 15.49 15.575 15.65 15.692 15.712 15.71 15.682 15.645 15.602 15.555 15.44 15.365 15.428 15.495 15.535 15.575 15.602 15.605 15.567 15.51 15.465 15.425 15.39 15.36 15.333 15.315 15.313 15.325 15.355 15.395 15.435 15.467 15.487 15.497 15.485 15.458 15.445 15.458 15.475 15.482 15.487 15.492 15.495 15.495 15.49 15.485 15.467 15.405 15.37 15.4 15.44 15.48 15.517 15.542 15.517 15.427 15.315 15.213 15.18 15.205 15.21 15.183 15.18 15.23 15.29 15.355 15.432 15.51 15.56 15.595 15.625 15.645 15.657 15.655 15.64 15.623 15.608 15.587 15.558 15.538 15.53 15.512 15.485 15.455 15.422 15.388 15.398 15.447 15.49 15.522 15.527 15.515 15.508 15.505 15.5 15.5 15.52 15.54 15.525 15.485 15.448 15.413 15.38 15.355 15.345 15.342 15.317 15.275 15.243 15.218 15.195 15.173 15.158 15.15 15.14 15.13 15.12 15.113 15.11 15.102 15.075 15.045 15.025 15 14.96 14.933 14.933 14.94 14.955 14.983 15.02 15.06 15.097 15.112 15.112 15.142 15.155 15.127 15.087 15.017 14.925 14.825 14.728 14.64 14.56 14.488 14.427 14.375 14.315 14.217 14.09 13.95 13.787 13.607 13.46 13.342 13.205 13.06 12.97 13.078 13.252 13.272 13.218 13.162
14.94 15.022 15.095 15.127 15.117 15.1 15.098 15.105 15.112 15.118 15.138 15.17 15.2 15.232 15.262 15.297 15.342 15.385 15.38 15.335 15.295 15.255 15.25 15.297 15.36 15.443 15.567 15.665 15.69 15.685 15.662 15.627 15.58 15.512 15.44 15.44 15.51 15.582 15.647 15.697 15.737 15.765 15.752 15.705 15.658 15.61 15.495 15.355 15.355 15.425 15.468 15.512 15.555 15.585 15.575 15.535 15.495 15.455 15.42 15.39 15.36 15.33 15.31 15.323 15.36 15.397 15.435 15.475 15.51 15.54 15.542 15.515 15.483 15.465 15.467 15.472 15.475 15.48 15.482 15.48 15.475 15.467 15.465 15.435 15.423 15.46 15.492 15.515 15.535 15.547 15.505 15.4 15.28 15.17 15.133 15.158 15.182 15.188 15.203 15.255 15.313 15.37 15.43 15.477 15.513 15.548 15.583 15.618 15.64 15.64 15.625 15.608 15.595 15.583 15.568 15.56 15.555 15.535 15.502 15.47 15.44 15.408 15.413 15.455 15.495 15.535 15.55 15.54 15.535 15.535 15.532 15.528 15.535 15.557 15.552 15.515 15.475 15.435 15.398 15.368 15.355 15.355 15.345 15.32 15.295 15.27 15.245 15.223 15.208 15.2 15.19 15.178 15.163 15.15 15.143 15.135 15.118 15.095 15.075 15.055 15.033 15.023 15.027 15.035 15.042 15.055 15.085 15.125 15.165 15.2 15.22 15.215 15.19 15.165 15.125 15.047 14.952 14.86 14.767 14.68 14.6 14.52 14.452 14.397 14.355 14.253 14.098 13.963 13.827 13.677 13.532 13.4 13.26 13.12 12.98 13.033 13.227 13.27 13.215 13.16
14.96 15.037 15.105 15.135 15.127 15.11 15.098 15.1 15.11 15.123 15.145 15.175 15.205 15.232 15.255 15.288 15.33 15.37 15.362 15.313 15.27 15.228 15.238 15.305 15.375 15.447 15.515 15.547 15.55 15.547 15.527 15.493 15.46 15.435 15.413 15.43 15.487 15.545 15.6 15.652 15.705 15.755 15.78 15.76 15.715 15.665 15.55 15.368 15.305 15.355 15.4 15.445 15.5 15.588 15.625 15.588 15.545 15.503 15.453 15.405 15.37 15.337 15.308 15.308 15.337 15.372 15.41 15.45 15.49 15.55 15.587 15.57 15.537 15.5 15.458 15.44 15.445 15.45 15.445 15.427 15.415 15.408 15.447 15.5 15.517 15.535 15.547 15.55 15.55 15.545 15.482 15.365 15.243 15.14 15.11 15.135 15.163 15.185 15.223 15.28 15.335 15.38 15.42 15.455 15.49 15.525 15.56 15.61 15.645 15.643 15.628 15.613 15.6 15.59 15.58 15.575 15.567 15.545 15.512 15.48 15.45 15.42 15.425 15.465 15.505 15.542 15.565 15.57 15.567 15.565 15.565 15.56 15.558 15.572 15.572 15.54 15.5 15.46 15.42 15.38 15.358 15.355 15.362 15.365 15.347 15.323 15.303 15.298 15.298 15.293 15.283 15.265 15.243 15.225 15.213 15.198 15.188 15.178 15.16 15.14 15.12 15.108 15.107 15.115 15.122 15.13 15.155 15.195 15.235 15.275 15.272 15.238 15.21 15.182 15.117 14.99 14.872 14.79 14.707 14.652 14.6 14.517 14.442 14.385 14.375 14.35 14.18 13.978 13.835 13.692 13.552 13.415 13.28 13.153 13.028 12.99 13.135 13.255 13.227 13.173
14.99 15.052 15.1 15.12 15.12 15.117 15.105 15.098 15.105 15.123 15.147 15.175 15.202 15.225 15.248 15.278 15.315 15.355 15.352 15.3 15.248 15.203 15.215 15.29 15.36 15.407 15.422 15.418 15.413 15.41 15.393 15.368 15.355 15.353 15.368 15.393 15.435 15.492 15.545 15.597 15.647 15.693 15.74 15.772 15.762 15.722 15.61 15.415 15.288 15.288 15.333 15.405 15.52 15.657 15.707 15.662 15.615 15.562 15.495 15.415 15.358 15.32 15.293 15.29 15.305 15.333 15.37 15.41 15.465 15.552 15.617 15.617 15.59 15.545 15.47 15.41 15.398 15.402 15.392 15.358 15.323 15.323 15.407 15.515 15.55 15.55 15.55 15.548 15.55 15.53 15.442 15.323 15.205 15.13 15.125 15.148 15.175 15.2 15.24 15.297 15.347 15.385 15.42 15.455 15.49 15.525 15.573 15.645 15.677 15.658 15.64 15.627 15.615 15.603 15.593 15.587 15.575 15.55 15.517 15.485 15.455 15.425 15.43 15.47 15.507 15.532 15.545 15.557 15.57 15.582 15.592 15.59 15.585 15.59 15.59 15.565 15.525 15.485 15.445 15.398 15.36 15.35 15.365 15.392 15.397 15.38 15.368 15.38 15.402 15.407 15.397 15.377 15.348 15.325 15.31 15.298 15.292 15.287 15.277 15.26 15.227 15.188 15.17 15.175 15.185 15.198 15.225 15.265 15.305 15.34 15.32 15.26 15.22 15.187 15.082 14.893 14.73 14.628 14.553 14.535 14.535 14.48 14.405 14.365 14.385 14.435 14.367 14.138 13.888 13.698 13.555 13.43 13.308 13.19 13.088 13.028 13.075 13.21 13.255 13.198
14.997 15.05 15.087 15.1 15.103 15.107 15.105 15.098 15.103 15.122 15.147 15.172 15.195 15.218 15.243 15.27 15.303 15.34 15.342 15.292 15.23 15.18 15.193 15.252 15.295 15.32 15.327 15.315 15.3 15.295 15.29 15.288 15.295 15.315 15.345 15.365 15.39 15.438 15.49 15.54 15.585 15.628 15.673 15.725 15.765 15.765 15.665 15.47 15.288 15.243 15.325 15.455 15.615 15.752 15.785 15.735 15.68 15.62 15.547 15.45 15.36 15.303 15.278 15.28 15.29 15.305 15.333 15.383 15.468 15.57 15.64 15.657 15.64 15.585 15.5 15.418 15.368 15.355 15.345 15.307 15.258 15.255 15.333 15.445 15.507 15.515 15.54 15.583 15.587 15.52 15.405 15.288 15.188 15.145 15.153 15.17 15.195 15.223 15.262 15.31 15.35 15.385 15.42 15.455 15.493 15.545 15.62 15.692 15.705 15.678 15.655 15.64 15.63 15.618 15.608 15.6 15.582 15.555 15.522 15.488 15.455 15.428 15.435 15.467 15.487 15.495 15.495 15.5 15.517 15.545 15.57 15.585 15.597 15.61 15.615 15.595 15.555 15.515 15.472 15.422 15.373 15.35 15.368 15.402 15.43 15.432 15.43 15.453 15.487 15.51 15.507 15.485 15.452 15.425 15.41 15.402 15.397 15.392 15.387 15.375 15.34 15.285 15.245 15.238 15.245 15.26 15.29 15.33 15.37 15.395 15.365 15.295 15.238 15.175 15.03 14.82 14.623 14.475 14.4 14.395 14.425 14.42 14.373 14.36 14.4 14.45 14.492 14.4 14.118 13.778 13.548 13.44 13.345 13.247 13.177 13.147 13.133 13.18 13.245 13.227
15.005 15.048 15.075 15.083 15.088 15.093 15.095 15.095 15.1 15.118 15.142 15.165 15.188 15.212 15.238 15.263 15.29 15.325 15.332 15.287 15.223 15.17 15.158 15.178 15.2 15.22 15.232 15.228 15.223 15.228 15.238 15.248 15.26 15.293 15.327 15.345 15.358 15.388 15.432 15.477 15.52 15.562 15.607 15.657 15.715 15.762 15.7 15.515 15.305 15.255 15.39 15.552 15.717 15.84 15.852 15.795 15.735 15.675 15.6 15.5 15.395 15.308 15.273 15.283 15.298 15.313 15.33 15.388 15.488 15.587 15.657 15.687 15.68 15.62 15.533 15.448 15.368 15.318 15.295 15.263 15.23 15.23 15.28 15.368 15.458 15.528 15.608 15.675 15.637 15.512 15.375 15.255 15.188 15.175 15.177 15.19 15.212 15.24 15.277 15.315 15.35 15.385 15.42 15.463 15.52 15.6 15.69 15.737 15.727 15.702 15.675 15.653 15.64 15.63 15.622 15.61 15.587 15.56 15.527 15.493 15.46 15.433 15.43 15.442 15.445 15.445 15.445 15.445 15.45 15.47 15.5 15.53 15.56 15.59 15.612 15.602 15.567 15.535 15.495 15.445 15.39 15.355 15.37 15.408 15.445 15.47 15.487 15.515 15.542 15.57 15.575 15.552 15.527 15.502 15.487 15.48 15.472 15.462 15.452 15.445 15.417 15.367 15.32 15.3 15.303 15.32 15.355 15.395 15.435 15.447 15.405 15.335 15.272 15.17 14.985 14.763 14.54 14.348 14.253 14.255 14.29 14.328 14.345 14.368 14.415 14.465 14.517 14.547 14.41 13.938 13.533 13.42 13.345 13.273 13.23 13.222 13.222 13.223 13.248 13.262
15.065 15.083 15.09 15.093 15.098 15.103 15.105 15.108 15.105 15.113 15.137 15.16 15.183 15.208 15.232 15.255 15.28 15.312 15.322 15.282 15.22 15.188 15.163 15.13 15.123 15.133 15.148 15.158 15.17 15.185 15.2 15.215 15.238 15.277 15.307 15.32 15.335 15.365 15.373 15.383 15.427 15.47 15.515 15.575 15.642 15.707 15.695 15.545 15.33 15.298 15.457 15.625 15.782 15.892 15.905 15.85 15.79 15.73 15.652 15.55 15.448 15.36 15.325 15.34 15.36 15.37 15.37 15.42 15.517 15.605 15.665 15.695 15.697 15.657 15.58 15.488 15.395 15.315 15.263 15.238 15.235 15.245 15.278 15.343 15.46 15.62 15.747 15.755 15.642 15.498 15.353 15.24 15.198 15.192 15.187 15.182 15.193 15.227 15.285 15.335 15.37 15.405 15.44 15.495 15.575 15.665 15.747 15.77 15.747 15.725 15.695 15.67 15.653 15.64 15.632 15.617 15.592 15.565 15.533 15.5 15.47 15.445 15.43 15.423 15.418 15.41 15.403 15.398 15.395 15.405 15.43 15.463 15.5 15.54 15.57 15.565 15.54 15.525 15.505 15.465 15.41 15.373 15.38 15.413 15.45 15.487 15.52 15.547 15.572 15.597 15.602 15.585 15.565 15.545 15.527 15.515 15.505 15.492 15.48 15.475 15.46 15.42 15.378 15.36 15.363 15.385 15.422 15.46 15.497 15.492 15.438 15.38 15.335 15.22 15.01 14.775 14.537 14.293 14.173 14.205 14.255 14.315 14.37 14.408 14.445 14.488 14.535 14.587 14.577 14.187 13.64 13.41 13.343 13.278 13.238 13.235 13.25 13.267 13.285 13.292
15.15 15.142 15.133 15.13 15.132 15.135 15.132 15.13 15.123 15.118 15.133 15.157 15.18 15.202 15.225 15.248 15.273 15.3 15.312 15.278 15.24 15.242 15.222 15.165 15.118 15.088 15.083 15.1 15.123 15.143 15.16 15.185 15.22 15.26 15.285 15.3 15.33 15.375 15.363 15.298 15.295 15.343 15.403 15.485 15.567 15.632 15.657 15.557 15.36 15.345 15.515 15.675 15.802 15.897 15.932 15.9 15.845 15.785 15.705 15.603 15.513 15.445 15.42 15.435 15.445 15.437 15.425 15.463 15.55 15.617 15.652 15.672 15.682 15.672 15.63 15.555 15.465 15.373 15.298 15.265 15.26 15.268 15.288 15.338 15.473 15.67 15.8 15.775 15.647 15.505 15.363 15.253 15.205 15.192 15.18 15.158 15.15 15.183 15.262 15.35 15.41 15.45 15.488 15.553 15.637 15.72 15.782 15.777 15.743 15.73 15.715 15.692 15.67 15.655 15.642 15.622 15.597 15.57 15.54 15.508 15.48 15.465 15.453 15.44 15.428 15.413 15.4 15.388 15.375 15.368 15.38 15.415 15.458 15.5 15.52 15.51 15.498 15.495 15.492 15.475 15.43 15.395 15.4 15.423 15.453 15.49 15.525 15.557 15.59 15.617 15.625 15.612 15.595 15.575 15.555 15.54 15.528 15.515 15.508 15.505 15.5 15.47 15.433 15.42 15.42 15.44 15.477 15.515 15.545 15.532 15.488 15.448 15.415 15.297 15.08 14.845 14.532 14.263 14.213 14.27 14.333 14.397 14.447 14.477 14.503 14.532 14.565 14.595 14.622 14.452 13.855 13.405 13.337 13.278 13.24 13.24 13.26 13.283 13.305 13.31
15.205 15.19 15.175 15.167 15.162 15.16 15.155 15.15 15.145 15.13 15.13 15.153 15.175 15.198 15.22 15.243 15.265 15.29 15.305 15.288 15.295 15.315 15.282 15.222 15.16 15.1 15.073 15.083 15.103 15.125 15.155 15.18 15.203 15.24 15.268 15.298 15.345 15.397 15.422 15.338 15.225 15.23 15.313 15.408 15.497 15.56 15.595 15.545 15.398 15.4 15.565 15.697 15.795 15.88 15.937 15.937 15.895 15.837 15.758 15.668 15.595 15.535 15.51 15.517 15.51 15.495 15.483 15.508 15.57 15.61 15.627 15.637 15.645 15.645 15.632 15.602 15.547 15.467 15.395 15.355 15.328 15.313 15.31 15.345 15.465 15.61 15.687 15.695 15.645 15.535 15.4 15.29 15.218 15.188 15.17 15.143 15.12 15.133 15.208 15.315 15.412 15.485 15.543 15.61 15.687 15.76 15.805 15.782 15.728 15.705 15.705 15.697 15.682 15.67 15.652 15.628 15.603 15.577 15.548 15.518 15.5 15.49 15.48 15.47 15.455 15.437 15.42 15.4 15.378 15.36 15.368 15.395 15.425 15.46 15.475 15.468 15.465 15.465 15.468 15.467 15.442 15.418 15.423 15.44 15.463 15.493 15.528 15.563 15.597 15.627 15.637 15.63 15.617 15.602 15.585 15.567 15.552 15.54 15.535 15.535 15.535 15.515 15.488 15.472 15.458 15.47 15.51 15.55 15.57 15.575 15.565 15.532 15.5 15.375 15.15 14.817 14.428 14.268 14.31 14.365 14.42 14.48 14.525 14.55 14.562 14.57 14.575 14.58 14.585 14.535 14.072 13.5 13.313 13.26 13.233 13.248 13.28 13.31 13.327 13.325
15.235 15.22 15.205 15.187 15.177 15.18 15.177 15.172 15.165 15.148 15.138 15.15 15.17 15.193 15.217 15.24 15.26 15.283 15.305 15.328 15.365 15.372 15.325 15.262 15.2 15.14 15.108 15.113 15.128 15.153 15.205 15.243 15.245 15.25 15.268 15.31 15.365 15.417 15.472 15.447 15.3 15.225 15.283 15.36 15.438 15.49 15.517 15.512 15.433 15.453 15.592 15.692 15.777 15.862 15.935 15.957 15.935 15.89 15.822 15.75 15.685 15.625 15.59 15.58 15.565 15.55 15.537 15.542 15.565 15.583 15.595 15.603 15.607 15.608 15.6 15.587 15.567 15.53 15.485 15.45 15.415 15.377 15.35 15.358 15.398 15.445 15.485 15.518 15.54 15.517 15.44 15.342 15.252 15.195 15.168 15.143 15.118 15.125 15.198 15.305 15.413 15.515 15.592 15.655 15.725 15.792 15.827 15.797 15.733 15.68 15.663 15.67 15.678 15.677 15.66 15.635 15.61 15.583 15.558 15.54 15.53 15.52 15.51 15.498 15.48 15.458 15.433 15.408 15.383 15.363 15.365 15.382 15.4 15.427 15.45 15.455 15.455 15.455 15.458 15.458 15.448 15.443 15.45 15.463 15.48 15.503 15.535 15.573 15.61 15.632 15.635 15.63 15.62 15.612 15.602 15.587 15.575 15.567 15.565 15.565 15.565 15.557 15.537 15.507 15.48 15.49 15.53 15.565 15.57 15.58 15.605 15.605 15.585 15.45 15.097 14.625 14.358 14.355 14.41 14.465 14.515 14.562 14.587 14.583 14.57 14.56 14.55 14.547 14.53 14.48 14.192 13.62 13.28 13.23 13.218 13.25 13.29 13.327 13.347 13.345
15.255 15.24 15.222 15.19 15.175 15.192 15.2 15.195 15.187 15.172 15.153 15.153 15.17 15.19 15.213 15.237 15.26 15.285 15.328 15.382 15.43 15.42 15.36 15.298 15.235 15.175 15.14 15.145 15.165 15.205 15.275 15.342 15.357 15.333 15.32 15.338 15.38 15.43 15.485 15.507 15.425 15.32 15.32 15.38 15.438 15.465 15.463 15.463 15.445 15.488 15.59 15.672 15.755 15.835 15.895 15.922 15.932 15.917 15.87 15.807 15.748 15.7 15.65 15.608 15.587 15.572 15.56 15.553 15.57 15.588 15.583 15.575 15.573 15.575 15.57 15.56 15.553 15.547 15.52 15.477 15.44 15.402 15.368 15.368 15.373 15.355 15.353 15.373 15.41 15.447 15.425 15.335 15.255 15.215 15.198 15.18 15.16 15.18 15.263 15.37 15.478 15.58 15.647 15.695 15.76 15.827 15.852 15.81 15.745 15.683 15.653 15.665 15.685 15.692 15.675 15.65 15.625 15.595 15.575 15.565 15.555 15.553 15.558 15.555 15.54 15.518 15.493 15.468 15.427 15.373 15.345 15.353 15.37 15.392 15.43 15.465 15.475 15.475 15.475 15.473 15.47 15.475 15.483 15.49 15.505 15.523 15.55 15.59 15.622 15.632 15.628 15.622 15.615 15.607 15.6 15.59 15.582 15.58 15.585 15.59 15.59 15.59 15.572 15.535 15.5 15.505 15.545 15.567 15.555 15.55 15.585 15.625 15.627 15.367 14.82 14.45 14.405 14.452 14.502 14.552 14.597 14.635 14.645 14.623 14.595 14.573 14.55 14.52 14.473 14.417 14.225 13.71 13.293 13.205 13.205 13.245 13.29 13.348 13.382 13.375
15.275 15.26 15.237 15.195 15.17 15.19 15.212 15.215 15.21 15.195 15.17 15.158 15.168 15.19 15.21 15.235 15.268 15.308 15.36 15.432 15.487 15.465 15.4 15.335 15.27 15.208 15.173 15.178 15.21 15.273 15.348 15.425 15.47 15.46 15.43 15.41 15.41 15.44 15.49 15.517 15.497 15.415 15.383 15.437 15.49 15.502 15.475 15.45 15.44 15.483 15.565 15.645 15.72 15.78 15.815 15.84 15.87 15.885 15.875 15.842 15.803 15.775 15.717 15.635 15.588 15.568 15.555 15.573 15.638 15.667 15.645 15.623 15.603 15.575 15.553 15.55 15.55 15.55 15.52 15.465 15.423 15.388 15.363 15.39 15.435 15.412 15.358 15.33 15.34 15.375 15.355 15.283 15.245 15.245 15.25 15.24 15.225 15.265 15.36 15.463 15.57 15.662 15.712 15.743 15.793 15.86 15.875 15.822 15.76 15.703 15.68 15.693 15.71 15.715 15.697 15.672 15.645 15.615 15.595 15.585 15.583 15.598 15.622 15.637 15.635 15.62 15.597 15.56 15.48 15.385 15.333 15.318 15.325 15.345 15.39 15.452 15.495 15.51 15.51 15.51 15.51 15.515 15.52 15.525 15.535 15.548 15.573 15.61 15.63 15.627 15.62 15.615 15.61 15.6 15.593 15.585 15.578 15.575 15.587 15.605 15.61 15.61 15.595 15.56 15.523 15.523 15.557 15.565 15.538 15.52 15.545 15.587 15.575 15.143 14.58 14.445 14.493 14.535 14.58 14.625 14.665 14.697 14.71 14.702 14.677 14.643 14.6 14.528 14.445 14.385 14.27 13.84 13.35 13.19 13.2 13.248 13.313 13.395 13.44 13.42
15.29 15.28 15.252 15.205 15.17 15.18 15.21 15.227 15.23 15.217 15.193 15.17 15.168 15.188 15.213 15.245 15.29 15.343 15.395 15.48 15.54 15.505 15.438 15.372 15.307 15.243 15.208 15.22 15.27 15.345 15.422 15.497 15.557 15.57 15.547 15.522 15.495 15.487 15.502 15.512 15.517 15.487 15.463 15.495 15.545 15.557 15.527 15.49 15.455 15.468 15.535 15.61 15.665 15.7 15.728 15.755 15.79 15.825 15.85 15.86 15.865 15.86 15.8 15.7 15.613 15.565 15.568 15.648 15.755 15.782 15.76 15.722 15.665 15.595 15.553 15.55 15.55 15.55 15.532 15.468 15.405 15.37 15.368 15.42 15.482 15.492 15.442 15.378 15.335 15.325 15.303 15.275 15.275 15.285 15.292 15.292 15.3 15.36 15.46 15.56 15.662 15.74 15.78 15.805 15.838 15.892 15.897 15.84 15.783 15.733 15.713 15.72 15.732 15.735 15.718 15.693 15.665 15.635 15.613 15.61 15.628 15.658 15.687 15.707 15.717 15.715 15.69 15.617 15.5 15.395 15.34 15.31 15.293 15.3 15.345 15.415 15.482 15.532 15.55 15.55 15.55 15.555 15.56 15.563 15.568 15.575 15.595 15.622 15.63 15.62 15.61 15.605 15.6 15.593 15.587 15.58 15.573 15.568 15.575 15.602 15.625 15.63 15.615 15.582 15.548 15.545 15.565 15.555 15.52 15.49 15.5 15.5 15.43 15.038 14.635 14.588 14.61 14.628 14.653 14.693 14.735 14.762 14.77 14.767 14.755 14.725 14.662 14.565 14.463 14.378 14.297 13.942 13.403 13.175 13.205 13.278 13.365 13.455 13.502 13.48
15.292 15.297 15.267 15.22 15.188 15.193 15.215 15.235 15.25 15.242 15.218 15.193 15.175 15.19 15.23 15.275 15.325 15.377 15.43 15.53 15.592 15.545 15.475 15.41 15.345 15.278 15.245 15.275 15.337 15.395 15.447 15.502 15.555 15.58 15.572 15.552 15.527 15.505 15.492 15.492 15.5 15.507 15.507 15.532 15.585 15.597 15.567 15.53 15.487 15.465 15.498 15.555 15.595 15.63 15.668 15.705 15.748 15.785 15.807 15.825 15.855 15.882 15.842 15.75 15.655 15.578 15.615 15.77 15.885 15.887 15.84 15.772 15.687 15.605 15.558 15.55 15.55 15.55 15.547 15.485 15.398 15.363 15.385 15.45 15.517 15.56 15.535 15.462 15.39 15.325 15.295 15.3 15.31 15.32 15.327 15.335 15.37 15.45 15.55 15.647 15.74 15.805 15.84 15.867 15.895 15.93 15.92 15.862 15.81 15.765 15.747 15.75 15.75 15.76 15.755 15.725 15.695 15.663 15.645 15.66 15.69 15.723 15.75 15.77 15.785 15.792 15.75 15.64 15.513 15.408 15.35 15.32 15.29 15.283 15.325 15.395 15.468 15.54 15.582 15.59 15.593 15.598 15.6 15.603 15.608 15.61 15.618 15.625 15.62 15.61 15.6 15.595 15.593 15.587 15.582 15.575 15.568 15.563 15.56 15.583 15.622 15.645 15.635 15.605 15.573 15.565 15.565 15.538 15.503 15.47 15.435 15.358 15.248 15.038 14.845 14.807 14.805 14.797 14.793 14.802 14.81 14.807 14.805 14.8 14.792 14.765 14.692 14.595 14.497 14.397 14.307 14.005 13.445 13.173 13.24 13.335 13.433 13.527 13.57 13.542
15.278 15.305 15.293 15.263 15.245 15.248 15.263 15.28 15.292 15.28 15.253 15.228 15.205 15.21 15.253 15.305 15.355 15.405 15.47 15.58 15.627 15.57 15.5 15.435 15.37 15.3 15.258 15.275 15.32 15.352 15.382 15.422 15.47 15.505 15.51 15.495 15.475 15.455 15.445 15.45 15.457 15.462 15.472 15.51 15.555 15.565 15.555 15.532 15.495 15.458 15.465 15.513 15.555 15.6 15.645 15.69 15.727 15.747 15.76 15.77 15.79 15.83 15.812 15.727 15.648 15.59 15.685 15.91 16.01 15.955 15.87 15.788 15.703 15.62 15.565 15.55 15.55 15.55 15.55 15.507 15.408 15.368 15.42 15.493 15.568 15.617 15.59 15.51 15.43 15.35 15.318 15.33 15.34 15.35 15.36 15.38 15.433 15.518 15.615 15.707 15.782 15.837 15.875 15.905 15.937 15.942 15.902 15.85 15.802 15.762 15.745 15.74 15.748 15.782 15.805 15.797 15.773 15.735 15.725 15.75 15.777 15.797 15.81 15.822 15.835 15.845 15.792 15.663 15.528 15.42 15.36 15.33 15.318 15.338 15.375 15.43 15.503 15.578 15.625 15.638 15.642 15.645 15.648 15.653 15.655 15.657 15.655 15.645 15.635 15.625 15.615 15.608 15.593 15.575 15.57 15.567 15.562 15.557 15.553 15.56 15.603 15.655 15.657 15.625 15.595 15.575 15.557 15.528 15.495 15.465 15.395 15.278 15.158 15.05 14.985 14.965 14.955 14.942 14.925 14.892 14.84 14.795 14.777 14.772 14.762 14.73 14.66 14.57 14.48 14.385 14.292 14.025 13.525 13.298 13.395 13.495 13.56 13.595 13.597 13.557
15.305 15.322 15.337 15.34 15.328 15.325 15.34 15.357 15.352 15.325 15.298 15.275 15.258 15.25 15.273 15.32 15.37 15.438 15.522 15.602 15.617 15.56 15.492 15.427 15.36 15.292 15.235 15.208 15.215 15.245 15.285 15.33 15.38 15.425 15.44 15.43 15.417 15.4 15.39 15.393 15.395 15.395 15.408 15.442 15.467 15.47 15.475 15.472 15.457 15.433 15.445 15.497 15.542 15.587 15.632 15.67 15.69 15.7 15.71 15.72 15.733 15.76 15.742 15.673 15.623 15.605 15.73 16 16.197 16.295 16.098 15.813 15.73 15.648 15.59 15.568 15.555 15.55 15.55 15.517 15.438 15.418 15.485 15.565 15.645 15.667 15.61 15.53 15.45 15.37 15.338 15.355 15.37 15.38 15.393 15.43 15.498 15.578 15.665 15.742 15.802 15.855 15.897 15.93 15.947 15.907 15.838 15.787 15.745 15.715 15.7 15.69 15.733 15.797 15.832 15.86 15.87 15.85 15.838 15.857 15.87 15.867 15.865 15.868 15.875 15.885 15.845 15.71 15.548 15.43 15.37 15.36 15.395 15.452 15.485 15.513 15.57 15.642 15.685 15.692 15.695 15.698 15.702 15.705 15.707 15.707 15.695 15.683 15.675 15.665 15.655 15.64 15.597 15.558 15.548 15.545 15.545 15.542 15.537 15.548 15.618 15.69 15.69 15.658 15.625 15.593 15.558 15.528 15.5 15.47 15.397 15.28 15.173 15.093 15.053 15.04 15.025 14.995 14.95 14.887 14.81 14.745 14.715 14.705 14.69 14.66 14.595 14.505 14.415 14.333 14.25 14.005 13.645 13.535 13.602 13.637 13.637 13.615 13.587 13.538
15.342 15.338 15.37 15.41 15.412 15.408 15.417 15.425 15.405 15.37 15.345 15.328 15.315 15.303 15.3 15.33 15.39 15.467 15.535 15.577 15.58 15.532 15.467 15.4 15.333 15.268 15.205 15.16 15.148 15.17 15.205 15.245 15.293 15.34 15.365 15.36 15.36 15.368 15.368 15.348 15.328 15.325 15.34 15.362 15.37 15.373 15.378 15.38 15.382 15.38 15.413 15.477 15.527 15.572 15.612 15.632 15.64 15.65 15.66 15.67 15.68 15.695 15.685 15.653 15.635 15.628 15.683 15.863 16.262 16.682 16.67 16.378 15.983 15.688 15.638 15.613 15.59 15.573 15.56 15.538 15.515 15.528 15.578 15.65 15.715 15.705 15.63 15.55 15.47 15.39 15.355 15.375 15.4 15.415 15.438 15.49 15.562 15.632 15.7 15.762 15.817 15.872 15.92 15.947 15.925 15.847 15.765 15.71 15.678 15.66 15.65 15.663 15.738 15.81 15.845 15.88 15.915 15.935 15.937 15.94 15.932 15.92 15.915 15.915 15.92 15.93 15.905 15.775 15.588 15.448 15.403 15.443 15.515 15.58 15.61 15.623 15.653 15.705 15.74 15.745 15.745 15.75 15.755 15.755 15.757 15.747 15.728 15.72 15.717 15.708 15.697 15.667 15.6 15.543 15.52 15.515 15.515 15.51 15.498 15.538 15.67 15.747 15.727 15.7 15.667 15.63 15.585 15.545 15.513 15.477 15.402 15.298 15.215 15.153 15.12 15.1 15.06 15 14.927 14.85 14.773 14.7 14.655 14.635 14.615 14.592 14.535 14.445 14.365 14.3 14.195 13.95 13.72 13.675 13.675 13.645 13.618 13.605 13.58 13.525
15.337 15.335 15.375 15.437 15.477 15.487 15.492 15.487 15.455 15.417 15.392 15.377 15.365 15.352 15.34 15.35 15.4 15.46 15.502 15.535 15.545 15.507 15.44 15.373 15.308 15.248 15.22 15.223 15.213 15.2 15.21 15.24 15.275 15.308 15.33 15.338 15.355 15.383 15.402 15.383 15.333 15.293 15.275 15.275 15.278 15.285 15.29 15.293 15.3 15.308 15.358 15.447 15.512 15.552 15.577 15.587 15.593 15.6 15.61 15.62 15.63 15.655 15.663 15.643 15.63 15.62 15.613 15.658 15.913 16.492 17.064 17.217 16.96 16.525 15.986 15.661 15.638 15.61 15.585 15.578 15.602 15.647 15.687 15.74 15.767 15.725 15.65 15.57 15.49 15.408 15.37 15.39 15.423 15.45 15.485 15.537 15.595 15.647 15.682 15.73 15.797 15.867 15.935 15.942 15.875 15.783 15.695 15.638 15.615 15.608 15.6 15.658 15.762 15.822 15.86 15.9 15.943 15.987 16.007 15.995 15.98 15.97 15.965 15.965 15.968 15.975 15.965 15.85 15.653 15.508 15.493 15.565 15.645 15.71 15.737 15.742 15.75 15.777 15.8 15.8 15.8 15.803 15.805 15.808 15.802 15.783 15.765 15.757 15.755 15.75 15.735 15.685 15.605 15.533 15.493 15.483 15.475 15.463 15.445 15.523 15.697 15.775 15.752 15.73 15.705 15.667 15.62 15.575 15.532 15.482 15.415 15.342 15.275 15.215 15.167 15.112 15.04 14.965 14.89 14.81 14.733 14.678 14.643 14.605 14.565 14.53 14.475 14.4 14.338 14.28 14.137 13.905 13.743 13.685 13.655 13.625 13.605 13.6 13.572 13.515
15.32 15.328 15.375 15.44 15.502 15.547 15.56 15.53 15.472 15.427 15.41 15.402 15.39 15.38 15.367 15.358 15.38 15.427 15.465 15.495 15.512 15.48 15.413 15.348 15.29 15.278 15.325 15.375 15.372 15.325 15.3 15.318 15.34 15.36 15.365 15.37 15.393 15.418 15.45 15.465 15.422 15.35 15.293 15.258 15.233 15.215 15.213 15.22 15.228 15.235 15.295 15.405 15.485 15.518 15.53 15.54 15.545 15.55 15.56 15.57 15.598 15.66 15.68 15.635 15.603 15.59 15.59 15.603 15.615 15.925 16.365 17.125 17.826 17.732 17.293 17.087 16.403 15.641 15.616 15.608 15.642 15.71 15.765 15.805 15.795 15.727 15.65 15.567 15.485 15.415 15.395 15.42 15.453 15.477 15.502 15.54 15.585 15.627 15.643 15.663 15.728 15.812 15.897 15.927 15.86 15.75 15.645 15.595 15.598 15.608 15.635 15.72 15.808 15.853 15.898 15.948 16 16.045 16.06 16.045 16.03 16.018 16.013 16.015 16.015 16.02 16.022 15.922 15.745 15.625 15.623 15.7 15.77 15.805 15.81 15.81 15.81 15.835 15.88 15.897 15.895 15.895 15.893 15.88 15.853 15.823 15.8 15.788 15.785 15.785 15.76 15.695 15.618 15.54 15.488 15.468 15.448 15.428 15.41 15.483 15.645 15.745 15.755 15.735 15.715 15.682 15.637 15.592 15.545 15.467 15.377 15.31 15.25 15.2 15.147 15.077 15 14.922 14.845 14.765 14.703 14.7 14.697 14.645 14.585 14.52 14.45 14.388 14.328 14.257 14.112 13.92 13.76 13.665 13.63 13.605 13.595 13.592 13.56 13.5
15.29 15.315 15.375 15.443 15.51 15.575 15.587 15.53 15.453 15.403 15.395 15.4 15.395 15.385 15.372 15.353 15.358 15.392 15.422 15.45 15.475 15.452 15.388 15.333 15.323 15.38 15.465 15.53 15.537 15.475 15.41 15.4 15.422 15.437 15.427 15.418 15.43 15.455 15.487 15.52 15.515 15.46 15.395 15.34 15.285 15.235 15.205 15.183 15.163 15.168 15.245 15.385 15.497 15.523 15.5 15.493 15.495 15.5 15.51 15.538 15.603 15.69 15.715 15.658 15.598 15.57 15.573 15.587 15.597 15.605 15.616 16.178 16.788 17.599 18.438 18.626 18.047 17.425 16.625 15.694 15.656 15.71 15.757 15.782 15.765 15.705 15.625 15.543 15.473 15.435 15.44 15.47 15.492 15.497 15.5 15.523 15.563 15.602 15.617 15.618 15.653 15.725 15.81 15.892 15.892 15.793 15.685 15.665 15.708 15.74 15.8 15.925 15.985 15.95 15.96 16.013 16.065 16.105 16.112 16.095 16.08 16.078 16.083 16.083 16.08 16.083 16.08 16.007 15.88 15.77 15.758 15.83 15.867 15.852 15.833 15.83 15.83 15.865 15.942 16.005 16.027 16.027 16.02 15.982 15.92 15.878 15.845 15.815 15.805 15.805 15.777 15.715 15.642 15.568 15.518 15.498 15.478 15.453 15.435 15.465 15.558 15.677 15.735 15.72 15.702 15.677 15.64 15.595 15.535 15.425 15.285 15.19 15.135 15.097 15.067 15.022 14.955 14.875 14.798 14.733 14.718 14.762 14.77 14.715 14.645 14.552 14.465 14.4 14.335 14.255 14.127 13.962 13.793 13.663 13.608 13.593 13.59 13.582 13.545 13.488
15.263 15.308 15.375 15.445 15.515 15.582 15.592 15.52 15.43 15.38 15.375 15.385 15.39 15.387 15.377 15.352 15.338 15.353 15.378 15.405 15.435 15.422 15.375 15.37 15.428 15.512 15.597 15.677 15.7 15.64 15.553 15.503 15.508 15.51 15.49 15.473 15.473 15.493 15.523 15.56 15.585 15.562 15.505 15.45 15.395 15.34 15.287 15.23 15.175 15.158 15.25 15.425 15.572 15.602 15.55 15.513 15.488 15.465 15.48 15.548 15.635 15.725 15.747 15.692 15.628 15.58 15.565 15.573 15.58 15.585 15.595 15.605 15.616 16.345 17.19 18.05 18.986 19.296 18.619 17.838 17.665 16.586 15.699 15.703 15.697 15.667 15.598 15.533 15.493 15.475 15.485 15.51 15.52 15.515 15.51 15.518 15.543 15.577 15.592 15.59 15.598 15.64 15.723 15.825 15.9 15.867 15.8 15.82 15.885 15.94 16.01 16.155 16.232 16.177 16.13 16.11 16.13 16.165 16.168 16.163 16.173 16.19 16.2 16.192 16.177 16.162 16.14 16.095 16.02 15.918 15.893 15.932 15.922 15.888 15.863 15.853 15.853 15.898 15.98 16.062 16.13 16.157 16.145 16.09 16.01 15.948 15.903 15.858 15.825 15.813 15.785 15.732 15.67 15.608 15.57 15.555 15.54 15.518 15.51 15.523 15.553 15.62 15.687 15.702 15.687 15.67 15.64 15.595 15.507 15.365 15.205 15.083 15.015 14.98 14.96 14.935 14.892 14.827 14.763 14.743 14.78 14.84 14.842 14.772 14.68 14.575 14.485 14.42 14.355 14.27 14.142 13.987 13.827 13.678 13.598 13.585 13.585 13.575 13.543 13.5
15.248 15.302 15.37 15.44 15.507 15.572 15.592 15.522 15.418 15.363 15.36 15.37 15.38 15.385 15.372 15.34 15.315 15.32 15.343 15.368 15.395 15.405 15.415 15.467 15.542 15.615 15.69 15.76 15.785 15.747 15.682 15.625 15.595 15.577 15.555 15.533 15.52 15.53 15.56 15.597 15.632 15.645 15.61 15.55 15.49 15.43 15.37 15.307 15.24 15.2 15.295 15.487 15.657 15.71 15.66 15.61 15.555 15.493 15.503 15.588 15.673 15.76 15.785 15.735 15.678 15.625 15.585 15.568 15.563 15.565 15.575 15.585 15.598 15.61 15.701 16.498 17.345 18.29 19.478 19.988 19.998 19.038 16.92 15.633 15.633 15.627 15.59 15.553 15.528 15.515 15.527 15.54 15.54 15.535 15.53 15.53 15.538 15.555 15.565 15.565 15.565 15.585 15.653 15.75 15.85 15.9 15.918 15.967 16.035 16.102 16.157 16.232 16.3 16.307 16.27 16.217 16.205 16.23 16.25 16.272 16.307 16.322 16.31 16.287 16.26 16.23 16.195 16.152 16.105 16.037 16 15.99 15.955 15.92 15.895 15.883 15.888 15.935 16.015 16.097 16.182 16.25 16.242 16.167 16.082 16.013 15.963 15.915 15.87 15.835 15.795 15.748 15.698 15.648 15.617 15.605 15.592 15.582 15.587 15.602 15.617 15.635 15.67 15.687 15.673 15.657 15.635 15.577 15.455 15.298 15.14 14.993 14.9 14.865 14.843 14.82 14.8 14.773 14.755 14.782 14.84 14.897 14.885 14.792 14.692 14.592 14.505 14.437 14.37 14.28 14.15 13.997 13.84 13.68 13.605 13.61 13.608 13.598 13.573 13.54
15.235 15.287 15.347 15.412 15.477 15.54 15.565 15.515 15.415 15.355 15.355 15.365 15.375 15.375 15.352 15.318 15.298 15.305 15.325 15.345 15.368 15.4 15.452 15.517 15.582 15.645 15.7 15.745 15.765 15.745 15.705 15.662 15.627 15.607 15.602 15.595 15.575 15.573 15.6 15.632 15.647 15.657 15.66 15.622 15.557 15.492 15.427 15.362 15.288 15.238 15.335 15.537 15.73 15.81 15.765 15.705 15.637 15.56 15.56 15.64 15.72 15.79 15.82 15.792 15.74 15.69 15.643 15.608 15.588 15.58 15.578 15.58 15.595 15.61 15.628 15.665 15.694 16.456 17.51 18.48 19.846 19.415 16.955 15.616 15.615 15.597 15.587 15.585 15.56 15.553 15.565 15.565 15.56 15.555 15.55 15.547 15.545 15.57 15.598 15.6 15.605 15.635 15.705 15.795 15.888 15.96 16.02 16.085 16.147 16.197 16.205 16.2 16.23 16.255 16.25 16.237 16.235 16.27 16.317 16.352 16.375 16.38 16.367 16.34 16.31 16.277 16.242 16.2 16.155 16.105 16.057 16.023 15.988 15.953 15.928 15.923 15.935 15.975 16.048 16.132 16.217 16.287 16.282 16.207 16.12 16.063 16.025 15.978 15.932 15.885 15.838 15.792 15.737 15.673 15.635 15.625 15.615 15.615 15.627 15.645 15.66 15.672 15.685 15.68 15.665 15.65 15.625 15.542 15.395 15.24 15.085 14.928 14.833 14.808 14.79 14.773 14.76 14.76 14.768 14.79 14.837 14.892 14.857 14.745 14.65 14.562 14.497 14.447 14.385 14.292 14.16 13.995 13.815 13.663 13.625 13.662 13.672 13.665 13.643 13.61
15.215 15.263 15.313 15.37 15.433 15.497 15.525 15.492 15.418 15.365 15.36 15.365 15.375 15.365 15.332 15.298 15.28 15.29 15.313 15.335 15.355 15.388 15.443 15.505 15.565 15.62 15.66 15.695 15.715 15.695 15.655 15.62 15.603 15.595 15.59 15.59 15.59 15.6 15.615 15.617 15.602 15.6 15.63 15.645 15.61 15.547 15.482 15.412 15.328 15.275 15.373 15.577 15.78 15.882 15.847 15.775 15.7 15.62 15.62 15.7 15.76 15.79 15.82 15.837 15.81 15.76 15.715 15.683 15.663 15.65 15.628 15.603 15.605 15.62 15.643 15.685 15.737 15.768 15.746 16.326 17.532 16.938 15.689 15.635 15.612 15.553 15.563 15.605 15.593 15.589 15.588 15.58 15.572 15.565 15.557 15.553 15.568 15.638 15.695 15.703 15.723 15.783 15.87 15.96 16.032 16.067 16.11 16.175 16.222 16.232 16.205 16.175 16.173 16.192 16.2 16.19 16.215 16.285 16.345 16.37 16.365 16.363 16.38 16.382 16.36 16.325 16.29 16.25 16.2 16.142 16.093 16.057 16.022 15.988 15.965 15.97 15.99 16.018 16.08 16.165 16.247 16.297 16.29 16.232 16.153 16.11 16.09 16.047 15.998 15.95 15.9 15.842 15.77 15.69 15.64 15.625 15.615 15.618 15.635 15.652 15.667 15.68 15.687 15.682 15.667 15.642 15.605 15.507 15.353 15.198 15.04 14.903 14.835 14.82 14.81 14.8 14.798 14.807 14.8 14.788 14.805 14.847 14.81 14.678 14.563 14.488 14.45 14.425 14.387 14.3 14.147 13.96 13.758 13.638 13.645 13.695 13.735 13.747 13.73 13.695
15.193 15.238 15.283 15.333 15.39 15.452 15.482 15.46 15.415 15.385 15.375 15.37 15.37 15.35 15.312 15.275 15.255 15.27 15.3 15.325 15.345 15.375 15.427 15.485 15.532 15.572 15.608 15.645 15.667 15.647 15.605 15.58 15.578 15.575 15.558 15.54 15.54 15.557 15.562 15.542 15.523 15.533 15.57 15.607 15.622 15.595 15.535 15.455 15.365 15.313 15.408 15.612 15.8 15.882 15.855 15.805 15.75 15.68 15.675 15.73 15.75 15.755 15.785 15.832 15.855 15.827 15.783 15.76 15.753 15.742 15.71 15.663 15.633 15.633 15.66 15.707 15.762 15.815 15.842 15.823 15.756 15.686 15.66 15.637 15.575 15.495 15.523 15.6 16.827 17.966 16.756 15.602 15.576 15.565 15.555 15.56 15.613 15.717 15.792 15.815 15.863 15.945 16.035 16.11 16.147 16.16 16.195 16.242 16.26 16.237 16.195 16.165 16.145 16.14 16.148 16.153 16.203 16.3 16.362 16.365 16.343 16.333 16.357 16.392 16.4 16.375 16.337 16.295 16.237 16.175 16.125 16.09 16.057 16.023 16.005 16.02 16.045 16.065 16.115 16.197 16.27 16.297 16.29 16.247 16.19 16.165 16.155 16.117 16.063 16.012 15.95 15.875 15.795 15.715 15.653 15.625 15.618 15.623 15.64 15.657 15.675 15.69 15.692 15.68 15.655 15.617 15.572 15.475 15.32 15.16 15 14.898 14.865 14.85 14.838 14.828 14.845 14.865 14.85 14.825 14.813 14.82 14.797 14.645 14.48 14.418 14.39 14.385 14.367 14.265 14.09 13.895 13.703 13.628 13.67 13.72 13.772 13.812 13.81 13.745
15.173 15.217 15.258 15.3 15.353 15.41 15.437 15.42 15.4 15.39 15.382 15.375 15.357 15.325 15.285 15.243 15.218 15.233 15.267 15.297 15.325 15.357 15.4 15.445 15.485 15.52 15.555 15.595 15.62 15.602 15.563 15.548 15.552 15.552 15.54 15.518 15.495 15.485 15.48 15.465 15.45 15.465 15.505 15.54 15.575 15.597 15.57 15.495 15.405 15.35 15.443 15.63 15.772 15.817 15.795 15.77 15.74 15.705 15.713 15.745 15.753 15.76 15.783 15.82 15.858 15.87 15.855 15.845 15.845 15.835 15.8 15.75 15.703 15.673 15.678 15.715 15.765 15.815 15.865 15.875 15.81 15.722 15.662 15.6 15.52 15.44 15.468 15.574 18.024 20.289 18.939 17.64 16.623 15.649 15.593 15.623 15.703 15.802 15.885 15.945 16.02 16.11 16.185 16.222 16.232 16.24 16.26 16.28 16.27 16.23 16.185 16.155 16.135 16.115 16.105 16.128 16.2 16.3 16.357 16.35 16.323 16.308 16.325 16.368 16.402 16.41 16.385 16.335 16.272 16.208 16.155 16.12 16.09 16.058 16.048 16.068 16.092 16.115 16.155 16.23 16.285 16.29 16.282 16.26 16.233 16.22 16.212 16.19 16.132 16.06 15.985 15.905 15.825 15.745 15.67 15.628 15.62 15.628 15.643 15.66 15.68 15.697 15.692 15.663 15.623 15.58 15.535 15.445 15.293 15.123 14.978 14.91 14.895 14.88 14.865 14.868 14.905 14.92 14.898 14.875 14.855 14.835 14.815 14.65 14.443 14.393 14.4 14.395 14.325 14.175 13.997 13.818 13.67 13.643 13.695 13.745 13.798 13.85 13.842 13.737
15.157 15.202 15.238 15.278 15.323 15.372 15.395 15.385 15.383 15.382 15.377 15.37 15.34 15.293 15.25 15.205 15.17 15.178 15.212 15.247 15.282 15.312 15.347 15.392 15.432 15.468 15.505 15.545 15.57 15.555 15.528 15.523 15.525 15.527 15.52 15.5 15.478 15.47 15.468 15.45 15.438 15.415 15.415 15.45 15.485 15.52 15.517 15.472 15.415 15.38 15.455 15.597 15.702 15.745 15.735 15.71 15.685 15.688 15.742 15.8 15.82 15.83 15.848 15.873 15.895 15.935 15.978 15.99 15.98 15.945 15.895 15.848 15.808 15.773 15.725 15.7 15.73 15.78 15.83 15.83 15.767 15.707 15.642 15.555 15.468 15.385 15.403 15.538 16.82 19.046 19.923 19.628 18.487 17.365 16.53 15.798 15.815 15.903 15.988 16.075 16.162 16.247 16.295 16.295 16.29 16.292 16.3 16.3 16.27 16.22 16.175 16.145 16.125 16.105 16.09 16.113 16.188 16.28 16.345 16.35 16.32 16.313 16.338 16.373 16.405 16.43 16.42 16.365 16.3 16.235 16.185 16.158 16.13 16.1 16.095 16.115 16.14 16.165 16.198 16.252 16.285 16.277 16.262 16.26 16.26 16.25 16.242 16.237 16.2 16.115 16.02 15.935 15.855 15.775 15.695 15.638 15.62 15.63 15.647 15.665 15.68 15.692 15.692 15.665 15.62 15.57 15.52 15.445 15.293 15.095 14.973 14.94 14.925 14.91 14.898 14.908 14.945 14.96 14.945 14.925 14.902 14.875 14.837 14.67 14.48 14.455 14.462 14.387 14.24 14.065 13.9 13.755 13.663 13.67 13.725 13.775 13.83 13.875 13.83 13.7
15.142 15.187 15.225 15.265 15.303 15.342 15.365 15.365 15.37 15.375 15.37 15.352 15.31 15.258 15.212 15.165 15.123 15.123 15.157 15.192 15.222 15.245 15.28 15.33 15.375 15.415 15.455 15.495 15.52 15.51 15.495 15.495 15.498 15.502 15.5 15.485 15.475 15.5 15.515 15.498 15.49 15.448 15.373 15.35 15.378 15.4 15.39 15.365 15.355 15.365 15.42 15.523 15.617 15.667 15.675 15.657 15.635 15.66 15.757 15.86 15.907 15.92 15.94 15.965 16 16.07 16.152 16.182 16.142 16.067 16 15.955 15.93 15.915 15.838 15.733 15.7 15.73 15.772 15.755 15.703 15.68 15.627 15.533 15.44 15.36 15.38 15.523 15.654 16.788 17.805 18.572 19.266 18.966 18.037 17.128 16.525 16.053 16.095 16.185 16.27 16.345 16.372 16.355 16.34 16.33 16.325 16.305 16.26 16.21 16.165 16.135 16.115 16.1 16.1 16.125 16.178 16.253 16.332 16.357 16.338 16.355 16.395 16.425 16.44 16.44 16.422 16.372 16.308 16.248 16.21 16.192 16.172 16.148 16.143 16.163 16.19 16.215 16.242 16.262 16.257 16.237 16.223 16.24 16.26 16.255 16.245 16.25 16.257 16.192 16.08 15.985 15.895 15.808 15.725 15.653 15.623 15.635 15.65 15.66 15.667 15.675 15.685 15.682 15.655 15.608 15.555 15.5 15.377 15.178 15.025 14.975 14.96 14.945 14.938 14.943 14.963 14.987 14.99 14.97 14.942 14.9 14.84 14.68 14.553 14.532 14.45 14.303 14.148 13.998 13.858 13.748 13.675 13.69 13.76 13.815 13.867 13.882 13.8 13.66
15.13 15.173 15.215 15.252 15.288 15.322 15.347 15.355 15.36 15.365 15.36 15.33 15.275 15.223 15.175 15.128 15.083 15.073 15.102 15.132 15.157 15.18 15.213 15.26 15.31 15.36 15.405 15.445 15.472 15.472 15.465 15.468 15.473 15.475 15.475 15.475 15.498 15.545 15.562 15.553 15.55 15.537 15.453 15.34 15.293 15.285 15.285 15.288 15.305 15.34 15.388 15.46 15.532 15.575 15.597 15.6 15.59 15.638 15.755 15.88 15.975 16.015 16.033 16.073 16.14 16.207 16.262 16.285 16.252 16.18 16.11 16.078 16.075 16.067 15.985 15.85 15.743 15.7 15.703 15.688 15.67 15.665 15.612 15.525 15.455 15.403 15.445 15.585 15.73 15.826 15.822 16.693 17.517 18.085 18.596 18.309 17.59 16.913 16.543 16.308 16.37 16.435 16.45 16.43 16.39 16.352 16.335 16.3 16.25 16.198 16.153 16.125 16.11 16.108 16.123 16.155 16.195 16.245 16.317 16.355 16.365 16.41 16.447 16.457 16.45 16.427 16.402 16.365 16.31 16.26 16.228 16.21 16.197 16.182 16.182 16.202 16.227 16.25 16.272 16.26 16.21 16.178 16.185 16.222 16.25 16.252 16.245 16.258 16.292 16.267 16.165 16.055 15.955 15.86 15.77 15.683 15.633 15.63 15.637 15.64 15.643 15.65 15.66 15.672 15.675 15.652 15.612 15.57 15.505 15.365 15.185 15.055 15 14.985 14.983 14.99 15 15.018 15.027 15.007 14.962 14.9 14.83 14.71 14.605 14.525 14.393 14.248 14.115 13.99 13.878 13.78 13.69 13.695 13.78 13.85 13.905 13.88 13.76 13.62
15.125 15.16 15.2 15.238 15.272 15.305 15.335 15.35 15.352 15.355 15.345 15.302 15.245 15.193 15.14 15.093 15.045 15.025 15.045 15.07 15.092 15.115 15.155 15.213 15.268 15.325 15.375 15.41 15.433 15.44 15.44 15.445 15.453 15.455 15.458 15.48 15.537 15.595 15.612 15.61 15.61 15.61 15.572 15.45 15.298 15.23 15.245 15.275 15.305 15.34 15.383 15.43 15.47 15.495 15.515 15.533 15.553 15.628 15.753 15.878 16 16.087 16.127 16.167 16.217 16.247 16.265 16.28 16.28 16.25 16.212 16.205 16.215 16.205 16.12 15.982 15.845 15.728 15.668 15.655 15.655 15.652 15.62 15.563 15.52 15.493 15.553 15.697 15.84 15.972 16.04 16.005 15.936 16.596 17.218 17.597 17.929 17.652 17.135 16.693 16.56 16.497 16.452 16.417 16.382 16.353 16.332 16.29 16.24 16.185 16.14 16.12 16.118 16.125 16.148 16.185 16.225 16.265 16.317 16.36 16.395 16.445 16.46 16.44 16.42 16.397 16.375 16.35 16.317 16.28 16.245 16.22 16.205 16.187 16.192 16.222 16.245 16.262 16.28 16.26 16.19 16.145 16.163 16.21 16.242 16.247 16.248 16.268 16.305 16.325 16.257 16.132 16.025 15.93 15.832 15.73 15.65 15.618 15.618 15.62 15.623 15.63 15.64 15.655 15.67 15.662 15.625 15.577 15.53 15.445 15.317 15.187 15.08 15.03 15.03 15.04 15.047 15.055 15.057 15.022 14.955 14.885 14.815 14.732 14.625 14.5 14.375 14.25 14.125 14.01 13.92 13.817 13.703 13.698 13.785 13.87 13.92 13.857 13.71 13.562
15.133 15.168 15.2 15.228 15.255 15.288 15.322 15.342 15.345 15.34 15.315 15.263 15.22 15.185 15.133 15.078 15.023 14.98 14.978 15 15.017 15.045 15.11 15.197 15.27 15.33 15.382 15.413 15.423 15.428 15.433 15.438 15.445 15.453 15.458 15.495 15.572 15.635 15.655 15.657 15.66 15.662 15.657 15.572 15.383 15.26 15.258 15.28 15.31 15.343 15.38 15.412 15.433 15.448 15.463 15.483 15.543 15.653 15.778 15.903 16.028 16.13 16.177 16.187 16.198 16.213 16.23 16.247 16.257 16.255 16.25 16.255 16.265 16.257 16.177 16.04 15.9 15.76 15.673 15.658 15.66 15.66 15.657 15.637 15.605 15.585 15.653 15.795 15.937 16.08 16.217 16.295 16.25 16.14 16.051 16.505 16.927 17.037 17.185 16.992 16.68 16.47 16.388 16.363 16.355 16.347 16.325 16.28 16.23 16.178 16.138 16.128 16.135 16.145 16.165 16.198 16.237 16.28 16.322 16.362 16.4 16.435 16.43 16.398 16.375 16.352 16.33 16.312 16.295 16.27 16.242 16.217 16.195 16.168 16.175 16.22 16.25 16.267 16.285 16.27 16.2 16.143 16.153 16.197 16.235 16.245 16.253 16.282 16.317 16.342 16.297 16.19 16.087 15.99 15.885 15.772 15.665 15.613 15.61 15.61 15.615 15.628 15.64 15.655 15.67 15.645 15.58 15.517 15.46 15.387 15.302 15.22 15.132 15.075 15.068 15.075 15.082 15.087 15.072 15.01 14.93 14.86 14.79 14.717 14.627 14.51 14.385 14.26 14.143 14.05 13.972 13.852 13.715 13.7 13.785 13.88 13.902 13.797 13.642 13.49
15.155 15.195 15.222 15.238 15.255 15.28 15.308 15.327 15.33 15.31 15.268 15.223 15.208 15.197 15.155 15.093 15.03 14.963 14.92 14.92 14.933 14.983 15.075 15.18 15.275 15.347 15.405 15.435 15.44 15.44 15.44 15.443 15.448 15.455 15.463 15.508 15.582 15.62 15.625 15.63 15.635 15.64 15.645 15.617 15.472 15.323 15.29 15.3 15.323 15.35 15.38 15.4 15.413 15.43 15.45 15.48 15.575 15.715 15.843 15.968 16.092 16.17 16.182 16.178 16.18 16.188 16.195 16.21 16.227 16.235 16.233 16.235 16.25 16.25 16.172 16.038 15.9 15.76 15.675 15.668 15.677 15.68 15.692 15.702 15.682 15.67 15.745 15.888 16.032 16.177 16.32 16.462 16.53 16.485 16.392 16.283 16.173 16.345 16.588 16.513 16.453 16.41 16.342 16.352 16.352 16.345 16.32 16.273 16.228 16.2 16.178 16.158 16.155 16.168 16.185 16.208 16.238 16.275 16.315 16.35 16.38 16.405 16.395 16.355 16.323 16.298 16.275 16.26 16.247 16.23 16.207 16.19 16.172 16.145 16.155 16.205 16.245 16.272 16.295 16.282 16.213 16.15 16.153 16.188 16.225 16.245 16.26 16.287 16.305 16.302 16.252 16.177 16.117 16.035 15.925 15.81 15.69 15.62 15.61 15.613 15.62 15.635 15.65 15.665 15.667 15.615 15.525 15.448 15.38 15.313 15.253 15.198 15.155 15.125 15.103 15.098 15.105 15.112 15.08 14.993 14.903 14.83 14.76 14.69 14.617 14.517 14.395 14.275 14.175 14.1 14.02 13.885 13.728 13.703 13.788 13.882 13.87 13.725 13.568 13.415
15.185 15.225 15.25 15.265 15.28 15.295 15.313 15.322 15.305 15.267 15.228 15.203 15.203 15.202 15.175 15.117 15.047 14.965 14.898 14.865 14.87 14.94 15.045 15.15 15.255 15.35 15.422 15.452 15.455 15.455 15.453 15.453 15.455 15.458 15.47 15.512 15.55 15.548 15.538 15.54 15.545 15.548 15.558 15.585 15.522 15.388 15.335 15.338 15.345 15.365 15.387 15.4 15.413 15.43 15.45 15.505 15.63 15.785 15.92 16.045 16.157 16.2 16.19 16.185 16.185 16.185 16.183 16.185 16.195 16.208 16.212 16.218 16.242 16.25 16.17 16.035 15.9 15.76 15.675 15.67 15.687 15.697 15.715 15.74 15.745 15.755 15.84 15.982 16.122 16.257 16.39 16.522 16.617 16.632 16.605 16.567 16.492 16.388 16.283 16.188 16.228 16.255 16.22 16.285 16.337 16.34 16.315 16.28 16.263 16.262 16.247 16.21 16.188 16.193 16.21 16.23 16.25 16.275 16.31 16.345 16.365 16.377 16.362 16.318 16.278 16.245 16.223 16.21 16.2 16.187 16.165 16.15 16.142 16.125 16.138 16.185 16.23 16.27 16.302 16.295 16.225 16.158 16.155 16.185 16.218 16.245 16.257 16.26 16.252 16.232 16.188 16.143 16.122 16.067 15.963 15.845 15.725 15.635 15.608 15.615 15.628 15.645 15.66 15.675 15.65 15.57 15.475 15.39 15.335 15.303 15.275 15.245 15.215 15.185 15.153 15.13 15.128 15.13 15.08 14.978 14.88 14.8 14.73 14.663 14.597 14.515 14.408 14.305 14.225 14.152 14.057 13.91 13.74 13.705 13.812 13.885 13.815 13.652 13.493 13.35
15.215 15.252 15.277 15.293 15.307 15.322 15.327 15.317 15.285 15.218 15.19 15.202 15.2 15.2 15.185 15.14 15.06 14.963 14.895 14.863 14.87 14.943 15.045 15.148 15.25 15.353 15.437 15.472 15.475 15.473 15.47 15.47 15.468 15.465 15.473 15.495 15.508 15.503 15.488 15.468 15.455 15.45 15.47 15.515 15.527 15.447 15.38 15.38 15.38 15.387 15.4 15.41 15.42 15.432 15.455 15.54 15.69 15.852 15.997 16.117 16.205 16.225 16.21 16.203 16.198 16.193 16.188 16.185 16.183 16.185 16.19 16.205 16.24 16.25 16.17 16.035 15.9 15.76 15.675 15.67 15.687 15.7 15.725 15.757 15.782 15.823 15.915 16.045 16.175 16.3 16.42 16.532 16.59 16.595 16.605 16.627 16.63 16.595 16.505 16.375 16.233 16.135 16.14 16.22 16.295 16.32 16.317 16.312 16.32 16.33 16.315 16.273 16.235 16.22 16.23 16.25 16.27 16.29 16.318 16.347 16.357 16.355 16.333 16.29 16.25 16.213 16.185 16.165 16.15 16.14 16.123 16.11 16.11 16.105 16.12 16.165 16.212 16.257 16.3 16.302 16.235 16.163 16.158 16.19 16.22 16.24 16.235 16.215 16.195 16.173 16.15 16.135 16.125 16.097 16.013 15.888 15.763 15.65 15.608 15.623 15.64 15.66 15.677 15.667 15.602 15.507 15.41 15.343 15.317 15.31 15.305 15.295 15.277 15.247 15.21 15.175 15.158 15.137 15.067 14.965 14.865 14.775 14.703 14.638 14.57 14.503 14.427 14.35 14.28 14.207 14.095 13.93 13.753 13.72 13.855 13.88 13.742 13.578 13.43 13.318
15.242 15.277 15.305 15.32 15.33 15.332 15.32 15.3 15.272 15.158 15.113 15.192 15.212 15.203 15.195 15.157 15.068 14.97 14.918 14.9 14.913 14.98 15.08 15.18 15.277 15.372 15.455 15.502 15.515 15.513 15.508 15.505 15.5 15.495 15.488 15.488 15.5 15.502 15.48 15.44 15.405 15.385 15.398 15.44 15.49 15.47 15.425 15.42 15.405 15.395 15.39 15.39 15.402 15.417 15.455 15.562 15.717 15.88 16.047 16.172 16.24 16.252 16.235 16.225 16.215 16.205 16.198 16.193 16.188 16.185 16.188 16.207 16.232 16.227 16.155 16.03 15.895 15.758 15.668 15.65 15.66 15.673 15.72 15.775 15.803 15.855 15.953 16.07 16.192 16.315 16.435 16.522 16.547 16.545 16.548 16.573 16.62 16.64 16.575 16.435 16.273 16.18 16.193 16.24 16.285 16.305 16.305 16.31 16.32 16.342 16.365 16.345 16.3 16.27 16.268 16.285 16.305 16.325 16.348 16.362 16.36 16.348 16.323 16.285 16.248 16.213 16.183 16.155 16.13 16.11 16.09 16.078 16.078 16.08 16.1 16.145 16.195 16.243 16.287 16.307 16.262 16.185 16.168 16.2 16.23 16.247 16.235 16.205 16.18 16.163 16.155 16.15 16.143 16.135 16.097 16 15.87 15.74 15.658 15.65 15.67 15.69 15.71 15.652 15.528 15.42 15.325 15.285 15.282 15.278 15.285 15.295 15.3 15.292 15.265 15.225 15.195 15.145 15.055 14.955 14.852 14.755 14.68 14.62 14.56 14.503 14.45 14.395 14.33 14.26 14.137 13.958 13.78 13.765 13.875 13.837 13.677 13.513 13.385 13.307
15.265 15.305 15.332 15.34 15.335 15.32 15.3 15.282 15.247 15.078 14.998 15.12 15.205 15.225 15.212 15.175 15.098 15.018 14.975 14.955 14.958 15.02 15.117 15.212 15.305 15.395 15.472 15.525 15.555 15.565 15.56 15.555 15.55 15.532 15.505 15.5 15.515 15.507 15.475 15.44 15.41 15.385 15.375 15.388 15.423 15.445 15.43 15.407 15.39 15.377 15.36 15.34 15.34 15.355 15.403 15.515 15.678 15.88 16.09 16.217 16.272 16.282 16.26 16.245 16.235 16.225 16.218 16.21 16.203 16.197 16.19 16.19 16.19 16.172 16.112 16.01 15.885 15.75 15.655 15.618 15.615 15.63 15.695 15.777 15.818 15.878 15.98 16.09 16.205 16.325 16.437 16.497 16.503 16.505 16.515 16.552 16.59 16.582 16.545 16.455 16.31 16.228 16.245 16.282 16.3 16.287 16.265 16.26 16.27 16.303 16.36 16.392 16.377 16.345 16.33 16.335 16.35 16.37 16.39 16.39 16.373 16.355 16.33 16.298 16.262 16.227 16.197 16.17 16.14 16.11 16.085 16.07 16.063 16.063 16.088 16.135 16.185 16.235 16.267 16.285 16.285 16.235 16.195 16.21 16.245 16.275 16.265 16.228 16.2 16.185 16.18 16.177 16.175 16.172 16.17 16.137 16.037 15.903 15.79 15.725 15.713 15.73 15.727 15.625 15.458 15.325 15.238 15.215 15.232 15.237 15.24 15.253 15.27 15.287 15.29 15.265 15.227 15.155 15.04 14.93 14.828 14.735 14.673 14.625 14.573 14.518 14.468 14.425 14.375 14.31 14.182 14.005 13.85 13.84 13.872 13.77 13.617 13.455 13.338 13.282
15.28 15.325 15.335 15.315 15.292 15.267 15.242 15.22 15.172 14.973 14.873 14.998 15.123 15.215 15.245 15.22 15.165 15.1 15.05 15.023 15.01 15.055 15.145 15.235 15.325 15.415 15.487 15.535 15.575 15.605 15.61 15.605 15.6 15.557 15.505 15.505 15.525 15.512 15.48 15.455 15.435 15.415 15.395 15.38 15.38 15.392 15.385 15.365 15.36 15.355 15.335 15.305 15.283 15.273 15.303 15.43 15.648 15.915 16.147 16.26 16.305 16.317 16.293 16.27 16.26 16.25 16.243 16.235 16.222 16.205 16.175 16.14 16.118 16.102 16.052 15.965 15.862 15.74 15.648 15.605 15.585 15.59 15.655 15.757 15.83 15.908 16.012 16.117 16.225 16.34 16.427 16.46 16.468 16.48 16.502 16.527 16.53 16.507 16.485 16.445 16.342 16.273 16.285 16.295 16.28 16.255 16.23 16.215 16.223 16.26 16.32 16.38 16.417 16.415 16.402 16.397 16.398 16.41 16.425 16.415 16.39 16.367 16.34 16.31 16.275 16.235 16.205 16.18 16.15 16.12 16.098 16.085 16.078 16.075 16.095 16.137 16.185 16.212 16.22 16.235 16.26 16.262 16.23 16.223 16.263 16.305 16.297 16.255 16.22 16.203 16.202 16.205 16.205 16.205 16.205 16.205 16.17 16.07 15.96 15.865 15.795 15.777 15.722 15.575 15.4 15.245 15.158 15.15 15.173 15.19 15.197 15.208 15.228 15.252 15.275 15.277 15.25 15.175 15.048 14.915 14.798 14.715 14.675 14.637 14.587 14.533 14.483 14.442 14.402 14.35 14.237 14.09 13.965 13.905 13.84 13.7 13.552 13.398 13.288 13.232
15.28 15.327 15.325 15.278 15.23 15.183 15.138 15.1 15.06 14.91 14.85 14.985 15.1 15.192 15.262 15.272 15.235 15.18 15.13 15.095 15.075 15.105 15.18 15.26 15.345 15.435 15.505 15.547 15.585 15.625 15.65 15.655 15.64 15.572 15.505 15.505 15.527 15.525 15.507 15.49 15.47 15.45 15.427 15.405 15.375 15.353 15.348 15.342 15.337 15.33 15.31 15.28 15.25 15.22 15.245 15.413 15.688 15.98 16.2 16.297 16.34 16.355 16.327 16.298 16.285 16.275 16.265 16.25 16.227 16.197 16.155 16.105 16.063 16.033 15.985 15.905 15.815 15.718 15.643 15.605 15.578 15.565 15.62 15.732 15.832 15.927 16.03 16.135 16.24 16.345 16.41 16.43 16.445 16.46 16.477 16.475 16.453 16.43 16.41 16.39 16.342 16.3 16.29 16.272 16.248 16.223 16.198 16.175 16.18 16.225 16.282 16.34 16.4 16.442 16.455 16.452 16.447 16.452 16.452 16.432 16.407 16.38 16.345 16.302 16.252 16.215 16.2 16.182 16.157 16.133 16.118 16.113 16.11 16.11 16.115 16.128 16.147 16.155 16.163 16.188 16.213 16.235 16.24 16.243 16.28 16.332 16.332 16.29 16.248 16.223 16.222 16.227 16.232 16.235 16.235 16.235 16.235 16.2 16.117 16.017 15.917 15.84 15.732 15.565 15.388 15.215 15.118 15.11 15.12 15.135 15.153 15.168 15.188 15.215 15.24 15.26 15.262 15.205 15.082 14.935 14.788 14.703 14.675 14.642 14.6 14.548 14.498 14.455 14.418 14.38 14.285 14.152 14.035 13.92 13.793 13.643 13.493 13.34 13.21 13.105
15.275 15.325 15.322 15.275 15.215 15.15 15.088 15.03 14.985 14.925 14.935 15.037 15.122 15.185 15.242 15.282 15.282 15.245 15.2 15.16 15.143 15.173 15.235 15.305 15.38 15.46 15.522 15.562 15.598 15.635 15.672 15.697 15.667 15.575 15.505 15.505 15.53 15.54 15.532 15.517 15.502 15.485 15.457 15.42 15.37 15.333 15.323 15.318 15.312 15.302 15.28 15.25 15.22 15.213 15.285 15.475 15.745 16.037 16.242 16.322 16.365 16.382 16.36 16.325 16.305 16.292 16.272 16.242 16.207 16.172 16.137 16.092 16.04 15.993 15.948 15.885 15.805 15.728 15.663 15.62 15.593 15.573 15.61 15.715 15.825 15.922 16.017 16.12 16.225 16.325 16.385 16.402 16.418 16.44 16.45 16.435 16.413 16.39 16.37 16.35 16.33 16.302 16.273 16.245 16.22 16.195 16.17 16.148 16.153 16.193 16.243 16.298 16.355 16.41 16.435 16.437 16.445 16.457 16.457 16.437 16.407 16.365 16.31 16.247 16.2 16.193 16.192 16.175 16.155 16.143 16.142 16.145 16.142 16.14 16.137 16.128 16.118 16.128 16.15 16.173 16.195 16.215 16.238 16.263 16.303 16.357 16.365 16.325 16.28 16.243 16.233 16.24 16.247 16.25 16.25 16.25 16.25 16.242 16.195 16.102 15.997 15.892 15.78 15.635 15.46 15.283 15.18 15.163 15.16 15.163 15.175 15.183 15.178 15.188 15.21 15.235 15.257 15.22 15.1 14.945 14.788 14.698 14.67 14.642 14.61 14.565 14.515 14.47 14.443 14.417 14.317 14.163 14.03 13.905 13.765 13.61 13.455 13.3 13.143 12.99
15.275 15.325 15.317 15.28 15.23 15.167 15.103 15.035 14.983 14.96 14.975 15.025 15.087 15.15 15.207 15.26 15.297 15.295 15.257 15.218 15.21 15.243 15.3 15.37 15.44 15.5 15.543 15.58 15.617 15.65 15.667 15.67 15.647 15.572 15.505 15.505 15.53 15.547 15.547 15.533 15.52 15.487 15.447 15.405 15.345 15.308 15.298 15.293 15.29 15.277 15.25 15.22 15.215 15.258 15.38 15.58 15.815 16.085 16.272 16.33 16.36 16.375 16.365 16.34 16.312 16.285 16.25 16.21 16.17 16.133 16.107 16.08 16.035 15.983 15.945 15.912 15.857 15.79 15.72 15.66 15.62 15.6 15.628 15.713 15.815 15.91 16 16.093 16.193 16.295 16.355 16.373 16.395 16.43 16.447 16.433 16.41 16.39 16.37 16.35 16.332 16.305 16.265 16.23 16.203 16.178 16.153 16.138 16.15 16.18 16.218 16.263 16.31 16.353 16.375 16.388 16.405 16.425 16.44 16.42 16.367 16.305 16.235 16.18 16.168 16.185 16.185 16.165 16.153 16.155 16.165 16.17 16.168 16.165 16.162 16.152 16.138 16.143 16.17 16.195 16.215 16.235 16.258 16.293 16.34 16.39 16.395 16.355 16.31 16.263 16.243 16.247 16.25 16.25 16.253 16.255 16.255 16.24 16.192 16.12 16.03 15.93 15.835 15.725 15.572 15.41 15.32 15.295 15.283 15.28 15.28 15.265 15.235 15.218 15.215 15.225 15.245 15.21 15.09 14.932 14.778 14.69 14.663 14.637 14.61 14.575 14.53 14.488 14.493 14.477 14.355 14.185 14.025 13.885 13.745 13.59 13.432 13.275 13.115 12.96
15.277 15.325 15.312 15.277 15.237 15.182 15.12 15.063 15.025 15 14.983 15 15.05 15.113 15.172 15.225 15.275 15.31 15.305 15.28 15.285 15.318 15.368 15.435 15.5 15.542 15.57 15.59 15.597 15.595 15.575 15.545 15.565 15.56 15.505 15.503 15.525 15.545 15.555 15.547 15.512 15.432 15.378 15.36 15.315 15.283 15.275 15.27 15.267 15.252 15.228 15.225 15.27 15.345 15.49 15.705 15.922 16.15 16.29 16.317 16.335 16.347 16.34 16.317 16.285 16.245 16.205 16.165 16.125 16.088 16.065 16.05 16.022 15.978 15.948 15.94 15.912 15.855 15.785 15.715 15.658 15.63 15.655 15.723 15.81 15.903 15.99 16.075 16.165 16.265 16.325 16.353 16.39 16.432 16.452 16.437 16.413 16.39 16.37 16.35 16.335 16.315 16.273 16.225 16.19 16.163 16.138 16.135 16.16 16.19 16.22 16.253 16.288 16.32 16.345 16.365 16.388 16.41 16.43 16.405 16.323 16.23 16.163 16.143 16.155 16.175 16.175 16.163 16.165 16.175 16.185 16.192 16.195 16.192 16.187 16.177 16.16 16.16 16.187 16.217 16.242 16.265 16.293 16.335 16.385 16.432 16.435 16.39 16.34 16.29 16.258 16.253 16.255 16.255 16.257 16.26 16.26 16.235 16.178 16.115 16.05 15.967 15.872 15.777 15.662 15.54 15.47 15.44 15.415 15.402 15.392 15.37 15.34 15.31 15.283 15.265 15.252 15.187 15.062 14.915 14.765 14.683 14.657 14.63 14.602 14.575 14.538 14.525 14.577 14.55 14.395 14.225 14.05 13.885 13.73 13.568 13.405 13.245 13.085 12.925
15.285 15.325 15.307 15.272 15.235 15.192 15.145 15.105 15.078 15.05 15.02 15.003 15.023 15.078 15.135 15.185 15.235 15.285 15.32 15.34 15.365 15.395 15.438 15.497 15.547 15.567 15.575 15.56 15.52 15.478 15.433 15.39 15.435 15.507 15.502 15.5 15.52 15.54 15.557 15.54 15.457 15.34 15.28 15.288 15.285 15.268 15.255 15.248 15.243 15.233 15.238 15.285 15.352 15.43 15.575 15.777 15.977 16.182 16.3 16.315 16.328 16.337 16.318 16.278 16.24 16.2 16.16 16.12 16.083 16.05 16.028 16.01 15.993 15.968 15.95 15.95 15.942 15.91 15.85 15.78 15.71 15.665 15.685 15.745 15.818 15.903 15.99 16.078 16.163 16.253 16.315 16.353 16.395 16.437 16.455 16.44 16.418 16.393 16.37 16.353 16.34 16.325 16.288 16.233 16.185 16.15 16.13 16.14 16.17 16.2 16.23 16.257 16.283 16.313 16.34 16.363 16.388 16.41 16.432 16.417 16.335 16.223 16.15 16.143 16.158 16.173 16.175 16.175 16.185 16.195 16.205 16.215 16.22 16.217 16.212 16.2 16.18 16.178 16.2 16.23 16.262 16.292 16.328 16.375 16.425 16.475 16.48 16.432 16.378 16.325 16.278 16.258 16.26 16.26 16.26 16.26 16.26 16.232 16.175 16.118 16.065 15.997 15.905 15.81 15.715 15.625 15.572 15.55 15.527 15.51 15.492 15.462 15.425 15.387 15.352 15.317 15.237 15.112 14.995 14.877 14.752 14.678 14.65 14.62 14.592 14.562 14.535 14.568 14.642 14.595 14.427 14.255 14.08 13.905 13.735 13.565 13.398 13.233 13.065 12.88
15.29 15.322 15.297 15.26 15.222 15.188 15.167 15.155 15.13 15.1 15.07 15.04 15.025 15.048 15.095 15.148 15.205 15.263 15.318 15.367 15.412 15.457 15.507 15.547 15.565 15.567 15.565 15.543 15.493 15.44 15.388 15.338 15.36 15.443 15.48 15.488 15.502 15.517 15.532 15.505 15.405 15.298 15.258 15.273 15.295 15.29 15.265 15.248 15.233 15.235 15.275 15.335 15.392 15.46 15.585 15.762 15.95 16.167 16.307 16.332 16.345 16.347 16.312 16.258 16.215 16.175 16.135 16.095 16.06 16.03 16.005 15.988 15.973 15.958 15.95 15.95 15.95 15.937 15.892 15.822 15.747 15.695 15.71 15.773 15.848 15.935 16.023 16.11 16.198 16.28 16.34 16.38 16.42 16.46 16.48 16.475 16.455 16.42 16.395 16.39 16.38 16.355 16.32 16.27 16.21 16.158 16.133 16.145 16.175 16.202 16.23 16.255 16.278 16.308 16.34 16.367 16.39 16.41 16.435 16.432 16.375 16.278 16.193 16.17 16.18 16.19 16.198 16.205 16.213 16.22 16.23 16.24 16.245 16.245 16.24 16.222 16.2 16.193 16.21 16.243 16.278 16.313 16.355 16.402 16.45 16.5 16.51 16.47 16.415 16.36 16.308 16.273 16.263 16.26 16.26 16.26 16.26 16.237 16.185 16.133 16.085 16.022 15.935 15.837 15.735 15.643 15.597 15.582 15.567 15.552 15.535 15.505 15.462 15.42 15.38 15.322 15.162 14.98 14.875 14.78 14.695 14.65 14.625 14.595 14.562 14.53 14.52 14.572 14.632 14.58 14.435 14.272 14.102 13.928 13.755 13.585 13.412 13.232 13.045 12.812
15.267 15.31 15.287 15.24 15.205 15.175 15.175 15.19 15.18 15.155 15.125 15.095 15.065 15.055 15.083 15.135 15.198 15.26 15.32 15.37 15.415 15.472 15.532 15.555 15.55 15.553 15.56 15.56 15.527 15.473 15.42 15.383 15.385 15.433 15.475 15.488 15.483 15.475 15.48 15.467 15.395 15.328 15.318 15.33 15.35 15.345 15.315 15.29 15.268 15.265 15.295 15.34 15.393 15.455 15.56 15.72 15.92 16.16 16.312 16.347 16.365 16.362 16.32 16.255 16.203 16.16 16.12 16.083 16.05 16.023 16 15.983 15.968 15.955 15.95 15.95 15.945 15.93 15.892 15.827 15.755 15.708 15.725 15.8 15.895 15.992 16.08 16.165 16.252 16.33 16.385 16.425 16.465 16.505 16.527 16.53 16.52 16.497 16.475 16.46 16.437 16.402 16.367 16.325 16.27 16.208 16.163 16.153 16.168 16.193 16.22 16.245 16.273 16.305 16.337 16.367 16.39 16.413 16.437 16.435 16.395 16.322 16.238 16.205 16.215 16.225 16.233 16.24 16.247 16.255 16.262 16.27 16.275 16.275 16.267 16.245 16.22 16.208 16.22 16.255 16.293 16.33 16.373 16.418 16.465 16.512 16.53 16.497 16.442 16.388 16.34 16.303 16.275 16.265 16.265 16.263 16.26 16.242 16.198 16.15 16.105 16.045 15.962 15.865 15.75 15.64 15.59 15.577 15.563 15.548 15.532 15.51 15.477 15.44 15.4 15.285 15.048 14.843 14.733 14.643 14.595 14.59 14.58 14.552 14.52 14.493 14.498 14.545 14.572 14.527 14.415 14.27 14.117 13.952 13.775 13.592 13.407 13.215 13.015 12.735
15.225 15.287 15.29 15.235 15.188 15.163 15.17 15.197 15.215 15.21 15.185 15.155 15.123 15.098 15.108 15.15 15.205 15.265 15.322 15.37 15.41 15.46 15.515 15.535 15.533 15.54 15.55 15.56 15.55 15.507 15.46 15.433 15.425 15.458 15.5 15.515 15.51 15.488 15.468 15.445 15.408 15.385 15.385 15.393 15.407 15.4 15.373 15.353 15.335 15.32 15.32 15.34 15.39 15.46 15.543 15.683 15.903 16.16 16.317 16.36 16.382 16.38 16.335 16.262 16.195 16.145 16.105 16.073 16.045 16.02 15.997 15.975 15.963 15.955 15.95 15.945 15.93 15.91 15.875 15.82 15.755 15.715 15.75 15.843 15.945 16.047 16.14 16.222 16.307 16.382 16.435 16.475 16.515 16.552 16.57 16.567 16.557 16.542 16.52 16.492 16.462 16.432 16.402 16.367 16.33 16.28 16.23 16.195 16.175 16.183 16.21 16.238 16.268 16.3 16.333 16.365 16.392 16.417 16.44 16.435 16.402 16.355 16.283 16.245 16.253 16.26 16.267 16.275 16.282 16.287 16.282 16.28 16.287 16.292 16.287 16.265 16.24 16.223 16.233 16.27 16.31 16.35 16.39 16.435 16.482 16.522 16.545 16.522 16.47 16.418 16.373 16.337 16.303 16.28 16.275 16.27 16.265 16.252 16.215 16.17 16.125 16.067 15.99 15.887 15.76 15.635 15.578 15.57 15.557 15.542 15.525 15.505 15.485 15.457 15.385 15.192 14.915 14.705 14.588 14.52 14.505 14.515 14.525 14.512 14.483 14.458 14.468 14.495 14.497 14.472 14.38 14.24 14.102 13.955 13.775 13.575 13.378 13.182 12.985 12.685
15.183 15.25 15.29 15.255 15.185 15.153 15.165 15.195 15.225 15.245 15.237 15.21 15.175 15.145 15.15 15.183 15.223 15.273 15.323 15.368 15.41 15.453 15.498 15.518 15.52 15.53 15.54 15.55 15.555 15.535 15.505 15.485 15.47 15.488 15.52 15.54 15.555 15.55 15.52 15.485 15.468 15.463 15.46 15.463 15.467 15.457 15.435 15.42 15.405 15.39 15.375 15.36 15.393 15.465 15.538 15.663 15.885 16.152 16.31 16.342 16.352 16.34 16.297 16.237 16.175 16.125 16.09 16.062 16.035 16.01 15.985 15.962 15.955 15.95 15.942 15.93 15.91 15.89 15.855 15.805 15.75 15.73 15.793 15.895 15.998 16.102 16.197 16.28 16.362 16.427 16.472 16.517 16.56 16.592 16.597 16.58 16.555 16.525 16.5 16.477 16.452 16.427 16.402 16.375 16.347 16.32 16.292 16.262 16.225 16.2 16.205 16.23 16.263 16.295 16.328 16.362 16.395 16.42 16.44 16.437 16.407 16.372 16.317 16.283 16.287 16.292 16.3 16.307 16.31 16.3 16.272 16.26 16.272 16.29 16.29 16.27 16.252 16.238 16.247 16.285 16.327 16.37 16.41 16.453 16.497 16.532 16.555 16.545 16.5 16.453 16.41 16.372 16.335 16.3 16.283 16.277 16.27 16.252 16.22 16.182 16.142 16.092 16.015 15.897 15.76 15.628 15.563 15.557 15.55 15.532 15.51 15.49 15.472 15.452 15.322 15.065 14.783 14.565 14.455 14.42 14.428 14.488 14.522 14.488 14.453 14.425 14.423 14.427 14.425 14.417 14.345 14.213 14.077 13.932 13.757 13.558 13.353 13.15 12.952 12.652
15.153 15.21 15.27 15.275 15.208 15.165 15.18 15.21 15.24 15.267 15.275 15.255 15.223 15.193 15.195 15.225 15.258 15.3 15.35 15.398 15.44 15.48 15.513 15.52 15.52 15.528 15.535 15.545 15.555 15.552 15.547 15.54 15.525 15.528 15.543 15.56 15.578 15.59 15.587 15.572 15.56 15.547 15.537 15.532 15.53 15.52 15.502 15.487 15.472 15.45 15.402 15.368 15.4 15.47 15.543 15.635 15.815 16.075 16.212 16.212 16.202 16.175 16.132 16.095 16.067 16.045 16.027 16.005 15.977 15.952 15.937 15.927 15.917 15.91 15.9 15.885 15.865 15.857 15.837 15.79 15.738 15.743 15.832 15.942 16.05 16.155 16.252 16.337 16.402 16.445 16.482 16.53 16.572 16.597 16.59 16.56 16.53 16.5 16.475 16.452 16.427 16.403 16.377 16.352 16.328 16.315 16.315 16.31 16.285 16.245 16.228 16.24 16.263 16.293 16.325 16.358 16.39 16.417 16.442 16.442 16.412 16.377 16.335 16.313 16.317 16.322 16.327 16.33 16.32 16.282 16.24 16.23 16.25 16.28 16.28 16.258 16.245 16.235 16.237 16.27 16.322 16.375 16.425 16.47 16.512 16.545 16.565 16.565 16.53 16.485 16.445 16.402 16.357 16.313 16.288 16.282 16.267 16.24 16.21 16.18 16.147 16.11 16.03 15.902 15.765 15.627 15.553 15.543 15.535 15.515 15.488 15.465 15.445 15.425 15.26 14.95 14.65 14.428 14.34 14.375 14.475 14.557 14.54 14.473 14.433 14.4 14.378 14.365 14.36 14.36 14.312 14.2 14.06 13.905 13.735 13.547 13.345 13.135 12.93 12.645
15.15 15.203 15.26 15.282 15.232 15.183 15.202 15.242 15.27 15.292 15.3 15.292 15.27 15.238 15.238 15.27 15.308 15.36 15.42 15.475 15.523 15.565 15.582 15.565 15.543 15.535 15.54 15.55 15.557 15.55 15.57 15.597 15.588 15.583 15.593 15.608 15.623 15.638 15.647 15.635 15.615 15.6 15.585 15.575 15.577 15.58 15.568 15.552 15.527 15.47 15.378 15.35 15.41 15.48 15.547 15.61 15.723 15.937 16.055 16.018 15.983 15.96 15.94 15.928 15.925 15.928 15.925 15.905 15.88 15.868 15.875 15.872 15.853 15.84 15.83 15.815 15.808 15.827 15.825 15.78 15.725 15.733 15.84 15.967 16.082 16.195 16.302 16.38 16.417 16.445 16.477 16.515 16.547 16.562 16.555 16.532 16.505 16.475 16.448 16.425 16.402 16.377 16.35 16.325 16.303 16.298 16.312 16.325 16.322 16.295 16.275 16.28 16.29 16.308 16.328 16.353 16.385 16.415 16.445 16.447 16.417 16.38 16.338 16.325 16.337 16.345 16.35 16.342 16.307 16.245 16.203 16.205 16.238 16.275 16.275 16.248 16.228 16.215 16.2 16.21 16.262 16.325 16.385 16.442 16.497 16.537 16.562 16.577 16.555 16.507 16.462 16.415 16.365 16.318 16.293 16.282 16.26 16.23 16.2 16.167 16.13 16.047 15.902 15.757 15.627 15.545 15.533 15.53 15.52 15.5 15.463 15.43 15.41 15.387 15.207 14.87 14.543 14.34 14.348 14.493 14.63 14.612 14.518 14.46 14.418 14.383 14.355 14.335 14.32 14.31 14.28 14.185 14.035 13.875 13.705 13.525 13.337 13.135 12.922 12.665
15.163 15.215 15.267 15.28 15.24 15.188 15.205 15.267 15.3 15.312 15.317 15.32 15.312 15.285 15.283 15.32 15.37 15.433 15.497 15.56 15.617 15.667 15.675 15.64 15.6 15.57 15.558 15.56 15.552 15.518 15.545 15.622 15.647 15.65 15.665 15.682 15.698 15.712 15.712 15.678 15.64 15.62 15.605 15.6 15.615 15.637 15.635 15.602 15.537 15.44 15.333 15.333 15.42 15.49 15.552 15.61 15.68 15.827 15.915 15.873 15.843 15.828 15.818 15.815 15.815 15.82 15.822 15.805 15.79 15.805 15.825 15.815 15.79 15.773 15.76 15.755 15.773 15.81 15.812 15.77 15.715 15.703 15.805 15.96 16.09 16.21 16.322 16.385 16.407 16.435 16.462 16.487 16.51 16.52 16.515 16.502 16.48 16.45 16.423 16.397 16.375 16.35 16.32 16.293 16.28 16.288 16.305 16.322 16.335 16.335 16.327 16.33 16.34 16.35 16.358 16.373 16.393 16.415 16.445 16.45 16.417 16.37 16.328 16.325 16.35 16.365 16.365 16.335 16.275 16.203 16.17 16.193 16.232 16.27 16.27 16.243 16.218 16.195 16.17 16.145 16.168 16.233 16.298 16.365 16.435 16.492 16.53 16.557 16.555 16.515 16.465 16.415 16.365 16.32 16.292 16.272 16.245 16.21 16.17 16.127 16.067 15.89 15.615 15.44 15.363 15.405 15.502 15.515 15.505 15.485 15.44 15.398 15.375 15.342 15.15 14.81 14.49 14.368 14.518 14.697 14.707 14.595 14.505 14.453 14.403 14.365 14.34 14.32 14.3 14.283 14.257 14.162 14.005 13.845 13.675 13.495 13.315 13.127 12.917 12.67
15.177 15.227 15.267 15.262 15.227 15.185 15.198 15.272 15.317 15.325 15.33 15.335 15.335 15.325 15.333 15.38 15.442 15.505 15.565 15.625 15.682 15.712 15.7 15.672 15.645 15.615 15.592 15.58 15.54 15.478 15.5 15.6 15.675 15.712 15.737 15.757 15.772 15.79 15.777 15.725 15.673 15.64 15.628 15.633 15.655 15.682 15.672 15.605 15.505 15.395 15.3 15.328 15.43 15.497 15.555 15.61 15.67 15.755 15.803 15.798 15.803 15.793 15.77 15.753 15.74 15.73 15.72 15.713 15.725 15.76 15.777 15.76 15.733 15.708 15.7 15.72 15.755 15.795 15.8 15.757 15.7 15.668 15.755 15.927 16.082 16.22 16.325 16.367 16.385 16.415 16.437 16.455 16.472 16.48 16.475 16.463 16.445 16.423 16.397 16.37 16.345 16.32 16.29 16.265 16.265 16.28 16.295 16.315 16.333 16.352 16.362 16.362 16.372 16.385 16.395 16.405 16.415 16.43 16.45 16.447 16.407 16.35 16.313 16.323 16.355 16.38 16.365 16.305 16.233 16.163 16.148 16.185 16.227 16.262 16.262 16.237 16.21 16.183 16.157 16.113 16.113 16.18 16.248 16.315 16.385 16.45 16.488 16.508 16.525 16.512 16.467 16.415 16.365 16.32 16.282 16.245 16.207 16.165 16.115 16.065 15.942 15.675 15.373 15.208 15.195 15.335 15.48 15.497 15.485 15.467 15.425 15.373 15.34 15.295 15.09 14.75 14.498 14.47 14.68 14.802 14.687 14.565 14.5 14.448 14.395 14.353 14.328 14.31 14.29 14.275 14.242 14.135 13.975 13.815 13.645 13.465 13.285 13.107 12.915 12.675
15.177 15.232 15.257 15.232 15.195 15.175 15.198 15.262 15.312 15.325 15.33 15.335 15.337 15.343 15.368 15.422 15.482 15.54 15.595 15.642 15.665 15.642 15.607 15.59 15.575 15.562 15.567 15.57 15.53 15.463 15.48 15.58 15.67 15.732 15.77 15.795 15.82 15.845 15.827 15.772 15.715 15.668 15.655 15.662 15.67 15.675 15.642 15.56 15.457 15.353 15.283 15.335 15.437 15.5 15.558 15.62 15.69 15.74 15.76 15.773 15.785 15.785 15.77 15.748 15.723 15.698 15.67 15.668 15.7 15.737 15.742 15.715 15.685 15.658 15.66 15.695 15.735 15.777 15.79 15.75 15.69 15.643 15.693 15.848 16.047 16.235 16.332 16.352 16.363 16.39 16.412 16.428 16.443 16.453 16.45 16.435 16.418 16.395 16.367 16.34 16.313 16.287 16.26 16.245 16.255 16.273 16.29 16.313 16.338 16.365 16.382 16.38 16.378 16.385 16.397 16.41 16.422 16.437 16.447 16.442 16.405 16.343 16.305 16.318 16.35 16.38 16.365 16.298 16.223 16.17 16.158 16.18 16.222 16.257 16.257 16.23 16.203 16.18 16.155 16.123 16.143 16.215 16.28 16.345 16.415 16.467 16.483 16.488 16.503 16.505 16.47 16.413 16.36 16.307 16.25 16.195 16.15 16.105 16.055 15.972 15.757 15.48 15.298 15.198 15.18 15.313 15.457 15.482 15.47 15.455 15.415 15.353 15.307 15.247 15.03 14.738 14.58 14.58 14.742 14.787 14.65 14.565 14.51 14.46 14.402 14.345 14.32 14.31 14.29 14.275 14.227 14.105 13.945 13.785 13.615 13.432 13.25 13.07 12.895 12.702
15.142 15.205 15.222 15.19 15.17 15.183 15.21 15.255 15.297 15.312 15.32 15.328 15.338 15.35 15.378 15.43 15.485 15.54 15.58 15.585 15.555 15.505 15.463 15.455 15.47 15.49 15.523 15.537 15.515 15.463 15.48 15.575 15.655 15.717 15.76 15.79 15.825 15.852 15.835 15.787 15.737 15.687 15.66 15.647 15.632 15.617 15.577 15.495 15.395 15.315 15.295 15.363 15.453 15.523 15.595 15.67 15.735 15.762 15.763 15.763 15.768 15.772 15.767 15.75 15.725 15.695 15.665 15.665 15.7 15.737 15.732 15.688 15.65 15.623 15.628 15.668 15.71 15.752 15.767 15.74 15.69 15.638 15.635 15.738 15.967 16.222 16.34 16.343 16.343 16.363 16.385 16.403 16.423 16.442 16.442 16.425 16.4 16.362 16.33 16.307 16.28 16.255 16.235 16.233 16.25 16.273 16.298 16.325 16.355 16.385 16.405 16.405 16.393 16.383 16.385 16.395 16.408 16.422 16.43 16.43 16.407 16.353 16.318 16.325 16.345 16.372 16.377 16.325 16.26 16.233 16.215 16.203 16.223 16.252 16.25 16.223 16.203 16.185 16.158 16.16 16.22 16.295 16.36 16.425 16.487 16.512 16.505 16.505 16.51 16.507 16.475 16.408 16.345 16.285 16.21 16.14 16.088 16.042 15.987 15.825 15.593 15.44 15.358 15.303 15.27 15.328 15.432 15.465 15.455 15.442 15.405 15.34 15.285 15.202 14.998 14.8 14.71 14.69 14.755 14.742 14.653 14.595 14.54 14.485 14.407 14.325 14.298 14.302 14.29 14.275 14.212 14.075 13.912 13.737 13.565 13.39 13.202 13.018 12.853 12.71
