ncols         200
nrows         71
xllcorner     546000
yllcorner     262070
cellsize      5
NODATA_value  -9999.0
12.602 12.6 12.605 12.607 12.607 12.612 12.625 12.65 12.675 12.705 12.758 12.817 12.87 12.91 12.94 12.973 13.01 13.057 13.067 13.03 12.99 12.947 12.892 12.845 12.822 12.815 12.797 12.692 12.51 12.35 12.243 12.158 12.105 12.098 12.102 12.097 12.083 12.07 12.07 12.085 12.107 12.115 12.07 11.998 11.948 11.913 11.875 11.84 11.815 11.8 11.79 11.778 11.765 11.755 11.748 11.743 11.735 11.725 11.703 11.69 11.725 11.82 11.968 12.13 12.29 12.43 12.53 12.61 12.685 12.765 12.87 13.023 13.263 13.558 13.852 14.12 14.39 14.717 15.075 15.402 15.61 15.583 15.893 16.575 17.185 17.755 18.155 18.462 18.762 19.052 19.335 19.615 19.897 20.162 20.352 20.5 20.68 20.88 21.027 21.125 21.235 21.365 21.547 21.747 21.895 22.015 22.188 22.397 22.56 22.685 22.81 22.94 23.017 22.942 22.922 22.957 22.842 22.683 22.538 22.395 22.227 22.043 21.895 21.765 21.582 21.347 21.14 21.058 21.042 20.99 20.918 20.855 20.82 20.84 20.747 20.53 20.383 20.3 20.23 20.145 20.02 19.85 19.695 19.572 19.415 19.213 19.063 18.975 18.882 18.785 18.632 18.415 18.185 17.955 17.685 17.378 17.075 16.79 16.543 16.315 16.072 15.82 15.608 15.427 15.235 15.05 14.945 14.905 14.862 14.812 14.67 14.49 14.395 14.325 14.23 14.118 14.01 13.905 13.722 13.46 13.208 12.977 12.685 12.24 11.695 11.348 11.41 11.7 12.005 12.352 12.592 12.617 12.587 11.837 9.868 8.568 8.548 9.398 10.569 10.23
12.61 12.612 12.61 12.607 12.602 12.595 12.598 12.618 12.64 12.665 12.712 12.765 12.802 12.835 12.865 12.903 12.95 13.002 13.01 12.97 12.93 12.892 12.83 12.74 12.67 12.635 12.632 12.602 12.485 12.333 12.218 12.158 12.145 12.155 12.165 12.167 12.162 12.155 12.158 12.178 12.205 12.225 12.192 12.12 12.053 11.993 11.94 11.89 11.84 11.813 11.805 11.795 11.785 11.778 11.772 11.765 11.755 11.745 11.727 11.695 11.655 11.65 11.7 11.81 11.965 12.107 12.21 12.29 12.383 12.498 12.638 12.79 12.985 13.253 13.527 13.75 13.975 14.29 14.657 14.99 15.182 15.235 15.493 16.033 16.677 17.287 17.692 17.985 18.272 18.557 18.84 19.122 19.405 19.68 19.895 20.078 20.292 20.51 20.66 20.77 20.91 21.063 21.26 21.5 21.71 21.862 22.045 22.292 22.507 22.655 22.78 22.837 22.717 22.485 22.478 22.665 22.677 22.542 22.4 22.262 22.117 21.953 21.81 21.7 21.572 21.397 21.2 21.098 21.057 20.987 20.915 20.868 20.89 20.947 20.862 20.698 20.603 20.53 20.442 20.312 20.145 19.96 19.808 19.695 19.572 19.407 19.265 19.172 19.075 18.977 18.83 18.615 18.385 18.155 17.89 17.593 17.3 17.018 16.765 16.522 16.255 15.998 15.79 15.615 15.435 15.255 15.15 15.107 15.06 15.007 14.86 14.628 14.465 14.368 14.263 14.148 14.035 13.927 13.74 13.46 13.18 12.922 12.62 12.157 11.57 11.248 11.31 11.515 11.8 12.337 12.717 12.7 12.65 11.772 9.7 8.488 8.543 9.243 10.412 10.21
12.605 12.607 12.605 12.6 12.59 12.58 12.575 12.585 12.605 12.628 12.663 12.7 12.73 12.76 12.795 12.843 12.898 12.947 12.95 12.912 12.875 12.837 12.78 12.695 12.603 12.515 12.465 12.445 12.395 12.295 12.213 12.195 12.205 12.215 12.225 12.23 12.232 12.235 12.247 12.275 12.305 12.335 12.315 12.242 12.17 12.1 12.027 11.952 11.875 11.825 11.817 11.815 11.807 11.802 11.795 11.785 11.775 11.765 11.75 11.722 11.685 11.645 11.61 11.62 11.683 11.785 11.9 12.008 12.14 12.29 12.442 12.595 12.753 12.948 13.16 13.355 13.548 13.815 14.18 14.542 14.865 15.135 15.302 15.57 16.068 16.697 17.19 17.482 17.775 18.062 18.342 18.61 18.868 19.165 19.442 19.667 19.902 20.135 20.312 20.453 20.61 20.768 20.965 21.21 21.457 21.675 21.898 22.157 22.41 22.607 22.672 22.57 22.34 22.15 22.175 22.35 22.46 22.4 22.262 22.127 21.99 21.847 21.72 21.612 21.505 21.382 21.232 21.125 21.06 20.982 20.923 20.923 20.99 21.055 21.01 20.908 20.83 20.752 20.632 20.448 20.255 20.07 19.923 19.815 19.705 19.577 19.457 19.36 19.262 19.167 19.02 18.802 18.567 18.335 18.087 17.812 17.525 17.24 16.972 16.705 16.428 16.175 15.97 15.795 15.623 15.453 15.348 15.3 15.25 15.197 15.045 14.798 14.58 14.428 14.31 14.195 14.08 13.96 13.76 13.475 13.185 12.905 12.565 12.055 11.445 11.178 11.28 11.42 11.663 12.328 12.807 12.76 12.695 11.709 9.54 8.408 8.538 9.14 10.289 10.125
12.595 12.595 12.597 12.597 12.59 12.578 12.568 12.568 12.58 12.6 12.623 12.65 12.68 12.71 12.75 12.8 12.853 12.895 12.89 12.852 12.815 12.775 12.725 12.655 12.57 12.478 12.403 12.35 12.303 12.26 12.243 12.247 12.255 12.27 12.282 12.288 12.295 12.305 12.325 12.355 12.385 12.417 12.41 12.347 12.272 12.195 12.105 12.01 11.92 11.84 11.815 11.825 11.828 11.825 11.815 11.805 11.795 11.785 11.772 11.747 11.712 11.675 11.638 11.603 11.573 11.58 11.648 11.77 11.922 12.075 12.225 12.375 12.525 12.668 12.815 12.975 13.15 13.365 13.675 14.055 14.447 14.797 15.015 15.235 15.555 16.04 16.57 16.937 17.225 17.455 17.675 17.958 18.295 18.66 18.97 19.215 19.455 19.712 19.957 20.14 20.295 20.455 20.69 20.972 21.228 21.48 21.735 22 22.265 22.46 22.455 22.288 22.093 21.965 21.998 22.125 22.247 22.247 22.122 21.985 21.85 21.722 21.59 21.47 21.367 21.26 21.15 21.075 21.02 20.952 20.943 21.002 21.082 21.152 21.17 21.12 21.04 20.96 20.825 20.615 20.398 20.195 20.045 19.943 19.838 19.732 19.62 19.507 19.41 19.315 19.165 18.945 18.705 18.47 18.247 18.007 17.73 17.445 17.165 16.885 16.61 16.365 16.168 15.995 15.823 15.645 15.53 15.482 15.435 15.382 15.232 14.993 14.758 14.57 14.443 14.328 14.202 14.04 13.812 13.54 13.255 12.967 12.587 12.04 11.483 11.258 11.345 11.47 11.798 12.48 12.867 12.805 12.735 11.652 9.383 8.323 8.53 9.053 10.164 9.977
12.583 12.58 12.583 12.587 12.59 12.582 12.573 12.565 12.568 12.585 12.603 12.623 12.65 12.68 12.72 12.772 12.817 12.84 12.825 12.782 12.74 12.7 12.655 12.602 12.535 12.45 12.375 12.318 12.278 12.273 12.282 12.288 12.3 12.325 12.34 12.345 12.355 12.365 12.385 12.415 12.445 12.472 12.47 12.43 12.367 12.287 12.195 12.095 12.003 11.925 11.885 11.873 11.855 11.843 11.837 11.827 11.815 11.805 11.795 11.772 11.74 11.705 11.665 11.63 11.597 11.548 11.515 11.563 11.685 11.835 11.985 12.135 12.282 12.417 12.543 12.668 12.808 12.963 13.198 13.548 13.938 14.335 14.675 14.962 15.255 15.56 15.968 16.37 16.593 16.703 16.955 17.383 17.807 18.182 18.477 18.725 18.978 19.258 19.545 19.785 19.965 20.13 20.403 20.75 21.045 21.305 21.562 21.825 22.03 22.13 22.15 22.065 21.885 21.778 21.835 21.957 22.062 22.077 21.975 21.84 21.718 21.595 21.445 21.295 21.175 21.065 20.97 20.927 20.902 20.855 20.91 21.05 21.147 21.22 21.275 21.287 21.24 21.16 21.022 20.813 20.593 20.395 20.228 20.095 19.99 19.89 19.767 19.633 19.523 19.425 19.275 19.055 18.815 18.583 18.375 18.167 17.917 17.638 17.358 17.08 16.815 16.58 16.385 16.215 16.03 15.825 15.698 15.652 15.605 15.557 15.427 15.205 14.978 14.785 14.647 14.52 14.352 14.132 13.887 13.635 13.367 13.085 12.685 12.165 11.703 11.463 11.485 11.715 12.22 12.757 12.917 12.845 12.775 11.597 9.258 8.268 8.518 8.958 10.022 9.81
12.568 12.565 12.568 12.573 12.577 12.58 12.575 12.568 12.565 12.573 12.587 12.605 12.625 12.653 12.695 12.737 12.765 12.777 12.757 12.71 12.665 12.623 12.578 12.532 12.48 12.412 12.345 12.303 12.295 12.31 12.32 12.33 12.355 12.385 12.4 12.405 12.415 12.425 12.445 12.475 12.502 12.525 12.522 12.495 12.452 12.382 12.29 12.2 12.135 12.09 12.05 12.01 11.965 11.907 11.86 11.845 11.837 11.825 11.815 11.797 11.767 11.732 11.695 11.66 11.63 11.57 11.49 11.448 11.48 11.595 11.745 11.895 12.04 12.172 12.295 12.415 12.535 12.658 12.813 13.073 13.44 13.837 14.225 14.592 14.945 15.25 15.538 15.853 16.08 16.233 16.548 16.982 17.352 17.687 17.985 18.248 18.525 18.815 19.102 19.38 19.615 19.808 20.085 20.46 20.815 21.117 21.377 21.57 21.66 21.695 21.75 21.777 21.672 21.595 21.668 21.772 21.865 21.902 21.83 21.708 21.595 21.472 21.322 21.158 21.005 20.873 20.778 20.745 20.74 20.715 20.803 21.007 21.172 21.275 21.335 21.382 21.397 21.355 21.22 21.02 20.833 20.667 20.49 20.308 20.163 20.05 19.925 19.78 19.648 19.535 19.385 19.165 18.925 18.695 18.49 18.297 18.087 17.832 17.553 17.288 17.045 16.813 16.608 16.422 16.217 16 15.865 15.815 15.767 15.722 15.617 15.422 15.2 15 14.837 14.665 14.442 14.198 13.953 13.708 13.457 13.195 12.822 12.375 11.968 11.665 11.688 12.08 12.622 12.962 12.972 12.885 12.814 11.542 9.166 8.246 8.503 8.86 9.842 9.622
12.553 12.55 12.553 12.558 12.565 12.572 12.572 12.57 12.565 12.56 12.57 12.59 12.608 12.628 12.658 12.683 12.698 12.71 12.69 12.643 12.598 12.553 12.508 12.463 12.415 12.365 12.328 12.323 12.335 12.35 12.365 12.385 12.415 12.445 12.46 12.465 12.475 12.485 12.502 12.53 12.555 12.577 12.577 12.55 12.517 12.467 12.403 12.345 12.305 12.27 12.225 12.152 12.057 11.94 11.85 11.835 11.845 11.845 11.835 11.822 11.795 11.76 11.725 11.693 11.665 11.592 11.5 11.43 11.383 11.4 11.503 11.65 11.795 11.925 12.045 12.168 12.293 12.42 12.533 12.67 12.948 13.332 13.713 14.088 14.497 14.897 15.235 15.545 15.83 16.052 16.272 16.558 16.878 17.205 17.505 17.79 18.085 18.375 18.66 18.943 19.217 19.465 19.768 20.142 20.52 20.867 21.095 21.18 21.215 21.25 21.305 21.387 21.402 21.405 21.483 21.577 21.67 21.732 21.695 21.585 21.475 21.35 21.2 21.035 20.87 20.713 20.598 20.56 20.565 20.57 20.68 20.9 21.115 21.287 21.38 21.427 21.475 21.497 21.42 21.262 21.102 20.947 20.777 20.582 20.39 20.228 20.083 19.938 19.793 19.66 19.495 19.272 19.035 18.808 18.605 18.415 18.225 18.01 17.757 17.507 17.272 17.035 16.82 16.615 16.395 16.178 16.035 15.972 15.92 15.87 15.777 15.602 15.387 15.18 14.975 14.75 14.507 14.265 14.025 13.785 13.545 13.302 12.985 12.597 12.21 11.865 11.925 12.382 12.865 13.107 13.045 12.933 12.829 11.46 9.073 8.228 8.49 8.76 9.627 9.427
12.55 12.543 12.543 12.548 12.558 12.567 12.567 12.565 12.557 12.545 12.55 12.57 12.59 12.608 12.625 12.645 12.66 12.66 12.63 12.583 12.538 12.5 12.463 12.418 12.373 12.345 12.348 12.363 12.375 12.385 12.403 12.43 12.46 12.482 12.495 12.502 12.51 12.52 12.537 12.562 12.587 12.612 12.61 12.58 12.548 12.528 12.51 12.477 12.445 12.41 12.352 12.242 12.1 11.96 11.865 11.825 11.82 11.837 11.847 11.845 11.822 11.79 11.758 11.73 11.7 11.612 11.51 11.443 11.378 11.32 11.313 11.405 11.548 11.675 11.8 11.93 12.06 12.185 12.282 12.36 12.515 12.828 13.207 13.565 13.948 14.382 14.832 15.26 15.627 15.815 15.935 16.163 16.448 16.737 16.978 17.238 17.563 17.918 18.245 18.528 18.812 19.075 19.412 19.817 20.195 20.5 20.652 20.712 20.752 20.788 20.845 20.93 21.05 21.18 21.28 21.372 21.465 21.537 21.52 21.425 21.325 21.215 21.072 20.905 20.737 20.57 20.445 20.4 20.4 20.415 20.533 20.75 20.972 21.195 21.33 21.382 21.435 21.52 21.555 21.467 21.325 21.17 21.005 20.815 20.61 20.415 20.255 20.11 19.965 19.815 19.622 19.393 19.158 18.935 18.735 18.545 18.353 18.15 17.927 17.687 17.445 17.205 17.002 16.822 16.613 16.39 16.2 16.09 16.03 15.972 15.875 15.697 15.487 15.277 15.047 14.805 14.57 14.35 14.13 13.895 13.66 13.427 13.127 12.76 12.393 12.073 12.168 12.635 13.042 13.195 13.115 12.99 12.794 11.325 8.976 8.205 8.472 8.663 9.327 9.16
12.563 12.558 12.55 12.548 12.555 12.562 12.562 12.555 12.54 12.528 12.533 12.55 12.57 12.592 12.615 12.632 12.637 12.617 12.577 12.533 12.495 12.47 12.437 12.395 12.368 12.37 12.39 12.405 12.412 12.415 12.43 12.46 12.48 12.482 12.492 12.51 12.517 12.525 12.545 12.57 12.592 12.615 12.612 12.585 12.57 12.592 12.595 12.56 12.53 12.49 12.422 12.322 12.197 12.063 11.958 11.888 11.838 11.815 11.823 11.845 11.845 11.822 11.795 11.767 11.727 11.63 11.523 11.455 11.39 11.32 11.25 11.238 11.318 11.438 11.568 11.702 11.832 11.942 12.025 12.1 12.188 12.378 12.703 13.058 13.403 13.795 14.248 14.752 15.297 15.565 15.627 15.812 16.065 16.295 16.45 16.653 17.03 17.495 17.865 18.15 18.415 18.638 18.99 19.457 19.852 20.057 20.133 20.217 20.275 20.315 20.378 20.495 20.713 20.937 21.065 21.155 21.242 21.312 21.297 21.21 21.135 21.062 20.932 20.758 20.585 20.415 20.308 20.273 20.258 20.26 20.365 20.578 20.81 21.055 21.205 21.258 21.348 21.51 21.607 21.567 21.472 21.337 21.172 20.985 20.785 20.6 20.445 20.3 20.145 19.972 19.765 19.533 19.303 19.08 18.875 18.685 18.487 18.27 18.045 17.817 17.577 17.335 17.153 17.015 16.847 16.642 16.405 16.208 16.105 16.045 15.932 15.742 15.533 15.322 15.095 14.86 14.653 14.47 14.262 14.028 13.793 13.56 13.26 12.895 12.57 12.318 12.445 12.88 13.137 13.18 13.125 13.03 12.742 11.162 8.873 8.18 8.457 8.568 8.952 8.852
12.585 12.585 12.575 12.56 12.558 12.56 12.555 12.54 12.52 12.51 12.515 12.533 12.555 12.578 12.602 12.615 12.6 12.565 12.525 12.49 12.465 12.445 12.415 12.393 12.398 12.413 12.43 12.442 12.445 12.445 12.46 12.48 12.477 12.465 12.475 12.5 12.515 12.528 12.548 12.57 12.59 12.61 12.61 12.6 12.623 12.672 12.675 12.633 12.6 12.55 12.475 12.392 12.297 12.177 12.075 12.002 11.928 11.858 11.84 11.867 11.867 11.85 11.832 11.805 11.755 11.647 11.538 11.468 11.4 11.33 11.265 11.21 11.208 11.26 11.35 11.478 11.597 11.69 11.768 11.843 11.92 12.033 12.255 12.58 12.9 13.245 13.665 14.168 14.742 15.067 15.152 15.337 15.635 15.89 16.045 16.223 16.615 17.125 17.497 17.762 17.985 18.183 18.515 19.02 19.43 19.565 19.608 19.702 19.785 19.843 19.935 20.14 20.437 20.702 20.847 20.932 21.017 21.087 21.072 20.993 20.945 20.91 20.795 20.615 20.438 20.27 20.18 20.155 20.13 20.118 20.205 20.418 20.665 20.92 21.08 21.173 21.338 21.542 21.64 21.612 21.56 21.477 21.34 21.157 20.97 20.792 20.632 20.475 20.3 20.115 19.907 19.68 19.455 19.233 19.02 18.825 18.617 18.385 18.155 17.935 17.705 17.468 17.288 17.162 17.032 16.875 16.657 16.408 16.218 16.12 15.992 15.79 15.58 15.37 15.15 14.94 14.77 14.607 14.4 14.163 13.927 13.692 13.398 13.075 12.815 12.595 12.72 13.035 13.122 13.12 13.08 13.022 12.672 10.995 8.771 8.168 8.457 8.485 8.613 8.572
12.61 12.61 12.6 12.58 12.562 12.552 12.54 12.52 12.5 12.49 12.498 12.518 12.543 12.565 12.585 12.585 12.558 12.52 12.485 12.46 12.443 12.425 12.413 12.42 12.44 12.457 12.47 12.475 12.475 12.475 12.477 12.475 12.46 12.445 12.455 12.482 12.505 12.527 12.55 12.57 12.59 12.61 12.623 12.645 12.692 12.747 12.755 12.712 12.667 12.605 12.525 12.445 12.365 12.275 12.187 12.11 12.032 11.958 11.92 11.913 11.885 11.865 11.863 11.845 11.782 11.663 11.553 11.48 11.41 11.348 11.298 11.258 11.235 11.225 11.245 11.303 11.385 11.483 11.578 11.673 11.768 11.823 11.908 12.14 12.425 12.735 13.125 13.562 13.967 14.225 14.388 14.623 15.007 15.41 15.67 15.868 16.25 16.757 17.112 17.335 17.53 17.715 17.968 18.365 18.742 18.96 19.082 19.18 19.278 19.38 19.568 19.863 20.187 20.465 20.622 20.707 20.792 20.862 20.852 20.795 20.77 20.752 20.655 20.48 20.292 20.11 20.018 19.997 19.977 19.965 20.045 20.26 20.517 20.775 20.988 21.17 21.375 21.58 21.675 21.647 21.6 21.55 21.457 21.297 21.12 20.947 20.782 20.612 20.43 20.247 20.05 19.832 19.61 19.388 19.168 18.958 18.735 18.495 18.268 18.05 17.828 17.603 17.423 17.292 17.167 17.037 16.855 16.622 16.398 16.225 16.052 15.84 15.63 15.423 15.228 15.055 14.9 14.74 14.535 14.297 14.062 13.827 13.573 13.323 13.095 12.875 12.91 13.052 13.058 13.06 13.053 13.052 12.614 10.822 8.671 8.163 8.465 8.47 8.483 8.435
12.635 12.63 12.61 12.577 12.545 12.525 12.51 12.49 12.475 12.473 12.488 12.513 12.54 12.565 12.583 12.58 12.555 12.523 12.49 12.465 12.448 12.433 12.435 12.455 12.475 12.485 12.472 12.457 12.455 12.455 12.447 12.432 12.417 12.413 12.43 12.457 12.483 12.512 12.54 12.56 12.58 12.608 12.645 12.69 12.742 12.782 12.785 12.752 12.702 12.635 12.555 12.475 12.398 12.335 12.27 12.192 12.117 12.053 12.015 11.99 11.955 11.925 11.905 11.883 11.81 11.68 11.568 11.493 11.433 11.385 11.345 11.313 11.295 11.285 11.278 11.283 11.325 11.403 11.503 11.618 11.73 11.662 11.568 11.7 11.935 12.225 12.578 12.932 13.21 13.418 13.605 13.85 14.278 14.815 15.202 15.463 15.855 16.33 16.637 16.822 17.002 17.157 17.328 17.605 17.95 18.28 18.54 18.695 18.8 18.928 19.22 19.612 19.952 20.222 20.377 20.47 20.56 20.637 20.647 20.612 20.587 20.562 20.485 20.322 20.12 19.915 19.81 19.795 19.783 19.795 19.883 20.088 20.35 20.613 20.985 21.312 21.49 21.642 21.7 21.67 21.617 21.565 21.477 21.317 21.135 20.967 20.822 20.675 20.5 20.32 20.16 19.985 19.77 19.545 19.32 19.103 18.88 18.65 18.43 18.215 17.995 17.775 17.573 17.408 17.273 17.145 16.977 16.767 16.552 16.347 16.138 15.923 15.715 15.51 15.333 15.177 15.022 14.86 14.655 14.42 14.187 13.958 13.757 13.56 13.337 13.125 13.045 13.068 13.078 13.09 13.12 13.177 12.597 10.645 8.571 8.158 8.475 8.492 8.5 8.442
12.655 12.64 12.61 12.56 12.51 12.485 12.47 12.458 12.46 12.47 12.49 12.52 12.55 12.577 12.597 12.602 12.59 12.565 12.53 12.498 12.475 12.46 12.465 12.482 12.49 12.482 12.45 12.408 12.388 12.385 12.38 12.368 12.363 12.375 12.398 12.423 12.455 12.495 12.525 12.545 12.573 12.615 12.665 12.715 12.752 12.762 12.755 12.735 12.7 12.642 12.565 12.488 12.425 12.385 12.33 12.255 12.193 12.153 12.137 12.125 12.095 12.055 12.01 11.965 11.878 11.73 11.598 11.52 11.475 11.438 11.4 11.368 11.35 11.348 11.358 11.38 11.408 11.443 11.503 11.593 11.645 11.515 11.398 11.483 11.648 11.84 12.038 12.278 12.528 12.723 12.898 13.16 13.64 14.21 14.642 14.96 15.352 15.77 16.045 16.23 16.392 16.497 16.63 16.908 17.253 17.595 17.912 18.165 18.342 18.475 18.795 19.285 19.702 19.98 20.12 20.182 20.217 20.267 20.305 20.305 20.275 20.237 20.187 20.095 19.93 19.72 19.605 19.588 19.595 19.638 19.718 19.903 20.167 20.435 20.86 21.397 21.68 21.652 21.617 21.645 21.617 21.565 21.455 21.258 21.058 20.89 20.767 20.665 20.52 20.345 20.212 20.102 19.93 19.71 19.488 19.278 19.065 18.845 18.632 18.425 18.21 17.99 17.763 17.545 17.375 17.24 17.077 16.873 16.665 16.472 16.265 16.045 15.835 15.63 15.45 15.293 15.137 14.972 14.765 14.53 14.305 14.088 13.91 13.745 13.54 13.338 13.223 13.198 13.205 13.223 13.26 13.33 12.584 10.468 8.481 8.163 8.492 8.497 8.485 8.435
12.66 12.64 12.61 12.555 12.493 12.458 12.448 12.45 12.465 12.48 12.498 12.527 12.56 12.59 12.61 12.615 12.613 12.6 12.572 12.538 12.508 12.49 12.49 12.495 12.485 12.47 12.44 12.383 12.335 12.318 12.313 12.313 12.325 12.345 12.365 12.393 12.435 12.48 12.513 12.543 12.585 12.635 12.685 12.722 12.732 12.725 12.712 12.697 12.68 12.645 12.583 12.518 12.475 12.445 12.39 12.328 12.293 12.27 12.258 12.252 12.237 12.205 12.157 12.097 12.01 11.868 11.715 11.613 11.543 11.493 11.455 11.423 11.413 11.428 11.455 11.485 11.51 11.535 11.565 11.612 11.598 11.493 11.428 11.478 11.575 11.68 11.758 11.848 11.963 12.05 12.185 12.5 13.012 13.54 14 14.38 14.76 15.122 15.397 15.615 15.747 15.795 15.92 16.213 16.56 16.905 17.22 17.512 17.782 17.993 18.333 18.825 19.275 19.575 19.677 19.685 19.688 19.718 19.77 19.813 19.825 19.805 19.77 19.74 19.662 19.515 19.41 19.4 19.44 19.495 19.558 19.723 19.985 20.258 20.578 21.147 21.59 21.507 21.43 21.532 21.582 21.562 21.43 21.208 20.99 20.813 20.695 20.615 20.515 20.367 20.238 20.16 20.057 19.877 19.66 19.457 19.255 19.04 18.83 18.63 18.422 18.205 17.977 17.74 17.52 17.345 17.177 16.983 16.79 16.607 16.402 16.178 15.958 15.75 15.57 15.41 15.252 15.085 14.877 14.65 14.433 14.22 14.045 13.9 13.725 13.543 13.43 13.378 13.358 13.368 13.405 13.482 12.572 10.285 8.398 8.18 8.517 8.502 8.463 8.415
12.665 12.645 12.612 12.558 12.498 12.458 12.45 12.463 12.477 12.49 12.503 12.53 12.568 12.605 12.635 12.653 12.668 12.65 12.61 12.577 12.543 12.52 12.508 12.49 12.473 12.458 12.427 12.37 12.308 12.27 12.263 12.275 12.293 12.31 12.335 12.373 12.417 12.462 12.508 12.555 12.605 12.655 12.692 12.702 12.695 12.685 12.673 12.66 12.65 12.635 12.605 12.567 12.535 12.505 12.463 12.425 12.405 12.385 12.373 12.37 12.367 12.347 12.3 12.235 12.162 12.05 11.9 11.765 11.66 11.58 11.515 11.485 11.498 11.525 11.555 11.585 11.612 11.638 11.665 11.675 11.637 11.555 11.475 11.473 11.513 11.62 11.727 11.763 11.755 11.71 11.718 11.893 12.295 12.79 13.28 13.735 14.132 14.465 14.753 14.977 15.072 15.095 15.235 15.538 15.88 16.223 16.55 16.86 17.17 17.47 17.82 18.213 18.58 18.887 19.043 19.098 19.16 19.233 19.295 19.345 19.39 19.403 19.38 19.35 19.315 19.255 19.223 19.255 19.31 19.368 19.423 19.57 19.828 20.103 20.375 20.738 21.077 21.175 21.22 21.342 21.457 21.512 21.397 21.165 20.935 20.743 20.625 20.543 20.46 20.36 20.263 20.19 20.12 20.007 19.83 19.632 19.437 19.232 19.025 18.825 18.622 18.415 18.192 17.955 17.715 17.495 17.298 17.105 16.925 16.745 16.54 16.315 16.09 15.875 15.69 15.53 15.37 15.2 14.998 14.78 14.568 14.355 14.18 14.04 13.89 13.745 13.648 13.583 13.533 13.518 13.555 13.642 12.562 10.108 8.323 8.198 8.527 8.497 8.455 8.423
12.675 12.655 12.622 12.57 12.513 12.473 12.465 12.478 12.49 12.5 12.525 12.593 12.663 12.71 12.75 12.78 12.797 12.725 12.635 12.602 12.573 12.56 12.545 12.515 12.488 12.463 12.433 12.388 12.335 12.295 12.285 12.298 12.31 12.318 12.325 12.353 12.395 12.44 12.502 12.567 12.62 12.67 12.69 12.68 12.67 12.66 12.65 12.638 12.625 12.618 12.617 12.61 12.585 12.555 12.535 12.53 12.52 12.5 12.49 12.49 12.482 12.455 12.402 12.335 12.275 12.2 12.07 11.925 11.805 11.7 11.603 11.553 11.58 11.625 11.655 11.685 11.715 11.74 11.75 11.722 11.665 11.607 11.548 11.523 11.543 11.615 11.702 11.765 11.78 11.718 11.633 11.555 11.66 12.045 12.515 12.937 13.342 13.795 14.185 14.37 14.415 14.44 14.603 14.915 15.253 15.598 15.963 16.318 16.645 16.97 17.305 17.635 17.95 18.265 18.555 18.743 18.85 18.95 19.02 19.06 19.095 19.113 19.1 19.068 19.033 19.02 19.068 19.142 19.205 19.263 19.325 19.46 19.7 19.977 20.24 20.458 20.66 20.855 20.98 21.082 21.21 21.31 21.237 21.022 20.805 20.653 20.578 20.505 20.428 20.355 20.285 20.215 20.148 20.085 19.97 19.787 19.595 19.407 19.212 19.01 18.807 18.605 18.39 18.155 17.917 17.683 17.458 17.258 17.078 16.897 16.695 16.47 16.245 16.03 15.845 15.685 15.523 15.345 15.143 14.928 14.713 14.5 14.325 14.185 14.05 13.935 13.852 13.79 13.73 13.68 13.705 13.772 12.519 9.96 8.278 8.21 8.525 8.495 8.47 8.45
12.688 12.665 12.635 12.587 12.53 12.488 12.483 12.495 12.505 12.515 12.568 12.697 12.827 12.9 12.942 12.975 12.937 12.78 12.658 12.623 12.608 12.617 12.61 12.578 12.543 12.51 12.48 12.448 12.41 12.373 12.36 12.37 12.375 12.367 12.35 12.343 12.365 12.408 12.475 12.56 12.627 12.68 12.692 12.67 12.655 12.645 12.635 12.622 12.608 12.603 12.615 12.627 12.62 12.595 12.585 12.597 12.605 12.597 12.587 12.577 12.555 12.517 12.46 12.398 12.363 12.33 12.23 12.09 11.96 11.843 11.725 11.62 11.608 11.665 11.727 11.78 11.815 11.83 11.805 11.75 11.685 11.63 11.597 11.59 11.607 11.628 11.668 11.74 11.79 11.765 11.68 11.51 11.345 11.395 11.643 11.955 12.345 12.92 13.547 13.83 13.808 13.815 14.003 14.33 14.673 15.023 15.41 15.81 16.167 16.5 16.84 17.18 17.5 17.825 18.175 18.482 18.665 18.767 18.835 18.872 18.895 18.9 18.887 18.855 18.838 18.868 18.94 19.03 19.107 19.168 19.248 19.388 19.598 19.86 20.105 20.295 20.487 20.66 20.743 20.8 20.903 21.002 20.942 20.748 20.6 20.545 20.542 20.512 20.445 20.375 20.308 20.243 20.188 20.15 20.07 19.912 19.73 19.57 19.392 19.183 18.978 18.772 18.562 18.342 18.112 17.875 17.648 17.44 17.248 17.065 16.862 16.638 16.42 16.215 16.035 15.875 15.702 15.512 15.307 15.09 14.873 14.66 14.485 14.348 14.223 14.118 14.04 13.98 13.912 13.833 13.852 13.817 12.414 9.858 8.253 8.223 8.532 8.503 8.475 8.452
12.713 12.678 12.645 12.6 12.548 12.505 12.498 12.51 12.52 12.53 12.608 12.77 12.94 13.07 13.14 13.137 13.017 12.815 12.685 12.655 12.663 12.682 12.675 12.643 12.61 12.582 12.552 12.52 12.487 12.45 12.433 12.435 12.427 12.41 12.39 12.368 12.358 12.378 12.44 12.532 12.62 12.687 12.697 12.665 12.643 12.63 12.62 12.607 12.593 12.593 12.61 12.63 12.64 12.63 12.625 12.632 12.63 12.612 12.602 12.605 12.595 12.565 12.518 12.48 12.47 12.462 12.39 12.265 12.142 12.025 11.93 11.808 11.668 11.643 11.722 11.805 11.865 11.87 11.817 11.755 11.692 11.635 11.61 11.618 11.633 11.638 11.658 11.708 11.767 11.792 11.727 11.55 11.328 11.128 11.075 11.205 11.448 11.853 12.538 13.102 13.195 13.288 13.568 13.875 14.185 14.498 14.85 15.25 15.648 16.018 16.37 16.715 17.047 17.388 17.748 18.113 18.415 18.582 18.645 18.67 18.68 18.68 18.67 18.655 18.675 18.733 18.81 18.905 18.997 19.073 19.173 19.33 19.515 19.745 19.967 20.138 20.32 20.465 20.527 20.563 20.62 20.7 20.647 20.508 20.458 20.453 20.475 20.5 20.467 20.4 20.34 20.29 20.25 20.22 20.162 20.032 19.873 19.74 19.57 19.355 19.148 18.94 18.73 18.52 18.3 18.068 17.845 17.635 17.428 17.233 17.03 16.813 16.605 16.405 16.225 16.057 15.872 15.677 15.472 15.255 15.04 14.828 14.653 14.525 14.41 14.303 14.22 14.15 14.057 13.96 13.99 13.812 12.297 9.785 8.233 8.24 8.56 8.533 8.473 8.438
12.747 12.697 12.658 12.618 12.57 12.53 12.52 12.528 12.533 12.553 12.658 12.832 13.01 13.182 13.3 13.248 13.058 12.85 12.72 12.705 12.727 12.747 12.74 12.71 12.68 12.655 12.627 12.592 12.56 12.527 12.503 12.49 12.475 12.455 12.433 12.41 12.385 12.373 12.413 12.495 12.587 12.672 12.695 12.665 12.637 12.618 12.605 12.59 12.585 12.598 12.615 12.633 12.648 12.655 12.65 12.635 12.605 12.565 12.55 12.572 12.597 12.6 12.577 12.555 12.545 12.532 12.497 12.42 12.317 12.215 12.155 12.102 11.93 11.74 11.683 11.728 11.807 11.82 11.765 11.705 11.658 11.628 11.625 11.65 11.678 11.685 11.695 11.723 11.758 11.792 11.76 11.612 11.417 11.183 10.978 10.92 10.96 11.135 11.693 12.363 12.693 12.99 13.352 13.633 13.908 14.19 14.51 14.88 15.275 15.635 15.883 16.113 16.42 16.96 17.497 17.82 18.14 18.365 18.437 18.45 18.457 18.46 18.463 18.485 18.535 18.6 18.68 18.775 18.878 18.975 19.1 19.27 19.448 19.637 19.822 19.985 20.152 20.267 20.313 20.348 20.383 20.425 20.407 20.367 20.367 20.365 20.382 20.43 20.46 20.435 20.39 20.35 20.312 20.28 20.24 20.152 20.03 19.912 19.75 19.538 19.325 19.115 18.903 18.69 18.477 18.26 18.042 17.83 17.617 17.41 17.208 17.002 16.797 16.595 16.41 16.227 16.035 15.842 15.637 15.423 15.21 14.993 14.815 14.695 14.587 14.48 14.382 14.285 14.17 14.08 14.12 13.769 12.115 9.64 8.188 8.263 8.582 8.6 8.523 8.435
12.737 12.703 12.685 12.655 12.61 12.57 12.558 12.56 12.563 12.583 12.673 12.83 13.005 13.263 13.68 13.717 13.302 12.938 12.755 12.748 12.77 12.792 12.79 12.762 12.735 12.71 12.69 12.662 12.627 12.595 12.568 12.548 12.527 12.503 12.477 12.453 12.428 12.403 12.408 12.46 12.54 12.63 12.667 12.645 12.617 12.597 12.583 12.57 12.593 12.628 12.645 12.663 12.678 12.687 12.675 12.64 12.6 12.56 12.53 12.533 12.565 12.595 12.58 12.545 12.522 12.497 12.5 12.49 12.42 12.33 12.27 12.265 12.162 11.95 11.81 11.75 11.733 11.723 11.69 11.655 11.638 11.635 11.665 11.717 11.75 11.745 11.738 11.757 11.78 11.802 11.79 11.695 11.52 11.27 10.995 10.83 10.78 10.878 11.333 11.938 12.413 12.837 13.195 13.478 13.758 14.053 14.37 14.723 15.1 15.402 15.518 15.58 15.72 16.393 17.307 17.745 17.965 18.085 18.105 18.115 18.14 18.19 18.263 18.347 18.42 18.483 18.575 18.688 18.793 18.9 19.043 19.22 19.39 19.527 19.668 19.83 19.977 20.067 20.108 20.143 20.172 20.172 20.16 20.165 20.17 20.177 20.217 20.29 20.36 20.38 20.352 20.315 20.275 20.247 20.24 20.237 20.177 20.062 19.917 19.722 19.51 19.298 19.083 18.87 18.655 18.437 18.225 18.012 17.8 17.59 17.385 17.185 16.983 16.795 16.603 16.398 16.205 16.012 15.808 15.595 15.38 15.145 14.938 14.8 14.692 14.587 14.48 14.37 14.258 14.19 14.245 13.672 11.832 9.4 8.096 8.288 8.587 8.645 8.612 8.493
12.703 12.713 12.722 12.697 12.657 12.618 12.603 12.605 12.608 12.613 12.673 12.785 13.013 13.563 14.144 14.019 13.39 12.96 12.81 12.785 12.79 12.812 12.81 12.785 12.76 12.732 12.717 12.712 12.69 12.655 12.63 12.607 12.58 12.55 12.523 12.497 12.472 12.443 12.433 12.455 12.503 12.58 12.622 12.607 12.588 12.573 12.558 12.563 12.615 12.672 12.697 12.712 12.725 12.73 12.715 12.68 12.64 12.6 12.56 12.535 12.543 12.567 12.545 12.485 12.448 12.425 12.44 12.475 12.455 12.38 12.323 12.312 12.245 12.153 12.095 11.98 11.835 11.73 11.678 11.665 11.665 11.665 11.708 11.79 11.837 11.81 11.768 11.775 11.8 11.812 11.795 11.735 11.605 11.375 11.095 10.898 10.833 10.91 11.293 11.815 12.253 12.68 13.04 13.328 13.618 13.92 14.238 14.575 14.94 15.21 15.293 15.32 15.445 15.955 16.85 17.49 17.725 17.735 17.693 17.75 17.828 17.935 18.068 18.207 18.312 18.38 18.488 18.63 18.747 18.855 19 19.177 19.312 19.398 19.515 19.665 19.785 19.865 19.912 19.945 19.945 19.895 19.86 19.865 19.878 19.908 19.983 20.09 20.187 20.232 20.217 20.183 20.163 20.168 20.198 20.26 20.277 20.195 20.062 19.895 19.695 19.482 19.267 19.052 18.83 18.605 18.393 18.185 17.975 17.765 17.56 17.36 17.175 17.022 16.83 16.593 16.383 16.188 15.985 15.77 15.535 15.278 15.045 14.87 14.74 14.635 14.53 14.423 14.333 14.295 14.37 13.562 11.525 9.138 7.986 8.312 8.59 8.65 8.685 8.62
12.708 12.745 12.757 12.735 12.702 12.665 12.648 12.65 12.653 12.655 12.705 12.863 13.363 14.02 14.215 13.775 13.185 12.935 12.887 12.85 12.828 12.83 12.822 12.797 12.77 12.74 12.723 12.73 12.732 12.712 12.69 12.662 12.63 12.597 12.568 12.54 12.51 12.478 12.468 12.483 12.503 12.543 12.575 12.573 12.56 12.548 12.538 12.568 12.642 12.715 12.75 12.76 12.767 12.77 12.752 12.717 12.68 12.64 12.6 12.565 12.543 12.547 12.525 12.45 12.388 12.355 12.37 12.42 12.45 12.42 12.378 12.37 12.345 12.362 12.382 12.265 12.062 11.878 11.77 11.718 11.695 11.698 11.743 11.83 11.882 11.857 11.803 11.793 11.81 11.8 11.765 11.722 11.667 11.507 11.245 11.088 11.06 11.145 11.495 11.895 12.18 12.533 12.887 13.185 13.488 13.795 14.113 14.44 14.79 15.02 15.125 15.308 15.632 16.013 16.493 16.897 17.108 17.283 17.403 17.513 17.63 17.75 17.885 18.037 18.177 18.275 18.39 18.547 18.692 18.815 18.957 19.105 19.192 19.25 19.355 19.482 19.58 19.662 19.717 19.722 19.672 19.598 19.56 19.575 19.61 19.66 19.745 19.862 19.982 20.072 20.097 20.088 20.1 20.13 20.175 20.247 20.315 20.302 20.195 20.047 19.872 19.667 19.447 19.222 18.995 18.77 18.558 18.355 18.15 17.94 17.735 17.553 17.403 17.27 17.082 16.83 16.585 16.368 16.157 15.927 15.67 15.405 15.175 14.975 14.805 14.683 14.58 14.493 14.435 14.413 14.412 13.367 11.212 8.873 7.876 8.337 8.595 8.655 8.717 8.717
12.74 12.78 12.795 12.775 12.745 12.713 12.695 12.695 12.697 12.7 12.733 13.118 13.77 14.117 14.057 13.578 13.098 12.973 12.94 12.905 12.87 12.85 12.83 12.802 12.775 12.747 12.727 12.73 12.745 12.747 12.735 12.707 12.672 12.64 12.61 12.577 12.543 12.51 12.5 12.512 12.525 12.538 12.55 12.548 12.535 12.523 12.525 12.573 12.652 12.73 12.77 12.782 12.795 12.797 12.777 12.745 12.712 12.677 12.642 12.608 12.57 12.548 12.51 12.438 12.363 12.305 12.31 12.36 12.41 12.432 12.422 12.412 12.405 12.475 12.555 12.46 12.252 12.065 11.94 11.848 11.778 11.745 11.768 11.825 11.857 11.857 11.827 11.81 11.805 11.777 11.74 11.703 11.69 11.617 11.42 11.295 11.288 11.395 11.68 11.967 12.193 12.455 12.753 13.053 13.36 13.67 13.985 14.31 14.642 14.898 15.115 15.417 15.762 16.082 16.347 16.46 16.595 16.95 17.22 17.333 17.45 17.568 17.7 17.853 18.01 18.148 18.288 18.45 18.612 18.76 18.892 18.99 19.047 19.1 19.183 19.282 19.37 19.457 19.495 19.452 19.378 19.3 19.273 19.312 19.365 19.42 19.507 19.627 19.747 19.86 19.94 19.99 20.045 20.095 20.152 20.23 20.312 20.367 20.31 20.16 20 19.827 19.62 19.39 19.16 18.933 18.72 18.52 18.317 18.11 17.925 17.78 17.647 17.515 17.325 17.067 16.8 16.542 16.3 16.05 15.79 15.532 15.302 15.097 14.9 14.748 14.658 14.608 14.57 14.54 14.33 13.047 10.882 8.631 7.806 8.36 8.6 8.627 8.567 8.505
12.795 12.822 12.827 12.812 12.785 12.755 12.738 12.732 12.728 12.73 12.775 13.22 13.695 13.86 13.852 13.447 13.05 12.957 12.942 12.907 12.875 12.855 12.82 12.778 12.752 12.727 12.712 12.717 12.73 12.74 12.735 12.71 12.677 12.647 12.63 12.61 12.575 12.54 12.523 12.525 12.535 12.545 12.547 12.535 12.52 12.503 12.505 12.553 12.622 12.695 12.735 12.75 12.767 12.772 12.755 12.725 12.71 12.705 12.685 12.652 12.615 12.578 12.525 12.455 12.383 12.313 12.303 12.35 12.398 12.43 12.435 12.427 12.415 12.465 12.542 12.47 12.307 12.182 12.085 11.992 11.9 11.823 11.785 11.79 11.805 11.82 11.825 11.815 11.792 11.757 11.72 11.688 11.68 11.67 11.59 11.505 11.475 11.568 11.777 11.99 12.207 12.433 12.675 12.953 13.255 13.565 13.88 14.203 14.515 14.807 15.09 15.372 15.657 15.945 16.165 16.278 16.458 16.797 17.05 17.16 17.273 17.4 17.548 17.705 17.865 18.03 18.185 18.333 18.497 18.665 18.782 18.845 18.895 18.94 19.005 19.093 19.178 19.265 19.257 19.165 19.085 19.005 18.968 19.002 19.065 19.127 19.237 19.372 19.485 19.595 19.695 19.78 19.865 19.947 20.062 20.18 20.262 20.345 20.307 20.14 19.992 19.902 19.795 19.595 19.345 19.103 18.885 18.685 18.485 18.283 18.1 17.952 17.817 17.682 17.472 17.192 16.917 16.642 16.377 16.12 15.865 15.62 15.397 15.195 14.998 14.855 14.795 14.77 14.743 14.71 14.235 12.692 10.53 8.441 7.811 8.365 8.532 8.492 8.373 8.273
12.852 12.852 12.845 12.842 12.825 12.795 12.775 12.765 12.755 12.753 12.795 13.055 13.422 13.582 13.505 13.245 12.94 12.87 12.917 12.885 12.863 12.855 12.812 12.743 12.705 12.683 12.675 12.69 12.705 12.712 12.702 12.677 12.65 12.623 12.62 12.625 12.602 12.57 12.545 12.533 12.533 12.54 12.54 12.525 12.507 12.485 12.483 12.515 12.57 12.637 12.677 12.692 12.705 12.712 12.7 12.685 12.703 12.73 12.725 12.695 12.662 12.622 12.565 12.495 12.425 12.355 12.338 12.377 12.41 12.417 12.417 12.422 12.422 12.435 12.455 12.39 12.29 12.238 12.17 12.082 11.997 11.915 11.84 11.79 11.78 11.793 11.805 11.8 11.775 11.74 11.703 11.678 11.678 11.692 11.68 11.622 11.58 11.65 11.818 12 12.198 12.42 12.65 12.895 13.178 13.483 13.797 14.115 14.412 14.687 14.955 15.23 15.515 15.802 15.997 16.14 16.35 16.645 16.877 16.993 17.12 17.275 17.44 17.6 17.77 17.957 18.107 18.22 18.36 18.525 18.637 18.687 18.73 18.765 18.825 18.915 19.002 19.075 19.032 18.9 18.798 18.715 18.655 18.645 18.688 18.758 18.892 19.067 19.202 19.315 19.415 19.503 19.593 19.693 19.857 20.052 20.175 20.247 20.195 20.02 19.898 19.872 19.867 19.79 19.59 19.328 19.078 18.858 18.66 18.46 18.255 18.063 17.91 17.775 17.547 17.238 16.95 16.678 16.413 16.158 15.913 15.68 15.465 15.268 15.098 14.995 14.955 14.94 14.922 14.89 14.222 12.485 10.29 8.326 7.833 8.352 8.467 8.4 8.34 8.28
12.882 12.865 12.858 12.862 12.857 12.835 12.815 12.805 12.823 12.878 12.96 13.098 13.267 13.265 13.093 12.92 12.725 12.72 12.852 12.87 12.863 12.862 12.815 12.73 12.668 12.638 12.638 12.66 12.68 12.685 12.67 12.645 12.62 12.595 12.595 12.612 12.617 12.6 12.573 12.55 12.535 12.533 12.53 12.512 12.49 12.465 12.465 12.493 12.53 12.585 12.622 12.635 12.645 12.657 12.665 12.683 12.72 12.757 12.762 12.735 12.705 12.667 12.61 12.54 12.47 12.4 12.375 12.392 12.4 12.395 12.395 12.405 12.415 12.418 12.41 12.375 12.335 12.307 12.245 12.16 12.083 12.005 11.93 11.855 11.8 11.785 11.785 11.777 11.755 11.723 11.695 11.685 11.695 11.715 11.705 11.66 11.653 11.72 11.86 12.03 12.203 12.408 12.637 12.87 13.118 13.4 13.71 14.015 14.3 14.572 14.835 15.1 15.375 15.652 15.857 16.035 16.255 16.505 16.71 16.848 17.005 17.175 17.343 17.513 17.7 17.9 18.05 18.147 18.253 18.382 18.477 18.52 18.555 18.585 18.645 18.735 18.825 18.872 18.805 18.66 18.528 18.428 18.368 18.333 18.32 18.365 18.505 18.705 18.882 19.027 19.14 19.233 19.333 19.438 19.595 19.832 20.045 20.142 20.072 19.898 19.803 19.8 19.815 19.83 19.77 19.592 19.332 19.065 18.843 18.638 18.427 18.215 18.023 17.865 17.635 17.31 16.995 16.71 16.45 16.205 15.975 15.75 15.535 15.36 15.233 15.148 15.105 15.082 15.047 15.002 14.295 12.507 10.29 8.306 7.788 8.327 8.485 8.425 8.362 8.298
12.895 12.877 12.872 12.875 12.877 12.87 12.887 12.935 13.002 13.107 13.225 13.305 13.22 13.033 12.868 12.705 12.585 12.63 12.787 12.862 12.87 12.867 12.817 12.733 12.653 12.605 12.605 12.628 12.65 12.655 12.638 12.615 12.59 12.568 12.568 12.585 12.605 12.612 12.597 12.575 12.555 12.538 12.52 12.495 12.47 12.448 12.45 12.478 12.505 12.54 12.565 12.575 12.585 12.6 12.635 12.687 12.737 12.78 12.795 12.772 12.737 12.702 12.66 12.6 12.528 12.453 12.408 12.39 12.38 12.375 12.375 12.388 12.405 12.423 12.428 12.417 12.402 12.38 12.325 12.245 12.17 12.095 12.02 11.945 11.868 11.81 11.778 11.76 11.743 11.72 11.705 11.708 11.725 11.745 11.738 11.723 11.748 11.798 11.905 12.065 12.222 12.403 12.622 12.857 13.09 13.338 13.618 13.903 14.18 14.458 14.725 14.985 15.248 15.507 15.735 15.945 16.165 16.385 16.573 16.735 16.905 17.078 17.248 17.43 17.63 17.83 17.972 18.057 18.14 18.227 18.292 18.33 18.367 18.402 18.465 18.555 18.647 18.67 18.575 18.433 18.29 18.168 18.1 18.065 18.025 18.025 18.15 18.363 18.573 18.763 18.898 18.993 19.088 19.183 19.325 19.56 19.827 19.997 19.95 19.788 19.72 19.73 19.743 19.758 19.77 19.745 19.585 19.317 19.057 18.822 18.605 18.392 18.175 17.972 17.717 17.39 17.06 16.755 16.5 16.27 16.042 15.818 15.625 15.49 15.382 15.29 15.227 15.177 15.115 15.095 14.51 12.84 10.71 8.703 7.806 8.12 8.432 8.45 8.385 8.32
12.882 12.872 12.87 12.87 12.873 12.89 12.93 13 13.09 13.177 13.265 13.302 13.177 12.968 12.795 12.645 12.578 12.643 12.772 12.852 12.875 12.875 12.825 12.745 12.668 12.615 12.61 12.63 12.645 12.64 12.62 12.598 12.573 12.558 12.563 12.58 12.597 12.605 12.607 12.597 12.575 12.552 12.525 12.495 12.468 12.448 12.455 12.483 12.51 12.533 12.523 12.51 12.52 12.535 12.58 12.65 12.715 12.772 12.812 12.805 12.765 12.728 12.7 12.662 12.595 12.518 12.46 12.425 12.403 12.38 12.375 12.395 12.42 12.448 12.465 12.465 12.455 12.422 12.377 12.322 12.247 12.172 12.097 12.02 11.943 11.873 11.805 11.763 11.748 11.735 11.725 11.733 11.755 11.777 11.792 11.81 11.827 11.835 11.908 12.055 12.212 12.383 12.595 12.835 13.07 13.303 13.558 13.83 14.105 14.368 14.62 14.88 15.135 15.372 15.597 15.82 16.04 16.257 16.462 16.645 16.815 16.99 17.148 17.31 17.505 17.705 17.83 17.887 17.955 18.022 18.077 18.12 18.16 18.192 18.252 18.347 18.447 18.465 18.36 18.22 18.08 17.965 17.918 17.9 17.865 17.838 17.94 18.163 18.383 18.572 18.707 18.808 18.898 18.983 19.103 19.285 19.52 19.752 19.795 19.688 19.648 19.66 19.675 19.705 19.745 19.8 19.722 19.48 19.215 18.955 18.717 18.495 18.272 18.047 17.77 17.44 17.113 16.81 16.558 16.332 16.105 15.883 15.718 15.605 15.495 15.397 15.318 15.245 15.183 15.215 14.922 13.545 11.52 9.723 8.473 7.956 7.938 8.023 8.098 8.175
12.85 12.843 12.842 12.845 12.865 12.92 12.93 12.928 12.995 13.082 13.147 13.145 13.067 12.91 12.725 12.61 12.595 12.663 12.762 12.83 12.857 12.865 12.832 12.772 12.705 12.653 12.645 12.657 12.655 12.64 12.62 12.598 12.578 12.568 12.575 12.592 12.597 12.588 12.595 12.605 12.59 12.567 12.54 12.513 12.49 12.478 12.485 12.51 12.54 12.562 12.53 12.473 12.458 12.47 12.515 12.585 12.65 12.707 12.767 12.805 12.79 12.753 12.728 12.707 12.662 12.593 12.538 12.505 12.465 12.413 12.4 12.428 12.455 12.485 12.505 12.505 12.48 12.417 12.382 12.37 12.312 12.237 12.16 12.083 12.013 11.952 11.875 11.798 11.765 11.755 11.748 11.757 11.775 11.802 11.835 11.847 11.835 11.81 11.865 12.01 12.168 12.335 12.55 12.8 13.04 13.275 13.53 13.8 14.057 14.285 14.518 14.775 15.012 15.225 15.44 15.66 15.88 16.105 16.335 16.55 16.735 16.907 17.052 17.18 17.345 17.54 17.65 17.68 17.733 17.797 17.852 17.895 17.927 17.945 18 18.103 18.212 18.25 18.162 18.025 17.885 17.798 17.79 17.802 17.792 17.763 17.848 18.057 18.255 18.415 18.54 18.647 18.747 18.838 18.945 19.083 19.255 19.458 19.585 19.588 19.585 19.623 19.66 19.713 19.785 19.867 19.792 19.542 19.275 19.01 18.76 18.528 18.3 18.075 17.8 17.473 17.155 16.865 16.615 16.388 16.165 15.95 15.79 15.68 15.575 15.483 15.403 15.333 15.295 15.352 15.352 14.347 12.585 11.09 9.823 8.823 8.273 8.068 7.946 7.826
12.82 12.81 12.81 12.835 12.895 12.97 12.967 12.91 12.918 12.98 13.005 12.97 12.922 12.817 12.668 12.605 12.63 12.683 12.752 12.797 12.812 12.82 12.807 12.772 12.727 12.688 12.67 12.665 12.655 12.64 12.62 12.603 12.593 12.585 12.588 12.59 12.573 12.56 12.573 12.595 12.602 12.585 12.558 12.538 12.528 12.523 12.525 12.545 12.575 12.6 12.57 12.49 12.43 12.413 12.448 12.507 12.557 12.6 12.66 12.745 12.792 12.777 12.753 12.74 12.717 12.665 12.612 12.57 12.51 12.445 12.43 12.462 12.495 12.525 12.545 12.532 12.475 12.39 12.358 12.375 12.36 12.3 12.223 12.15 12.088 12.035 11.952 11.84 11.78 11.772 11.77 11.775 11.783 11.81 11.837 11.825 11.795 11.77 11.825 11.968 12.12 12.285 12.5 12.755 13.005 13.245 13.497 13.75 13.975 14.185 14.413 14.652 14.867 15.068 15.28 15.5 15.723 15.948 16.18 16.417 16.637 16.825 16.967 17.083 17.213 17.38 17.48 17.493 17.52 17.573 17.627 17.66 17.675 17.688 17.748 17.858 17.975 18.032 17.965 17.832 17.698 17.635 17.65 17.675 17.695 17.688 17.76 17.935 18.1 18.245 18.37 18.48 18.587 18.688 18.805 18.95 19.095 19.235 19.377 19.5 19.58 19.64 19.7 19.77 19.855 19.945 19.865 19.602 19.322 19.053 18.805 18.568 18.333 18.105 17.832 17.515 17.21 16.923 16.673 16.448 16.23 16.02 15.86 15.755 15.66 15.568 15.485 15.44 15.44 15.5 15.59 15.092 13.865 12.498 11.3 10.503 9.965 9.46 8.985 8.526
12.79 12.783 12.8 12.86 12.94 13.017 13.017 12.94 12.888 12.875 12.853 12.805 12.758 12.695 12.63 12.625 12.662 12.702 12.74 12.755 12.758 12.76 12.75 12.735 12.725 12.71 12.69 12.673 12.658 12.643 12.628 12.618 12.613 12.608 12.602 12.583 12.548 12.535 12.55 12.575 12.597 12.6 12.587 12.577 12.575 12.57 12.567 12.582 12.61 12.637 12.607 12.52 12.433 12.385 12.373 12.388 12.432 12.475 12.54 12.642 12.742 12.785 12.777 12.765 12.75 12.72 12.672 12.61 12.54 12.478 12.465 12.497 12.53 12.562 12.577 12.537 12.453 12.36 12.325 12.35 12.37 12.35 12.29 12.225 12.168 12.115 12.01 11.865 11.79 11.78 11.78 11.78 11.785 11.805 11.82 11.8 11.765 11.735 11.783 11.92 12.07 12.235 12.453 12.708 12.963 13.215 13.45 13.665 13.875 14.085 14.303 14.515 14.715 14.91 15.117 15.34 15.565 15.79 16.02 16.26 16.502 16.72 16.87 16.982 17.097 17.225 17.302 17.317 17.333 17.36 17.395 17.413 17.42 17.438 17.505 17.62 17.74 17.815 17.765 17.635 17.52 17.485 17.513 17.54 17.57 17.588 17.65 17.785 17.933 18.075 18.2 18.31 18.422 18.528 18.637 18.77 18.905 19.035 19.17 19.357 19.555 19.677 19.76 19.832 19.895 19.957 19.862 19.6 19.335 19.085 18.845 18.607 18.37 18.135 17.87 17.57 17.272 16.982 16.733 16.515 16.3 16.093 15.938 15.84 15.747 15.653 15.588 15.58 15.597 15.635 15.707 15.672 15.022 13.858 12.86 12.275 11.84 11.295 10.775 10.315
12.773 12.778 12.815 12.882 12.96 13.037 13.035 12.957 12.893 12.848 12.808 12.76 12.713 12.665 12.633 12.64 12.672 12.71 12.73 12.73 12.728 12.728 12.73 12.733 12.735 12.733 12.72 12.7 12.68 12.665 12.653 12.645 12.64 12.635 12.625 12.595 12.553 12.53 12.54 12.565 12.59 12.605 12.605 12.6 12.6 12.595 12.592 12.587 12.595 12.625 12.595 12.5 12.423 12.408 12.365 12.28 12.27 12.313 12.383 12.49 12.61 12.747 12.805 12.778 12.762 12.742 12.695 12.625 12.558 12.505 12.498 12.525 12.555 12.59 12.6 12.55 12.463 12.37 12.333 12.353 12.377 12.377 12.347 12.305 12.25 12.195 12.075 11.9 11.8 11.78 11.78 11.78 11.783 11.795 11.8 11.777 11.742 11.708 11.753 11.89 12.04 12.205 12.428 12.688 12.943 13.2 13.407 13.58 13.783 13.995 14.203 14.403 14.595 14.76 14.938 15.157 15.383 15.628 15.883 16.125 16.365 16.582 16.715 16.805 16.92 17.032 17.097 17.12 17.135 17.153 17.183 17.205 17.215 17.233 17.3 17.415 17.533 17.62 17.585 17.455 17.375 17.375 17.403 17.43 17.46 17.478 17.528 17.645 17.785 17.912 18.027 18.143 18.257 18.36 18.443 18.54 18.665 18.795 18.938 19.143 19.385 19.535 19.605 19.66 19.697 19.732 19.625 19.375 19.185 19.015 18.79 18.555 18.32 18.112 17.877 17.582 17.287 17.003 16.767 16.56 16.345 16.138 16.003 15.922 15.827 15.733 15.688 15.7 15.717 15.733 15.805 15.93 15.797 15.205 14.565 14.142 13.727 13.16 12.578 12.103
12.778 12.803 12.843 12.895 12.963 13.035 13.03 12.963 12.92 12.895 12.867 12.825 12.775 12.723 12.678 12.658 12.67 12.705 12.727 12.727 12.725 12.73 12.745 12.762 12.77 12.77 12.76 12.74 12.728 12.72 12.703 12.685 12.673 12.665 12.655 12.625 12.578 12.54 12.54 12.565 12.587 12.6 12.602 12.6 12.6 12.598 12.597 12.575 12.55 12.565 12.535 12.455 12.43 12.47 12.442 12.3 12.183 12.15 12.195 12.293 12.455 12.73 12.862 12.805 12.77 12.747 12.7 12.633 12.578 12.54 12.533 12.55 12.578 12.612 12.617 12.577 12.507 12.423 12.385 12.4 12.4 12.36 12.342 12.357 12.33 12.275 12.155 11.96 11.82 11.78 11.78 11.78 11.78 11.782 11.775 11.75 11.717 11.685 11.738 11.88 12.03 12.193 12.418 12.687 12.947 13.197 13.387 13.53 13.705 13.91 14.115 14.315 14.485 14.605 14.745 14.95 15.195 15.485 15.767 16.007 16.23 16.427 16.535 16.588 16.683 16.795 16.865 16.895 16.915 16.935 16.982 17.032 17.055 17.068 17.133 17.247 17.36 17.455 17.43 17.32 17.278 17.293 17.318 17.345 17.365 17.363 17.408 17.525 17.64 17.732 17.847 17.977 18.09 18.187 18.255 18.323 18.428 18.555 18.705 18.917 19.097 19.16 19.197 19.25 19.297 19.337 19.23 19.038 18.955 18.855 18.65 18.415 18.21 18.067 17.86 17.553 17.253 16.978 16.76 16.57 16.365 16.155 16.033 15.982 15.902 15.808 15.768 15.782 15.797 15.808 15.875 15.997 16.077 15.982 15.792 15.647 15.479 15.045 14.415 13.892
12.805 12.838 12.878 12.923 12.975 13.035 13.035 12.99 12.965 12.945 12.922 12.887 12.837 12.778 12.73 12.703 12.688 12.703 12.722 12.725 12.73 12.74 12.758 12.782 12.802 12.81 12.8 12.788 12.787 12.785 12.765 12.74 12.718 12.7 12.687 12.655 12.598 12.548 12.54 12.562 12.58 12.593 12.6 12.6 12.603 12.607 12.605 12.575 12.53 12.513 12.483 12.455 12.488 12.545 12.537 12.415 12.3 12.288 12.323 12.358 12.48 12.777 12.945 12.88 12.813 12.763 12.713 12.66 12.618 12.585 12.575 12.585 12.605 12.635 12.632 12.595 12.542 12.475 12.445 12.432 12.377 12.295 12.273 12.327 12.365 12.35 12.235 12.035 11.855 11.78 11.78 11.78 11.78 11.775 11.755 11.723 11.693 11.665 11.723 11.868 12.015 12.175 12.4 12.677 12.947 13.192 13.372 13.505 13.648 13.825 14.025 14.207 14.34 14.44 14.558 14.748 15.035 15.367 15.652 15.875 16.075 16.262 16.372 16.408 16.463 16.555 16.627 16.662 16.69 16.718 16.768 16.832 16.882 16.908 16.97 17.08 17.187 17.287 17.282 17.218 17.205 17.213 17.235 17.252 17.25 17.235 17.28 17.382 17.46 17.525 17.645 17.797 17.922 18.015 18.077 18.133 18.205 18.313 18.47 18.645 18.727 18.733 18.765 18.825 18.883 18.935 18.89 18.805 18.777 18.697 18.51 18.303 18.16 18.055 17.852 17.535 17.22 16.95 16.74 16.56 16.372 16.173 16.05 16.012 15.962 15.885 15.85 15.865 15.872 15.88 15.94 16.025 16.068 16.095 16.145 16.22 16.279 16.139 15.822 15.549
12.842 12.875 12.915 12.963 13.01 13.06 13.068 13.04 13.018 12.995 12.973 12.945 12.897 12.833 12.785 12.757 12.733 12.72 12.723 12.73 12.74 12.75 12.767 12.792 12.817 12.835 12.835 12.832 12.837 12.835 12.817 12.792 12.765 12.74 12.717 12.675 12.612 12.555 12.54 12.558 12.573 12.588 12.597 12.602 12.61 12.62 12.612 12.575 12.525 12.483 12.468 12.502 12.562 12.617 12.63 12.595 12.63 12.74 12.787 12.775 12.793 12.925 13.025 12.972 12.885 12.8 12.738 12.695 12.657 12.623 12.605 12.615 12.635 12.655 12.645 12.605 12.562 12.512 12.465 12.4 12.308 12.215 12.185 12.238 12.31 12.347 12.277 12.105 11.905 11.793 11.78 11.78 11.78 11.777 11.76 11.725 11.688 11.658 11.72 11.865 12.01 12.165 12.385 12.665 12.942 13.187 13.36 13.49 13.62 13.765 13.927 14.068 14.175 14.278 14.383 14.578 14.898 15.245 15.52 15.72 15.91 16.097 16.21 16.245 16.278 16.333 16.39 16.428 16.46 16.498 16.553 16.618 16.682 16.737 16.807 16.907 17.01 17.112 17.147 17.13 17.13 17.132 17.14 17.132 17.112 17.095 17.128 17.2 17.26 17.323 17.435 17.597 17.745 17.84 17.9 17.957 18.013 18.085 18.202 18.292 18.31 18.313 18.35 18.423 18.5 18.58 18.615 18.605 18.595 18.54 18.397 18.25 18.142 18.035 17.832 17.52 17.195 16.923 16.72 16.54 16.36 16.18 16.07 16.033 15.997 15.95 15.928 15.94 15.947 15.955 15.99 16.035 16.07 16.1 16.145 16.212 16.252 16.27 16.275 16.28
12.877 12.913 12.963 13.025 13.08 13.13 13.147 13.128 13.102 13.075 13.032 12.985 12.94 12.885 12.838 12.807 12.782 12.758 12.745 12.75 12.76 12.767 12.765 12.773 12.795 12.815 12.825 12.825 12.832 12.84 12.83 12.805 12.777 12.752 12.72 12.67 12.61 12.56 12.548 12.563 12.58 12.593 12.598 12.602 12.61 12.617 12.607 12.575 12.53 12.48 12.47 12.515 12.577 12.642 12.69 12.747 12.86 12.977 13.03 13.037 13.042 13.072 13.092 13.037 12.94 12.845 12.773 12.725 12.69 12.652 12.61 12.6 12.622 12.64 12.625 12.585 12.55 12.512 12.445 12.355 12.26 12.18 12.138 12.145 12.178 12.19 12.147 12.037 11.9 11.805 11.78 11.78 11.78 11.78 11.775 11.755 11.715 11.693 11.758 11.877 11.997 12.148 12.375 12.655 12.932 13.152 13.302 13.432 13.56 13.687 13.827 13.962 14.07 14.175 14.28 14.448 14.74 15.085 15.352 15.545 15.735 15.925 16.04 16.072 16.097 16.125 16.16 16.2 16.235 16.27 16.33 16.402 16.468 16.535 16.612 16.705 16.807 16.912 16.977 16.99 16.99 16.99 16.987 16.975 16.952 16.93 16.948 17.005 17.065 17.13 17.243 17.402 17.55 17.647 17.71 17.767 17.822 17.875 17.925 17.955 17.963 17.973 18.015 18.098 18.193 18.287 18.34 18.352 18.362 18.352 18.28 18.165 18.05 17.925 17.712 17.405 17.113 16.885 16.7 16.52 16.343 16.195 16.115 16.078 16.043 16.013 15.993 15.99 16 16.01 16.025 16.053 16.087 16.107 16.142 16.192 16.217 16.227 16.22 16.22
12.91 12.948 13.01 13.085 13.152 13.215 13.25 13.235 13.187 13.13 13.057 12.995 12.967 12.93 12.883 12.853 12.828 12.808 12.793 12.785 12.79 12.795 12.775 12.75 12.75 12.765 12.775 12.78 12.798 12.815 12.81 12.787 12.762 12.737 12.705 12.653 12.6 12.57 12.565 12.58 12.597 12.605 12.602 12.598 12.6 12.605 12.595 12.57 12.532 12.485 12.468 12.493 12.538 12.603 12.675 12.745 12.825 12.917 12.98 13.007 13.037 13.085 13.115 13.072 12.98 12.885 12.813 12.76 12.72 12.677 12.615 12.568 12.57 12.587 12.57 12.535 12.515 12.492 12.43 12.338 12.263 12.228 12.178 12.123 12.108 12.09 12.04 11.965 11.918 11.875 11.81 11.78 11.78 11.78 11.78 11.772 11.747 11.73 11.768 11.85 11.955 12.123 12.368 12.645 12.877 13.03 13.165 13.307 13.437 13.563 13.712 13.882 14.022 14.135 14.243 14.368 14.583 14.895 15.165 15.36 15.55 15.737 15.845 15.87 15.89 15.91 15.94 15.98 16.007 16.03 16.093 16.18 16.252 16.318 16.393 16.48 16.578 16.682 16.752 16.78 16.79 16.79 16.79 16.787 16.775 16.755 16.768 16.818 16.875 16.94 17.055 17.21 17.342 17.437 17.505 17.562 17.612 17.645 17.662 17.68 17.695 17.71 17.753 17.828 17.915 18.005 18.055 18.07 18.093 18.122 18.1 18 17.872 17.732 17.507 17.22 17.003 16.843 16.675 16.5 16.35 16.245 16.183 16.143 16.11 16.085 16.053 16.028 16.03 16.043 16.062 16.085 16.105 16.1 16.117 16.16 16.177 16.177 16.16 16.16
12.942 12.985 13.05 13.125 13.197 13.267 13.307 13.28 13.202 13.117 13.033 12.985 12.98 12.962 12.927 12.898 12.878 12.862 12.847 12.833 12.823 12.822 12.805 12.765 12.735 12.725 12.73 12.745 12.77 12.792 12.79 12.77 12.747 12.722 12.69 12.645 12.613 12.595 12.588 12.597 12.607 12.61 12.607 12.6 12.595 12.595 12.582 12.558 12.528 12.488 12.475 12.495 12.52 12.56 12.618 12.68 12.748 12.825 12.888 12.933 12.988 13.055 13.105 13.09 13.015 12.928 12.858 12.8 12.75 12.702 12.64 12.573 12.535 12.53 12.515 12.498 12.495 12.48 12.42 12.348 12.318 12.315 12.285 12.19 12.128 12.125 12.088 12.043 12.05 12.022 11.903 11.805 11.78 11.775 11.762 11.747 11.752 11.747 11.74 11.788 11.91 12.11 12.36 12.592 12.74 12.848 12.985 13.142 13.29 13.425 13.578 13.765 13.945 14.087 14.207 14.328 14.478 14.723 14.977 15.17 15.357 15.537 15.635 15.655 15.673 15.693 15.722 15.752 15.765 15.778 15.843 15.942 16.03 16.102 16.178 16.263 16.35 16.45 16.52 16.552 16.577 16.585 16.587 16.59 16.587 16.578 16.59 16.635 16.688 16.75 16.863 17.002 17.12 17.22 17.295 17.347 17.377 17.385 17.395 17.415 17.432 17.45 17.495 17.568 17.645 17.727 17.777 17.8 17.835 17.875 17.887 17.817 17.682 17.532 17.32 17.098 16.945 16.81 16.653 16.505 16.4 16.315 16.248 16.208 16.183 16.16 16.125 16.08 16.063 16.077 15.975 15.695 15.45 15.295 15.262 15.335 15.405 15.525 15.715 15.97
12.97 13.022 13.085 13.152 13.217 13.277 13.315 13.272 13.18 13.095 13.013 12.975 12.975 12.972 12.96 12.942 12.927 12.912 12.897 12.882 12.865 12.855 12.835 12.795 12.755 12.72 12.713 12.728 12.748 12.77 12.77 12.75 12.73 12.707 12.68 12.653 12.635 12.62 12.608 12.61 12.615 12.615 12.612 12.605 12.595 12.588 12.575 12.558 12.538 12.51 12.5 12.518 12.543 12.568 12.6 12.65 12.71 12.77 12.82 12.878 12.955 13.03 13.09 13.092 13.04 12.97 12.9 12.84 12.782 12.727 12.665 12.595 12.53 12.495 12.483 12.478 12.48 12.468 12.433 12.408 12.405 12.407 12.405 12.273 12.145 12.147 12.148 12.165 12.207 12.177 12.037 11.88 11.778 11.733 11.705 11.69 11.722 11.755 11.747 11.755 11.875 12.097 12.31 12.457 12.56 12.665 12.8 12.96 13.12 13.272 13.437 13.63 13.825 14.005 14.16 14.292 14.42 14.59 14.787 14.975 15.16 15.332 15.425 15.442 15.457 15.477 15.5 15.512 15.515 15.525 15.587 15.692 15.792 15.88 15.962 16.047 16.132 16.222 16.287 16.32 16.35 16.372 16.382 16.388 16.39 16.387 16.407 16.455 16.505 16.562 16.66 16.78 16.892 17.002 17.077 17.107 17.115 17.117 17.127 17.147 17.17 17.192 17.24 17.312 17.38 17.452 17.51 17.545 17.585 17.625 17.66 17.625 17.5 17.348 17.18 17.025 16.897 16.775 16.658 16.558 16.473 16.388 16.318 16.28 16.26 16.24 16.205 16.15 16.11 15.897 15.35 14.645 14.103 13.85 13.798 13.835 13.89 14.13 14.583 15.122
12.975 13.035 13.095 13.155 13.212 13.267 13.315 13.27 13.163 13.075 12.998 12.958 12.95 12.95 12.955 12.96 12.952 12.937 12.922 12.907 12.895 12.89 12.87 12.83 12.79 12.75 12.735 12.748 12.762 12.765 12.75 12.73 12.71 12.69 12.675 12.665 12.652 12.635 12.623 12.623 12.625 12.622 12.615 12.605 12.595 12.588 12.597 12.605 12.59 12.57 12.558 12.563 12.585 12.612 12.63 12.658 12.708 12.762 12.8 12.83 12.895 12.98 13.057 13.08 13.045 12.99 12.925 12.862 12.8 12.737 12.67 12.6 12.545 12.533 12.535 12.528 12.518 12.493 12.483 12.495 12.5 12.502 12.505 12.372 12.198 12.163 12.197 12.25 12.295 12.287 12.172 11.995 11.835 11.718 11.64 11.628 11.675 11.732 11.737 11.71 11.82 12.027 12.172 12.275 12.375 12.478 12.61 12.77 12.93 13.09 13.265 13.46 13.66 13.872 14.075 14.23 14.36 14.487 14.59 14.723 14.907 15.08 15.17 15.187 15.205 15.222 15.235 15.242 15.245 15.25 15.295 15.385 15.482 15.582 15.675 15.755 15.845 15.967 16.062 16.103 16.135 16.165 16.18 16.185 16.19 16.172 16.177 16.225 16.277 16.332 16.415 16.527 16.642 16.74 16.78 16.78 16.78 16.78 16.787 16.807 16.832 16.862 16.91 16.972 17.04 17.135 17.235 17.295 17.335 17.375 17.415 17.425 17.35 17.21 17.07 16.94 16.815 16.73 16.695 16.647 16.568 16.483 16.418 16.385 16.362 16.327 16.267 16.195 15.947 15.24 14.28 13.59 13.253 13.115 13.083 13.073 13.068 13.193 13.465 13.805
12.963 13.025 13.085 13.145 13.2 13.255 13.31 13.267 13.15 13.055 12.985 12.943 12.918 12.91 12.92 12.942 12.952 12.942 12.928 12.915 12.913 12.92 12.905 12.867 12.83 12.79 12.778 12.79 12.785 12.755 12.725 12.707 12.69 12.67 12.66 12.662 12.66 12.645 12.635 12.635 12.632 12.625 12.615 12.605 12.598 12.593 12.62 12.662 12.667 12.65 12.635 12.628 12.635 12.66 12.675 12.683 12.715 12.767 12.8 12.8 12.823 12.895 12.98 13.02 13.012 12.98 12.922 12.855 12.79 12.725 12.655 12.595 12.585 12.627 12.65 12.632 12.597 12.545 12.53 12.557 12.577 12.59 12.595 12.5 12.285 12.18 12.218 12.26 12.295 12.307 12.257 12.122 11.96 11.805 11.66 11.593 11.62 11.685 11.687 11.633 11.708 11.867 11.98 12.08 12.177 12.28 12.415 12.575 12.735 12.895 13.07 13.268 13.485 13.725 13.95 14.127 14.27 14.397 14.445 14.47 14.603 14.775 14.865 14.887 14.905 14.915 14.925 14.932 14.94 14.942 14.95 15.005 15.103 15.212 15.308 15.398 15.53 15.712 15.842 15.892 15.932 15.965 15.98 15.985 15.972 15.923 15.908 15.948 15.998 16.053 16.133 16.245 16.345 16.395 16.39 16.368 16.357 16.352 16.357 16.377 16.407 16.445 16.493 16.555 16.65 16.785 16.927 17.03 17.085 17.125 17.165 17.2 17.195 17.1 16.958 16.828 16.73 16.705 16.725 16.725 16.677 16.6 16.545 16.512 16.467 16.405 16.327 16.117 15.457 14.418 13.505 13.08 12.99 12.943 12.928 12.937 12.95 12.975 13.025 13.115
12.953 13.015 13.075 13.135 13.19 13.245 13.3 13.265 13.143 13.038 12.975 12.935 12.898 12.875 12.88 12.91 12.937 12.945 12.938 12.933 12.943 12.955 12.94 12.903 12.865 12.828 12.815 12.81 12.775 12.728 12.698 12.683 12.668 12.65 12.64 12.645 12.655 12.652 12.645 12.642 12.635 12.625 12.615 12.608 12.602 12.598 12.623 12.68 12.722 12.727 12.715 12.705 12.7 12.71 12.722 12.725 12.738 12.772 12.795 12.79 12.788 12.818 12.873 12.91 12.927 12.932 12.9 12.837 12.772 12.707 12.645 12.623 12.665 12.73 12.747 12.707 12.645 12.575 12.555 12.585 12.617 12.647 12.667 12.545 12.43 12.377 12.268 12.243 12.275 12.285 12.27 12.21 12.082 11.922 11.75 11.605 11.57 11.625 11.637 11.58 11.59 11.683 11.78 11.878 11.97 12.078 12.22 12.38 12.54 12.7 12.883 13.1 13.34 13.587 13.81 14.005 14.175 14.312 14.355 14.323 14.348 14.468 14.56 14.577 14.587 14.595 14.605 14.615 14.627 14.627 14.588 14.605 14.72 14.838 14.948 15.093 15.285 15.487 15.615 15.672 15.722 15.762 15.782 15.77 15.717 15.653 15.643 15.68 15.72 15.768 15.845 15.937 15.992 16 15.98 15.95 15.923 15.908 15.913 15.938 15.975 16.015 16.073 16.168 16.3 16.45 16.597 16.732 16.825 16.875 16.912 16.947 16.98 16.955 16.845 16.73 16.688 16.705 16.732 16.755 16.757 16.72 16.665 16.61 16.54 16.462 16.39 15.947 14.957 13.808 13.093 12.883 12.795 12.773 12.783 12.798 12.833 12.895 12.97 13.045
12.947 13.008 13.062 13.12 13.177 13.232 13.287 13.265 13.143 13.03 12.97 12.93 12.89 12.855 12.853 12.885 12.92 12.945 12.955 12.963 12.977 12.99 12.977 12.94 12.9 12.863 12.835 12.805 12.76 12.715 12.688 12.67 12.655 12.64 12.628 12.63 12.645 12.655 12.652 12.645 12.635 12.625 12.617 12.612 12.605 12.6 12.628 12.682 12.74 12.78 12.785 12.775 12.762 12.755 12.757 12.762 12.767 12.78 12.79 12.785 12.78 12.783 12.793 12.81 12.833 12.86 12.85 12.797 12.74 12.68 12.64 12.652 12.697 12.742 12.74 12.677 12.61 12.565 12.563 12.595 12.635 12.67 12.7 12.137 11.648 12.117 12.45 12.37 12.303 12.268 12.28 12.27 12.18 12.025 11.837 11.638 11.545 11.575 11.592 11.56 11.558 11.585 11.623 11.685 11.76 11.873 12.02 12.18 12.348 12.508 12.705 12.955 13.205 13.45 13.67 13.87 14.06 14.217 14.267 14.232 14.198 14.21 14.247 14.257 14.265 14.275 14.287 14.305 14.322 14.315 14.233 14.215 14.335 14.482 14.65 14.85 15.065 15.262 15.385 15.445 15.502 15.552 15.565 15.517 15.442 15.38 15.375 15.415 15.452 15.492 15.545 15.585 15.595 15.593 15.578 15.55 15.518 15.49 15.498 15.535 15.575 15.618 15.695 15.823 15.97 16.12 16.265 16.41 16.54 16.617 16.657 16.692 16.727 16.75 16.717 16.67 16.672 16.695 16.717 16.74 16.762 16.772 16.735 16.665 16.59 16.51 16.43 15.765 14.503 13.338 12.765 12.665 12.608 12.615 12.64 12.68 12.75 12.84 12.93 13.015
12.945 13.005 13.043 13.085 13.145 13.202 13.262 13.26 13.152 13.033 12.965 12.925 12.888 12.86 12.868 12.903 12.935 12.958 12.972 12.99 13.007 13.017 13.01 12.98 12.94 12.903 12.863 12.82 12.778 12.74 12.715 12.695 12.678 12.663 12.643 12.63 12.638 12.652 12.655 12.645 12.635 12.625 12.617 12.61 12.6 12.598 12.628 12.682 12.735 12.777 12.79 12.78 12.767 12.752 12.75 12.76 12.765 12.77 12.78 12.785 12.782 12.777 12.758 12.743 12.76 12.787 12.777 12.73 12.678 12.638 12.62 12.618 12.63 12.655 12.635 12.578 12.548 12.545 12.555 12.585 12.635 12.677 12.63 11.665 10.759 11.21 12.077 12.499 12.435 12.355 12.375 12.35 12.245 12.11 11.92 11.673 11.54 11.548 11.555 11.593 11.713 11.755 11.66 11.59 11.598 11.69 11.848 12.02 12.187 12.33 12.528 12.795 13.057 13.307 13.52 13.707 13.892 14.062 14.127 14.087 14.032 13.975 13.928 13.913 13.92 13.93 13.95 13.977 14.002 13.985 13.868 13.795 13.883 14.045 14.225 14.46 14.747 14.992 15.09 15.077 15.08 15.107 15.125 15.117 15.107 15.095 15.087 15.092 15.097 15.102 15.152 15.21 15.22 15.22 15.213 15.193 15.165 15.135 15.145 15.193 15.238 15.283 15.373 15.51 15.645 15.757 15.882 16.037 16.192 16.31 16.362 16.385 16.408 16.468 16.55 16.605 16.632 16.647 16.665 16.685 16.715 16.752 16.747 16.697 16.63 16.55 16.402 15.555 14.083 12.945 12.505 12.448 12.463 12.512 12.545 12.61 12.7 12.79 12.883 12.977
12.948 13.002 13.028 13.045 13.09 13.15 13.212 13.225 13.152 13.04 12.96 12.923 12.898 12.893 12.913 12.945 12.967 12.977 12.988 13.005 13.017 13.012 13.01 13.007 12.982 12.947 12.907 12.865 12.825 12.79 12.765 12.745 12.725 12.707 12.683 12.653 12.64 12.648 12.65 12.64 12.63 12.622 12.612 12.6 12.593 12.595 12.625 12.672 12.71 12.735 12.74 12.73 12.72 12.708 12.71 12.727 12.737 12.743 12.755 12.775 12.785 12.782 12.75 12.703 12.695 12.715 12.705 12.658 12.615 12.605 12.595 12.57 12.558 12.558 12.543 12.528 12.535 12.545 12.55 12.568 12.615 12.67 12.392 11.42 10.75 10.75 11.158 11.935 12.429 12.54 12.505 12.422 12.3 12.185 12.02 11.745 11.573 11.588 11.638 11.783 12.042 12.132 11.96 11.738 11.588 11.583 11.718 11.892 12.022 12.14 12.345 12.615 12.85 13.035 13.222 13.42 13.605 13.76 13.837 13.832 13.782 13.715 13.638 13.575 13.553 13.558 13.582 13.615 13.625 13.587 13.473 13.35 13.38 13.523 13.668 13.868 14.148 14.41 14.487 14.437 14.417 14.425 14.46 14.51 14.555 14.582 14.602 14.605 14.58 14.55 14.625 14.787 14.87 14.877 14.872 14.865 14.845 14.818 14.83 14.88 14.93 14.978 15.07 15.19 15.275 15.33 15.435 15.598 15.755 15.892 15.955 16 16.088 16.223 16.38 16.497 16.555 16.573 16.59 16.62 16.67 16.725 16.735 16.7 16.65 16.585 16.292 15.297 13.738 12.608 12.275 12.25 12.305 12.402 12.48 12.56 12.65 12.742 12.837 12.937
12.958 13 13.022 13.028 13.048 13.093 13.14 13.145 13.107 13.032 12.963 12.938 12.93 12.935 12.955 12.977 12.987 12.993 13.002 13.01 13 12.973 12.97 12.997 13.01 12.99 12.95 12.913 12.878 12.843 12.815 12.795 12.775 12.755 12.727 12.69 12.658 12.648 12.645 12.635 12.625 12.618 12.608 12.595 12.588 12.59 12.612 12.642 12.663 12.68 12.687 12.68 12.67 12.663 12.668 12.685 12.702 12.712 12.725 12.75 12.772 12.78 12.75 12.69 12.648 12.645 12.632 12.595 12.58 12.585 12.575 12.55 12.53 12.513 12.51 12.523 12.535 12.545 12.55 12.555 12.587 12.65 12.162 11.195 10.75 10.75 10.75 11.065 11.725 12.364 12.61 12.505 12.398 12.31 12.192 11.933 11.76 11.81 11.91 12.083 12.35 12.477 12.355 12.098 11.828 11.625 11.61 11.735 11.808 11.93 12.14 12.347 12.505 12.62 12.78 12.998 13.215 13.36 13.433 13.48 13.49 13.45 13.373 13.288 13.22 13.193 13.198 13.21 13.208 13.193 13.123 13.025 13.04 13.158 13.293 13.43 13.598 13.755 13.785 13.74 13.725 13.735 13.768 13.803 13.823 13.838 13.883 13.937 13.962 13.955 14.045 14.27 14.46 14.53 14.53 14.527 14.517 14.5 14.515 14.565 14.615 14.665 14.738 14.813 14.863 14.908 15.015 15.18 15.34 15.478 15.583 15.713 15.885 16.065 16.22 16.35 16.452 16.497 16.523 16.57 16.632 16.695 16.712 16.68 16.642 16.6 16.16 15.022 13.328 12.218 12.07 12.068 12.105 12.205 12.34 12.465 12.57 12.665 12.762 12.862
12.972 12.992 13.007 13.017 13.03 13.05 13.067 13.058 13.035 13 12.983 12.988 12.985 12.98 12.985 12.997 13.002 13.007 13.01 12.995 12.963 12.928 12.925 12.96 12.995 13.007 12.99 12.96 12.93 12.897 12.867 12.845 12.822 12.8 12.77 12.73 12.69 12.66 12.645 12.635 12.625 12.615 12.605 12.598 12.59 12.583 12.588 12.605 12.62 12.633 12.638 12.63 12.62 12.615 12.623 12.64 12.66 12.678 12.695 12.72 12.747 12.767 12.745 12.685 12.625 12.59 12.57 12.558 12.56 12.565 12.56 12.543 12.533 12.525 12.523 12.528 12.535 12.545 12.55 12.445 12.465 12.632 12.197 11.235 10.75 10.75 10.75 10.75 10.935 11.475 12.155 12.532 12.55 12.49 12.42 12.228 12.098 12.16 12.26 12.405 12.402 12.487 12.612 12.47 12.26 11.943 11.693 11.64 11.635 11.715 11.885 12.043 12.188 12.323 12.455 12.625 12.845 13 13.058 13.105 13.15 13.16 13.13 13.078 13.013 12.96 12.91 12.87 12.87 12.89 12.855 12.82 12.86 12.945 13.065 13.197 13.317 13.362 13.32 13.23 13.095 13.073 13.148 13.163 13.16 13.16 13.195 13.268 13.34 13.393 13.523 13.753 13.985 14.147 14.195 14.19 14.185 14.188 14.225 14.295 14.365 14.435 14.518 14.595 14.653 14.708 14.83 15.008 15.163 15.265 15.383 15.56 15.74 15.9 16.035 16.165 16.292 16.395 16.465 16.525 16.59 16.655 16.682 16.66 16.625 16.59 15.975 14.577 12.843 11.89 11.875 11.89 11.913 11.988 12.135 12.3 12.437 12.545 12.645 12.745
12.945 12.95 12.96 12.972 12.987 13.007 13.01 12.998 12.992 12.983 13.015 13.075 13.077 13.03 13.003 13.01 13.012 13.01 13 12.97 12.933 12.898 12.895 12.93 12.965 12.985 12.98 12.957 12.93 12.915 12.897 12.87 12.845 12.817 12.792 12.76 12.72 12.683 12.658 12.645 12.635 12.625 12.615 12.608 12.597 12.58 12.575 12.588 12.6 12.613 12.615 12.603 12.59 12.588 12.598 12.615 12.635 12.655 12.675 12.698 12.725 12.75 12.73 12.67 12.613 12.568 12.55 12.555 12.563 12.56 12.553 12.547 12.545 12.54 12.533 12.533 12.54 12.317 12.133 12.255 12.458 12.62 12.492 11.538 10.75 10.75 10.75 10.75 10.75 10.801 11.2 11.73 12.102 12.43 12.584 12.529 12.465 12.512 12.389 11.987 11.578 12.058 12.687 12.677 12.595 12.36 12.087 11.892 11.715 11.603 11.685 11.855 12.018 12.162 12.275 12.365 12.523 12.68 12.742 12.78 12.8 12.792 12.827 12.905 12.957 12.952 12.87 12.77 12.702 12.657 12.63 12.645 12.687 12.732 12.725 12.71 12.687 12.59 12.498 12.478 12.47 12.548 12.68 12.713 12.71 12.7 12.733 12.805 12.885 12.99 13.16 13.385 13.61 13.812 13.905 13.9 13.898 13.923 14.005 14.115 14.21 14.3 14.415 14.537 14.627 14.695 14.838 15.032 15.12 15.148 15.25 15.42 15.582 15.677 15.76 15.882 16.048 16.247 16.377 16.442 16.513 16.6 16.655 16.64 16.602 16.442 15.507 13.825 12.318 11.69 11.69 11.71 11.717 11.768 11.908 12.08 12.245 12.38 12.492 12.605
12.875 12.88 12.89 12.9 12.923 12.962 12.967 12.945 12.945 12.947 12.982 13.062 13.087 13.042 13.013 13.01 13.005 12.995 12.977 12.947 12.915 12.88 12.878 12.912 12.935 12.935 12.92 12.898 12.885 12.902 12.9 12.868 12.84 12.813 12.795 12.775 12.74 12.705 12.68 12.665 12.655 12.645 12.635 12.622 12.602 12.58 12.575 12.585 12.595 12.61 12.615 12.6 12.593 12.598 12.603 12.61 12.628 12.65 12.667 12.683 12.705 12.73 12.71 12.65 12.605 12.58 12.573 12.58 12.585 12.565 12.545 12.547 12.55 12.547 12.542 12.532 12.285 12.04 12.11 12.38 12.592 12.637 12.689 11.79 10.808 10.75 10.75 10.751 10.813 10.938 11.016 11.086 11.266 11.543 11.775 11.86 11.838 11.79 11.583 11.143 10.976 11.888 12.687 12.647 12.567 12.41 12.23 12.045 11.815 11.58 11.565 11.727 11.87 12 12.11 12.168 12.243 12.362 12.435 12.445 12.412 12.355 12.405 12.572 12.68 12.652 12.515 12.377 12.325 12.325 12.337 12.362 12.39 12.412 12.24 11.955 11.805 11.725 11.675 11.74 11.93 12.135 12.28 12.35 12.375 12.373 12.408 12.488 12.593 12.725 12.903 13.125 13.35 13.557 13.652 13.648 13.663 13.71 13.81 13.945 14.067 14.17 14.285 14.425 14.555 14.662 14.835 14.995 15 15.008 15.12 15.28 15.387 15.4 15.423 15.56 15.823 16.107 16.265 16.335 16.433 16.56 16.632 16.615 16.577 16.202 14.847 12.958 11.78 11.5 11.512 11.505 11.47 11.513 11.657 11.83 12.012 12.165 12.285 12.402
12.818 12.81 12.82 12.84 12.88 12.93 12.935 12.893 12.868 12.863 12.873 12.913 12.955 12.99 13.005 12.995 12.985 12.975 12.955 12.925 12.895 12.863 12.86 12.88 12.88 12.87 12.855 12.845 12.863 12.897 12.897 12.865 12.833 12.805 12.79 12.777 12.757 12.728 12.703 12.688 12.673 12.66 12.65 12.632 12.605 12.578 12.57 12.583 12.595 12.61 12.615 12.608 12.613 12.622 12.625 12.623 12.628 12.645 12.66 12.673 12.69 12.71 12.69 12.643 12.62 12.613 12.608 12.61 12.6 12.56 12.535 12.54 12.545 12.545 12.547 12.317 12.065 12.273 12.525 12.57 12.607 12.642 12.677 12.25 11.705 11.658 11.725 11.74 11.8 11.922 11.997 11.965 11.84 11.753 11.678 11.543 11.471 11.523 11.673 11.8 11.918 12.332 12.595 12.458 12.325 12.17 11.995 11.833 11.675 11.478 11.435 11.578 11.708 11.833 11.942 12.002 12.033 12.08 12.105 12.075 12.02 11.965 11.97 12.028 12.033 11.955 11.82 11.743 11.8 11.91 11.965 11.965 11.975 11.997 11.782 11.448 11.355 11.39 11.408 11.433 11.543 11.725 11.87 11.955 12.02 12.048 12.09 12.193 12.328 12.473 12.648 12.865 13.09 13.302 13.4 13.408 13.45 13.51 13.6 13.738 13.888 14.025 14.148 14.27 14.4 14.522 14.645 14.76 14.83 14.885 14.99 15.105 15.14 15.17 15.223 15.365 15.68 15.992 16.163 16.263 16.395 16.54 16.61 16.59 16.497 15.892 14.175 12.193 11.34 11.315 11.335 11.27 11.19 11.235 11.38 11.545 11.73 11.905 12.037 12.148
12.788 12.75 12.755 12.798 12.85 12.9 12.91 12.875 12.845 12.83 12.823 12.818 12.853 12.937 12.982 12.975 12.965 12.957 12.94 12.908 12.875 12.845 12.835 12.835 12.828 12.82 12.813 12.825 12.858 12.892 12.895 12.862 12.828 12.803 12.788 12.775 12.765 12.747 12.727 12.71 12.693 12.677 12.66 12.635 12.605 12.575 12.565 12.58 12.595 12.61 12.62 12.625 12.637 12.647 12.65 12.647 12.645 12.648 12.655 12.667 12.68 12.692 12.682 12.66 12.652 12.647 12.642 12.635 12.602 12.55 12.528 12.533 12.538 12.542 12.268 12.035 12.317 12.56 12.547 12.538 12.565 12.602 12.64 12.587 12.535 12.627 12.709 12.714 12.702 12.695 12.69 12.685 12.68 12.667 12.545 12.345 12.29 12.41 12.587 12.669 12.652 12.595 12.45 12.265 12.1 11.945 11.808 11.685 11.565 11.44 11.41 11.498 11.603 11.703 11.79 11.842 11.87 11.885 11.863 11.818 11.773 11.728 11.705 11.678 11.623 11.553 11.468 11.423 11.453 11.54 11.592 11.583 11.575 11.585 11.42 11.223 11.205 11.227 11.24 11.228 11.245 11.343 11.46 11.545 11.633 11.72 11.813 11.935 12.075 12.218 12.39 12.605 12.833 13.048 13.16 13.195 13.25 13.313 13.425 13.63 13.828 13.968 14.083 14.18 14.268 14.37 14.43 14.548 14.708 14.775 14.873 14.99 15.083 15.215 15.288 15.253 15.52 15.945 16.148 16.28 16.42 16.545 16.595 16.572 16.255 15.225 13.348 11.635 11.108 11.195 11.225 11.07 10.898 10.923 11.052 11.203 11.383 11.582 11.757 11.89
12.74 12.708 12.725 12.773 12.825 12.877 12.907 12.91 12.91 12.902 12.88 12.838 12.84 12.915 12.957 12.952 12.945 12.943 12.935 12.905 12.87 12.84 12.823 12.815 12.81 12.808 12.808 12.828 12.86 12.89 12.892 12.86 12.828 12.815 12.808 12.795 12.78 12.757 12.74 12.725 12.71 12.695 12.67 12.64 12.61 12.585 12.573 12.578 12.592 12.607 12.622 12.64 12.66 12.672 12.672 12.667 12.662 12.652 12.645 12.65 12.66 12.67 12.67 12.662 12.657 12.652 12.647 12.627 12.58 12.538 12.528 12.533 12.54 12.302 11.963 12.198 12.547 12.57 12.552 12.515 12.518 12.555 12.582 12.493 12.518 12.672 12.695 12.675 12.655 12.645 12.64 12.625 12.603 12.597 12.605 12.607 12.615 12.615 12.602 12.58 12.54 12.472 12.33 12.13 11.96 11.858 11.803 11.735 11.65 11.593 11.56 11.578 11.648 11.692 11.698 11.7 11.72 11.742 11.725 11.675 11.63 11.585 11.587 11.59 11.527 11.437 11.34 11.258 11.205 11.208 11.22 11.21 11.195 11.188 11.125 11.06 11.06 11.067 11.078 11.093 11.115 11.168 11.275 11.4 11.515 11.638 11.765 11.888 12.015 12.158 12.405 12.667 12.838 12.985 13.088 13.155 13.23 13.33 13.495 13.71 13.882 13.995 14.095 14.192 14.272 14.36 14.447 14.557 14.692 14.807 14.947 15.12 15.305 15.489 15.567 15.532 15.757 16.125 16.312 16.422 16.502 16.562 16.58 16.557 15.902 14.347 12.388 11.025 10.788 10.945 11.005 10.79 10.555 10.58 10.703 10.845 11.028 11.235 11.443 11.653
12.69 12.703 12.735 12.768 12.81 12.862 12.905 12.932 12.957 12.975 12.957 12.9 12.855 12.89 12.932 12.93 12.93 12.935 12.932 12.91 12.88 12.853 12.833 12.82 12.813 12.81 12.813 12.833 12.862 12.882 12.882 12.858 12.838 12.843 12.845 12.827 12.795 12.753 12.733 12.73 12.72 12.705 12.68 12.65 12.625 12.613 12.6 12.585 12.588 12.603 12.62 12.642 12.665 12.68 12.68 12.67 12.657 12.64 12.625 12.623 12.633 12.642 12.64 12.632 12.627 12.622 12.615 12.588 12.55 12.535 12.535 12.54 12.37 12.018 12.135 12.497 12.57 12.58 12.56 12.508 12.485 12.51 12.495 12.433 12.513 12.635 12.642 12.625 12.605 12.595 12.59 12.565 12.528 12.515 12.52 12.518 12.518 12.517 12.505 12.47 12.417 12.35 12.21 12.025 11.91 11.875 11.87 11.847 11.805 11.805 11.787 11.745 11.732 11.687 11.617 11.578 11.578 11.597 11.585 11.538 11.492 11.445 11.47 11.492 11.415 11.31 11.21 11.13 11.055 10.998 10.978 10.973 10.963 10.95 10.928 10.895 10.883 10.897 10.955 11.065 11.182 11.282 11.402 11.545 11.672 11.79 11.91 12.03 12.15 12.3 12.545 12.772 12.892 12.982 13.069 13.159 13.252 13.369 13.509 13.624 13.714 13.802 13.889 13.979 14.069 14.147 14.214 14.267 14.337 14.439 14.542 14.647 14.752 14.859 14.944 15.087 15.359 15.667 16.042 16.372 16.51 16.55 16.555 16.417 15.372 13.45 11.513 10.413 10.29 10.405 10.467 10.33 10.185 10.243 10.373 10.52 10.705 10.925 11.175 11.465
12.69 12.727 12.76 12.785 12.813 12.853 12.89 12.923 12.96 13 13 12.952 12.893 12.885 12.91 12.913 12.92 12.93 12.927 12.91 12.887 12.865 12.845 12.83 12.82 12.813 12.815 12.835 12.857 12.87 12.872 12.863 12.863 12.88 12.877 12.84 12.787 12.738 12.72 12.727 12.727 12.715 12.69 12.668 12.655 12.65 12.64 12.615 12.598 12.6 12.615 12.635 12.655 12.67 12.67 12.657 12.64 12.62 12.605 12.6 12.608 12.615 12.61 12.6 12.592 12.587 12.577 12.557 12.49 12.323 12.155 12.035 12.013 12.19 12.442 12.567 12.582 12.592 12.57 12.515 12.47 12.47 12.44 12.415 12.512 12.59 12.585 12.572 12.558 12.547 12.535 12.5 12.455 12.435 12.435 12.433 12.428 12.423 12.4 12.35 12.292 12.227 12.093 11.955 11.9 11.878 11.87 11.87 11.87 11.895 11.862 11.775 11.692 11.585 11.503 11.465 11.45 11.455 11.445 11.402 11.35 11.265 11.307 11.377 11.292 11.18 11.083 11.008 10.945 10.9 10.883 10.88 10.875 10.862 10.815 10.74 10.685 10.685 10.788 10.96 11.122 11.215 11.267 11.332 11.395 11.457 11.512 11.557 11.61 11.685 11.762 11.832 11.895 11.942 11.987 12.042 12.12 12.22 12.32 12.412 12.502 12.59 12.682 12.772 12.862 12.947 12.912 12.86 12.902 12.94 12.967 12.995 13.025 13.057 13.103 13.29 13.647 14.047 14.672 15.384 15.742 15.915 16.102 15.832 14.492 12.465 10.783 10.025 9.895 9.888 9.9 9.863 9.848 9.938 10.075 10.228 10.423 10.685 10.99 11.305
12.71 12.75 12.785 12.81 12.827 12.848 12.88 12.92 12.965 13.012 13.017 12.98 12.935 12.9 12.893 12.9 12.91 12.92 12.917 12.9 12.88 12.86 12.845 12.835 12.827 12.817 12.815 12.83 12.845 12.855 12.86 12.862 12.872 12.88 12.862 12.822 12.772 12.725 12.71 12.72 12.727 12.722 12.707 12.697 12.692 12.687 12.675 12.652 12.633 12.625 12.63 12.638 12.65 12.662 12.657 12.64 12.62 12.6 12.585 12.58 12.582 12.585 12.58 12.56 12.415 12.14 12.05 12.188 12.275 12.23 12.143 12.033 12.175 12.452 12.525 12.545 12.565 12.585 12.582 12.538 12.475 12.438 12.427 12.445 12.502 12.535 12.527 12.52 12.51 12.5 12.475 12.433 12.388 12.355 12.35 12.385 12.42 12.38 12.303 12.238 12.17 12.1 12.005 11.933 11.907 11.882 11.87 11.87 11.87 11.885 11.815 11.685 11.583 11.47 11.393 11.358 11.335 11.323 11.305 11.233 11.133 11.023 11.025 11.087 11.053 11.003 10.955 10.908 10.865 10.83 10.808 10.798 10.79 10.772 10.715 10.628 10.543 10.498 10.593 10.785 10.947 10.985 10.935 10.895 10.855 10.813 10.775 10.753 10.758 10.768 10.755 10.738 10.723 10.708 10.693 10.691 10.745 10.78 10.756 10.773 10.815 10.85 10.888 10.92 10.953 10.98 10.925 10.881 10.916 10.943 10.963 10.993 11.048 11.11 11.168 11.335 11.648 12.045 12.728 13.552 14.055 14.36 14.682 14.499 13.315 11.448 10.146 9.805 9.723 9.68 9.658 9.645 9.665 9.75 9.878 10.015 10.21 10.503 10.83 11.142
12.72 12.755 12.782 12.805 12.82 12.833 12.865 12.91 12.955 13.005 13.02 12.99 12.95 12.905 12.873 12.87 12.88 12.89 12.887 12.87 12.85 12.83 12.817 12.812 12.807 12.805 12.798 12.792 12.797 12.805 12.812 12.817 12.82 12.805 12.775 12.745 12.715 12.693 12.687 12.695 12.705 12.71 12.707 12.702 12.697 12.692 12.682 12.67 12.66 12.655 12.652 12.645 12.642 12.642 12.632 12.617 12.602 12.585 12.57 12.562 12.472 12.273 12.073 12.08 12.153 12.058 12.048 12.188 12.325 12.447 12.527 12.527 12.497 12.475 12.475 12.495 12.502 12.533 12.6 12.6 12.527 12.428 12.383 12.417 12.445 12.452 12.45 12.447 12.44 12.437 12.457 12.458 12.42 12.395 12.425 12.49 12.48 12.352 12.225 12.148 12.073 12 11.95 11.92 11.892 11.865 11.857 11.867 11.867 11.862 11.767 11.613 11.49 11.373 11.308 11.285 11.26 11.24 11.2 11.098 10.975 10.875 10.823 10.825 10.835 10.85 10.863 10.852 10.823 10.79 10.76 10.738 10.72 10.693 10.635 10.555 10.478 10.415 10.5 10.71 10.87 10.895 10.813 10.72 10.64 10.548 10.45 10.378 10.343 10.34 10.333 10.318 10.305 10.293 10.28 10.275 10.325 10.318 10.178 10.048 9.958 9.908 9.883 9.843 9.803 9.816 9.89 9.95 9.968 9.97 9.97 9.988 10.028 10.073 10.115 10.178 10.298 10.506 10.891 11.498 12.025 12.345 12.637 12.72 11.962 10.538 9.758 9.695 9.673 9.653 9.633 9.623 9.625 9.673 9.775 9.903 10.063 10.323 10.652 10.95
12.71 12.732 12.75 12.772 12.793 12.81 12.843 12.888 12.935 12.985 13.01 12.99 12.947 12.9 12.853 12.828 12.83 12.837 12.835 12.822 12.805 12.785 12.77 12.765 12.773 12.797 12.787 12.74 12.72 12.725 12.735 12.735 12.72 12.693 12.668 12.653 12.645 12.648 12.65 12.655 12.663 12.67 12.675 12.672 12.667 12.662 12.657 12.652 12.645 12.637 12.63 12.62 12.61 12.6 12.59 12.525 12.385 12.223 12.048 12.073 12.203 12.185 12.1 12.13 12.315 12.49 12.567 12.555 12.537 12.535 12.53 12.5 12.458 12.428 12.425 12.432 12.415 12.46 12.59 12.655 12.597 12.413 12.298 12.325 12.34 12.345 12.345 12.342 12.335 12.343 12.43 12.545 12.597 12.615 12.64 12.615 12.475 12.29 12.158 12.075 11.998 11.928 11.89 11.875 11.85 11.823 11.825 11.837 11.822 11.782 11.672 11.53 11.413 11.298 11.243 11.247 11.24 11.217 11.157 11.055 10.95 10.848 10.785 10.768 10.76 10.77 10.795 10.812 10.802 10.775 10.743 10.713 10.685 10.65 10.595 10.525 10.455 10.388 10.46 10.64 10.77 10.81 10.747 10.675 10.615 10.515 10.393 10.3 10.228 10.165 10.14 10.14 10.14 10.138 10.143 10.163 10.208 10.217 10.105 9.93 9.785 9.71 9.678 9.638 9.598 9.65 9.792 9.882 9.91 9.922 9.92 9.918 9.923 9.925 9.928 9.935 9.943 9.948 9.98 10.178 10.44 10.603 10.721 10.84 10.53 9.9 9.638 9.625 9.63 9.632 9.618 9.605 9.61 9.63 9.695 9.815 9.953 10.155 10.45 10.72
12.682 12.695 12.713 12.74 12.767 12.79 12.82 12.865 12.915 12.965 13 12.99 12.942 12.89 12.843 12.803 12.785 12.785 12.78 12.768 12.753 12.735 12.723 12.733 12.768 12.815 12.802 12.715 12.655 12.648 12.65 12.638 12.618 12.605 12.6 12.603 12.608 12.61 12.613 12.618 12.623 12.628 12.635 12.637 12.632 12.625 12.617 12.61 12.565 12.455 12.315 12.17 12.04 12.048 12.173 12.245 12.263 12.225 12.116 12.198 12.475 12.717 12.88 12.84 12.675 12.598 12.59 12.567 12.538 12.523 12.507 12.472 12.427 12.385 12.362 12.345 12.33 12.403 12.545 12.662 12.625 12.368 12.205 12.22 12.228 12.233 12.235 12.228 12.21 12.22 12.33 12.51 12.665 12.74 12.72 12.6 12.415 12.23 12.09 12 11.92 11.85 11.818 11.81 11.795 11.775 11.772 11.765 11.73 11.677 11.577 11.453 11.34 11.23 11.173 11.192 11.22 11.21 11.142 11.035 10.928 10.823 10.758 10.73 10.708 10.7 10.715 10.745 10.765 10.755 10.725 10.695 10.665 10.63 10.573 10.5 10.433 10.365 10.413 10.552 10.665 10.722 10.688 10.66 10.615 10.51 10.433 10.4 10.352 10.235 10.148 10.133 10.128 10.12 10.123 10.15 10.19 10.207 10.12 9.965 9.833 9.738 9.683 9.643 9.605 9.63 9.732 9.805 9.835 9.862 9.877 9.877 9.873 9.87 9.875 9.892 9.9 9.89 9.895 9.855 9.835 9.873 9.873 9.86 9.758 9.633 9.6 9.602 9.615 9.622 9.615 9.602 9.602 9.595 9.63 9.743 9.875 10.025 10.237 10.46
12.645 12.655 12.675 12.705 12.735 12.765 12.803 12.85 12.898 12.945 12.987 12.982 12.932 12.88 12.835 12.792 12.755 12.738 12.73 12.718 12.705 12.695 12.695 12.728 12.782 12.835 12.817 12.715 12.618 12.575 12.568 12.558 12.553 12.558 12.563 12.57 12.575 12.577 12.585 12.592 12.597 12.595 12.525 12.39 12.25 12.11 12.035 12.093 12.183 12.208 12.203 12.155 12.08 12.143 12.325 12.51 12.718 12.89 13.002 13.105 13.197 13.285 13.337 13.207 12.93 12.718 12.623 12.582 12.547 12.517 12.485 12.442 12.392 12.34 12.293 12.248 12.255 12.363 12.515 12.635 12.55 12.29 12.153 12.148 12.15 12.153 12.155 12.138 12.11 12.113 12.185 12.332 12.482 12.507 12.455 12.38 12.257 12.132 12.015 11.912 11.817 11.753 11.735 11.73 11.722 11.712 11.695 11.667 11.63 11.58 11.495 11.385 11.275 11.165 11.098 11.113 11.165 11.187 11.127 11.015 10.905 10.798 10.73 10.7 10.672 10.643 10.64 10.67 10.702 10.722 10.71 10.683 10.658 10.625 10.568 10.493 10.42 10.353 10.365 10.46 10.565 10.637 10.648 10.655 10.628 10.565 10.54 10.53 10.488 10.363 10.235 10.165 10.118 10.095 10.088 10.1 10.137 10.177 10.13 9.997 9.86 9.75 9.688 9.65 9.615 9.61 9.668 9.725 9.755 9.787 9.82 9.84 9.84 9.832 9.838 9.857 9.857 9.835 9.807 9.72 9.688 9.78 9.84 9.792 9.675 9.588 9.565 9.565 9.565 9.575 9.585 9.582 9.57 9.538 9.573 9.692 9.805 9.907 10.003 10.13
12.62 12.63 12.65 12.68 12.713 12.753 12.8 12.85 12.9 12.932 12.937 12.907 12.86 12.817 12.778 12.748 12.723 12.708 12.703 12.698 12.69 12.685 12.688 12.71 12.76 12.81 12.777 12.673 12.593 12.563 12.562 12.565 12.57 12.577 12.582 12.567 12.477 12.338 12.205 12.075 12.048 12.138 12.183 12.168 12.15 12.095 12.07 12.175 12.348 12.525 12.708 12.852 12.955 13.06 13.152 13.232 13.317 13.402 13.487 13.567 13.587 13.552 13.502 13.35 13.087 12.802 12.618 12.555 12.517 12.487 12.45 12.397 12.343 12.29 12.235 12.18 12.19 12.318 12.5 12.587 12.47 12.278 12.183 12.16 12.155 12.155 12.15 12.103 12.055 12.048 12.06 12.135 12.18 12.095 12.035 12.012 11.95 11.9 11.845 11.755 11.66 11.628 11.635 11.63 11.625 11.622 11.6 11.563 11.527 11.487 11.425 11.33 11.22 11.11 11.05 11.078 11.14 11.177 11.125 11.008 10.893 10.778 10.698 10.657 10.62 10.578 10.57 10.6 10.63 10.665 10.69 10.685 10.662 10.632 10.58 10.505 10.428 10.368 10.373 10.44 10.525 10.603 10.755 10.95 11.037 11.02 10.943 10.85 10.74 10.575 10.42 10.31 10.213 10.14 10.085 10.06 10.08 10.103 10.055 9.945 9.84 9.765 9.713 9.673 9.633 9.6 9.605 9.63 9.65 9.672 9.697 9.72 9.74 9.772 9.802 9.815 9.805 9.78 9.728 9.683 9.692 9.73 9.725 9.65 9.573 9.52 9.485 9.465 9.455 9.47 9.502 9.515 9.495 9.46 9.495 9.595 9.685 9.765 9.788 9.798
12.61 12.62 12.64 12.673 12.713 12.763 12.822 12.867 12.882 12.867 12.83 12.785 12.75 12.73 12.713 12.703 12.7 12.698 12.695 12.695 12.692 12.69 12.688 12.687 12.712 12.732 12.692 12.635 12.617 12.582 12.475 12.333 12.195 12.083 12.093 12.19 12.215 12.19 12.148 12.068 12.083 12.225 12.388 12.553 12.715 12.84 12.932 13.025 13.11 13.19 13.272 13.355 13.437 13.525 13.602 13.667 13.695 13.677 13.642 13.592 13.512 13.415 13.327 13.207 13.012 12.745 12.548 12.48 12.45 12.435 12.402 12.348 12.293 12.24 12.185 12.15 12.163 12.253 12.417 12.53 12.49 12.355 12.258 12.225 12.213 12.21 12.195 12.118 12.03 12.003 12 12.007 11.908 11.75 11.698 11.668 11.625 11.605 11.59 11.533 11.48 11.498 11.52 11.517 11.515 11.515 11.497 11.46 11.423 11.385 11.337 11.267 11.17 11.063 11.028 11.088 11.162 11.195 11.135 11.015 10.89 10.747 10.643 10.595 10.55 10.505 10.5 10.53 10.56 10.595 10.64 10.672 10.667 10.642 10.592 10.518 10.453 10.41 10.425 10.49 10.555 10.615 10.852 11.2 11.387 11.43 11.405 11.367 11.33 11.285 11.275 11.18 10.97 10.768 10.568 10.393 10.246 10.096 9.983 9.918 9.87 9.84 9.803 9.76 9.715 9.673 9.63 9.585 9.548 9.513 9.48 9.453 9.488 9.62 9.722 9.74 9.732 9.715 9.643 9.617 9.655 9.63 9.572 9.498 9.463 9.452 9.39 9.33 9.31 9.338 9.4 9.425 9.402 9.368 9.378 9.443 9.52 9.6 9.617 9.57
12.595 12.61 12.635 12.683 12.743 12.8 12.832 12.827 12.795 12.758 12.733 12.713 12.698 12.695 12.695 12.695 12.695 12.692 12.69 12.687 12.685 12.685 12.685 12.627 12.505 12.358 12.198 12.11 12.163 12.245 12.255 12.23 12.163 12.073 12.108 12.263 12.425 12.588 12.728 12.827 12.917 13.012 13.13 13.242 13.327 13.415 13.505 13.575 13.605 13.612 13.625 13.655 13.7 13.752 13.827 13.842 13.717 13.552 13.402 13.27 13.178 13.113 13.04 12.94 12.812 12.623 12.463 12.41 12.398 12.39 12.358 12.303 12.245 12.19 12.148 12.148 12.183 12.225 12.298 12.41 12.482 12.425 12.333 12.298 12.282 12.27 12.242 12.155 12.035 11.965 11.945 11.927 11.798 11.558 11.408 11.37 11.358 11.353 11.345 11.323 11.325 11.37 11.4 11.405 11.408 11.41 11.392 11.357 11.32 11.28 11.235 11.18 11.11 11.018 11 11.087 11.18 11.215 11.15 11.015 10.857 10.68 10.563 10.52 10.477 10.435 10.43 10.46 10.49 10.525 10.57 10.62 10.652 10.652 10.607 10.543 10.495 10.46 10.478 10.54 10.592 10.635 10.803 11.095 11.29 11.397 11.517 11.64 11.762 11.9 12.06 12.105 12.035 11.972 11.907 11.785 11.535 11.22 10.928 10.653 10.386 10.123 9.956 9.9 9.86 9.825 9.77 9.68 9.585 9.5 9.433 9.373 9.375 9.53 9.675 9.693 9.665 9.64 9.563 9.445 9.44 9.467 9.42 9.37 9.395 9.422 9.342 9.228 9.17 9.208 9.302 9.337 9.307 9.265 9.258 9.303 9.363 9.435 9.45 9.408
12.59 12.62 12.668 12.735 12.78 12.787 12.765 12.733 12.713 12.7 12.695 12.692 12.69 12.687 12.685 12.685 12.685 12.615 12.473 12.328 12.183 12.15 12.25 12.318 12.315 12.258 12.155 12.103 12.18 12.328 12.478 12.635 12.753 12.825 12.9 13 13.163 13.335 13.447 13.535 13.625 13.712 13.787 13.83 13.845 13.86 13.875 13.87 13.842 13.807 13.78 13.785 13.822 13.867 13.875 13.737 13.48 13.24 13.075 12.978 12.9 12.83 12.758 12.69 12.64 12.575 12.51 12.475 12.453 12.405 12.38 12.378 12.353 12.33 12.323 12.34 12.345 12.308 12.26 12.29 12.387 12.432 12.402 12.365 12.327 12.272 12.207 12.102 11.97 11.872 11.837 11.832 11.787 11.497 11.238 11.223 11.215 11.21 11.205 11.203 11.22 11.253 11.283 11.297 11.305 11.307 11.287 11.253 11.215 11.177 11.132 11.078 11.025 10.963 10.975 11.08 11.185 11.222 11.132 10.962 10.775 10.59 10.48 10.44 10.4 10.363 10.36 10.39 10.42 10.455 10.5 10.55 10.6 10.635 10.622 10.583 10.545 10.513 10.53 10.58 10.617 10.65 10.72 10.858 10.987 11.107 11.332 11.62 11.825 11.97 12.127 12.295 12.465 12.635 12.805 12.919 12.904 12.812 12.684 12.482 12.105 11.598 11.18 10.853 10.578 10.241 9.968 9.878 9.778 9.683 9.638 9.593 9.533 9.593 9.697 9.715 9.668 9.6 9.75 9.738 9.416 9.286 9.273 9.283 9.355 9.36 9.257 9.13 9.045 9.08 9.192 9.23 9.182 9.148 9.158 9.195 9.235 9.283 9.293 9.265
12.62 12.67 12.72 12.747 12.742 12.717 12.695 12.685 12.685 12.685 12.67 12.582 12.44 12.293 12.18 12.23 12.378 12.433 12.383 12.283 12.163 12.153 12.278 12.425 12.575 12.69 12.76 12.828 12.905 13.02 13.193 13.393 13.55 13.65 13.742 13.852 13.995 14.11 14.142 14.16 14.187 14.2 14.177 14.125 14.072 14.017 13.975 13.938 13.903 13.88 13.865 13.883 13.93 13.955 13.87 13.65 13.388 13.14 12.993 12.923 12.83 12.753 12.738 12.775 12.805 12.815 12.815 12.79 12.74 12.573 12.475 12.552 12.642 12.67 12.632 12.6 12.53 12.422 12.313 12.265 12.308 12.387 12.387 12.315 12.24 12.15 12.052 11.932 11.8 11.7 11.67 11.677 11.645 11.38 11.165 11.18 11.177 11.173 11.168 11.163 11.163 11.175 11.19 11.195 11.203 11.205 11.185 11.15 11.11 11.072 11.03 10.98 10.933 10.9 10.92 11.005 11.112 11.115 10.97 10.793 10.655 10.55 10.475 10.428 10.383 10.338 10.328 10.355 10.385 10.42 10.47 10.528 10.583 10.638 10.652 10.625 10.592 10.558 10.56 10.592 10.617 10.64 10.652 10.643 10.643 10.703 10.873 11.105 11.26 11.432 11.767 12.165 12.462 12.65 12.81 12.975 13.135 13.29 13.502 13.679 13.609 13.382 13.162 12.85 12.387 11.76 11.311 11.023 10.566 10.138 9.938 9.873 9.79 9.753 9.77 9.798 9.815 10.058 10.88 11.283 10.766 10.316 9.843 9.293 9.038 8.968 8.968 8.98 8.975 8.98 9.033 9.055 9.03 9.038 9.075 9.113 9.148 9.185 9.208 9.2
12.665 12.697 12.71 12.7 12.655 12.548 12.395 12.238 12.203 12.33 12.478 12.503 12.408 12.285 12.198 12.273 12.445 12.595 12.71 12.775 12.823 12.87 12.933 13.063 13.248 13.438 13.628 13.768 13.865 14.002 14.197 14.372 14.457 14.482 14.5 14.52 14.512 14.457 14.372 14.33 14.317 14.272 14.22 14.17 14.123 14.085 14.068 14.037 13.99 13.96 13.958 13.987 14.01 13.945 13.802 13.63 13.417 13.183 13.05 13.01 12.945 12.903 12.963 13.08 13.167 13.22 13.242 13.225 13.087 12.76 12.575 12.67 12.785 12.787 12.715 12.647 12.567 12.482 12.39 12.3 12.285 12.317 12.262 12.148 12.05 11.96 11.86 11.74 11.61 11.51 11.477 11.447 11.34 11.18 11.108 11.13 11.14 11.137 11.132 11.127 11.123 11.128 11.132 11.118 11.105 11.105 11.087 11.047 11 10.953 10.915 10.885 10.858 10.848 10.855 10.888 10.94 10.903 10.785 10.69 10.635 10.605 10.558 10.498 10.445 10.383 10.355 10.38 10.408 10.443 10.5 10.565 10.625 10.685 10.697 10.665 10.627 10.578 10.563 10.585 10.605 10.61 10.587 10.537 10.478 10.463 10.493 10.53 10.56 10.653 10.915 11.26 11.57 11.91 12.275 12.62 12.965 13.235 13.48 13.725 13.877 13.96 14.04 14.079 13.957 13.732 13.537 13.162 12.602 11.988 11.376 10.911 10.603 10.386 10.188 10.126 10.436 11.376 12.837 13.644 13.312 12.622 11.397 9.783 8.893 8.748 8.815 8.94 8.985 8.95 8.928 8.93 8.935 8.96 9.003 9.043 9.083 9.128 9.168 9.187
12.34 12.223 12.26 12.43 12.54 12.49 12.34 12.195 12.178 12.323 12.503 12.635 12.7 12.74 12.78 12.823 12.905 13.04 13.185 13.328 13.505 13.74 13.987 14.19 14.357 14.525 14.68 14.767 14.807 14.832 14.857 14.855 14.8 14.742 14.687 14.62 14.537 14.442 14.345 14.315 14.335 14.32 14.273 14.228 14.203 14.195 14.182 14.14 14.082 14.043 14.04 14.05 14.025 13.865 13.663 13.528 13.375 13.205 13.133 13.158 13.175 13.21 13.292 13.397 13.5 13.587 13.627 13.56 13.287 12.875 12.67 12.702 12.72 12.685 12.637 12.585 12.525 12.465 12.4 12.322 12.267 12.212 12.108 11.985 11.873 11.773 11.67 11.55 11.42 11.318 11.253 11.19 11.113 11.063 11.063 11.08 11.095 11.1 11.097 11.092 11.088 11.088 11.087 11.068 11.035 11.013 10.982 10.932 10.878 10.825 10.793 10.79 10.82 10.845 10.848 10.85 10.85 10.825 10.785 10.758 10.732 10.705 10.652 10.585 10.522 10.445 10.41 10.432 10.455 10.488 10.545 10.612 10.675 10.732 10.74 10.697 10.642 10.58 10.558 10.572 10.57 10.532 10.47 10.403 10.338 10.298 10.31 10.335 10.332 10.308 10.313 10.365 10.49 10.755 11.098 11.453 11.917 12.415 12.847 13.302 13.719 13.98 14.105 14.222 14.377 14.54 14.627 14.569 14.477 14.277 13.784 13.15 12.523 12.063 11.733 11.581 12.088 13.302 14.667 15.342 15.229 14.614 13.069 10.863 9.411 9.005 8.973 9.023 9.03 9.018 9.008 9.015 9.02 9.02 9.04 9.07 9.108 9.15 9.175 9.183
12.273 12.143 12.175 12.338 12.488 12.56 12.578 12.605 12.64 12.695 12.8 12.94 13.08 13.22 13.358 13.495 13.675 13.908 14.2 14.447 14.615 14.815 15.012 15.097 15.09 15.082 15.065 15.042 15.015 14.942 14.885 14.862 14.825 14.775 14.705 14.612 14.51 14.408 14.318 14.295 14.325 14.345 14.335 14.315 14.312 14.307 14.275 14.22 14.157 14.105 14.077 14.05 13.99 13.795 13.593 13.53 13.505 13.487 13.52 13.557 13.507 13.412 13.332 13.277 13.26 13.28 13.315 13.267 13.067 12.79 12.625 12.585 12.55 12.53 12.532 12.512 12.455 12.398 12.348 12.3 12.23 12.12 11.988 11.855 11.723 11.598 11.483 11.368 11.255 11.163 11.093 11.055 11.045 11.035 11.033 11.04 11.052 11.06 11.06 11.058 11.053 11.05 11.045 11.028 10.997 10.94 10.87 10.81 10.755 10.71 10.688 10.723 10.817 10.88 10.885 10.885 10.885 10.885 10.877 10.855 10.83 10.805 10.75 10.672 10.592 10.508 10.47 10.485 10.505 10.535 10.588 10.655 10.722 10.775 10.77 10.712 10.647 10.583 10.542 10.52 10.472 10.408 10.34 10.27 10.203 10.145 10.125 10.125 10.11 10.09 10.07 10.075 10.118 10.17 10.248 10.353 10.598 10.963 11.383 11.97 12.622 13.174 13.614 14.029 14.362 14.555 14.705 14.85 14.967 15.045 15.012 14.827 14.494 14.239 14.049 13.927 14.33 15.059 15.614 15.822 15.825 15.604 14.327 12.103 10.123 9.238 9.155 9.15 9.175 9.2 9.21 9.22 9.225 9.225 9.233 9.248 9.273 9.303 9.313 9.31
12.49 12.48 12.486 12.546 12.671 12.808 12.948 13.088 13.226 13.383 13.603 13.883 14.177 14.437 14.637 14.767 14.862 14.967 15.122 15.237 15.24 15.215 15.19 15.165 15.135 15.11 15.093 15.085 15.032 14.933 14.883 14.87 14.845 14.777 14.665 14.555 14.457 14.363 14.288 14.278 14.31 14.345 14.362 14.35 14.327 14.297 14.255 14.202 14.145 14.09 14.022 13.99 13.925 13.732 13.555 13.472 13.427 13.38 13.352 13.325 13.227 13.085 12.955 12.85 12.8 12.783 12.773 12.733 12.62 12.472 12.357 12.295 12.27 12.285 12.372 12.43 12.39 12.35 12.32 12.267 12.172 12.055 11.92 11.773 11.628 11.498 11.395 11.303 11.213 11.133 11.073 11.04 11.025 11.015 11.008 11.008 11.015 11.035 11.053 11.055 11.053 11.043 11.023 11 10.952 10.855 10.758 10.69 10.635 10.6 10.615 10.698 10.815 10.905 10.935 10.935 10.935 10.94 10.945 10.94 10.925 10.902 10.85 10.76 10.663 10.573 10.528 10.538 10.56 10.583 10.628 10.693 10.76 10.81 10.777 10.698 10.632 10.567 10.502 10.435 10.368 10.303 10.235 10.168 10.1 10.048 10.018 10.003 9.998 9.993 9.95 9.888 9.85 9.86 9.903 9.928 9.983 10.063 10.203 10.49 10.865 11.405 12.122 12.882 13.542 14.044 14.507 14.81 14.932 15.015 15.075 15.135 15.195 15.249 15.264 15.284 15.514 15.717 15.72 15.728 15.737 15.737 14.952 13.135 11.003 9.633 9.348 9.363 9.415 9.44 9.445 9.448 9.45 9.46 9.475 9.49 9.508 9.525 9.54 9.633
13.281 13.638 13.74 13.88 14.073 14.265 14.46 14.655 14.827 14.945 15.037 15.157 15.29 15.397 15.462 15.45 15.38 15.335 15.315 15.292 15.265 15.235 15.21 15.185 15.158 15.143 15.14 15.125 15.04 14.935 14.913 14.915 14.865 14.755 14.615 14.488 14.38 14.3 14.263 14.255 14.255 14.255 14.257 14.255 14.245 14.215 14.117 13.967 13.832 13.717 13.582 13.482 13.38 13.253 13.155 13.06 12.965 12.868 12.793 12.76 12.748 12.735 12.72 12.678 12.637 12.605 12.547 12.442 12.29 12.125 12.005 11.968 11.985 12.023 12.138 12.285 12.342 12.345 12.307 12.22 12.107 11.992 11.865 11.72 11.585 11.49 11.423 11.35 11.27 11.188 11.113 11.055 11.018 11 10.988 10.975 10.973 11.008 11.065 11.09 11.085 11.055 11.012 10.96 10.867 10.75 10.645 10.573 10.523 10.513 10.58 10.693 10.81 10.92 10.977 10.985 10.985 10.99 10.995 11 11 10.99 10.94 10.84 10.733 10.635 10.585 10.593 10.612 10.623 10.66 10.727 10.792 10.847 10.802 10.683 10.595 10.53 10.455 10.37 10.295 10.228 10.16 10.093 10.04 10.015 9.995 9.973 9.963 9.955 9.907 9.815 9.715 9.675 9.69 9.703 9.723 9.773 9.815 9.82 9.836 10.068 10.488 11.018 11.74 12.53 13.327 13.972 14.462 14.862 15.045 15.102 15.16 15.22 15.327 15.46 15.59 15.667 15.658 15.643 15.64 15.642 15.18 13.81 11.892 10.21 9.553 9.598 9.653 9.678 9.685 9.69 9.698 9.713 9.73 9.745 9.758 9.773 9.863 10.313
15.012 15.529 15.662 15.722 15.757 15.789 15.822 15.855 15.87 15.83 15.75 15.682 15.632 15.595 15.562 15.5 15.4 15.335 15.32 15.305 15.282 15.255 15.23 15.21 15.195 15.193 15.195 15.15 15.038 14.933 14.933 14.95 14.865 14.728 14.585 14.475 14.415 14.392 14.397 14.377 14.28 14.135 14.002 13.887 13.772 13.64 13.465 13.295 13.178 13.083 12.988 12.895 12.815 12.778 12.768 12.755 12.743 12.73 12.718 12.705 12.695 12.667 12.605 12.51 12.403 12.298 12.21 12.1 11.963 11.83 11.758 11.775 11.818 11.855 11.923 12.023 12.067 12.052 12.07 12.097 12.04 11.927 11.805 11.678 11.58 11.522 11.465 11.395 11.322 11.243 11.168 11.103 11.043 10.998 10.97 10.953 10.94 10.965 11.05 11.115 11.102 11.047 10.978 10.88 10.763 10.645 10.533 10.455 10.425 10.465 10.568 10.685 10.805 10.922 11.007 11.035 11.035 11.04 11.045 11.05 11.055 11.047 11.002 10.912 10.805 10.703 10.648 10.648 10.657 10.658 10.69 10.757 10.822 10.885 10.852 10.715 10.588 10.495 10.41 10.32 10.233 10.155 10.088 10.033 10.005 9.995 9.977 9.953 9.93 9.915 9.865 9.785 9.728 9.7 9.693 9.693 9.705 9.743 9.745 9.703 9.673 9.723 9.755 9.836 10.186 10.668 11.308 12.118 12.955 13.794 14.504 14.944 15.12 15.192 15.295 15.42 15.552 15.632 15.63 15.603 15.58 15.565 15.382 14.305 12.513 10.848 10.008 9.965 9.988 9.993 10.005 9.985 9.963 9.975 9.993 10.002 10.008 10.103 10.613 11.53
16.187 16.31 16.33 16.315 16.275 16.235 16.195 16.115 15.993 15.865 15.77 15.728 15.71 15.687 15.632 15.54 15.425 15.34 15.31 15.3 15.288 15.273 15.258 15.25 15.25 15.25 15.237 15.16 15.03 14.927 14.952 14.965 14.877 14.78 14.622 14.457 14.327 14.197 14.06 13.9 13.675 13.47 13.34 13.22 13.065 12.92 12.835 12.795 12.788 12.78 12.77 12.76 12.75 12.743 12.738 12.73 12.72 12.71 12.7 12.69 12.66 12.565 12.428 12.31 12.2 12.07 11.955 11.873 11.79 11.708 11.695 11.745 11.79 11.823 11.863 11.837 11.5 11.235 11.355 11.522 11.602 11.63 11.652 11.63 11.582 11.545 11.492 11.427 11.362 11.292 11.222 11.16 11.098 11.035 10.995 10.98 10.973 11.008 11.082 11.127 11.107 11.048 10.97 10.85 10.69 10.543 10.423 10.34 10.35 10.445 10.563 10.68 10.8 10.917 11.025 11.08 11.085 11.088 11.092 11.097 11.09 11.065 11.03 10.967 10.872 10.773 10.71 10.698 10.697 10.693 10.723 10.785 10.847 10.912 10.897 10.772 10.623 10.488 10.378 10.283 10.19 10.1 10.033 10.003 9.99 9.98 9.963 9.938 9.91 9.885 9.855 9.825 9.815 9.81 9.8 9.785 9.772 9.775 9.76 9.735 9.725 9.717 9.653 9.543 9.525 9.626 9.926 10.403 10.961 11.81 12.91 13.882 14.589 15.044 15.267 15.395 15.52 15.6 15.605 15.578 15.55 15.523 15.49 14.735 13.203 11.79 10.833 10.445 10.388 10.397 10.405 10.322 10.25 10.253 10.262 10.258 10.345 10.843 11.903 12.955
