ncols         200
nrows         80
xllcorner     546000
yllcorner     259210
cellsize      5
NODATA_value  -9999.0
6.725 6.703 6.698 6.69 6.688 6.735 6.835 6.945 7.053 7.158 7.232 7.235 7.187 7.13 7.08 7.093 7.157 7.212 7.23 7.215 7.193 7.17 7.17 7.19 7.208 7.228 7.238 7.235 7.24 7.245 7.263 7.308 7.363 7.412 7.43 7.418 7.4 7.45 7.59 7.748 7.905 8.062 8.167 8.222 8.275 8.327 8.352 8.347 8.342 8.335 8.317 8.288 8.255 8.228 8.2 8.175 8.15 8.105 8.017 7.892 7.757 7.62 7.48 7.335 7.185 7.035 6.915 6.825 6.74 6.673 6.62 6.575 6.533 6.49 6.44 6.38 6.323 6.268 6.243 6.25 6.258 6.27 6.295 6.348 6.427 6.5 6.552 6.587 6.61 6.627 6.642 6.163 6.215 6.757 6.735 6.617 5.64 4.521 4.283 4.33 4.428 4.498 4.572 4.66 4.722 4.767 4.817 4.88 4.932 4.975 4.985 4.965 4.945 4.925 4.9 4.89 4.907 4.925 4.958 5.045 5.16 5.217 5.215 4.92 4.505 4.38 4.38 4.38 4.473 4.923 5.362 5.38 5.255 5.223 5.305 5.415 5.515 5.58 5.562 5.482 5.408 5.363 5.363 5.39 5.435 5.503 5.55 5.565 5.585 5.635 5.715 5.79 5.855 5.925 5.995 6.048 6.108 6.185 6.263 6.358 6.46 6.565 6.67 6.773 6.875 7.005 7.31 7.793 8.317 8.804 9.052 9.107 9.147 9.142 9.118 9.11 9.108 9.135 9.175 9.132 9.027 8.91 8.777 8.627 8.473 8.37 8.335 8.323 8.41 8.57 8.592 8.505 8.42 8.345 8.29 8.285 8.312 8.312 8.252 8.158
6.738 6.705 6.695 6.688 6.7 6.758 6.855 6.97 7.083 7.185 7.252 7.267 7.25 7.207 7.16 7.175 7.23 7.252 7.247 7.23 7.208 7.195 7.208 7.233 7.255 7.275 7.28 7.27 7.268 7.273 7.298 7.345 7.395 7.442 7.46 7.445 7.433 7.483 7.608 7.755 7.91 8.07 8.18 8.24 8.292 8.332 8.347 8.34 8.33 8.317 8.287 8.243 8.2 8.165 8.135 8.107 8.07 8.01 7.93 7.827 7.702 7.555 7.393 7.228 7.068 6.915 6.795 6.718 6.66 6.623 6.595 6.56 6.517 6.472 6.417 6.355 6.298 6.243 6.223 6.24 6.258 6.275 6.31 6.378 6.462 6.537 6.6 6.645 6.672 6.692 6.39 5.383 5.188 6.282 6.854 6.122 4.883 4.335 4.36 4.43 4.48 4.525 4.598 4.705 4.807 4.89 4.952 5 5.032 5.055 5.055 5.035 5.012 4.985 4.95 4.943 4.965 4.972 4.953 4.983 5.087 5.14 4.955 4.578 4.38 4.38 4.38 4.38 4.768 5.332 5.445 5.31 5.213 5.22 5.31 5.412 5.475 5.485 5.455 5.398 5.348 5.32 5.325 5.375 5.463 5.57 5.635 5.663 5.718 5.8 5.9 5.997 6.075 6.145 6.205 6.233 6.28 6.373 6.47 6.575 6.68 6.785 6.89 7.053 7.383 7.855 8.345 8.792 9.032 9.087 9.145 9.192 9.195 9.15 9.115 9.11 9.11 9.11 9.152 9.145 9.04 8.932 8.827 8.707 8.572 8.435 8.34 8.308 8.398 8.587 8.637 8.555 8.483 8.42 8.38 8.385 8.415 8.405 8.34 8.253
6.78 6.733 6.718 6.73 6.778 6.842 6.922 7.022 7.125 7.215 7.262 7.277 7.285 7.27 7.238 7.247 7.277 7.272 7.26 7.245 7.228 7.23 7.253 7.278 7.302 7.322 7.325 7.313 7.303 7.303 7.33 7.377 7.422 7.467 7.487 7.483 7.49 7.548 7.66 7.793 7.933 8.08 8.192 8.252 8.29 8.322 8.335 8.323 8.308 8.292 8.26 8.21 8.16 8.115 8.075 8.03 7.967 7.895 7.82 7.735 7.637 7.505 7.335 7.155 6.978 6.808 6.695 6.648 6.615 6.585 6.562 6.537 6.5 6.452 6.395 6.335 6.283 6.235 6.218 6.238 6.26 6.285 6.335 6.402 6.465 6.515 6.555 6.59 6.62 6.619 5.84 4.863 4.613 5.143 5.689 5.025 4.368 4.357 4.392 4.452 4.507 4.555 4.625 4.728 4.838 4.955 5.035 5.072 5.102 5.125 5.125 5.1 5.067 5.027 4.985 4.985 5.017 5.025 4.985 4.953 5.005 4.94 4.603 4.38 4.38 4.38 4.38 4.618 5.182 5.462 5.36 5.243 5.188 5.23 5.31 5.372 5.383 5.378 5.395 5.398 5.375 5.355 5.373 5.45 5.55 5.658 5.738 5.798 5.88 5.973 6.073 6.182 6.285 6.365 6.402 6.418 6.48 6.585 6.69 6.795 6.9 7.098 7.463 7.915 8.357 8.775 9.01 9.065 9.125 9.182 9.235 9.25 9.21 9.15 9.118 9.113 9.11 9.11 9.135 9.132 9.05 8.945 8.84 8.732 8.627 8.505 8.385 8.31 8.388 8.6 8.685 8.628 8.565 8.505 8.475 8.49 8.517 8.49 8.42 8.345
6.83 6.768 6.753 6.792 6.847 6.902 6.97 7.055 7.15 7.23 7.265 7.28 7.295 7.302 7.3 7.3 7.3 7.285 7.27 7.257 7.255 7.273 7.3 7.325 7.35 7.367 7.365 7.352 7.34 7.34 7.368 7.408 7.448 7.493 7.52 7.535 7.56 7.618 7.725 7.855 7.982 8.095 8.19 8.252 8.285 8.317 8.327 8.308 8.288 8.267 8.233 8.185 8.138 8.092 8.02 7.93 7.852 7.78 7.705 7.625 7.545 7.442 7.29 7.11 6.928 6.748 6.64 6.605 6.575 6.545 6.523 6.505 6.48 6.438 6.388 6.338 6.29 6.248 6.228 6.243 6.265 6.292 6.337 6.383 6.418 6.45 6.483 6.518 6.55 6.095 5.156 4.65 4.575 4.5 4.438 4.388 4.338 4.335 4.395 4.46 4.522 4.58 4.653 4.758 4.875 4.997 5.082 5.125 5.162 5.192 5.187 5.148 5.105 5.063 5.02 5.025 5.07 5.085 5.052 4.98 4.915 4.683 4.425 4.38 4.38 4.38 4.538 5.045 5.402 5.365 5.27 5.193 5.185 5.233 5.282 5.308 5.315 5.33 5.4 5.482 5.5 5.485 5.515 5.6 5.688 5.788 5.883 5.965 6.055 6.15 6.248 6.353 6.467 6.567 6.602 6.623 6.7 6.805 6.91 7.145 7.565 8.007 8.397 8.727 8.927 9.025 9.095 9.15 9.21 9.27 9.305 9.28 9.215 9.15 9.12 9.118 9.115 9.115 9.118 9.117 9.062 8.957 8.85 8.745 8.64 8.53 8.428 8.348 8.418 8.64 8.76 8.725 8.658 8.593 8.57 8.595 8.62 8.585 8.498 8.425
6.898 6.82 6.79 6.825 6.87 6.915 6.983 7.072 7.167 7.245 7.285 7.303 7.318 7.332 7.33 7.305 7.285 7.272 7.257 7.26 7.293 7.33 7.358 7.383 7.405 7.407 7.395 7.38 7.373 7.39 7.423 7.458 7.495 7.54 7.58 7.608 7.635 7.683 7.775 7.892 7.992 8.062 8.14 8.227 8.282 8.315 8.322 8.302 8.277 8.248 8.217 8.182 8.138 8.095 7.992 7.835 7.728 7.662 7.59 7.507 7.42 7.33 7.222 7.075 6.9 6.723 6.608 6.565 6.535 6.51 6.508 6.52 6.513 6.468 6.408 6.358 6.313 6.27 6.25 6.26 6.277 6.278 6.335 6.415 6.445 6.475 6.505 6.535 6.57 6.1 5.135 4.62 4.52 4.425 4.39 4.37 4.328 4.33 4.39 4.457 4.523 4.595 4.683 4.793 4.917 5.037 5.125 5.177 5.22 5.257 5.252 5.205 5.158 5.112 5.063 5.063 5.12 5.16 5.14 5.01 4.745 4.48 4.38 4.38 4.38 4.38 4.805 5.32 5.365 5.283 5.205 5.175 5.208 5.25 5.27 5.28 5.305 5.33 5.42 5.577 5.65 5.64 5.68 5.77 5.868 5.978 6.073 6.153 6.24 6.333 6.428 6.52 6.63 6.745 6.8 6.838 6.923 7.21 7.698 8.12 8.487 8.76 8.815 8.82 8.92 9.067 9.17 9.23 9.29 9.347 9.355 9.305 9.238 9.168 9.13 9.123 9.12 9.12 9.12 9.125 9.077 8.97 8.865 8.773 8.688 8.603 8.523 8.47 8.523 8.715 8.857 8.837 8.765 8.715 8.703 8.71 8.725 8.685 8.573 8.49
6.977 6.888 6.833 6.838 6.87 6.915 6.988 7.082 7.175 7.255 7.312 7.345 7.362 7.377 7.35 7.283 7.245 7.232 7.218 7.25 7.337 7.4 7.425 7.445 7.45 7.432 7.413 7.403 7.415 7.45 7.488 7.525 7.568 7.618 7.665 7.697 7.717 7.74 7.792 7.87 7.935 7.985 8.055 8.167 8.267 8.315 8.32 8.297 8.267 8.23 8.205 8.187 8.152 8.107 7.987 7.778 7.615 7.535 7.46 7.37 7.275 7.18 7.1 7.007 6.867 6.695 6.573 6.525 6.503 6.505 6.548 6.605 6.607 6.545 6.468 6.4 6.343 6.293 6.27 6.277 6.282 6.253 6.318 6.477 6.56 6.59 6.62 6.658 6.692 6.629 5.59 4.545 4.385 4.305 4.335 4.367 4.35 4.338 4.38 4.448 4.523 4.633 4.745 4.838 4.95 5.07 5.157 5.22 5.275 5.32 5.325 5.285 5.232 5.16 5.09 5.1 5.178 5.255 5.155 4.822 4.503 4.38 4.38 4.38 4.38 4.655 5.18 5.392 5.32 5.255 5.2 5.195 5.24 5.287 5.302 5.293 5.305 5.333 5.445 5.652 5.777 5.8 5.85 5.948 6.063 6.185 6.28 6.353 6.433 6.52 6.612 6.693 6.79 6.908 7.04 7.358 7.797 8.195 8.607 8.824 8.8 8.752 8.733 8.795 8.933 9.095 9.23 9.31 9.37 9.41 9.392 9.335 9.272 9.203 9.153 9.133 9.125 9.125 9.125 9.13 9.108 9.035 8.953 8.883 8.818 8.755 8.693 8.663 8.695 8.823 8.955 8.952 8.913 8.91 8.895 8.875 8.875 8.827 8.673 8.548
7.045 6.953 6.893 6.873 6.878 6.92 6.998 7.087 7.175 7.257 7.322 7.372 7.405 7.42 7.375 7.273 7.208 7.188 7.19 7.255 7.37 7.455 7.49 7.495 7.475 7.45 7.435 7.443 7.475 7.515 7.555 7.598 7.65 7.71 7.757 7.782 7.782 7.772 7.785 7.815 7.855 7.905 7.965 8.08 8.22 8.305 8.32 8.29 8.25 8.21 8.185 8.177 8.16 8.117 7.98 7.75 7.538 7.405 7.315 7.22 7.125 7.03 6.95 6.88 6.79 6.657 6.54 6.495 6.5 6.538 6.605 6.68 6.702 6.655 6.578 6.495 6.418 6.345 6.3 6.293 6.28 6.238 6.23 6.45 6.67 6.703 6.74 6.805 6.827 6.247 5.138 4.478 4.3 4.25 4.28 4.32 4.347 4.343 4.37 4.445 4.558 4.717 4.84 4.905 4.99 5.097 5.182 5.25 5.315 5.372 5.395 5.35 5.262 5.15 5.093 5.168 5.295 5.187 4.827 4.508 4.38 4.38 4.38 4.38 4.663 5.225 5.467 5.395 5.325 5.26 5.218 5.228 5.273 5.32 5.348 5.335 5.32 5.345 5.48 5.702 5.88 5.962 6.03 6.143 6.27 6.392 6.485 6.558 6.633 6.713 6.797 6.87 6.945 7.365 7.925 8.32 8.692 8.832 8.787 8.74 8.693 8.655 8.688 8.803 8.95 9.112 9.27 9.382 9.447 9.46 9.417 9.36 9.303 9.24 9.188 9.158 9.14 9.135 9.14 9.158 9.182 9.172 9.12 9.057 8.993 8.93 8.868 8.853 8.898 8.975 9.065 9.098 9.118 9.135 9.108 9.08 9.07 9.017 8.893 8.695
7.118 7.033 6.973 6.938 6.915 6.935 7.005 7.09 7.175 7.26 7.327 7.382 7.432 7.452 7.392 7.275 7.183 7.145 7.18 7.275 7.39 7.495 7.537 7.52 7.49 7.468 7.47 7.5 7.54 7.582 7.628 7.678 7.737 7.795 7.825 7.822 7.802 7.778 7.778 7.795 7.813 7.838 7.878 7.983 8.137 8.27 8.312 8.275 8.23 8.19 8.165 8.157 8.15 8.11 7.955 7.71 7.465 7.288 7.178 7.075 6.975 6.88 6.8 6.73 6.66 6.578 6.51 6.503 6.538 6.593 6.662 6.727 6.76 6.752 6.715 6.647 6.563 6.475 6.395 6.333 6.28 6.225 6.165 6.26 6.595 6.822 6.882 6.972 6.515 5.378 4.658 4.463 4.323 4.29 4.29 4.303 4.328 4.338 4.375 4.485 4.645 4.822 4.937 4.992 5.055 5.132 5.207 5.272 5.335 5.397 5.43 5.367 5.238 5.138 5.173 5.335 5.232 4.785 4.458 4.38 4.38 4.38 4.38 4.678 5.252 5.542 5.515 5.435 5.358 5.288 5.255 5.283 5.335 5.385 5.433 5.445 5.42 5.423 5.548 5.765 5.97 6.117 6.227 6.35 6.48 6.6 6.69 6.762 6.837 6.912 6.985 7.032 7.063 7.687 8.567 8.817 8.77 8.725 8.68 8.63 8.585 8.588 8.678 8.815 8.965 9.128 9.295 9.44 9.512 9.5 9.445 9.39 9.348 9.31 9.265 9.218 9.178 9.16 9.178 9.217 9.262 9.292 9.28 9.23 9.167 9.105 9.048 9.048 9.105 9.165 9.233 9.307 9.357 9.355 9.325 9.292 9.267 9.225 9.18 9.05
7.215 7.138 7.08 7.042 6.99 6.958 7.003 7.087 7.173 7.257 7.33 7.388 7.447 7.48 7.417 7.293 7.178 7.125 7.185 7.31 7.44 7.532 7.545 7.517 7.49 7.493 7.525 7.56 7.6 7.643 7.695 7.752 7.795 7.82 7.83 7.817 7.795 7.77 7.773 7.802 7.815 7.818 7.833 7.913 8.063 8.212 8.277 8.252 8.21 8.17 8.145 8.135 8.117 8.037 7.85 7.602 7.363 7.19 7.075 6.965 6.86 6.773 6.703 6.638 6.573 6.513 6.505 6.562 6.623 6.678 6.715 6.71 6.72 6.76 6.792 6.785 6.73 6.65 6.527 6.367 6.24 6.167 6.112 6.06 6.468 6.917 6.97 7.062 6.073 4.873 4.635 4.458 4.358 4.35 4.347 4.337 4.325 4.33 4.398 4.543 4.717 4.887 4.997 5.052 5.102 5.152 5.21 5.27 5.33 5.4 5.442 5.375 5.24 5.228 5.385 5.337 4.84 4.438 4.38 4.38 4.38 4.38 4.69 5.287 5.6 5.612 5.592 5.55 5.48 5.41 5.375 5.405 5.465 5.523 5.585 5.635 5.635 5.61 5.688 5.88 6.088 6.27 6.412 6.54 6.662 6.762 6.842 6.915 6.99 7.07 7.152 7.197 7.205 7.55 8.295 8.692 8.663 8.618 8.58 8.553 8.545 8.605 8.718 8.835 8.98 9.153 9.328 9.498 9.582 9.568 9.53 9.495 9.47 9.445 9.4 9.343 9.278 9.215 9.213 9.257 9.302 9.352 9.38 9.365 9.32 9.262 9.228 9.25 9.307 9.365 9.44 9.52 9.555 9.545 9.52 9.487 9.455 9.445 9.44 9.415
7.327 7.258 7.205 7.15 7.055 6.975 6.995 7.08 7.17 7.263 7.338 7.4 7.475 7.52 7.46 7.33 7.203 7.16 7.248 7.39 7.51 7.547 7.527 7.503 7.498 7.545 7.597 7.628 7.663 7.702 7.745 7.777 7.79 7.79 7.795 7.8 7.787 7.763 7.768 7.805 7.827 7.833 7.84 7.89 8.023 8.152 8.207 8.215 8.19 8.15 8.125 8.107 8.035 7.877 7.675 7.445 7.24 7.105 6.995 6.893 6.805 6.735 6.675 6.615 6.558 6.503 6.518 6.617 6.715 6.785 6.715 6.568 6.555 6.625 6.692 6.74 6.745 6.702 6.562 6.345 6.158 6.055 6.005 6.24 6.725 6.962 6.995 7.054 5.972 4.77 4.605 4.448 4.368 4.352 4.337 4.315 4.305 4.33 4.423 4.58 4.75 4.912 5.02 5.07 5.105 5.138 5.188 5.25 5.32 5.412 5.467 5.4 5.33 5.435 5.44 4.965 4.478 4.37 4.377 4.38 4.38 4.705 5.32 5.655 5.707 5.675 5.66 5.682 5.657 5.6 5.555 5.575 5.635 5.698 5.765 5.835 5.875 5.86 5.895 6.045 6.245 6.43 6.575 6.7 6.8 6.87 6.94 7.015 7.098 7.198 7.302 7.38 7.408 7.513 7.993 8.48 8.58 8.558 8.545 8.55 8.595 8.69 8.8 8.928 9.093 9.275 9.455 9.632 9.72 9.708 9.685 9.665 9.645 9.612 9.56 9.492 9.405 9.303 9.25 9.278 9.335 9.392 9.43 9.445 9.432 9.39 9.378 9.425 9.49 9.552 9.615 9.655 9.665 9.665 9.657 9.637 9.61 9.627 9.67 9.67
7.435 7.377 7.312 7.212 7.085 6.983 6.988 7.08 7.188 7.285 7.358 7.433 7.52 7.572 7.515 7.385 7.275 7.268 7.365 7.482 7.545 7.537 7.513 7.503 7.54 7.615 7.67 7.7 7.725 7.74 7.747 7.75 7.75 7.75 7.758 7.772 7.772 7.755 7.76 7.8 7.837 7.852 7.865 7.895 7.995 8.092 8.122 8.145 8.15 8.127 8.097 8.027 7.875 7.683 7.493 7.3 7.14 7.028 6.933 6.855 6.79 6.73 6.67 6.61 6.553 6.5 6.53 6.645 6.75 6.797 6.612 6.363 6.33 6.382 6.425 6.462 6.487 6.485 6.392 6.247 6.082 5.945 6.153 6.7 6.99 6.99 7.024 6.489 5.353 4.708 4.562 4.413 4.323 4.285 4.26 4.258 4.29 4.345 4.453 4.613 4.78 4.937 5.035 5.072 5.095 5.118 5.163 5.235 5.328 5.435 5.49 5.458 5.502 5.585 5.145 4.525 4.355 4.365 4.375 4.38 4.723 5.432 5.782 5.8 5.79 5.708 5.695 5.745 5.777 5.77 5.735 5.745 5.808 5.875 5.945 6.015 6.082 6.11 6.128 6.233 6.41 6.59 6.735 6.837 6.91 6.97 7.038 7.123 7.228 7.345 7.455 7.547 7.6 7.655 7.865 8.168 8.412 8.542 8.568 8.598 8.678 8.79 8.923 9.087 9.275 9.462 9.647 9.83 9.912 9.89 9.863 9.838 9.815 9.777 9.707 9.615 9.513 9.41 9.328 9.318 9.375 9.433 9.468 9.493 9.507 9.493 9.5 9.568 9.647 9.7 9.717 9.722 9.727 9.732 9.737 9.735 9.725 9.745 9.795 9.83
7.515 7.467 7.37 7.243 7.11 6.99 6.99 7.105 7.222 7.315 7.393 7.48 7.57 7.625 7.57 7.44 7.378 7.42 7.5 7.55 7.545 7.52 7.508 7.535 7.605 7.685 7.737 7.757 7.765 7.747 7.72 7.71 7.71 7.71 7.72 7.735 7.745 7.743 7.753 7.795 7.837 7.865 7.887 7.913 7.965 8.015 8.035 8.058 8.08 8.085 8.032 7.895 7.718 7.54 7.365 7.208 7.075 6.975 6.905 6.845 6.785 6.725 6.665 6.605 6.545 6.483 6.47 6.51 6.535 6.517 6.31 6.083 6.045 6.057 6.072 6.09 6.105 6.115 6.023 5.93 5.895 5.96 6.522 6.99 7.003 7.02 6.482 5.348 4.726 4.637 4.512 4.368 4.268 4.218 4.21 4.25 4.31 4.373 4.485 4.647 4.812 4.955 5.032 5.06 5.082 5.105 5.153 5.243 5.35 5.46 5.522 5.55 5.62 5.295 4.628 4.335 4.343 4.355 4.368 4.72 5.412 5.847 5.937 5.902 5.82 5.74 5.73 5.78 5.83 5.87 5.885 5.917 5.985 6.055 6.125 6.195 6.27 6.332 6.355 6.433 6.593 6.755 6.877 6.947 7.005 7.06 7.135 7.247 7.372 7.497 7.61 7.7 7.77 7.855 7.975 8.105 8.31 8.502 8.59 8.683 8.8 8.925 9.06 9.223 9.41 9.597 9.787 10 10.105 10.08 10.047 10.015 9.982 9.925 9.832 9.733 9.633 9.535 9.445 9.41 9.448 9.498 9.533 9.558 9.585 9.6 9.635 9.715 9.802 9.81 9.768 9.763 9.77 9.775 9.78 9.787 9.787 9.775 9.805 9.875
7.57 7.537 7.43 7.3 7.168 7.033 7.03 7.155 7.265 7.355 7.44 7.53 7.62 7.677 7.625 7.513 7.503 7.572 7.62 7.615 7.575 7.548 7.563 7.625 7.705 7.77 7.79 7.785 7.78 7.757 7.715 7.683 7.675 7.675 7.683 7.695 7.71 7.72 7.73 7.76 7.802 7.845 7.88 7.907 7.917 7.925 7.948 7.972 7.995 8.005 7.94 7.795 7.633 7.468 7.303 7.153 7.03 6.948 6.89 6.83 6.773 6.72 6.665 6.605 6.547 6.46 6.34 6.22 6.108 6.035 5.898 5.768 5.74 5.72 5.715 5.715 5.723 5.74 5.682 5.53 5.475 5.765 6.557 7.045 7.015 7.044 5.907 4.716 4.638 4.56 4.452 4.32 4.223 4.185 4.21 4.27 4.33 4.393 4.505 4.67 4.822 4.925 4.975 5 5.025 5.085 5.183 5.288 5.395 5.5 5.557 5.582 5.29 4.653 4.325 4.328 4.333 4.34 4.7 5.407 5.772 5.872 5.952 5.92 5.85 5.77 5.76 5.81 5.86 5.895 5.925 6.01 6.12 6.205 6.287 6.37 6.45 6.525 6.575 6.65 6.777 6.892 6.97 7.027 7.082 7.117 7.188 7.315 7.445 7.577 7.692 7.775 7.865 7.992 8.13 8.26 8.39 8.518 8.665 8.823 8.96 9.09 9.21 9.343 9.515 9.703 9.898 10.13 10.265 10.252 10.217 10.185 10.137 10.057 9.963 9.868 9.773 9.678 9.585 9.548 9.575 9.62 9.663 9.695 9.725 9.75 9.798 9.877 9.93 9.882 9.81 9.798 9.803 9.808 9.813 9.817 9.795 9.738 9.753 9.847
7.627 7.615 7.52 7.387 7.247 7.105 7.1 7.202 7.265 7.36 7.482 7.58 7.67 7.73 7.68 7.613 7.647 7.695 7.705 7.685 7.65 7.655 7.71 7.78 7.847 7.872 7.84 7.805 7.79 7.77 7.725 7.673 7.645 7.64 7.645 7.657 7.672 7.67 7.668 7.698 7.75 7.807 7.85 7.867 7.853 7.843 7.863 7.885 7.9 7.9 7.837 7.715 7.572 7.412 7.248 7.1 6.995 6.93 6.875 6.815 6.763 6.72 6.672 6.617 6.562 6.45 6.265 6.063 5.855 5.688 5.593 5.543 5.503 5.46 5.423 5.393 5.38 5.378 5.377 5.248 5.155 5.485 6.375 6.999 7.037 6.467 5.275 4.628 4.552 4.475 4.385 4.273 4.193 4.185 4.225 4.285 4.342 4.403 4.515 4.67 4.782 4.837 4.87 4.898 4.948 5.09 5.252 5.357 5.45 5.535 5.567 5.355 4.735 4.32 4.32 4.323 4.325 4.683 5.397 5.77 5.8 5.887 5.945 5.915 5.867 5.8 5.79 5.837 5.857 5.835 5.853 5.985 6.157 6.287 6.39 6.485 6.575 6.66 6.74 6.825 6.91 6.977 7.033 7.09 7.132 7.14 7.19 7.313 7.445 7.58 7.697 7.785 7.903 8.062 8.217 8.352 8.48 8.62 8.798 8.982 9.13 9.26 9.38 9.493 9.63 9.805 10.012 10.227 10.37 10.39 10.355 10.315 10.25 10.172 10.095 10.01 9.917 9.822 9.728 9.693 9.725 9.77 9.82 9.865 9.902 9.93 9.97 10.042 10.017 9.913 9.855 9.835 9.837 9.842 9.845 9.827 9.772 9.7 9.68 9.763
7.692 7.692 7.607 7.467 7.32 7.175 7.17 7.235 7.225 7.303 7.472 7.615 7.72 7.782 7.753 7.73 7.77 7.78 7.775 7.755 7.755 7.82 7.897 7.945 7.96 7.937 7.892 7.847 7.81 7.782 7.737 7.675 7.625 7.603 7.605 7.615 7.615 7.605 7.613 7.653 7.71 7.77 7.815 7.82 7.79 7.768 7.775 7.79 7.795 7.79 7.725 7.61 7.49 7.35 7.193 7.053 6.968 6.915 6.86 6.803 6.758 6.722 6.68 6.63 6.542 6.37 6.147 5.917 5.682 5.493 5.425 5.423 5.388 5.333 5.28 5.233 5.193 5.155 5.12 5.058 5.085 5.435 5.867 5.99 5.915 5.265 4.618 4.543 4.465 4.388 4.31 4.225 4.183 4.198 4.24 4.297 4.35 4.41 4.52 4.637 4.697 4.733 4.765 4.81 4.935 5.152 5.32 5.405 5.48 5.547 5.56 5.032 4.423 4.32 4.32 4.32 4.675 5.392 5.77 5.8 5.83 5.892 5.925 5.898 5.867 5.825 5.805 5.805 5.767 5.705 5.753 5.928 6.122 6.297 6.435 6.542 6.637 6.732 6.83 6.925 6.995 7.048 7.1 7.142 7.157 7.15 7.193 7.31 7.445 7.58 7.7 7.81 7.955 8.125 8.295 8.445 8.575 8.735 8.933 9.132 9.297 9.427 9.545 9.655 9.77 9.915 10.11 10.295 10.432 10.492 10.467 10.407 10.33 10.257 10.192 10.122 10.045 9.962 9.873 9.84 9.877 9.922 9.97 10.02 10.067 10.105 10.14 10.172 10.075 9.945 9.905 9.875 9.87 9.877 9.862 9.81 9.74 9.665 9.608 9.67
7.745 7.755 7.685 7.54 7.385 7.243 7.22 7.245 7.205 7.238 7.395 7.587 7.745 7.835 7.842 7.842 7.852 7.848 7.845 7.855 7.915 8.005 8.047 8.037 8 7.955 7.917 7.88 7.838 7.805 7.76 7.69 7.625 7.578 7.563 7.575 7.585 7.598 7.613 7.638 7.685 7.735 7.772 7.767 7.73 7.695 7.685 7.688 7.685 7.68 7.615 7.5 7.385 7.263 7.128 7.015 6.95 6.9 6.845 6.793 6.758 6.727 6.65 6.527 6.365 6.145 5.902 5.655 5.445 5.333 5.315 5.335 5.335 5.3 5.25 5.198 5.143 5.09 5.035 4.993 5.073 5.345 5.36 5.04 4.786 4.643 4.56 4.48 4.398 4.315 4.235 4.183 4.185 4.218 4.263 4.313 4.36 4.418 4.495 4.57 4.628 4.685 4.74 4.81 4.985 5.227 5.365 5.423 5.49 5.547 5.247 4.623 4.32 4.32 4.32 4.67 5.387 5.77 5.8 5.83 5.86 5.9 5.91 5.883 5.857 5.827 5.782 5.72 5.645 5.608 5.69 5.87 6.065 6.258 6.437 6.585 6.695 6.79 6.905 7.012 7.08 7.127 7.172 7.185 7.17 7.16 7.195 7.305 7.442 7.58 7.708 7.848 8.015 8.185 8.36 8.527 8.68 8.86 9.068 9.275 9.457 9.595 9.71 9.82 9.93 10.048 10.193 10.343 10.477 10.575 10.567 10.49 10.408 10.333 10.267 10.202 10.137 10.07 9.995 9.968 10.005 10.052 10.102 10.155 10.205 10.255 10.3 10.26 10.103 9.99 9.955 9.918 9.903 9.895 9.847 9.77 9.687 9.6 9.52 9.57
7.775 7.787 7.745 7.637 7.478 7.315 7.253 7.26 7.245 7.245 7.358 7.55 7.737 7.88 7.932 7.935 7.933 7.93 7.968 8.078 8.202 8.237 8.153 8.06 8.01 7.965 7.925 7.89 7.858 7.835 7.81 7.753 7.68 7.613 7.573 7.585 7.62 7.64 7.64 7.65 7.685 7.725 7.752 7.743 7.705 7.663 7.633 7.615 7.598 7.578 7.513 7.408 7.3 7.19 7.083 7 6.943 6.888 6.835 6.798 6.775 6.687 6.487 6.267 6.062 5.842 5.613 5.408 5.26 5.198 5.205 5.225 5.24 5.237 5.212 5.17 5.115 5.06 5.008 4.99 5.075 5.26 5.26 5.01 4.775 4.635 4.545 4.458 4.37 4.28 4.208 4.19 4.22 4.293 4.365 4.403 4.44 4.488 4.545 4.615 4.695 4.775 4.848 4.915 5.068 5.295 5.42 5.458 5.51 5.297 4.688 4.32 4.32 4.32 4.413 5.122 5.757 5.79 5.82 5.852 5.885 5.905 5.897 5.87 5.845 5.815 5.755 5.675 5.653 5.728 5.843 5.975 6.123 6.27 6.418 6.58 6.735 6.853 6.982 7.1 7.162 7.205 7.24 7.23 7.19 7.17 7.198 7.3 7.438 7.59 7.76 7.933 8.103 8.268 8.44 8.62 8.808 9.005 9.205 9.41 9.61 9.765 9.875 9.972 10.067 10.167 10.285 10.415 10.535 10.627 10.64 10.572 10.485 10.408 10.342 10.278 10.212 10.147 10.08 10.043 10.058 10.1 10.155 10.21 10.26 10.315 10.365 10.297 10.145 10.068 10.03 9.982 9.932 9.87 9.79 9.7 9.608 9.515 9.428 9.48
7.795 7.8 7.772 7.715 7.61 7.455 7.373 7.375 7.358 7.33 7.41 7.59 7.765 7.92 8.012 8.035 8.035 8.05 8.163 8.372 8.545 8.51 8.298 8.115 8.025 7.978 7.935 7.9 7.878 7.87 7.867 7.842 7.782 7.708 7.643 7.635 7.67 7.682 7.673 7.668 7.69 7.73 7.755 7.747 7.717 7.675 7.635 7.605 7.578 7.548 7.48 7.378 7.275 7.178 7.083 7.003 6.94 6.885 6.848 6.828 6.805 6.605 6.24 5.963 5.755 5.54 5.363 5.233 5.118 5.073 5.095 5.115 5.13 5.14 5.145 5.13 5.087 5.033 4.983 4.993 5.08 5.2 5.145 4.925 4.753 4.633 4.54 4.45 4.365 4.295 4.25 4.248 4.288 4.423 4.545 4.573 4.6 4.635 4.7 4.785 4.865 4.942 5.007 5.063 5.175 5.365 5.485 5.515 5.507 4.96 4.378 4.32 4.32 4.32 4.775 5.497 5.772 5.785 5.782 5.772 5.762 5.757 5.782 5.825 5.835 5.808 5.765 5.763 5.868 6.037 6.182 6.29 6.388 6.483 6.578 6.698 6.827 6.92 7.027 7.152 7.232 7.28 7.305 7.282 7.23 7.193 7.205 7.298 7.458 7.663 7.878 8.07 8.24 8.4 8.573 8.768 8.985 9.2 9.395 9.59 9.772 9.902 9.992 10.075 10.155 10.257 10.375 10.48 10.567 10.635 10.66 10.63 10.562 10.483 10.415 10.352 10.287 10.22 10.153 10.103 10.088 10.108 10.15 10.2 10.25 10.3 10.34 10.297 10.213 10.177 10.12 9.74 9.39 9.597 9.76 9.635 9.528 9.435 9.343 9.408
7.812 7.807 7.777 7.735 7.69 7.61 7.552 7.53 7.485 7.44 7.498 7.665 7.822 7.95 8.062 8.132 8.15 8.218 8.385 8.552 8.66 8.622 8.455 8.257 8.083 7.99 7.945 7.915 7.905 7.905 7.905 7.902 7.877 7.815 7.733 7.695 7.715 7.725 7.71 7.693 7.7 7.735 7.755 7.745 7.725 7.692 7.655 7.63 7.61 7.582 7.51 7.4 7.293 7.193 7.095 7.01 6.945 6.903 6.885 6.872 6.787 6.475 6.018 5.678 5.458 5.293 5.2 5.115 5.018 4.978 4.988 5.005 5.02 5.033 5.047 5.055 5.045 5.007 4.973 5.008 5.095 5.14 5.045 4.883 4.75 4.63 4.53 4.45 4.39 4.35 4.32 4.31 4.388 4.585 4.722 4.747 4.773 4.8 4.863 4.952 5.035 5.105 5.162 5.218 5.293 5.435 5.545 5.565 5.22 4.595 4.32 4.32 4.32 4.685 5.415 5.77 5.74 5.695 5.632 5.56 5.488 5.438 5.495 5.638 5.753 5.818 5.878 6 6.167 6.332 6.47 6.58 6.68 6.77 6.857 6.922 6.947 6.958 7.03 7.162 7.28 7.352 7.37 7.337 7.283 7.233 7.223 7.333 7.555 7.797 8.015 8.212 8.395 8.563 8.745 8.958 9.19 9.42 9.627 9.792 9.91 9.995 10.07 10.148 10.228 10.322 10.415 10.492 10.565 10.63 10.655 10.645 10.617 10.557 10.488 10.425 10.36 10.288 10.223 10.178 10.15 10.145 10.165 10.198 10.24 10.28 10.315 10.32 10.295 10.165 9.742 9.133 8.843 9.105 9.55 9.675 9.535 9.41 9.285 9.32
7.822 7.812 7.785 7.742 7.7 7.68 7.665 7.635 7.6 7.56 7.595 7.725 7.855 7.97 8.09 8.2 8.272 8.355 8.462 8.525 8.555 8.55 8.475 8.337 8.172 8.033 7.958 7.937 7.937 7.94 7.94 7.942 7.94 7.91 7.84 7.77 7.758 7.762 7.747 7.73 7.72 7.74 7.755 7.74 7.722 7.697 7.67 7.657 7.647 7.617 7.54 7.43 7.32 7.212 7.107 7.018 6.96 6.932 6.922 6.907 6.717 6.302 5.828 5.438 5.225 5.138 5.082 5.008 4.943 4.92 4.91 4.905 4.91 4.925 4.94 4.95 4.963 4.96 4.962 5.007 5.072 5.075 4.982 4.86 4.74 4.622 4.533 4.483 4.45 4.42 4.39 4.39 4.533 4.775 4.9 4.922 4.945 4.96 5.01 5.102 5.195 5.265 5.317 5.373 5.428 5.522 5.59 5.35 4.715 4.32 4.32 4.32 4.56 5.295 5.77 5.715 5.635 5.545 5.455 5.365 5.303 5.313 5.43 5.648 5.878 5.998 6.1 6.267 6.43 6.56 6.657 6.767 6.882 6.982 7.037 7.032 6.995 6.963 7.023 7.158 7.293 7.405 7.435 7.398 7.35 7.303 7.313 7.468 7.715 7.945 8.147 8.345 8.54 8.725 8.927 9.15 9.375 9.602 9.802 9.927 10.002 10.075 10.148 10.222 10.293 10.353 10.415 10.488 10.562 10.63 10.655 10.645 10.635 10.61 10.557 10.492 10.425 10.353 10.29 10.25 10.22 10.198 10.198 10.223 10.27 10.32 10.363 10.385 10.185 9.645 9.05 8.818 8.857 8.87 9.223 9.65 9.64 9.485 9.345 9.298
7.827 7.82 7.792 7.748 7.72 7.728 7.73 7.71 7.687 7.66 7.675 7.763 7.875 7.982 8.092 8.21 8.287 8.322 8.357 8.39 8.42 8.44 8.392 8.285 8.175 8.05 7.953 7.922 7.922 7.922 7.92 7.917 7.915 7.927 7.907 7.842 7.807 7.797 7.782 7.765 7.747 7.75 7.752 7.735 7.715 7.677 7.645 7.64 7.632 7.595 7.512 7.407 7.302 7.197 7.09 7 6.957 6.945 6.927 6.84 6.57 6.16 5.708 5.275 5.055 5.005 4.955 4.91 4.893 4.895 4.88 4.853 4.843 4.853 4.868 4.883 4.898 4.9 4.895 4.917 4.96 4.96 4.882 4.767 4.655 4.578 4.55 4.535 4.51 4.48 4.453 4.448 4.627 4.927 5.057 5.062 5.065 5.06 5.1 5.175 5.175 5.255 5.44 5.542 5.595 5.615 5.397 4.833 4.4 4.32 4.32 4.32 4.923 5.63 5.687 5.59 5.495 5.405 5.318 5.283 5.333 5.47 5.658 5.88 6.147 6.277 6.353 6.515 6.647 6.725 6.803 6.918 7.042 7.13 7.172 7.165 7.115 7.075 7.128 7.26 7.393 7.487 7.512 7.49 7.45 7.413 7.478 7.675 7.877 8.06 8.25 8.445 8.632 8.795 9.012 9.277 9.51 9.727 9.91 10.02 10.093 10.168 10.233 10.3 10.367 10.4 10.428 10.485 10.558 10.627 10.655 10.645 10.635 10.63 10.61 10.557 10.49 10.42 10.363 10.323 10.29 10.26 10.263 10.308 10.368 10.43 10.475 10.202 9.548 8.968 8.78 8.832 8.875 8.883 8.98 9.455 9.757 9.63 9.52 9.425
7.833 7.825 7.797 7.763 7.768 7.792 7.79 7.77 7.745 7.713 7.72 7.797 7.887 7.965 8.062 8.152 8.177 8.18 8.21 8.247 8.282 8.315 8.295 8.205 8.1 8.002 7.9 7.833 7.817 7.812 7.807 7.81 7.833 7.885 7.905 7.865 7.817 7.79 7.777 7.762 7.75 7.747 7.742 7.725 7.69 7.628 7.588 7.582 7.56 7.502 7.42 7.325 7.225 7.122 7.02 6.948 6.913 6.897 6.842 6.64 6.322 5.975 5.592 5.168 4.908 4.863 4.858 4.865 4.878 4.887 4.872 4.843 4.825 4.825 4.84 4.86 4.867 4.842 4.8 4.78 4.8 4.81 4.745 4.633 4.55 4.535 4.555 4.565 4.557 4.535 4.503 4.465 4.605 4.915 5.095 5.127 5.122 5.108 5.147 5.155 5.005 4.995 5.275 5.587 5.72 5.635 5.05 4.435 4.32 4.32 4.32 4.678 5.387 5.67 5.55 5.45 5.355 5.293 5.285 5.36 5.51 5.693 5.883 6.07 6.295 6.48 6.607 6.735 6.815 6.865 6.945 7.062 7.157 7.187 7.247 7.33 7.33 7.295 7.345 7.467 7.552 7.567 7.577 7.597 7.575 7.558 7.668 7.86 8 8.138 8.317 8.492 8.62 8.71 8.913 9.23 9.522 9.795 10.002 10.115 10.195 10.277 10.34 10.39 10.455 10.49 10.49 10.505 10.555 10.622 10.65 10.643 10.64 10.642 10.635 10.605 10.555 10.49 10.435 10.397 10.363 10.33 10.355 10.437 10.503 10.557 10.224 9.453 8.885 8.748 8.793 8.847 8.89 8.885 8.86 9.325 9.785 9.757 9.707 9.625
7.84 7.83 7.808 7.798 7.827 7.855 7.845 7.812 7.775 7.73 7.745 7.82 7.875 7.928 8.01 8.06 8.052 8.043 8.055 8.09 8.13 8.17 8.185 8.132 8.048 7.955 7.83 7.72 7.675 7.668 7.678 7.713 7.77 7.84 7.872 7.842 7.783 7.74 7.725 7.718 7.715 7.717 7.72 7.7 7.64 7.565 7.53 7.515 7.467 7.397 7.32 7.23 7.132 7.03 6.938 6.885 6.852 6.822 6.69 6.4 6.065 5.73 5.393 5.028 4.805 4.798 4.838 4.865 4.875 4.882 4.867 4.838 4.813 4.805 4.82 4.832 4.815 4.767 4.718 4.678 4.663 4.665 4.608 4.528 4.513 4.53 4.55 4.57 4.585 4.585 4.565 4.545 4.608 4.8 4.987 5.087 5.142 5.152 5.157 5.067 4.873 4.79 5.08 5.567 5.732 5.402 4.718 4.32 4.32 4.32 4.52 5.192 5.725 5.675 5.46 5.31 5.273 5.315 5.41 5.553 5.73 5.92 6.11 6.3 6.488 6.677 6.827 6.905 6.955 7.005 7.087 7.182 7.212 7.203 7.265 7.395 7.485 7.507 7.552 7.62 7.627 7.605 7.623 7.672 7.687 7.72 7.842 7.98 8.09 8.213 8.35 8.46 8.525 8.575 8.745 9.06 9.415 9.785 10.075 10.222 10.308 10.395 10.46 10.498 10.543 10.587 10.595 10.578 10.583 10.623 10.648 10.645 10.65 10.657 10.65 10.63 10.602 10.555 10.505 10.47 10.435 10.405 10.448 10.56 10.652 10.247 9.363 8.803 8.713 8.76 8.81 8.868 8.925 8.95 8.955 9.293 9.65 9.695 9.715 9.705
7.842 7.835 7.83 7.85 7.885 7.897 7.872 7.825 7.78 7.738 7.75 7.805 7.845 7.89 7.937 7.95 7.93 7.915 7.91 7.93 7.97 8.023 8.08 8.07 8.007 7.915 7.775 7.633 7.548 7.545 7.593 7.658 7.725 7.795 7.84 7.82 7.755 7.698 7.673 7.67 7.672 7.672 7.672 7.645 7.577 7.505 7.462 7.425 7.36 7.29 7.217 7.13 7.035 6.94 6.865 6.822 6.785 6.712 6.522 6.22 5.888 5.553 5.218 4.883 4.743 4.805 4.85 4.865 4.872 4.877 4.865 4.835 4.805 4.79 4.797 4.787 4.74 4.685 4.635 4.593 4.56 4.538 4.503 4.488 4.51 4.53 4.55 4.567 4.582 4.597 4.61 4.632 4.668 4.758 4.88 4.99 5.095 5.165 5.157 5.045 4.905 4.895 5.19 5.592 5.655 5.042 4.423 4.32 4.32 4.32 4.873 5.48 5.675 5.78 5.57 5.34 5.345 5.465 5.6 5.77 5.96 6.15 6.34 6.53 6.715 6.882 6.995 7.05 7.095 7.145 7.212 7.252 7.235 7.22 7.288 7.42 7.552 7.65 7.687 7.685 7.663 7.645 7.668 7.723 7.78 7.86 7.965 8.075 8.185 8.292 8.38 8.44 8.488 8.533 8.678 8.988 9.38 9.79 10.125 10.317 10.425 10.512 10.575 10.613 10.65 10.692 10.707 10.687 10.665 10.663 10.67 10.673 10.678 10.683 10.675 10.655 10.638 10.613 10.575 10.54 10.505 10.5 10.575 10.702 10.262 9.27 8.721 8.685 8.745 8.805 8.865 8.908 8.97 9.05 9.1 9.268 9.443 9.5 9.56 9.62
7.817 7.822 7.832 7.855 7.88 7.887 7.862 7.815 7.768 7.733 7.73 7.763 7.805 7.845 7.86 7.845 7.823 7.8 7.78 7.783 7.838 7.933 8.012 8.012 7.957 7.875 7.742 7.588 7.483 7.49 7.56 7.63 7.7 7.762 7.802 7.79 7.73 7.663 7.625 7.617 7.615 7.612 7.607 7.575 7.51 7.442 7.382 7.32 7.25 7.18 7.11 7.03 6.943 6.858 6.79 6.745 6.7 6.545 6.292 6.06 5.78 5.443 5.105 4.783 4.695 4.81 4.857 4.86 4.865 4.867 4.855 4.827 4.802 4.78 4.762 4.727 4.673 4.62 4.578 4.54 4.503 4.465 4.443 4.452 4.475 4.497 4.525 4.547 4.56 4.575 4.6 4.635 4.698 4.798 4.878 4.95 5.053 5.157 5.165 5.082 5.012 5.055 5.28 5.56 5.362 4.678 4.32 4.32 4.32 4.613 5.265 5.545 5.58 5.757 5.742 5.568 5.525 5.648 5.808 5.998 6.19 6.38 6.57 6.757 6.927 7.06 7.14 7.188 7.235 7.285 7.322 7.328 7.31 7.295 7.35 7.475 7.61 7.725 7.757 7.73 7.703 7.685 7.71 7.795 7.923 8.005 8.07 8.18 8.29 8.387 8.46 8.518 8.57 8.615 8.735 9.04 9.45 9.852 10.165 10.38 10.535 10.63 10.69 10.73 10.77 10.8 10.81 10.795 10.77 10.75 10.743 10.748 10.75 10.748 10.733 10.71 10.695 10.68 10.65 10.615 10.595 10.64 10.757 10.267 9.193 8.663 8.68 8.745 8.82 8.895 8.952 8.985 9.038 9.13 9.21 9.275 9.343 9.413 9.485 9.555
7.77 7.792 7.81 7.815 7.825 7.837 7.83 7.792 7.75 7.725 7.715 7.72 7.75 7.79 7.795 7.768 7.743 7.718 7.698 7.703 7.78 7.91 7.98 7.96 7.905 7.84 7.727 7.578 7.48 7.485 7.55 7.617 7.675 7.717 7.745 7.74 7.695 7.63 7.58 7.558 7.548 7.545 7.537 7.5 7.437 7.372 7.298 7.218 7.145 7.073 7 6.935 6.865 6.785 6.71 6.653 6.607 6.365 6.005 5.807 5.627 5.335 4.995 4.733 4.698 4.817 4.87 4.855 4.853 4.852 4.837 4.812 4.787 4.757 4.717 4.673 4.623 4.57 4.535 4.512 4.48 4.44 4.405 4.393 4.405 4.43 4.467 4.507 4.53 4.545 4.57 4.623 4.743 4.882 4.945 4.975 5.055 5.16 5.16 5.073 5.003 5.06 5.275 5.475 5.005 4.39 4.32 4.32 4.32 4.96 5.505 5.418 5.493 5.618 5.727 5.722 5.72 5.855 6.03 6.225 6.42 6.61 6.8 6.97 7.102 7.21 7.28 7.325 7.375 7.425 7.455 7.458 7.445 7.425 7.45 7.553 7.687 7.792 7.82 7.792 7.76 7.743 7.805 7.963 8.137 8.19 8.198 8.29 8.4 8.49 8.555 8.615 8.677 8.735 8.833 9.103 9.497 9.882 10.205 10.435 10.617 10.747 10.81 10.847 10.875 10.887 10.892 10.89 10.872 10.85 10.845 10.85 10.85 10.84 10.818 10.795 10.778 10.76 10.73 10.705 10.733 10.829 10.352 9.186 8.606 8.695 8.775 8.847 8.922 8.995 9.045 9.1 9.17 9.237 9.292 9.325 9.365 9.42 9.485 9.558
7.73 7.762 7.785 7.785 7.785 7.79 7.792 7.772 7.742 7.725 7.715 7.703 7.705 7.73 7.732 7.708 7.688 7.675 7.665 7.68 7.768 7.887 7.932 7.902 7.852 7.8 7.702 7.578 7.503 7.495 7.535 7.582 7.62 7.65 7.675 7.675 7.647 7.597 7.545 7.513 7.49 7.478 7.465 7.425 7.362 7.295 7.217 7.133 7.048 6.968 6.9 6.852 6.795 6.715 6.635 6.565 6.515 6.185 5.715 5.503 5.385 5.187 4.898 4.733 4.758 4.847 4.895 4.87 4.853 4.84 4.815 4.785 4.752 4.715 4.673 4.627 4.575 4.52 4.485 4.47 4.452 4.417 4.378 4.35 4.34 4.358 4.4 4.45 4.49 4.515 4.553 4.658 4.835 4.98 5.03 5.04 5.078 5.157 5.157 5.073 5.005 5.088 5.312 5.155 4.603 4.32 4.32 4.32 4.705 5.347 5.495 5.428 5.515 5.61 5.718 5.81 5.925 6.085 6.26 6.452 6.647 6.84 7.015 7.15 7.252 7.35 7.42 7.465 7.515 7.565 7.602 7.605 7.58 7.555 7.555 7.63 7.757 7.855 7.88 7.855 7.823 7.803 7.938 8.187 8.367 8.397 8.353 8.4 8.505 8.585 8.648 8.71 8.775 8.843 8.933 9.173 9.538 9.898 10.25 10.515 10.697 10.847 10.92 10.945 10.957 10.963 10.968 10.972 10.967 10.953 10.948 10.95 10.947 10.93 10.905 10.882 10.86 10.84 10.818 10.828 10.909 10.437 9.283 8.621 8.638 8.75 8.852 8.945 9.025 9.09 9.15 9.217 9.275 9.317 9.355 9.385 9.415 9.448 9.495 9.563
7.7 7.737 7.755 7.755 7.755 7.755 7.75 7.735 7.717 7.707 7.7 7.687 7.677 7.68 7.68 7.667 7.658 7.652 7.645 7.663 7.742 7.82 7.83 7.805 7.775 7.742 7.675 7.585 7.507 7.465 7.48 7.517 7.55 7.58 7.607 7.607 7.585 7.552 7.512 7.477 7.445 7.42 7.395 7.35 7.285 7.215 7.142 7.06 6.965 6.875 6.813 6.775 6.722 6.645 6.565 6.488 6.427 6.005 5.428 5.198 5.093 4.965 4.82 4.775 4.825 4.887 4.917 4.897 4.872 4.843 4.803 4.76 4.718 4.673 4.63 4.583 4.525 4.47 4.435 4.42 4.41 4.387 4.355 4.325 4.295 4.295 4.335 4.385 4.435 4.483 4.575 4.745 4.945 5.077 5.115 5.125 5.138 5.172 5.167 5.115 5.083 5.178 5.347 4.865 4.32 4.32 4.32 4.378 5.105 5.67 5.538 5.55 5.635 5.73 5.825 5.94 6.112 6.305 6.49 6.672 6.852 7.035 7.187 7.3 7.397 7.492 7.56 7.605 7.655 7.697 7.725 7.727 7.707 7.685 7.675 7.723 7.825 7.912 7.937 7.913 7.888 7.89 8.06 8.36 8.575 8.612 8.54 8.535 8.608 8.68 8.745 8.813 8.883 8.955 9.045 9.275 9.623 9.968 10.32 10.597 10.77 10.912 11.002 11.03 11.037 11.04 11.045 11.05 11.053 11.052 11.048 11.045 11.037 11.017 10.993 10.968 10.943 10.925 10.935 10.994 10.519 9.393 8.701 8.618 8.675 8.785 8.898 9.01 9.11 9.182 9.237 9.282 9.31 9.345 9.395 9.437 9.47 9.498 9.53 9.575
7.675 7.715 7.73 7.73 7.73 7.717 7.685 7.66 7.65 7.642 7.635 7.627 7.622 7.62 7.62 7.62 7.622 7.625 7.622 7.635 7.675 7.7 7.69 7.67 7.655 7.64 7.6 7.522 7.43 7.37 7.383 7.43 7.467 7.502 7.535 7.54 7.523 7.502 7.465 7.422 7.39 7.36 7.322 7.27 7.205 7.135 7.07 7.003 6.92 6.833 6.77 6.72 6.637 6.55 6.482 6.412 6.345 5.825 5.14 4.898 4.838 4.808 4.788 4.802 4.845 4.895 4.925 4.92 4.895 4.86 4.815 4.768 4.72 4.665 4.605 4.55 4.493 4.433 4.395 4.38 4.37 4.358 4.337 4.31 4.278 4.265 4.295 4.348 4.4 4.463 4.618 4.845 5.055 5.175 5.2 5.2 5.187 5.19 5.205 5.197 5.175 5.267 5.107 4.583 4.32 4.32 4.32 4.77 5.48 5.702 5.638 5.66 5.755 5.85 5.945 6.08 6.278 6.487 6.67 6.83 6.995 7.165 7.31 7.427 7.537 7.635 7.7 7.737 7.775 7.805 7.817 7.82 7.812 7.802 7.803 7.828 7.893 7.967 7.993 7.99 8.01 8.05 8.213 8.502 8.747 8.805 8.737 8.695 8.72 8.788 8.855 8.925 9 9.073 9.163 9.393 9.738 10.085 10.4 10.627 10.79 10.927 11.022 11.075 11.11 11.13 11.137 11.143 11.148 11.15 11.145 11.137 11.125 11.105 11.08 11.055 11.04 11.05 11.092 10.632 9.561 8.951 9.12 9.26 9 8.85 8.96 9.072 9.172 9.242 9.28 9.302 9.328 9.368 9.422 9.475 9.52 9.555 9.585 9.613
7.655 7.692 7.705 7.705 7.69 7.65 7.598 7.565 7.557 7.55 7.543 7.538 7.535 7.535 7.538 7.545 7.553 7.563 7.58 7.572 7.558 7.56 7.55 7.53 7.512 7.495 7.46 7.388 7.313 7.268 7.278 7.327 7.37 7.41 7.45 7.475 7.475 7.46 7.4 7.335 7.305 7.275 7.24 7.187 7.123 7.06 7.005 6.957 6.902 6.83 6.77 6.685 6.54 6.423 6.357 6.3 6.21 5.652 4.955 4.748 4.765 4.81 4.818 4.803 4.825 4.872 4.91 4.927 4.915 4.882 4.84 4.792 4.737 4.665 4.585 4.528 4.48 4.42 4.378 4.36 4.35 4.34 4.325 4.302 4.275 4.258 4.28 4.335 4.393 4.458 4.628 4.885 5.115 5.225 5.222 5.197 5.172 5.178 5.235 5.28 5.27 5.302 4.835 4.323 4.32 4.32 4.418 5.217 5.872 5.78 5.733 5.78 5.875 5.97 6.075 6.233 6.442 6.65 6.812 6.943 7.095 7.262 7.407 7.532 7.655 7.762 7.822 7.845 7.867 7.89 7.9 7.898 7.898 7.905 7.912 7.93 7.985 8.055 8.095 8.135 8.19 8.24 8.385 8.642 8.882 8.962 8.91 8.87 8.873 8.913 8.975 9.045 9.12 9.193 9.28 9.508 9.855 10.175 10.432 10.625 10.78 10.91 10.997 11.062 11.127 11.18 11.215 11.24 11.252 11.252 11.245 11.232 11.215 11.192 11.168 11.158 11.17 11.195 11.222 10.723 9.838 9.658 9.99 10.01 9.592 9.145 9.045 9.138 9.207 9.26 9.297 9.32 9.348 9.393 9.447 9.502 9.557 9.605 9.64 9.663
7.635 7.667 7.67 7.652 7.612 7.557 7.503 7.47 7.465 7.46 7.455 7.453 7.45 7.45 7.453 7.465 7.483 7.505 7.54 7.512 7.445 7.423 7.41 7.388 7.365 7.343 7.31 7.26 7.21 7.173 7.175 7.22 7.267 7.312 7.36 7.407 7.427 7.417 7.34 7.245 7.205 7.175 7.145 7.102 7.05 6.997 6.947 6.91 6.877 6.825 6.752 6.627 6.448 6.295 6.205 6.147 6 5.53 4.97 4.78 4.825 4.867 4.867 4.83 4.82 4.85 4.885 4.915 4.927 4.907 4.862 4.802 4.727 4.64 4.558 4.503 4.465 4.417 4.375 4.353 4.338 4.325 4.31 4.29 4.267 4.25 4.27 4.328 4.39 4.453 4.613 4.85 5.055 5.162 5.157 5.133 5.13 5.15 5.225 5.32 5.355 5.077 4.56 4.32 4.32 4.32 4.823 5.637 5.922 5.85 5.828 5.9 5.995 6.09 6.215 6.395 6.602 6.807 6.97 7.083 7.205 7.358 7.505 7.635 7.778 7.91 7.95 7.938 7.953 7.97 7.978 7.98 7.988 8 8.008 8.04 8.12 8.2 8.26 8.32 8.377 8.433 8.553 8.762 8.987 9.097 9.083 9.07 9.072 9.075 9.105 9.165 9.24 9.315 9.4 9.625 9.945 10.205 10.43 10.617 10.77 10.892 10.972 11.037 11.102 11.167 11.23 11.282 11.325 11.345 11.337 11.32 11.3 11.277 11.262 11.267 11.282 11.29 11.295 11.3 10.92 10.592 10.495 10.24 10.005 9.632 9.36 9.26 9.218 9.268 9.307 9.337 9.37 9.415 9.47 9.527 9.582 9.637 9.685 9.71
7.615 7.635 7.612 7.567 7.515 7.463 7.413 7.388 7.383 7.378 7.375 7.373 7.37 7.373 7.383 7.408 7.443 7.48 7.517 7.472 7.353 7.288 7.273 7.255 7.238 7.22 7.2 7.165 7.118 7.078 7.07 7.105 7.152 7.21 7.272 7.327 7.367 7.372 7.29 7.168 7.105 7.075 7.045 7.012 6.972 6.925 6.875 6.835 6.812 6.787 6.705 6.55 6.365 6.188 6.065 5.995 5.772 5.343 4.968 4.85 4.89 4.922 4.912 4.87 4.838 4.838 4.865 4.892 4.917 4.917 4.867 4.787 4.7 4.61 4.53 4.478 4.445 4.41 4.375 4.35 4.328 4.308 4.29 4.27 4.253 4.243 4.268 4.328 4.39 4.45 4.578 4.757 4.918 5.042 5.087 5.09 5.103 5.125 5.2 5.317 5.212 4.685 4.32 4.32 4.32 4.428 5.24 5.947 5.947 5.918 5.93 6.02 6.115 6.21 6.355 6.555 6.76 6.965 7.128 7.238 7.345 7.47 7.615 7.768 7.932 8.05 8.065 8.047 8.047 8.053 8.06 8.07 8.08 8.09 8.103 8.158 8.26 8.362 8.435 8.485 8.535 8.585 8.675 8.853 9.075 9.222 9.257 9.257 9.267 9.275 9.278 9.3 9.358 9.432 9.52 9.718 9.98 10.208 10.422 10.602 10.757 10.875 10.945 11.007 11.07 11.132 11.195 11.255 11.315 11.36 11.367 11.352 11.335 11.315 11.317 11.34 11.35 11.352 11.357 11.332 11.19 10.917 10.653 10.452 10.247 10.007 9.775 9.533 9.353 9.303 9.315 9.35 9.388 9.437 9.492 9.547 9.592 9.632 9.692 9.735
7.605 7.585 7.54 7.488 7.433 7.385 7.353 7.343 7.343 7.34 7.34 7.335 7.33 7.32 7.325 7.36 7.4 7.437 7.465 7.422 7.295 7.203 7.18 7.17 7.163 7.158 7.145 7.107 7.052 6.995 6.945 6.94 6.97 7.032 7.125 7.212 7.287 7.32 7.245 7.103 7.01 6.973 6.942 6.91 6.875 6.835 6.782 6.725 6.695 6.682 6.62 6.477 6.29 6.1 5.943 5.812 5.537 5.143 4.915 4.878 4.905 4.937 4.927 4.887 4.85 4.83 4.835 4.85 4.87 4.88 4.847 4.77 4.68 4.59 4.52 4.485 4.463 4.435 4.405 4.378 4.348 4.315 4.293 4.275 4.26 4.255 4.285 4.348 4.41 4.455 4.53 4.668 4.82 4.952 5.025 5.05 5.072 5.1 5.178 5.307 4.942 4.415 4.32 4.32 4.32 4.833 5.647 5.952 5.96 5.978 6.023 6.09 6.158 6.302 6.527 6.752 6.975 7.195 7.463 7.642 7.665 7.665 7.75 7.922 8.065 8.12 8.122 8.127 8.138 8.145 8.15 8.16 8.173 8.185 8.208 8.283 8.392 8.495 8.557 8.59 8.627 8.665 8.738 8.905 9.13 9.282 9.325 9.33 9.365 9.415 9.435 9.445 9.478 9.538 9.633 9.8 10.015 10.225 10.42 10.582 10.73 10.837 10.9 10.96 11.02 11.08 11.14 11.2 11.255 11.302 11.332 11.335 11.32 11.3 11.313 11.355 11.385 11.407 11.402 11.32 11.15 10.973 10.797 10.628 10.485 10.285 10.055 9.845 9.615 9.445 9.398 9.393 9.403 9.435 9.472 9.51 9.548 9.6 9.68 9.727
7.572 7.52 7.47 7.42 7.373 7.343 7.33 7.328 7.332 7.337 7.337 7.332 7.32 7.28 7.265 7.3 7.335 7.362 7.38 7.352 7.26 7.168 7.133 7.128 7.125 7.125 7.105 7.06 6.987 6.885 6.798 6.745 6.733 6.785 6.89 7.01 7.12 7.197 7.165 7.04 6.928 6.868 6.838 6.805 6.775 6.74 6.687 6.618 6.565 6.537 6.49 6.395 6.232 6.035 5.848 5.65 5.385 5.103 4.945 4.893 4.883 4.905 4.902 4.873 4.855 4.843 4.818 4.795 4.798 4.812 4.8 4.75 4.675 4.585 4.53 4.52 4.512 4.492 4.462 4.43 4.392 4.348 4.32 4.308 4.295 4.288 4.318 4.382 4.43 4.445 4.49 4.615 4.762 4.877 4.947 4.987 5.02 5.068 5.175 5.23 4.765 4.32 4.32 4.32 4.393 5.205 5.947 5.963 6 6.063 6.118 6.155 6.19 6.293 6.438 6.805 7.238 7.63 8 8.067 7.98 7.873 7.905 8.06 8.145 8.16 8.17 8.195 8.235 8.265 8.268 8.263 8.268 8.28 8.323 8.412 8.515 8.595 8.632 8.655 8.685 8.72 8.785 8.945 9.155 9.272 9.295 9.325 9.403 9.485 9.53 9.552 9.575 9.618 9.73 9.907 10.09 10.26 10.412 10.548 10.685 10.785 10.843 10.9 10.96 11.02 11.08 11.137 11.19 11.237 11.282 11.307 11.3 11.283 11.298 11.34 11.38 11.425 11.435 11.358 11.233 11.097 10.93 10.795 10.712 10.555 10.335 10.117 9.87 9.668 9.575 9.508 9.413 9.37 9.393 9.43 9.498 9.595 9.682 9.71
7.508 7.453 7.4 7.36 7.335 7.323 7.315 7.313 7.32 7.33 7.332 7.33 7.297 7.228 7.205 7.235 7.257 7.273 7.285 7.262 7.195 7.123 7.09 7.09 7.09 7.087 7.055 6.977 6.86 6.72 6.635 6.583 6.525 6.538 6.63 6.745 6.853 6.95 6.975 6.915 6.835 6.778 6.745 6.713 6.68 6.645 6.59 6.517 6.45 6.395 6.335 6.267 6.162 5.99 5.79 5.583 5.355 5.133 5 4.945 4.9 4.883 4.878 4.873 4.885 4.88 4.835 4.78 4.745 4.745 4.737 4.702 4.655 4.583 4.54 4.545 4.55 4.542 4.515 4.475 4.43 4.383 4.355 4.342 4.33 4.323 4.352 4.4 4.415 4.415 4.45 4.56 4.69 4.792 4.862 4.905 4.963 5.058 5.122 4.905 4.5 4.32 4.32 4.32 4.798 5.612 5.965 6.015 6.098 6.18 6.23 6.257 6.275 6.28 6.275 7.123 8.012 8.212 8.325 8.23 8.13 8.028 8.06 8.165 8.203 8.228 8.263 8.31 8.357 8.397 8.412 8.4 8.388 8.385 8.433 8.527 8.622 8.685 8.71 8.73 8.753 8.78 8.835 8.98 9.165 9.255 9.288 9.36 9.46 9.552 9.607 9.63 9.65 9.693 9.808 9.972 10.13 10.275 10.402 10.515 10.637 10.735 10.79 10.843 10.9 10.96 11.02 11.072 11.12 11.17 11.22 11.262 11.275 11.265 11.28 11.32 11.365 11.427 11.467 11.437 11.35 11.225 11.08 10.978 10.92 10.805 10.612 10.377 10.115 9.89 9.775 9.665 9.468 9.318 9.313 9.393 9.498 9.61 9.682 9.69
7.44 7.388 7.345 7.325 7.315 7.305 7.295 7.295 7.305 7.315 7.322 7.32 7.265 7.175 7.145 7.163 7.178 7.19 7.2 7.193 7.16 7.12 7.093 7.078 7.063 7.032 6.955 6.83 6.687 6.548 6.473 6.442 6.373 6.323 6.388 6.518 6.64 6.748 6.808 6.795 6.748 6.705 6.668 6.633 6.6 6.552 6.482 6.407 6.332 6.245 6.16 6.097 6.032 5.925 5.755 5.555 5.348 5.165 5.06 5.002 4.945 4.9 4.89 4.91 4.935 4.92 4.865 4.805 4.745 4.705 4.678 4.645 4.615 4.575 4.555 4.565 4.575 4.58 4.557 4.51 4.46 4.415 4.39 4.378 4.365 4.358 4.37 4.385 4.385 4.385 4.41 4.495 4.608 4.708 4.788 4.868 4.98 5.112 4.917 4.488 4.32 4.32 4.32 4.323 5.135 5.967 6.03 6.12 6.22 6.292 6.322 6.335 6.342 6.342 6.336 7.53 8.677 8.54 8.418 8.345 8.265 8.18 8.19 8.252 8.288 8.335 8.385 8.435 8.48 8.52 8.552 8.555 8.53 8.505 8.535 8.625 8.715 8.765 8.785 8.805 8.825 8.845 8.885 9 9.157 9.253 9.32 9.415 9.515 9.612 9.677 9.707 9.73 9.773 9.87 10.003 10.14 10.278 10.4 10.5 10.6 10.685 10.74 10.79 10.845 10.903 10.958 11.008 11.055 11.105 11.153 11.2 11.237 11.245 11.26 11.303 11.363 11.445 11.49 11.475 11.427 11.342 11.245 11.172 11.115 11.04 10.877 10.625 10.355 10.11 9.962 9.812 9.588 9.4 9.345 9.41 9.51 9.62 9.675 9.665
7.38 7.335 7.318 7.31 7.3 7.29 7.28 7.277 7.282 7.287 7.29 7.275 7.205 7.13 7.123 7.143 7.158 7.17 7.185 7.203 7.203 7.183 7.155 7.125 7.09 7.007 6.835 6.653 6.51 6.383 6.32 6.308 6.273 6.228 6.285 6.435 6.565 6.66 6.725 6.727 6.68 6.635 6.595 6.56 6.52 6.447 6.365 6.292 6.202 6.085 5.973 5.898 5.842 5.79 5.707 5.55 5.35 5.188 5.103 5.05 4.99 4.94 4.933 4.957 4.972 4.95 4.895 4.835 4.775 4.72 4.67 4.633 4.608 4.585 4.575 4.58 4.59 4.597 4.577 4.53 4.48 4.438 4.423 4.417 4.405 4.395 4.4 4.41 4.408 4.403 4.42 4.49 4.59 4.683 4.78 4.908 5.052 5.047 4.645 4.32 4.32 4.32 4.32 4.73 5.565 6.03 6.115 6.205 6.295 6.36 6.387 6.4 6.407 6.408 6.82 8.002 8.705 8.58 8.525 8.497 8.425 8.348 8.323 8.36 8.41 8.46 8.51 8.558 8.6 8.643 8.695 8.712 8.673 8.63 8.635 8.707 8.77 8.79 8.81 8.83 8.85 8.88 8.938 9.045 9.178 9.278 9.363 9.457 9.555 9.652 9.73 9.777 9.805 9.845 9.938 10.065 10.192 10.305 10.4 10.488 10.58 10.658 10.713 10.765 10.82 10.863 10.908 10.96 11.003 11.048 11.09 11.135 11.185 11.215 11.243 11.3 11.375 11.452 11.502 11.5 11.465 11.42 11.37 11.315 11.257 11.202 11.097 10.882 10.603 10.333 10.135 9.968 9.778 9.623 9.55 9.548 9.578 9.635 9.683 9.708
7.34 7.303 7.292 7.285 7.275 7.265 7.255 7.245 7.24 7.237 7.232 7.207 7.138 7.103 7.14 7.175 7.192 7.205 7.23 7.267 7.277 7.257 7.227 7.192 7.15 7.06 6.84 6.563 6.35 6.215 6.175 6.195 6.22 6.233 6.303 6.422 6.507 6.57 6.632 6.652 6.612 6.563 6.523 6.485 6.422 6.333 6.247 6.165 6.057 5.93 5.803 5.698 5.628 5.595 5.582 5.525 5.375 5.203 5.118 5.082 5.03 4.983 4.978 4.992 4.99 4.97 4.925 4.868 4.815 4.77 4.72 4.668 4.635 4.615 4.6 4.598 4.603 4.605 4.582 4.538 4.493 4.455 4.45 4.457 4.45 4.44 4.455 4.482 4.49 4.485 4.505 4.578 4.663 4.74 4.84 4.97 5.112 4.855 4.423 4.32 4.32 4.32 4.403 5.23 6.007 6.08 6.16 6.24 6.317 6.38 6.427 6.46 6.472 6.473 7.49 8.642 8.712 8.6 8.598 8.652 8.63 8.56 8.508 8.503 8.538 8.59 8.64 8.685 8.728 8.785 8.862 8.902 8.855 8.778 8.738 8.782 8.8 8.773 8.79 8.81 8.845 8.91 9.008 9.127 9.245 9.33 9.403 9.49 9.585 9.68 9.762 9.83 9.875 9.918 10.01 10.132 10.235 10.315 10.39 10.478 10.58 10.662 10.72 10.775 10.825 10.845 10.865 10.927 10.985 11.025 11.065 11.105 11.148 11.195 11.233 11.283 11.355 11.42 11.477 11.51 11.497 11.465 11.435 11.392 11.337 11.282 11.225 11.11 10.882 10.6 10.365 10.193 10.035 9.898 9.828 9.803 9.775 9.76 9.793 9.86
7.315 7.28 7.262 7.247 7.235 7.225 7.215 7.2 7.183 7.173 7.167 7.137 7.093 7.1 7.155 7.202 7.227 7.248 7.285 7.33 7.347 7.327 7.287 7.245 7.2 7.142 6.95 6.623 6.32 6.123 6.083 6.135 6.193 6.237 6.288 6.35 6.413 6.475 6.537 6.575 6.55 6.495 6.45 6.395 6.31 6.215 6.127 6.025 5.902 5.775 5.645 5.52 5.428 5.395 5.395 5.395 5.345 5.212 5.12 5.095 5.06 5.025 5.015 5.015 5.003 4.993 4.962 4.913 4.87 4.83 4.78 4.72 4.673 4.645 4.63 4.623 4.62 4.617 4.592 4.55 4.51 4.475 4.47 4.485 4.492 4.49 4.503 4.537 4.565 4.575 4.61 4.68 4.745 4.818 4.915 5.035 5.087 4.703 4.325 4.32 4.32 4.32 4.795 5.65 6.05 6.108 6.185 6.265 6.335 6.393 6.448 6.495 6.527 6.538 7.7 8.802 8.703 8.62 8.623 8.715 8.777 8.775 8.727 8.69 8.688 8.718 8.765 8.818 8.88 8.958 9.045 9.107 9.075 8.973 8.88 8.855 8.817 8.763 8.77 8.81 8.885 8.983 9.093 9.21 9.325 9.407 9.465 9.53 9.613 9.705 9.787 9.862 9.93 9.99 10.07 10.16 10.23 10.295 10.378 10.48 10.59 10.677 10.74 10.795 10.832 10.835 10.83 10.875 10.96 11.03 11.075 11.11 11.145 11.223 11.263 11.255 11.298 11.362 11.422 11.477 11.512 11.505 11.48 11.452 11.405 11.348 11.29 11.232 11.122 10.905 10.67 10.485 10.313 10.173 10.102 10.072 10.04 10.003 9.998 10.048
7.285 7.24 7.222 7.207 7.195 7.185 7.173 7.155 7.133 7.115 7.105 7.078 7.07 7.11 7.162 7.217 7.255 7.285 7.327 7.37 7.385 7.365 7.332 7.295 7.25 7.205 7.05 6.76 6.455 6.193 6.088 6.123 6.18 6.237 6.278 6.303 6.333 6.38 6.443 6.497 6.49 6.432 6.37 6.287 6.192 6.097 5.995 5.875 5.745 5.618 5.49 5.383 5.308 5.268 5.255 5.243 5.23 5.175 5.118 5.098 5.075 5.065 5.068 5.07 5.065 5.048 5.01 4.965 4.927 4.89 4.84 4.78 4.722 4.68 4.66 4.65 4.642 4.627 4.597 4.562 4.527 4.495 4.49 4.505 4.52 4.53 4.545 4.577 4.61 4.637 4.69 4.757 4.815 4.893 4.995 5.107 4.975 4.553 4.32 4.32 4.32 4.32 5.152 6.037 6.105 6.148 6.215 6.295 6.372 6.43 6.475 6.528 6.578 7.125 8.212 8.735 8.685 8.638 8.645 8.738 8.832 8.902 8.925 8.912 8.88 8.86 8.898 8.972 9.055 9.142 9.227 9.3 9.293 9.2 9.083 8.965 8.84 8.76 8.78 8.86 8.962 9.067 9.172 9.28 9.392 9.472 9.525 9.585 9.652 9.732 9.81 9.877 9.947 10.02 10.087 10.15 10.208 10.28 10.38 10.49 10.6 10.692 10.76 10.815 10.837 10.822 10.81 10.82 10.883 10.985 11.07 11.12 11.173 11.295 11.345 11.278 11.26 11.308 11.365 11.42 11.48 11.515 11.512 11.495 11.465 11.415 11.355 11.297 11.24 11.135 10.967 10.78 10.587 10.423 10.337 10.305 10.272 10.237 10.205 10.225
7.225 7.165 7.145 7.137 7.13 7.138 7.14 7.118 7.095 7.073 7.05 7.04 7.065 7.112 7.16 7.21 7.245 7.272 7.31 7.35 7.345 7.307 7.285 7.26 7.227 7.195 7.117 6.925 6.655 6.378 6.17 6.128 6.185 6.242 6.29 6.317 6.318 6.32 6.355 6.41 6.42 6.362 6.272 6.17 6.072 5.975 5.855 5.72 5.59 5.473 5.383 5.323 5.268 5.22 5.195 5.17 5.145 5.133 5.123 5.108 5.105 5.135 5.167 5.178 5.172 5.125 5.06 5.015 4.977 4.93 4.87 4.81 4.75 4.7 4.675 4.665 4.647 4.612 4.575 4.545 4.515 4.495 4.522 4.562 4.58 4.595 4.59 4.595 4.625 4.663 4.725 4.802 4.875 4.962 5.067 5.172 4.857 4.405 4.32 4.32 4.32 4.508 5.4 6.13 6.165 6.19 6.245 6.325 6.41 6.49 6.567 6.618 6.645 7.677 8.687 8.668 8.657 8.643 8.668 8.763 8.86 8.967 9.03 9.002 8.945 8.93 8.997 9.107 9.21 9.307 9.4 9.775 9.878 9.508 9.29 9.13 8.96 8.83 8.82 8.905 9.007 9.11 9.21 9.312 9.43 9.507 9.543 9.6 9.667 9.735 9.802 9.865 9.932 10.005 10.067 10.125 10.195 10.285 10.39 10.5 10.61 10.707 10.78 10.83 10.835 10.805 10.79 10.79 10.808 10.885 11.005 11.107 11.2 11.31 11.34 11.267 11.225 11.255 11.315 11.375 11.432 11.472 11.477 11.46 11.46 11.45 11.4 11.34 11.285 11.255 11.175 11.012 10.827 10.635 10.523 10.49 10.457 10.42 10.372 10.35
7.145 7.078 7.05 7.045 7.058 7.102 7.122 7.098 7.073 7.048 7.025 7.023 7.055 7.1 7.145 7.182 7.2 7.218 7.25 7.282 7.255 7.188 7.15 7.13 7.11 7.102 7.092 7.01 6.835 6.592 6.323 6.178 6.193 6.247 6.295 6.335 6.352 6.338 6.328 6.34 6.34 6.277 6.165 6.053 5.95 5.845 5.715 5.57 5.46 5.393 5.353 5.31 5.245 5.193 5.165 5.14 5.125 5.138 5.14 5.135 5.168 5.232 5.285 5.3 5.265 5.18 5.105 5.062 5.015 4.942 4.87 4.81 4.753 4.703 4.675 4.66 4.625 4.575 4.535 4.505 4.475 4.47 4.54 4.632 4.675 4.692 4.658 4.613 4.625 4.668 4.735 4.81 4.88 4.992 5.122 5.185 4.765 4.328 4.32 4.32 4.32 4.945 5.852 6.167 6.21 6.23 6.28 6.36 6.44 6.533 6.645 6.727 6.803 7.64 8.497 8.595 8.627 8.638 8.7 8.818 8.935 9.065 9.085 8.96 8.88 8.928 9.048 9.182 9.31 9.423 10.078 10.994 11.032 10.358 9.688 9.338 9.18 9.023 8.915 8.923 9.01 9.11 9.21 9.323 9.455 9.535 9.555 9.59 9.643 9.703 9.77 9.838 9.91 9.982 10.045 10.123 10.215 10.305 10.403 10.508 10.615 10.72 10.8 10.837 10.825 10.79 10.775 10.775 10.775 10.8 10.89 11.015 11.12 11.18 11.17 11.148 11.17 11.22 11.285 11.342 11.377 11.39 11.38 11.365 11.405 11.452 11.425 11.368 11.34 11.357 11.31 11.17 11.01 10.835 10.71 10.655 10.61 10.56 10.505 10.455
7.068 6.99 6.96 6.975 7.02 7.082 7.105 7.082 7.058 7.038 7.028 7.025 7.043 7.08 7.117 7.14 7.153 7.168 7.192 7.207 7.162 7.08 7.023 6.995 7 7.01 6.992 6.957 6.887 6.752 6.527 6.293 6.21 6.255 6.305 6.342 6.375 6.385 6.367 6.33 6.275 6.182 6.058 5.938 5.83 5.715 5.585 5.473 5.408 5.38 5.35 5.295 5.225 5.168 5.133 5.118 5.128 5.155 5.17 5.195 5.255 5.33 5.397 5.402 5.327 5.225 5.15 5.1 5.032 4.945 4.87 4.81 4.755 4.705 4.672 4.642 4.592 4.538 4.495 4.468 4.44 4.445 4.528 4.647 4.74 4.785 4.747 4.665 4.633 4.67 4.73 4.772 4.835 4.998 5.167 5.117 4.668 4.32 4.32 4.32 4.321 5.2 6.114 6.18 6.232 6.265 6.315 6.395 6.475 6.56 6.66 6.783 7.013 7.615 8.237 8.487 8.595 8.66 8.76 8.915 9.062 9.172 9.127 8.953 8.903 9.003 9.128 9.255 9.383 9.925 11.142 11.897 11.837 11.47 10.685 9.858 9.43 9.26 9.108 9.003 9.018 9.11 9.22 9.35 9.487 9.565 9.588 9.613 9.64 9.68 9.74 9.813 9.89 9.963 10.048 10.157 10.25 10.325 10.418 10.52 10.623 10.73 10.817 10.84 10.812 10.778 10.76 10.76 10.763 10.77 10.808 10.87 10.948 11 11.013 11.055 11.128 11.198 11.252 11.282 11.29 11.29 11.28 11.29 11.368 11.452 11.455 11.428 11.445 11.482 11.437 11.3 11.147 10.985 10.852 10.787 10.742 10.687 10.632 10.585
6.995 6.908 6.888 6.938 7 7.06 7.085 7.068 7.05 7.04 7.035 7.035 7.04 7.057 7.077 7.092 7.107 7.12 7.137 7.13 7.067 6.983 6.908 6.893 6.927 6.92 6.885 6.857 6.815 6.76 6.647 6.445 6.28 6.263 6.31 6.347 6.385 6.402 6.372 6.305 6.212 6.095 5.963 5.833 5.715 5.608 5.518 5.457 5.415 5.38 5.337 5.275 5.205 5.143 5.11 5.118 5.145 5.175 5.205 5.252 5.317 5.387 5.457 5.47 5.392 5.28 5.193 5.12 5.035 4.948 4.875 4.815 4.76 4.71 4.665 4.615 4.558 4.503 4.46 4.435 4.41 4.423 4.513 4.635 4.755 4.852 4.845 4.74 4.635 4.63 4.677 4.695 4.785 5.005 5.205 5.002 4.53 4.32 4.32 4.32 4.588 5.475 6.127 6.188 6.245 6.293 6.35 6.43 6.51 6.592 6.683 6.868 7.258 7.75 8.165 8.445 8.628 8.738 8.843 9.002 9.165 9.247 9.172 9.04 9.06 9.19 9.308 9.425 9.543 10.595 11.779 12.012 12.05 12 11.692 10.945 10.123 9.595 9.333 9.183 9.088 9.123 9.245 9.385 9.52 9.597 9.622 9.645 9.665 9.695 9.748 9.815 9.885 9.97 10.09 10.202 10.277 10.345 10.433 10.537 10.64 10.742 10.825 10.835 10.798 10.765 10.753 10.76 10.77 10.785 10.803 10.82 10.89 10.978 11.045 11.123 11.198 11.247 11.223 11.185 11.185 11.185 11.188 11.238 11.34 11.442 11.495 11.522 11.565 11.605 11.557 11.405 11.232 11.05 10.915 10.862 10.832 10.795 10.755 10.715
6.963 6.875 6.86 6.918 6.98 7.04 7.067 7.06 7.055 7.05 7.035 7.012 6.99 6.985 6.997 7.015 7.032 7.047 7.07 7.052 6.98 6.898 6.82 6.798 6.822 6.812 6.778 6.75 6.715 6.667 6.612 6.522 6.382 6.3 6.315 6.345 6.36 6.355 6.307 6.23 6.137 6.017 5.88 5.745 5.613 5.513 5.457 5.41 5.365 5.35 5.33 5.27 5.2 5.133 5.11 5.135 5.165 5.195 5.228 5.27 5.327 5.392 5.455 5.502 5.48 5.378 5.273 5.188 5.095 4.983 4.89 4.833 4.78 4.728 4.67 4.613 4.553 4.49 4.445 4.42 4.4 4.42 4.513 4.635 4.757 4.845 4.807 4.65 4.453 4.39 4.475 4.568 4.733 4.995 5.227 4.885 4.388 4.32 4.32 4.32 5.02 5.932 6.172 6.228 6.28 6.323 6.372 6.442 6.517 6.593 6.718 7.317 7.942 8.142 8.34 8.568 8.75 8.842 8.928 9.07 9.23 9.32 9.265 9.2 9.29 9.435 9.555 9.675 10.228 11.32 11.98 12.097 12.192 12.127 12.042 11.872 11.285 10.45 9.758 9.413 9.253 9.173 9.255 9.415 9.55 9.63 9.655 9.678 9.708 9.75 9.805 9.865 9.928 10.02 10.142 10.237 10.302 10.368 10.45 10.553 10.658 10.76 10.835 10.842 10.81 10.783 10.775 10.788 10.803 10.82 10.838 10.865 10.978 11.125 11.22 11.303 11.367 11.36 11.248 11.123 11.08 11.08 11.105 11.185 11.295 11.405 11.497 11.565 11.615 11.66 11.617 11.457 11.267 11.075 10.95 10.908 10.885 10.862 10.822 10.757
6.982 6.898 6.868 6.908 6.965 7.025 7.057 7.047 7.022 6.995 6.957 6.91 6.873 6.863 6.875 6.895 6.915 6.943 6.98 6.975 6.91 6.83 6.765 6.723 6.71 6.7 6.67 6.643 6.615 6.572 6.52 6.467 6.397 6.325 6.3 6.3 6.285 6.262 6.22 6.15 6.06 5.94 5.8 5.662 5.52 5.4 5.33 5.288 5.275 5.31 5.32 5.272 5.212 5.145 5.125 5.155 5.185 5.215 5.248 5.283 5.328 5.385 5.445 5.505 5.542 5.497 5.402 5.305 5.18 5.023 4.905 4.852 4.805 4.752 4.695 4.637 4.572 4.498 4.445 4.423 4.418 4.445 4.53 4.647 4.725 4.725 4.627 4.45 4.225 4.16 4.315 4.498 4.678 4.927 5.165 4.782 4.32 4.32 4.32 4.321 5.195 6.152 6.257 6.305 6.345 6.362 6.375 6.418 6.485 6.563 6.751 7.7 8.492 8.485 8.578 8.745 8.875 8.952 9.018 9.14 9.277 9.357 9.348 9.373 9.525 9.677 9.8 9.901 10.882 11.902 12.037 12.155 12.275 12.245 12.135 12.14 12.05 11.61 10.78 9.948 9.503 9.315 9.273 9.408 9.582 9.662 9.69 9.725 9.77 9.82 9.873 9.933 10.003 10.09 10.185 10.262 10.327 10.39 10.47 10.57 10.68 10.807 10.882 10.877 10.853 10.828 10.818 10.825 10.838 10.855 10.873 10.943 11.12 11.307 11.422 11.5 11.515 11.445 11.32 11.145 11.013 10.98 11.02 11.118 11.232 11.345 11.445 11.532 11.6 11.647 11.607 11.467 11.292 11.1 10.985 10.955 10.927 10.89 10.825 10.718
6.995 6.932 6.883 6.903 6.957 7.005 7.015 6.975 6.915 6.86 6.81 6.768 6.745 6.738 6.745 6.77 6.803 6.845 6.887 6.895 6.845 6.775 6.725 6.687 6.65 6.615 6.578 6.54 6.51 6.472 6.425 6.373 6.335 6.305 6.255 6.215 6.195 6.17 6.127 6.065 5.98 5.86 5.72 5.577 5.43 5.288 5.198 5.188 5.23 5.29 5.3 5.26 5.212 5.158 5.145 5.175 5.205 5.238 5.272 5.305 5.34 5.383 5.435 5.495 5.555 5.58 5.515 5.375 5.21 5.035 4.913 4.863 4.822 4.775 4.72 4.655 4.58 4.5 4.45 4.44 4.448 4.47 4.535 4.602 4.595 4.545 4.445 4.29 4.13 4.148 4.355 4.54 4.665 4.87 4.995 4.647 4.325 4.32 4.32 4.688 5.602 6.235 6.342 6.382 6.402 6.4 6.39 6.4 6.45 6.56 7.21 8.137 8.54 8.637 8.757 8.882 8.985 9.067 9.12 9.21 9.305 9.36 9.438 9.575 9.755 9.915 10.045 10.518 11.452 12.015 12.105 12.21 12.315 12.327 12.218 12.183 12.245 12.227 11.864 11.055 10.168 9.62 9.398 9.38 9.56 9.702 9.742 9.79 9.84 9.89 9.94 10.003 10.08 10.165 10.238 10.293 10.35 10.413 10.49 10.598 10.732 10.877 10.942 10.922 10.897 10.873 10.86 10.863 10.873 10.89 10.93 11.065 11.285 11.492 11.627 11.662 11.607 11.51 11.397 11.22 11.018 10.903 10.928 11.04 11.162 11.28 11.385 11.482 11.567 11.625 11.58 11.45 11.302 11.13 11.025 10.992 10.947 10.895 10.817 10.695
6.96 6.94 6.893 6.895 6.94 6.96 6.932 6.865 6.793 6.725 6.668 6.633 6.623 6.618 6.628 6.663 6.71 6.758 6.795 6.815 6.785 6.73 6.69 6.65 6.612 6.575 6.525 6.47 6.42 6.375 6.333 6.31 6.323 6.302 6.223 6.145 6.105 6.08 6.035 5.975 5.897 5.777 5.632 5.485 5.335 5.193 5.118 5.145 5.21 5.27 5.28 5.237 5.192 5.145 5.15 5.195 5.227 5.262 5.295 5.327 5.362 5.395 5.435 5.485 5.537 5.592 5.542 5.38 5.212 5.045 4.923 4.87 4.838 4.797 4.74 4.665 4.585 4.505 4.468 4.475 4.485 4.498 4.495 4.46 4.41 4.362 4.263 4.145 4.115 4.228 4.437 4.597 4.713 4.93 4.842 4.475 4.338 4.323 4.32 5.13 6.104 6.337 6.42 6.437 6.437 6.43 6.42 6.415 6.438 6.571 7.65 8.562 8.588 8.745 8.882 8.995 9.095 9.18 9.23 9.303 9.408 9.508 9.645 9.813 9.985 10.155 10.255 11.117 12.014 12.107 12.19 12.282 12.352 12.352 12.28 12.233 12.28 12.35 12.335 12.045 11.34 10.473 9.825 9.498 9.49 9.647 9.752 9.817 9.885 9.952 10.015 10.088 10.173 10.262 10.33 10.37 10.415 10.468 10.525 10.628 10.775 10.912 10.967 10.95 10.932 10.915 10.905 10.905 10.91 10.928 11.023 11.218 11.445 11.67 11.795 11.765 11.67 11.57 11.47 11.307 11.083 10.895 10.873 10.98 11.093 11.208 11.323 11.425 11.512 11.58 11.54 11.41 11.277 11.143 11.053 11.005 10.95 10.895 10.81 10.68
6.895 6.895 6.877 6.875 6.892 6.887 6.84 6.765 6.69 6.62 6.565 6.535 6.533 6.535 6.55 6.588 6.633 6.685 6.73 6.755 6.735 6.685 6.645 6.605 6.565 6.52 6.492 6.477 6.43 6.368 6.338 6.36 6.36 6.285 6.192 6.105 6.033 5.988 5.942 5.882 5.807 5.69 5.537 5.385 5.235 5.133 5.108 5.135 5.193 5.252 5.26 5.215 5.165 5.105 5.115 5.19 5.245 5.285 5.315 5.347 5.377 5.405 5.435 5.468 5.51 5.557 5.502 5.345 5.185 5.048 4.96 4.915 4.877 4.825 4.76 4.685 4.605 4.53 4.505 4.523 4.535 4.545 4.49 4.38 4.288 4.21 4.158 4.163 4.24 4.368 4.528 4.675 4.81 5.062 4.825 4.39 4.355 4.33 4.32 5.233 6.27 6.435 6.475 6.47 6.462 6.455 6.445 6.437 6.445 7.108 8.147 8.542 8.635 8.807 8.97 9.097 9.2 9.298 9.38 9.475 9.61 9.757 9.905 10.06 10.225 10.383 10.783 11.62 12.147 12.2 12.28 12.367 12.395 12.357 12.312 12.268 12.293 12.387 12.457 12.44 12.225 11.687 10.853 10.043 9.603 9.563 9.673 9.76 9.85 9.983 10.108 10.193 10.283 10.377 10.447 10.49 10.53 10.57 10.603 10.663 10.78 10.915 10.972 10.96 10.95 10.978 11.01 10.993 10.963 10.995 11.15 11.365 11.58 11.792 11.872 11.807 11.725 11.635 11.537 11.387 11.183 10.993 10.933 11.01 11.113 11.22 11.308 11.368 11.438 11.51 11.475 11.345 11.22 11.125 11.06 11.005 10.95 10.877 10.767 10.632
6.828 6.825 6.822 6.822 6.825 6.802 6.743 6.673 6.605 6.545 6.5 6.478 6.478 6.48 6.498 6.535 6.588 6.668 6.742 6.745 6.683 6.625 6.582 6.535 6.485 6.43 6.423 6.475 6.507 6.472 6.452 6.447 6.352 6.228 6.138 6.06 5.977 5.9 5.835 5.767 5.692 5.587 5.442 5.288 5.168 5.13 5.135 5.145 5.183 5.235 5.24 5.19 5.125 5.05 5.055 5.145 5.227 5.285 5.317 5.345 5.37 5.395 5.42 5.443 5.478 5.517 5.455 5.295 5.163 5.083 5.032 4.985 4.922 4.845 4.775 4.707 4.63 4.568 4.555 4.577 4.595 4.605 4.55 4.423 4.293 4.198 4.235 4.378 4.527 4.67 4.728 4.79 4.935 5.14 4.84 4.4 4.375 4.345 4.498 5.458 6.62 7.2 7.28 6.815 6.476 6.466 6.455 6.445 6.456 7.635 8.639 8.548 8.7 8.873 9.043 9.185 9.31 9.45 9.585 9.705 9.83 9.97 10.127 10.292 10.452 10.558 11.34 12.159 12.242 12.293 12.37 12.432 12.415 12.355 12.31 12.275 12.293 12.385 12.495 12.567 12.547 12.402 11.98 11.162 10.25 9.74 9.63 9.693 9.86 10.075 10.242 10.318 10.398 10.49 10.56 10.607 10.65 10.69 10.713 10.728 10.795 10.917 10.98 10.968 10.99 11.09 11.19 11.18 11.085 11.088 11.247 11.452 11.657 11.84 11.887 11.805 11.725 11.655 11.575 11.467 11.317 11.155 11.08 11.125 11.218 11.32 11.357 11.335 11.36 11.427 11.395 11.268 11.168 11.11 11.06 11.005 10.935 10.825 10.692 10.545
6.76 6.752 6.745 6.745 6.747 6.72 6.662 6.6 6.54 6.485 6.443 6.425 6.425 6.425 6.445 6.498 6.583 6.69 6.77 6.737 6.63 6.553 6.498 6.44 6.383 6.328 6.318 6.39 6.495 6.552 6.537 6.442 6.298 6.168 6.073 5.995 5.905 5.8 5.708 5.63 5.555 5.47 5.345 5.218 5.16 5.16 5.165 5.17 5.188 5.22 5.212 5.147 5.07 4.99 4.995 5.085 5.175 5.255 5.302 5.327 5.35 5.375 5.4 5.42 5.448 5.475 5.41 5.283 5.203 5.145 5.08 5.012 4.937 4.855 4.785 4.722 4.65 4.603 4.605 4.63 4.652 4.667 4.615 4.505 4.425 4.383 4.443 4.615 4.815 4.98 5.022 4.99 5.055 5.07 4.735 4.45 4.425 4.398 4.973 5.955 7.085 8.059 8.209 7.82 7.54 7.557 7.168 6.613 6.706 7.855 8.667 8.673 8.838 9.003 9.18 9.338 9.48 9.645 9.795 9.92 10.04 10.177 10.335 10.495 10.653 11.008 11.797 12.315 12.338 12.385 12.455 12.472 12.415 12.353 12.31 12.285 12.28 12.348 12.48 12.602 12.675 12.65 12.53 12.182 11.432 10.515 9.903 9.785 9.985 10.255 10.41 10.463 10.52 10.6 10.672 10.722 10.767 10.81 10.83 10.828 10.843 10.925 10.985 11.005 11.098 11.227 11.342 11.352 11.225 11.165 11.293 11.497 11.695 11.855 11.892 11.8 11.69 11.615 11.563 11.525 11.455 11.323 11.245 11.26 11.325 11.405 11.405 11.345 11.313 11.345 11.315 11.21 11.153 11.112 11.06 10.987 10.882 10.752 10.492 10.105
6.682 6.67 6.66 6.657 6.655 6.627 6.577 6.525 6.472 6.42 6.385 6.375 6.373 6.37 6.405 6.49 6.6 6.715 6.762 6.695 6.578 6.485 6.418 6.353 6.288 6.225 6.21 6.28 6.392 6.502 6.5 6.38 6.242 6.108 6.005 5.915 5.8 5.678 5.578 5.495 5.418 5.34 5.253 5.195 5.185 5.19 5.195 5.2 5.205 5.207 5.172 5.095 5.015 4.935 4.938 5.025 5.115 5.202 5.262 5.292 5.317 5.345 5.37 5.392 5.42 5.44 5.387 5.297 5.227 5.147 5.065 4.992 4.922 4.847 4.782 4.73 4.67 4.64 4.655 4.677 4.7 4.72 4.712 4.685 4.677 4.665 4.678 4.797 4.962 5.082 5.175 5.2 5.217 4.973 4.615 4.533 4.51 4.483 5.32 6.305 7.267 8.175 8.33 8.477 8.609 8.694 8.357 7.853 7.978 8.54 8.83 8.903 9.06 9.225 9.443 9.633 9.77 9.878 9.968 10.09 10.215 10.368 10.532 10.687 10.82 11.547 12.297 12.395 12.433 12.477 12.517 12.49 12.415 12.353 12.315 12.298 12.283 12.298 12.408 12.567 12.702 12.782 12.755 12.635 12.362 11.735 10.853 10.193 10.045 10.325 10.57 10.615 10.66 10.72 10.787 10.84 10.885 10.925 10.94 10.937 10.933 10.96 11.01 11.085 11.197 11.305 11.395 11.42 11.32 11.235 11.338 11.54 11.72 11.86 11.897 11.81 11.685 11.585 11.54 11.545 11.542 11.472 11.415 11.415 11.447 11.472 11.435 11.375 11.315 11.292 11.255 11.19 11.155 11.112 11.04 10.935 10.81 10.442 9.935 9.568
6.587 6.575 6.565 6.557 6.55 6.52 6.473 6.427 6.383 6.348 6.33 6.325 6.323 6.318 6.355 6.447 6.555 6.662 6.697 6.635 6.527 6.428 6.355 6.285 6.215 6.165 6.143 6.175 6.27 6.377 6.385 6.285 6.165 6.04 5.93 5.817 5.688 5.565 5.468 5.383 5.303 5.243 5.208 5.198 5.202 5.207 5.207 5.205 5.2 5.185 5.135 5.055 4.978 4.91 4.903 4.963 5.045 5.132 5.197 5.235 5.262 5.29 5.318 5.35 5.397 5.417 5.365 5.277 5.192 5.105 5.025 4.955 4.885 4.81 4.745 4.697 4.652 4.64 4.662 4.687 4.71 4.73 4.752 4.79 4.835 4.852 4.85 4.915 5.025 5.11 5.195 5.285 5.35 4.992 4.618 4.615 4.597 4.571 5.42 6.47 7.35 8.122 8.278 8.432 8.587 8.73 8.852 8.952 9.044 9.08 9.07 9.145 9.295 9.505 9.777 9.985 10.137 10.197 10.17 10.23 10.373 10.55 10.725 10.883 11.21 11.982 12.487 12.49 12.527 12.56 12.55 12.482 12.403 12.34 12.315 12.307 12.292 12.283 12.35 12.498 12.652 12.8 12.89 12.862 12.74 12.54 12.055 11.213 10.428 10.24 10.512 10.697 10.755 10.815 10.875 10.917 10.947 10.975 10.995 11.007 11.01 11.01 11.048 11.135 11.23 11.32 11.395 11.437 11.39 11.305 11.38 11.575 11.735 11.86 11.902 11.82 11.695 11.6 11.57 11.583 11.595 11.572 11.525 11.497 11.49 11.465 11.407 11.345 11.285 11.247 11.22 11.182 11.145 11.085 10.985 10.865 10.467 9.845 9.5 9.41
6.477 6.47 6.46 6.45 6.44 6.412 6.368 6.328 6.3 6.288 6.283 6.28 6.277 6.273 6.28 6.335 6.43 6.522 6.557 6.532 6.467 6.375 6.295 6.233 6.193 6.178 6.145 6.115 6.158 6.255 6.265 6.167 6.06 5.95 5.835 5.712 5.585 5.465 5.37 5.3 5.25 5.223 5.21 5.203 5.205 5.21 5.2 5.183 5.17 5.155 5.105 5.028 4.963 4.915 4.903 4.928 4.978 5.055 5.127 5.17 5.198 5.225 5.273 5.343 5.395 5.392 5.33 5.238 5.15 5.065 4.985 4.915 4.842 4.76 4.685 4.633 4.598 4.59 4.612 4.645 4.675 4.703 4.708 4.738 4.818 4.882 4.912 4.96 5.043 5.127 5.213 5.3 5.335 5.007 4.693 4.692 4.68 5.005 5.858 6.847 7.657 8.07 8.225 8.38 8.543 8.723 8.885 9.005 9.125 9.225 9.29 9.388 9.568 9.858 10.145 10.343 10.522 10.587 10.445 10.39 10.543 10.74 10.92 11.07 11.745 12.45 12.557 12.582 12.597 12.585 12.537 12.457 12.375 12.308 12.29 12.302 12.297 12.293 12.353 12.47 12.6 12.748 12.892 12.985 12.962 12.84 12.69 12.3 11.522 10.661 10.346 10.575 10.757 10.83 10.892 10.925 10.94 10.963 10.992 11.022 11.042 11.05 11.07 11.143 11.24 11.33 11.395 11.43 11.432 11.37 11.423 11.602 11.74 11.86 11.907 11.83 11.718 11.655 11.643 11.65 11.647 11.61 11.532 11.453 11.4 11.36 11.307 11.243 11.19 11.188 11.19 11.157 11.1 11.01 10.907 10.517 9.86 9.51 9.447 9.385
6.363 6.357 6.35 6.343 6.333 6.305 6.273 6.255 6.248 6.243 6.24 6.238 6.233 6.228 6.218 6.228 6.295 6.372 6.395 6.382 6.357 6.305 6.253 6.23 6.232 6.222 6.177 6.123 6.098 6.143 6.145 6.052 5.948 5.84 5.725 5.605 5.48 5.37 5.303 5.268 5.25 5.237 5.225 5.215 5.21 5.21 5.195 5.168 5.145 5.125 5.078 5.015 4.97 4.93 4.918 4.933 4.953 4.995 5.055 5.1 5.148 5.213 5.295 5.37 5.385 5.36 5.297 5.203 5.113 5.025 4.945 4.872 4.792 4.705 4.623 4.57 4.548 4.538 4.55 4.583 4.673 4.84 4.88 4.815 4.843 4.905 4.945 4.993 5.063 5.143 5.228 5.315 5.187 4.89 4.765 4.765 4.76 5.442 6.287 7.115 7.862 8.018 8.188 8.373 8.568 8.752 8.905 9.323 9.553 9.801 10.39 10.62 10.56 10.461 10.53 10.728 10.918 10.982 10.81 10.648 10.725 10.927 11.113 11.418 12.177 12.67 12.622 12.615 12.587 12.542 12.485 12.412 12.337 12.27 12.25 12.275 12.29 12.3 12.368 12.482 12.598 12.718 12.853 12.992 13.087 13.067 12.945 12.795 12.5 11.812 10.918 10.496 10.63 10.795 10.865 10.905 10.92 10.945 10.978 11.015 11.052 11.077 11.093 11.15 11.247 11.337 11.392 11.42 11.445 11.413 11.465 11.62 11.74 11.857 11.91 11.847 11.763 11.725 11.718 11.715 11.68 11.602 11.503 11.4 11.31 11.24 11.185 11.128 11.105 11.145 11.157 11.102 11.01 10.905 10.802 10.393 9.738 9.408 9.34 9.31
6.248 6.243 6.24 6.243 6.243 6.23 6.22 6.223 6.223 6.22 6.22 6.213 6.2 6.188 6.173 6.16 6.185 6.228 6.235 6.233 6.24 6.23 6.225 6.252 6.27 6.245 6.195 6.145 6.095 6.073 6.035 5.943 5.843 5.743 5.63 5.508 5.39 5.315 5.29 5.277 5.263 5.25 5.24 5.23 5.22 5.212 5.195 5.165 5.135 5.108 5.068 5.023 4.985 4.945 4.933 4.947 4.962 4.98 5.015 5.075 5.16 5.26 5.34 5.365 5.352 5.33 5.265 5.17 5.077 4.985 4.902 4.822 4.735 4.648 4.563 4.515 4.505 4.495 4.525 4.648 4.873 5.117 5.165 5.052 4.995 5.002 5.025 5.053 5.098 5.163 5.245 5.332 5.103 4.83 4.83 4.83 4.83 5.533 6.378 7.128 7.827 8.015 8.218 8.435 8.635 8.782 8.913 10.36 11.457 11.61 12.237 12.397 12.225 11.952 11.737 11.575 11.473 11.43 11.338 11.17 11.05 11.123 11.3 11.932 12.615 12.7 12.625 12.575 12.525 12.48 12.425 12.355 12.285 12.233 12.225 12.25 12.275 12.3 12.365 12.477 12.597 12.717 12.842 12.967 13.095 13.18 13.162 13.05 12.9 12.677 12.125 11.253 10.678 10.683 10.832 10.882 10.903 10.928 10.965 11.005 11.042 11.077 11.107 11.155 11.235 11.32 11.367 11.392 11.425 11.437 11.502 11.625 11.74 11.855 11.915 11.882 11.825 11.798 11.787 11.752 11.675 11.58 11.48 11.38 11.275 11.173 11.088 11.035 11.05 11.11 11.105 11.015 10.905 10.797 10.665 10.482 10.047 9.445 9.14 9.188
6.183 6.188 6.195 6.208 6.235 6.243 6.228 6.228 6.23 6.233 6.23 6.215 6.195 6.17 6.145 6.128 6.125 6.138 6.15 6.17 6.185 6.173 6.183 6.225 6.237 6.21 6.165 6.117 6.072 6.02 5.945 5.85 5.755 5.66 5.55 5.425 5.335 5.305 5.295 5.285 5.272 5.257 5.245 5.232 5.22 5.215 5.2 5.17 5.143 5.118 5.085 5.043 5 4.96 4.943 4.945 4.945 4.945 4.975 5.077 5.212 5.31 5.342 5.327 5.302 5.275 5.212 5.12 5.025 4.925 4.842 4.765 4.675 4.587 4.503 4.475 4.482 4.47 4.583 4.855 5.08 5.16 5.14 5.077 5.035 5.06 5.12 5.152 5.172 5.213 5.272 5.282 5.06 4.86 4.86 4.86 5.188 5.935 6.688 7.388 7.865 8.088 8.31 8.515 8.67 8.785 9.366 11.554 13.096 13.044 13.092 13.04 13.025 13.029 12.894 12.645 12.46 12.372 12.167 11.88 11.63 11.463 11.615 12.357 12.857 12.728 12.603 12.518 12.465 12.42 12.365 12.295 12.235 12.213 12.225 12.25 12.288 12.33 12.363 12.425 12.537 12.662 12.785 12.89 12.992 13.107 13.16 13.11 13.037 12.967 12.85 12.392 11.543 10.876 10.755 10.857 10.887 10.915 10.952 10.99 11.027 11.06 11.092 11.135 11.198 11.272 11.322 11.348 11.378 11.415 11.487 11.597 11.717 11.837 11.92 11.93 11.895 11.865 11.825 11.747 11.653 11.557 11.46 11.36 11.255 11.15 11.038 10.968 10.99 11.047 11.022 10.915 10.805 10.712 10.57 10.355 10.135 9.712 9.195 9.11
6.188 6.203 6.215 6.243 6.302 6.32 6.283 6.258 6.253 6.257 6.25 6.23 6.202 6.165 6.135 6.118 6.113 6.128 6.152 6.165 6.15 6.12 6.128 6.16 6.16 6.135 6.1 6.055 6.007 5.947 5.865 5.77 5.675 5.58 5.47 5.368 5.32 5.31 5.3 5.29 5.275 5.255 5.24 5.225 5.215 5.22 5.21 5.183 5.16 5.142 5.115 5.07 5.025 4.983 4.935 4.898 4.875 4.86 4.905 5.045 5.202 5.285 5.282 5.25 5.217 5.185 5.127 5.037 4.937 4.825 4.742 4.687 4.61 4.52 4.435 4.408 4.445 4.528 4.73 4.947 5.01 4.975 4.915 4.853 4.853 4.945 5.065 5.157 5.23 5.29 5.332 5.175 4.93 4.86 4.86 4.86 5.547 6.382 7.072 7.845 8.08 8.19 8.395 8.562 8.682 8.788 10.113 12.307 13.217 13.162 13.073 12.988 12.965 12.99 12.997 12.995 12.995 12.964 12.677 12.372 12.195 11.94 12.21 12.785 12.907 12.787 12.64 12.498 12.41 12.358 12.303 12.243 12.213 12.218 12.238 12.273 12.335 12.4 12.405 12.393 12.448 12.558 12.677 12.76 12.835 12.94 12.987 12.968 12.99 13.047 13.005 12.902 12.584 11.852 11.091 10.82 10.873 10.902 10.935 10.967 11 11.027 11.053 11.09 11.15 11.22 11.282 11.312 11.325 11.353 11.423 11.538 11.668 11.8 11.9 11.935 11.925 11.89 11.817 11.725 11.63 11.535 11.44 11.34 11.235 11.12 10.998 10.918 10.92 10.96 10.925 10.815 10.723 10.665 10.537 10.318 10.09 9.852 9.385 9.115
6.197 6.227 6.248 6.298 6.375 6.41 6.375 6.323 6.29 6.28 6.267 6.24 6.2 6.155 6.128 6.12 6.125 6.14 6.147 6.13 6.097 6.065 6.07 6.09 6.077 6.052 6.025 5.99 5.942 5.87 5.78 5.688 5.595 5.5 5.403 5.343 5.325 5.315 5.305 5.292 5.272 5.248 5.228 5.218 5.22 5.232 5.225 5.2 5.183 5.17 5.142 5.098 5.055 5.01 4.938 4.858 4.803 4.773 4.833 4.972 5.1 5.175 5.175 5.14 5.113 5.085 5.03 4.935 4.822 4.7 4.615 4.577 4.53 4.455 4.37 4.31 4.373 4.582 4.775 4.827 4.802 4.76 4.695 4.635 4.66 4.778 4.915 5.05 5.183 5.3 5.297 5.045 4.85 4.857 4.86 4.943 5.713 6.565 7.325 8.29 8.552 8.425 8.453 8.557 8.667 8.796 10.335 12.529 13.225 13.143 13.05 12.953 12.88 12.858 12.84 12.81 12.782 12.752 12.595 12.475 12.45 12.435 12.782 13.06 12.962 12.847 12.707 12.54 12.395 12.303 12.245 12.213 12.215 12.23 12.258 12.318 12.4 12.47 12.475 12.435 12.42 12.473 12.57 12.642 12.695 12.777 12.823 12.835 12.905 13.035 13.115 13.087 13.002 12.757 12.147 11.35 10.92 10.878 10.905 10.933 10.958 10.983 11.008 11.045 11.105 11.173 11.24 11.28 11.29 11.303 11.365 11.488 11.625 11.765 11.862 11.892 11.882 11.835 11.762 11.685 11.602 11.515 11.42 11.32 11.207 11.065 10.945 10.885 10.863 10.87 10.825 10.735 10.683 10.64 10.51 10.295 10.077 9.852 9.48 9.188
6.15 6.205 6.26 6.347 6.442 6.497 6.48 6.42 6.363 6.318 6.28 6.238 6.19 6.145 6.123 6.122 6.11 6.107 6.105 6.075 6.042 6.01 6.01 6.015 5.993 5.968 5.943 5.92 5.875 5.793 5.698 5.605 5.515 5.423 5.358 5.335 5.327 5.32 5.307 5.288 5.265 5.24 5.22 5.22 5.23 5.245 5.242 5.222 5.207 5.195 5.167 5.125 5.082 5.035 4.96 4.865 4.778 4.708 4.74 4.852 4.952 5.037 5.062 5.035 5.007 4.98 4.922 4.815 4.687 4.57 4.5 4.468 4.43 4.378 4.348 4.325 4.325 4.445 4.575 4.61 4.59 4.545 4.513 4.51 4.568 4.7 4.868 5.028 5.168 5.305 5.157 4.878 4.828 4.847 4.858 5.313 6.15 6.673 7.623 8.715 8.875 8.66 8.543 8.525 8.553 8.713 9.968 11.927 13.027 13.242 13.14 13.01 12.878 12.78 12.708 12.635 12.568 12.523 12.45 12.425 12.5 12.705 12.97 13.045 12.98 12.892 12.77 12.61 12.44 12.29 12.215 12.213 12.228 12.243 12.28 12.362 12.467 12.545 12.55 12.508 12.465 12.45 12.48 12.528 12.573 12.633 12.688 12.755 12.858 12.99 13.172 13.212 13.07 12.905 12.717 12.11 11.498 11.35 11.273 11.193 11.113 11.035 10.985 11.003 11.063 11.127 11.192 11.242 11.257 11.263 11.328 11.455 11.595 11.735 11.825 11.842 11.807 11.74 11.672 11.607 11.54 11.467 11.387 11.292 11.168 11.023 10.92 10.863 10.818 10.79 10.745 10.695 10.665 10.617 10.48 10.265 10.055 9.857 9.607 9.31
6.062 6.125 6.192 6.292 6.41 6.507 6.54 6.497 6.432 6.393 6.34 6.255 6.19 6.143 6.11 6.087 6.037 6.028 6.042 6.015 5.985 5.955 5.943 5.933 5.915 5.903 5.888 5.867 5.815 5.73 5.637 5.542 5.43 5.33 5.3 5.302 5.3 5.305 5.312 5.303 5.28 5.258 5.23 5.205 5.202 5.217 5.217 5.202 5.187 5.182 5.165 5.125 5.08 5.03 4.955 4.86 4.762 4.66 4.633 4.705 4.8 4.877 4.915 4.907 4.88 4.85 4.78 4.658 4.543 4.465 4.43 4.415 4.39 4.353 4.357 4.362 4.295 4.273 4.335 4.395 4.413 4.413 4.438 4.483 4.543 4.655 4.83 5.025 5.207 5.27 5.003 4.77 4.792 4.817 4.856 5.638 6.477 6.843 8.085 9.042 8.953 8.813 8.713 8.63 8.58 8.71 9.548 11.038 12.465 13.229 13.287 13.132 12.983 12.853 12.738 12.623 12.513 12.423 12.385 12.435 12.535 12.738 12.947 12.982 12.94 12.887 12.8 12.657 12.482 12.31 12.225 12.235 12.25 12.265 12.293 12.345 12.44 12.545 12.605 12.597 12.553 12.51 12.503 12.535 12.573 12.598 12.645 12.73 12.823 12.92 13.065 13.072 12.89 12.7 12.512 12.282 12.057 11.88 11.7 11.515 11.33 11.15 11.023 10.985 11.015 11.08 11.145 11.195 11.2 11.218 11.308 11.428 11.56 11.7 11.782 11.777 11.72 11.645 11.578 11.512 11.448 11.383 11.335 11.29 11.19 11.063 10.97 10.9 10.838 10.76 10.698 10.675 10.65 10.597 10.455 10.255 10.07 9.895 9.697 9.438
5.975 6.032 6.088 6.16 6.273 6.405 6.502 6.525 6.48 6.487 6.465 6.343 6.24 6.16 6.098 5.99 5.908 5.943 5.975 5.955 5.925 5.895 5.883 5.88 5.875 5.875 5.865 5.827 5.762 5.68 5.575 5.447 5.298 5.213 5.222 5.235 5.235 5.26 5.31 5.335 5.325 5.3 5.252 5.19 5.15 5.148 5.147 5.135 5.133 5.142 5.132 5.095 5.05 5 4.925 4.825 4.717 4.605 4.53 4.553 4.627 4.677 4.712 4.732 4.722 4.69 4.605 4.5 4.44 4.405 4.388 4.385 4.382 4.365 4.355 4.34 4.298 4.265 4.263 4.288 4.323 4.373 4.43 4.478 4.53 4.62 4.758 4.94 5.157 5.112 4.83 4.72 4.745 4.77 5.203 6.032 6.495 7.163 8.564 9.277 9.17 9.1 9.033 8.98 8.935 8.975 9.365 10.343 11.627 12.685 13.217 13.245 13.088 12.95 12.833 12.717 12.602 12.475 12.42 12.483 12.58 12.767 12.92 12.917 12.877 12.83 12.765 12.657 12.497 12.335 12.263 12.265 12.278 12.295 12.31 12.325 12.368 12.453 12.565 12.652 12.657 12.618 12.622 12.65 12.655 12.645 12.67 12.745 12.825 12.907 12.937 12.835 12.663 12.5 12.34 12.192 12.05 11.882 11.7 11.517 11.345 11.2 11.095 11.02 10.99 11.03 11.095 11.127 11.13 11.183 11.295 11.41 11.53 11.665 11.735 11.697 11.62 11.545 11.48 11.418 11.36 11.328 11.325 11.325 11.267 11.158 11.063 10.99 10.9 10.765 10.66 10.625 10.607 10.575 10.462 10.293 10.125 9.955 9.752 9.515
5.882 5.938 5.993 6.048 6.135 6.26 6.38 6.472 6.502 6.585 6.61 6.488 6.37 6.263 6.19 5.968 5.8 5.865 5.902 5.89 5.86 5.833 5.833 5.85 5.86 5.865 5.84 5.775 5.692 5.595 5.455 5.285 5.143 5.105 5.142 5.165 5.178 5.22 5.29 5.347 5.365 5.335 5.277 5.21 5.143 5.098 5.08 5.08 5.095 5.11 5.1 5.062 5.017 4.97 4.89 4.78 4.665 4.55 4.453 4.423 4.448 4.473 4.5 4.528 4.543 4.525 4.465 4.413 4.388 4.36 4.34 4.335 4.335 4.332 4.335 4.335 4.32 4.3 4.282 4.278 4.288 4.335 4.412 4.472 4.518 4.6 4.72 4.86 5.117 5 4.67 4.658 4.695 4.82 5.645 6.407 6.5 7.043 8.125 8.937 9.335 9.502 9.48 9.437 9.393 9.383 9.505 9.9 10.675 11.712 12.655 13.165 13.2 13.053 12.928 12.812 12.697 12.55 12.478 12.538 12.628 12.782 12.88 12.852 12.812 12.76 12.69 12.61 12.495 12.368 12.308 12.298 12.305 12.325 12.34 12.352 12.365 12.393 12.48 12.612 12.697 12.715 12.72 12.715 12.692 12.673 12.703 12.778 12.855 12.895 12.827 12.685 12.535 12.38 12.223 12.08 11.952 11.802 11.625 11.465 11.34 11.245 11.165 11.085 11.015 11 11.033 11.055 11.09 11.175 11.288 11.4 11.513 11.635 11.675 11.607 11.525 11.45 11.383 11.343 11.333 11.35 11.37 11.362 11.332 11.252 11.157 11.067 10.935 10.77 10.635 10.56 10.528 10.51 10.457 10.342 10.185 10.012 9.805 9.545
5.787 5.843 5.897 5.95 6.013 6.113 6.232 6.347 6.44 6.657 6.78 6.668 6.56 6.46 6.397 6.06 5.765 5.817 5.84 5.82 5.79 5.768 5.775 5.802 5.825 5.822 5.767 5.677 5.58 5.47 5.31 5.115 5.008 5.015 5.055 5.09 5.13 5.19 5.26 5.333 5.385 5.365 5.297 5.23 5.157 5.085 5.05 5.055 5.068 5.08 5.07 5.03 4.982 4.932 4.847 4.735 4.62 4.51 4.42 4.355 4.338 4.355 4.373 4.39 4.41 4.41 4.39 4.367 4.34 4.313 4.293 4.285 4.288 4.295 4.31 4.322 4.317 4.303 4.29 4.28 4.273 4.305 4.39 4.473 4.54 4.63 4.743 4.913 5.092 4.837 4.535 4.582 4.633 5.135 5.992 6.447 6.6 6.835 7.403 8.163 8.807 9.27 9.61 9.825 9.85 9.837 9.887 9.943 10.168 10.785 11.69 12.592 13.115 13.157 13.023 12.905 12.78 12.615 12.538 12.6 12.682 12.782 12.822 12.785 12.743 12.685 12.613 12.54 12.46 12.388 12.352 12.338 12.338 12.352 12.365 12.37 12.372 12.38 12.445 12.563 12.677 12.757 12.767 12.742 12.718 12.7 12.735 12.812 12.862 12.817 12.687 12.543 12.4 12.255 12.108 11.973 11.848 11.72 11.59 11.48 11.395 11.312 11.23 11.153 11.075 11.015 11 11.028 11.085 11.175 11.285 11.395 11.505 11.612 11.62 11.528 11.435 11.368 11.335 11.343 11.378 11.407 11.412 11.398 11.385 11.332 11.237 11.112 10.95 10.78 10.628 10.523 10.46 10.418 10.385 10.332 10.227 10.067 9.84 9.55
5.693 5.747 5.802 5.855 5.908 5.98 6.085 6.192 6.283 6.68 6.98 6.875 6.77 6.678 6.617 6.158 5.745 5.782 5.78 5.75 5.72 5.705 5.72 5.74 5.745 5.722 5.647 5.545 5.445 5.342 5.185 5.01 4.95 4.978 5.015 5.063 5.13 5.208 5.283 5.36 5.425 5.402 5.313 5.235 5.16 5.085 5.05 5.05 5.055 5.062 5.042 4.992 4.94 4.887 4.805 4.693 4.585 4.495 4.42 4.335 4.29 4.302 4.318 4.335 4.347 4.35 4.337 4.312 4.287 4.265 4.245 4.24 4.253 4.27 4.29 4.31 4.32 4.315 4.305 4.295 4.293 4.345 4.445 4.543 4.64 4.74 4.908 5.122 4.922 4.515 4.435 4.493 4.828 5.602 6.19 6.435 6.702 6.957 7.28 7.725 8.185 8.66 9.205 9.685 9.987 10.19 10.257 10.23 10.205 10.335 10.805 11.625 12.527 13.062 13.122 12.997 12.855 12.668 12.593 12.652 12.72 12.775 12.775 12.735 12.695 12.64 12.57 12.5 12.43 12.385 12.375 12.37 12.367 12.37 12.372 12.372 12.37 12.373 12.435 12.55 12.66 12.75 12.782 12.767 12.743 12.728 12.765 12.832 12.815 12.695 12.545 12.4 12.26 12.125 12.018 11.92 11.805 11.693 11.605 11.532 11.457 11.377 11.295 11.223 11.155 11.088 11.04 11.048 11.095 11.175 11.285 11.397 11.505 11.592 11.595 11.505 11.398 11.338 11.353 11.397 11.44 11.457 11.447 11.435 11.422 11.377 11.272 11.122 10.957 10.79 10.625 10.5 10.415 10.348 10.303 10.267 10.215 10.09 9.842 9.528
5.608 5.653 5.707 5.76 5.812 5.867 5.935 6.01 6.078 6.685 7.197 7.085 6.985 6.9 6.837 6.255 5.718 5.727 5.707 5.68 5.65 5.64 5.647 5.645 5.63 5.6 5.525 5.42 5.318 5.215 5.093 4.993 4.97 4.99 5.03 5.098 5.188 5.275 5.355 5.427 5.48 5.462 5.36 5.248 5.163 5.09 5.055 5.055 5.057 5.06 5.025 4.958 4.898 4.845 4.765 4.66 4.57 4.5 4.43 4.33 4.255 4.248 4.262 4.277 4.287 4.292 4.277 4.248 4.225 4.207 4.193 4.202 4.23 4.25 4.273 4.305 4.34 4.347 4.333 4.328 4.36 4.458 4.577 4.683 4.813 4.993 5.155 4.982 4.503 4.285 4.342 4.398 5.173 5.992 6.12 6.3 6.55 6.662 6.645 6.985 7.685 8.342 8.84 9.25 9.7 10.117 10.377 10.51 10.522 10.475 10.59 10.978 11.65 12.465 13.012 13.085 12.925 12.733 12.635 12.663 12.717 12.757 12.75 12.71 12.672 12.625 12.56 12.49 12.418 12.375 12.373 12.38 12.39 12.383 12.37 12.368 12.365 12.365 12.423 12.537 12.64 12.725 12.777 12.785 12.765 12.755 12.797 12.805 12.7 12.55 12.4 12.255 12.118 12.003 11.943 11.902 11.822 11.715 11.63 11.565 11.498 11.438 11.375 11.31 11.25 11.19 11.125 11.088 11.108 11.183 11.29 11.402 11.497 11.565 11.587 11.525 11.405 11.34 11.37 11.43 11.48 11.492 11.477 11.462 11.42 11.335 11.217 11.07 10.91 10.745 10.582 10.463 10.375 10.298 10.245 10.205 10.165 10.062 9.815 9.513
5.543 5.565 5.612 5.662 5.702 5.735 5.765 5.808 5.865 6.697 7.422 7.295 7.203 7.125 7.057 6.353 5.678 5.662 5.638 5.613 5.588 5.573 5.55 5.523 5.508 5.48 5.407 5.303 5.208 5.13 5.065 5.018 4.993 5.003 5.063 5.155 5.255 5.347 5.425 5.482 5.522 5.537 5.455 5.305 5.183 5.098 5.065 5.062 5.057 5.045 4.997 4.927 4.865 4.805 4.733 4.65 4.575 4.515 4.442 4.335 4.23 4.193 4.205 4.215 4.222 4.227 4.22 4.19 4.158 4.138 4.123 4.14 4.182 4.22 4.262 4.31 4.362 4.387 4.375 4.393 4.478 4.6 4.723 4.88 5.092 5.275 5 4.41 4.168 4.195 4.248 4.773 5.72 6.15 6.113 6.168 6.305 6.258 6.02 6.095 6.513 7.228 8.212 9.032 9.555 9.925 10.248 10.505 10.685 10.797 10.907 11.01 11.228 11.7 12.412 12.96 12.997 12.815 12.695 12.67 12.698 12.735 12.73 12.69 12.65 12.607 12.55 12.477 12.403 12.365 12.37 12.393 12.417 12.405 12.375 12.363 12.358 12.355 12.41 12.52 12.615 12.692 12.757 12.787 12.782 12.785 12.787 12.705 12.555 12.405 12.255 12.11 11.99 11.905 11.86 11.845 11.81 11.73 11.65 11.59 11.54 11.505 11.467 11.415 11.355 11.292 11.225 11.16 11.14 11.195 11.295 11.395 11.472 11.535 11.58 11.542 11.405 11.33 11.37 11.427 11.477 11.505 11.487 11.43 11.335 11.215 11.095 10.962 10.805 10.635 10.495 10.405 10.327 10.25 10.195 10.152 10.107 10.012 9.8 9.56
5.495 5.488 5.503 5.535 5.56 5.578 5.595 5.62 5.66 6.712 7.652 7.513 7.423 7.35 7.277 6.443 5.63 5.603 5.575 5.548 5.53 5.525 5.503 5.46 5.42 5.375 5.313 5.235 5.168 5.123 5.088 5.052 5.018 5.033 5.118 5.22 5.32 5.41 5.477 5.527 5.567 5.602 5.552 5.405 5.248 5.118 5.063 5.055 5.042 5.007 4.947 4.885 4.825 4.768 4.717 4.652 4.585 4.535 4.457 4.343 4.22 4.15 4.145 4.153 4.158 4.165 4.167 4.14 4.098 4.065 4.055 4.085 4.135 4.185 4.242 4.307 4.372 4.42 4.44 4.5 4.625 4.768 4.898 5.105 5.357 5.09 4.408 4.1 4.11 4.128 4.41 5.41 6.134 6.127 6.112 6.113 6.158 6.127 5.99 5.868 5.771 5.978 6.808 7.997 9.084 9.867 10.305 10.553 10.805 11.03 11.157 11.24 11.34 11.468 11.815 12.368 12.81 12.895 12.787 12.735 12.715 12.722 12.71 12.67 12.63 12.59 12.535 12.463 12.393 12.36 12.38 12.425 12.452 12.437 12.398 12.365 12.353 12.348 12.4 12.5 12.585 12.66 12.732 12.777 12.787 12.777 12.702 12.565 12.415 12.263 12.113 11.985 11.895 11.825 11.78 11.765 11.753 11.72 11.678 11.642 11.617 11.592 11.557 11.515 11.46 11.397 11.33 11.26 11.205 11.213 11.29 11.372 11.438 11.503 11.562 11.54 11.395 11.32 11.373 11.43 11.483 11.525 11.465 11.333 11.215 11.095 10.975 10.862 10.72 10.545 10.42 10.345 10.272 10.198 10.14 10.095 10.045 9.975 9.84 9.665
5.462 5.425 5.393 5.4 5.42 5.44 5.458 5.468 5.483 6.737 7.889 7.74 7.645 7.572 7.497 6.525 5.575 5.545 5.515 5.488 5.478 5.487 5.49 5.462 5.405 5.34 5.285 5.235 5.19 5.155 5.122 5.085 5.058 5.093 5.188 5.29 5.377 5.43 5.467 5.517 5.567 5.615 5.592 5.462 5.292 5.128 5.045 5.032 5.01 4.96 4.895 4.838 4.785 4.743 4.707 4.655 4.598 4.555 4.48 4.363 4.243 4.158 4.125 4.113 4.103 4.103 4.108 4.09 4.055 4.028 4.028 4.06 4.103 4.145 4.203 4.278 4.353 4.435 4.543 4.68 4.833 4.99 5.128 5.357 5.187 4.46 4.08 4.09 4.095 4.101 4.858 5.855 6.097 6.095 6.095 6.09 6.083 6.05 5.988 5.912 5.82 5.72 5.816 6.471 7.838 9.267 10.232 10.732 11.012 11.207 11.265 11.36 11.48 11.595 11.678 11.9 12.357 12.715 12.795 12.735 12.685 12.682 12.662 12.62 12.58 12.552 12.517 12.453 12.385 12.368 12.41 12.465 12.49 12.472 12.432 12.39 12.36 12.345 12.388 12.475 12.555 12.63 12.7 12.732 12.725 12.69 12.592 12.448 12.295 12.14 12 11.908 11.843 11.785 11.75 11.733 11.72 11.71 11.7 11.685 11.672 11.665 11.642 11.605 11.56 11.502 11.435 11.365 11.295 11.253 11.285 11.355 11.418 11.485 11.552 11.552 11.435 11.37 11.423 11.485 11.545 11.582 11.447 11.233 11.1 10.98 10.863 10.765 10.645 10.48 10.358 10.285 10.215 10.14 10.08 10.038 9.993 9.942 9.867 9.747
5.437 5.38 5.298 5.275 5.295 5.315 5.33 5.335 5.348 6.792 8.109 7.943 7.858 7.785 7.715 6.62 5.525 5.48 5.45 5.43 5.433 5.445 5.455 5.455 5.422 5.362 5.305 5.258 5.22 5.19 5.155 5.118 5.118 5.173 5.262 5.35 5.395 5.4 5.415 5.463 5.518 5.577 5.565 5.437 5.272 5.11 5.023 5.002 4.967 4.91 4.848 4.8 4.76 4.725 4.69 4.65 4.61 4.577 4.51 4.398 4.293 4.215 4.168 4.133 4.1 4.08 4.073 4.06 4.048 4.043 4.043 4.055 4.075 4.103 4.16 4.253 4.363 4.49 4.655 4.852 5.052 5.242 5.41 5.167 4.475 4.083 4.07 4.077 4.083 4.585 5.592 6.097 6.098 6.1 6.105 6.102 6.078 6.04 6 5.95 5.875 5.78 5.688 5.798 6.753 8.23 9.555 10.562 11.09 11.287 11.347 11.44 11.53 11.575 11.572 11.683 11.948 12.302 12.577 12.602 12.58 12.595 12.577 12.535 12.51 12.52 12.512 12.45 12.395 12.403 12.453 12.505 12.527 12.505 12.465 12.425 12.385 12.353 12.368 12.43 12.502 12.572 12.63 12.625 12.58 12.537 12.465 12.352 12.207 12.05 11.933 11.875 11.83 11.795 11.775 11.755 11.738 11.725 11.712 11.698 11.698 11.717 11.717 11.685 11.65 11.61 11.553 11.485 11.407 11.323 11.313 11.378 11.443 11.51 11.58 11.61 11.54 11.48 11.518 11.58 11.64 11.662 11.485 11.185 10.988 10.86 10.748 10.655 10.557 10.415 10.295 10.225 10.152 10.075 10.023 9.987 9.945 9.895 9.835 9.757
5.407 5.332 5.21 5.153 5.165 5.185 5.198 5.21 5.246 6.87 8.322 8.133 8.06 7.993 7.939 6.742 5.503 5.423 5.388 5.378 5.388 5.4 5.41 5.42 5.417 5.38 5.328 5.288 5.255 5.223 5.188 5.165 5.193 5.26 5.322 5.357 5.36 5.35 5.363 5.408 5.468 5.532 5.512 5.38 5.225 5.078 4.993 4.965 4.92 4.863 4.813 4.775 4.74 4.708 4.685 4.665 4.64 4.612 4.545 4.443 4.355 4.283 4.233 4.195 4.155 4.12 4.093 4.08 4.085 4.093 4.098 4.105 4.113 4.128 4.188 4.308 4.453 4.6 4.755 4.953 5.187 5.412 5.162 4.385 3.99 4.032 4.057 4.065 4.335 5.33 6.064 6.1 6.132 6.14 6.142 6.125 6.085 6.043 6 5.96 5.907 5.835 5.748 5.85 6.673 8.036 9.48 10.652 11.147 11.295 11.39 11.427 11.425 11.38 11.315 11.368 11.583 11.88 12.162 12.335 12.442 12.497 12.485 12.465 12.483 12.522 12.517 12.468 12.45 12.47 12.503 12.545 12.562 12.537 12.5 12.457 12.413 12.37 12.358 12.38 12.428 12.49 12.525 12.48 12.41 12.363 12.305 12.232 12.122 11.98 11.885 11.863 11.843 11.818 11.8 11.782 11.765 11.747 11.725 11.707 11.73 11.767 11.777 11.757 11.735 11.722 11.682 11.605 11.51 11.405 11.378 11.438 11.498 11.56 11.625 11.66 11.632 11.59 11.613 11.675 11.732 11.74 11.55 11.21 10.92 10.743 10.635 10.548 10.467 10.347 10.233 10.16 10.085 10.008 9.963 9.935 9.895 9.845 9.782 9.717
5.365 5.27 5.138 5.048 5.035 5.053 5.07 5.105 5.161 6.717 8.336 8.352 8.248 8.19 8.164 6.872 5.506 5.388 5.333 5.333 5.345 5.355 5.365 5.375 5.385 5.38 5.352 5.32 5.29 5.257 5.225 5.228 5.277 5.325 5.34 5.332 5.318 5.305 5.313 5.358 5.422 5.487 5.46 5.32 5.168 5.04 4.965 4.925 4.875 4.828 4.795 4.77 4.75 4.735 4.728 4.723 4.702 4.662 4.592 4.505 4.425 4.35 4.297 4.257 4.21 4.163 4.145 4.16 4.175 4.185 4.195 4.205 4.215 4.243 4.31 4.428 4.57 4.715 4.863 5.038 5.255 5.239 4.5 3.895 3.928 3.98 4.022 4.048 4.823 5.805 6.012 6.055 6.135 6.175 6.17 6.127 6.092 6.06 6.013 5.968 5.92 5.867 5.8 6.176 7.355 8.885 10.267 10.965 11.122 11.25 11.315 11.29 11.2 11.118 11.053 11.093 11.26 11.495 11.745 11.968 12.175 12.327 12.397 12.437 12.49 12.535 12.54 12.525 12.535 12.552 12.567 12.592 12.602 12.578 12.538 12.49 12.44 12.39 12.365 12.368 12.385 12.42 12.42 12.36 12.295 12.238 12.17 12.098 12.013 11.925 11.883 11.888 11.872 11.84 11.823 11.807 11.79 11.755 11.69 11.668 11.72 11.777 11.82 11.825 11.805 11.795 11.757 11.675 11.577 11.48 11.45 11.5 11.557 11.617 11.67 11.695 11.697 11.685 11.705 11.767 11.722 11.707 11.605 11.27 10.933 10.668 10.525 10.443 10.365 10.265 10.168 10.093 10.015 9.94 9.895 9.875 9.842 9.79 9.728 9.665
5.32 5.205 5.073 4.953 4.908 4.928 4.968 5.028 5.103 5.98 7.77 8.592 8.43 8.378 8.384 7.003 5.521 5.405 5.348 5.338 5.345 5.355 5.368 5.38 5.39 5.392 5.377 5.35 5.32 5.29 5.275 5.292 5.325 5.335 5.322 5.307 5.29 5.28 5.285 5.318 5.378 5.445 5.41 5.263 5.125 5.018 4.94 4.89 4.858 4.835 4.82 4.813 4.81 4.808 4.803 4.8 4.777 4.715 4.635 4.557 4.48 4.402 4.342 4.292 4.235 4.198 4.223 4.275 4.297 4.305 4.315 4.325 4.34 4.393 4.473 4.565 4.69 4.835 4.98 5.122 5.18 4.672 3.985 3.815 3.865 3.915 3.965 4.525 5.547 6.01 5.965 5.99 6.085 6.16 6.15 6.1 6.087 6.08 6.05 6.003 5.95 5.9 6.011 6.843 8.37 9.935 10.839 11.01 11.055 11.115 11.14 11.132 11.06 10.945 10.828 10.835 11.01 11.248 11.483 11.698 11.913 12.13 12.262 12.315 12.377 12.442 12.517 12.565 12.577 12.59 12.597 12.62 12.65 12.64 12.595 12.545 12.485 12.41 12.375 12.382 12.388 12.395 12.383 12.348 12.305 12.245 12.175 12.098 12.015 11.95 11.935 11.94 11.902 11.863 11.847 11.83 11.787 11.692 11.598 11.6 11.67 11.743 11.82 11.852 11.835 11.812 11.775 11.705 11.615 11.53 11.485 11.507 11.562 11.62 11.685 11.725 11.735 11.747 11.782 11.55 10.955 10.693 10.96 11.175 11.022 10.693 10.458 10.34 10.263 10.183 10.105 10.033 9.955 9.88 9.838 9.823 9.797 9.758 9.708 9.65
5.35 5.218 5.063 4.91 4.83 4.86 4.938 5.023 5.113 5.319 7.248 8.864 8.643 8.558 8.587 7.268 5.711 5.498 5.455 5.423 5.403 5.403 5.418 5.43 5.432 5.42 5.397 5.372 5.347 5.322 5.315 5.32 5.317 5.312 5.3 5.283 5.275 5.28 5.285 5.298 5.34 5.402 5.357 5.215 5.1 5.008 4.938 4.903 4.895 4.893 4.89 4.887 4.885 4.882 4.878 4.875 4.847 4.765 4.668 4.59 4.515 4.433 4.363 4.305 4.253 4.255 4.32 4.39 4.422 4.43 4.438 4.445 4.478 4.555 4.645 4.72 4.818 4.955 5.095 5.19 4.75 3.978 3.7 3.75 3.8 3.85 4.353 5.44 6.024 5.975 5.925 5.933 6.015 6.092 6.095 6.073 6.075 6.08 6.077 6.05 6.005 6.048 6.601 7.918 9.56 10.709 11 10.945 10.933 10.928 10.94 10.96 10.955 10.88 10.735 10.695 10.843 11.075 11.317 11.535 11.76 11.982 12.082 12.093 12.138 12.218 12.355 12.497 12.56 12.575 12.583 12.625 12.7 12.717 12.67 12.602 12.517 12.42 12.38 12.392 12.4 12.407 12.402 12.387 12.36 12.315 12.262 12.205 12.135 12.048 12.008 11.99 11.93 11.888 11.87 11.82 11.71 11.563 11.5 11.55 11.623 11.703 11.79 11.847 11.847 11.82 11.787 11.725 11.635 11.563 11.51 11.485 11.508 11.56 11.665 11.745 11.757 11.787 11.487 10.703 10.006 9.766 10.03 10.44 10.78 10.805 10.485 10.275 10.173 10.103 10.042 9.982 9.912 9.838 9.795 9.78 9.76 9.737 9.707 9.66
5.49 5.373 5.203 5.04 4.918 4.905 4.983 5.075 5.16 5.221 7.28 9.162 8.878 8.738 8.775 8.214 6.588 5.56 5.537 5.515 5.492 5.477 5.475 5.475 5.462 5.437 5.412 5.387 5.355 5.315 5.292 5.292 5.292 5.288 5.278 5.27 5.278 5.29 5.295 5.3 5.318 5.355 5.307 5.188 5.103 5.033 4.978 4.958 4.96 4.962 4.965 4.962 4.96 4.957 4.952 4.947 4.91 4.812 4.705 4.62 4.537 4.453 4.378 4.315 4.293 4.34 4.42 4.497 4.542 4.555 4.563 4.575 4.63 4.725 4.815 4.885 4.958 5.075 5.207 4.837 4.013 3.623 3.645 3.683 3.73 3.918 4.977 5.944 5.99 5.94 5.89 5.88 5.958 6.04 6.058 6.058 6.063 6.068 6.072 6.072 6.078 6.445 7.538 9.09 10.457 11 10.973 10.93 10.885 10.848 10.83 10.82 10.81 10.785 10.708 10.683 10.778 10.938 11.15 11.383 11.63 11.835 11.907 11.905 11.915 11.97 12.113 12.307 12.462 12.54 12.578 12.642 12.73 12.76 12.707 12.615 12.515 12.418 12.38 12.397 12.41 12.42 12.417 12.402 12.382 12.347 12.302 12.26 12.21 12.14 12.087 12.035 11.958 11.907 11.847 11.725 11.565 11.438 11.43 11.503 11.583 11.67 11.762 11.842 11.86 11.83 11.8 11.742 11.663 11.605 11.56 11.51 11.483 11.505 11.645 11.765 11.762 11.475 10.658 9.958 9.803 9.802 9.788 9.813 10.128 10.517 10.522 10.295 10.11 10.02 9.967 9.92 9.867 9.8 9.753 9.735 9.718 9.7 9.685 9.615
5.66 5.587 5.427 5.275 5.125 5.025 5.045 5.133 5.22 5.271 7.445 9.456 9.145 8.953 8.965 9.059 7.322 5.538 5.532 5.53 5.525 5.512 5.502 5.492 5.472 5.445 5.42 5.387 5.335 5.275 5.24 5.245 5.263 5.273 5.275 5.283 5.298 5.307 5.3 5.295 5.302 5.315 5.282 5.205 5.145 5.09 5.035 5.015 5.02 5.025 5.03 5.032 5.035 5.032 5.027 5.02 4.967 4.85 4.735 4.645 4.555 4.47 4.393 4.345 4.37 4.443 4.52 4.6 4.655 4.675 4.685 4.718 4.795 4.895 4.987 5.057 5.115 5.207 4.86 4.023 3.6 3.61 3.62 3.638 3.671 4.445 5.62 6.01 5.955 5.905 5.855 5.828 5.903 6.01 6.042 6.048 6.055 6.06 6.065 6.075 6.363 7.18 8.583 10.122 10.922 11.03 10.995 10.957 10.91 10.862 10.818 10.773 10.733 10.72 10.72 10.748 10.825 10.923 11.055 11.263 11.517 11.692 11.745 11.755 11.763 11.805 11.938 12.123 12.308 12.457 12.557 12.64 12.715 12.755 12.71 12.61 12.51 12.415 12.38 12.4 12.418 12.435 12.435 12.415 12.397 12.365 12.32 12.28 12.24 12.197 12.145 12.07 11.972 11.87 11.737 11.572 11.408 11.335 11.383 11.465 11.555 11.645 11.737 11.827 11.862 11.84 11.81 11.76 11.7 11.655 11.602 11.545 11.497 11.473 11.615 11.702 11.42 10.693 10.003 9.838 9.855 9.84 9.825 9.813 9.798 9.98 10.165 10.195 10.12 9.96 9.888 9.845 9.805 9.755 9.715 9.7 9.69 9.68 9.672 9.535
5.752 5.707 5.562 5.41 5.26 5.128 5.113 5.2 5.287 5.313 7.602 9.751 9.44 9.198 9.155 9.247 7.395 5.493 5.49 5.487 5.483 5.483 5.485 5.477 5.457 5.432 5.412 5.382 5.333 5.275 5.24 5.25 5.28 5.303 5.318 5.33 5.335 5.332 5.305 5.263 5.25 5.257 5.24 5.195 5.145 5.095 5.05 5.042 5.06 5.07 5.077 5.085 5.092 5.097 5.1 5.09 5.002 4.84 4.723 4.66 4.585 4.498 4.418 4.405 4.47 4.545 4.62 4.7 4.765 4.795 4.813 4.87 4.965 5.062 5.157 5.232 5.29 4.892 4.025 3.585 3.59 3.6 3.61 3.621 4.248 5.472 6.052 5.985 5.915 5.865 5.815 5.785 5.833 5.935 6.015 6.05 6.057 6.063 6.07 6.238 7.015 8.208 9.687 10.844 11.057 11.002 10.965 10.915 10.865 10.833 10.82 10.813 10.813 10.83 10.865 10.907 10.965 11.03 11.088 11.228 11.44 11.577 11.63 11.655 11.675 11.728 11.855 12.028 12.198 12.355 12.487 12.592 12.675 12.735 12.71 12.61 12.513 12.428 12.403 12.425 12.448 12.472 12.465 12.433 12.412 12.382 12.34 12.3 12.26 12.222 12.175 12.1 11.987 11.798 11.588 11.415 11.278 11.265 11.348 11.438 11.53 11.62 11.71 11.802 11.857 11.85 11.82 11.777 11.725 11.677 11.592 11.492 11.433 11.453 11.585 11.405 10.713 10.06 9.845 9.86 9.857 9.85 9.842 9.835 9.827 9.818 9.818 9.935 10.045 9.962 9.858 9.813 9.773 9.745 9.718 9.695 9.688 9.682 9.66 9.457
5.77 5.74 5.615 5.463 5.33 5.215 5.19 5.267 5.32 5.298 7.127 9.436 9.735 9.458 9.36 9.432 7.475 5.461 5.448 5.445 5.448 5.453 5.455 5.452 5.435 5.41 5.395 5.38 5.35 5.3 5.278 5.305 5.342 5.367 5.377 5.377 5.365 5.35 5.312 5.238 5.18 5.17 5.157 5.12 5.072 5.007 4.97 5.012 5.062 5.075 5.087 5.1 5.11 5.12 5.127 5.097 4.97 4.778 4.668 4.647 4.612 4.537 4.468 4.473 4.545 4.635 4.72 4.8 4.875 4.915 4.953 5.035 5.132 5.228 5.325 5.404 4.974 4.06 3.598 3.585 3.583 3.59 3.601 4.233 5.474 6.077 6.047 5.968 5.878 5.825 5.783 5.773 5.803 5.865 5.945 6.015 6.055 6.068 6.113 6.693 7.93 9.342 10.577 11.06 10.983 10.925 10.903 10.895 10.888 10.893 10.912 10.94 10.97 10.995 11.02 11.05 11.08 11.112 11.155 11.247 11.365 11.452 11.527 11.58 11.605 11.66 11.793 11.962 12.117 12.257 12.387 12.51 12.617 12.702 12.7 12.615 12.533 12.468 12.453 12.475 12.497 12.52 12.51 12.465 12.428 12.397 12.36 12.32 12.285 12.257 12.21 12.137 12.02 11.78 11.493 11.268 11.178 11.23 11.32 11.41 11.5 11.59 11.68 11.775 11.847 11.852 11.817 11.777 11.725 11.667 11.555 11.395 11.368 11.475 11.382 10.807 10.128 9.853 9.835 9.835 9.833 9.83 9.83 9.83 9.83 9.825 9.817 9.81 9.875 9.907 9.855 9.823 9.798 9.79 9.765 9.72 9.695 9.685 9.617 9.36
5.78 5.77 5.67 5.533 5.418 5.31 5.27 5.305 5.297 5.243 5.894 8.345 9.999 9.735 9.595 9.632 7.577 5.451 5.41 5.415 5.425 5.43 5.427 5.425 5.412 5.39 5.375 5.365 5.35 5.317 5.312 5.342 5.367 5.397 5.41 5.395 5.378 5.362 5.32 5.24 5.153 5.1 5.075 5.032 4.962 4.865 4.84 4.957 5.05 5.06 5.072 5.085 5.095 5.102 5.105 5.04 4.887 4.703 4.603 4.602 4.6 4.567 4.538 4.543 4.595 4.692 4.79 4.882 4.975 5.04 5.107 5.202 5.297 5.395 5.492 5.039 4.078 3.615 3.605 3.59 3.583 3.581 4.213 5.494 6.132 6.09 6.045 5.96 5.85 5.788 5.768 5.783 5.813 5.855 5.903 5.965 6.027 6.063 6.408 7.488 8.975 10.315 10.987 11.003 10.92 10.89 10.9 10.927 10.952 10.972 10.99 11.01 11.027 11.042 11.06 11.077 11.092 11.1 11.132 11.202 11.252 11.3 11.387 11.477 11.53 11.593 11.725 11.882 12.02 12.153 12.285 12.41 12.53 12.64 12.682 12.642 12.58 12.523 12.505 12.525 12.545 12.565 12.56 12.513 12.455 12.415 12.38 12.345 12.32 12.3 12.252 12.192 12.065 11.8 11.483 11.213 11.12 11.185 11.275 11.363 11.453 11.555 11.665 11.775 11.845 11.84 11.8 11.757 11.71 11.655 11.535 11.41 11.42 11.335 10.845 10.195 9.858 9.815 9.822 9.825 9.823 9.818 9.815 9.815 9.815 9.813 9.808 9.805 9.805 9.82 9.842 9.85 9.85 9.85 9.822 9.765 9.715 9.69 9.562 9.247
5.79 5.802 5.737 5.62 5.51 5.4 5.333 5.305 5.265 5.218 5.211 7.735 10.161 9.962 9.845 9.857 7.7 5.456 5.388 5.398 5.402 5.405 5.4 5.395 5.387 5.37 5.355 5.337 5.315 5.29 5.282 5.295 5.305 5.332 5.372 5.392 5.39 5.375 5.33 5.247 5.153 5.07 4.997 4.915 4.813 4.7 4.705 4.875 5.015 5.047 5.055 5.065 5.073 5.077 5.07 4.977 4.805 4.628 4.543 4.55 4.558 4.565 4.58 4.6 4.643 4.725 4.825 4.927 5.03 5.122 5.212 5.305 5.397 5.097 4.645 4.045 3.575 3.612 3.615 3.6 3.591 4.208 5.484 6.182 6.192 6.122 6.057 5.96 5.83 5.763 5.77 5.798 5.825 5.863 5.91 5.96 6.01 6.23 7.085 8.52 9.995 10.912 11.107 11.033 10.948 10.905 10.903 10.92 10.935 10.95 10.97 10.987 11.003 11.02 11.037 11.053 11.07 11.065 11.053 11.095 11.14 11.165 11.235 11.338 11.425 11.515 11.642 11.78 11.912 12.047 12.18 12.302 12.417 12.532 12.612 12.622 12.597 12.567 12.557 12.575 12.595 12.615 12.612 12.57 12.505 12.445 12.405 12.38 12.36 12.34 12.302 12.26 12.117 11.843 11.553 11.3 11.14 11.13 11.225 11.33 11.438 11.558 11.685 11.805 11.85 11.82 11.78 11.735 11.69 11.642 11.57 11.472 11.267 10.832 10.248 9.868 9.793 9.8 9.81 9.815 9.815 9.812 9.808 9.805 9.805 9.805 9.802 9.798 9.795 9.805 9.835 9.872 9.9 9.91 9.88 9.82 9.76 9.702 9.502 9.14
