ncols         200
nrows         79
xllcorner     546000
yllcorner     260315
cellsize      5
NODATA_value  -9999.0
12.667 12.692 12.66 12.565 12.45 12.335 12.23 12.137 12.057 11.955 11.838 11.737 11.642 11.555 11.465 11.367 11.27 11.17 11.112 11.067 10.962 10.845 10.76 10.693 10.63 10.595 10.595 10.557 10.473 10.388 10.355 10.405 10.49 10.578 10.637 10.617 10.535 10.45 10.37 10.29 10.208 10.135 10.088 10.055 10.023 9.995 9.97 9.92 9.858 9.81 9.783 9.785 9.828 9.903 9.995 10.095 10.2 10.305 10.347 10.333 10.315 10.295 10.275 10.253 10.235 10.245 10.273 10.295 10.323 10.355 10.358 10.333 10.308 10.285 10.29 10.323 10.357 10.387 10.42 10.45 10.465 10.475 10.482 10.457 10.385 10.298 10.233 10.215 10.225 10.238 10.252 10.26 10.26 10.26 10.273 10.3 10.33 10.362 10.367 10.317 10.248 10.2 10.175 10.155 10.14 10.128 10.113 10.1 10.09 10.083 10.057 9.995 9.915 9.853 9.83 9.835 9.842 9.837 9.817 9.79 9.757 9.725 9.695 9.668 9.645 9.645 9.665 9.687 9.707 9.72 9.695 9.632 9.565 9.5 9.478 9.49 9.5 9.485 9.412 9.305 9.195 9.125 9.118 9.14 9.168 9.195 9.225 9.253 9.275 9.292 9.27 9.2 9.12 9.03 8.917 8.813 8.763 8.765 8.79 8.815 8.835 8.862 8.857 8.805 8.745 8.7 8.668 8.635 8.592 8.53 8.447 8.353 8.258 8.163 8.065 8.017 8.02 8.02 7.975 7.875 7.76 7.66 7.62 7.62 7.622 7.592 7.495 7.368 7.253 7.178 7.143 7.115 7.088 7.075 7.11 7.18 7.255 7.34 7.437 7.53
12.587 12.6 12.59 12.542 12.45 12.333 12.228 12.148 12.087 11.982 11.84 11.723 11.625 11.535 11.445 11.35 11.25 11.15 11.08 11.062 11.022 10.925 10.835 10.767 10.7 10.627 10.542 10.473 10.418 10.355 10.36 10.435 10.517 10.6 10.66 10.665 10.605 10.518 10.433 10.35 10.27 10.193 10.135 10.095 10.058 10.038 10.038 10.005 9.96 9.94 9.928 9.93 9.943 9.973 10.025 10.108 10.213 10.312 10.35 10.327 10.302 10.277 10.253 10.23 10.23 10.26 10.295 10.32 10.34 10.363 10.362 10.338 10.315 10.295 10.303 10.337 10.365 10.38 10.41 10.467 10.505 10.515 10.51 10.463 10.39 10.313 10.233 10.18 10.175 10.192 10.207 10.217 10.22 10.22 10.235 10.265 10.298 10.335 10.342 10.293 10.24 10.22 10.205 10.188 10.175 10.162 10.148 10.133 10.12 10.11 10.085 10.025 9.948 9.89 9.875 9.882 9.872 9.84 9.805 9.772 9.738 9.708 9.683 9.663 9.648 9.643 9.663 9.697 9.73 9.755 9.742 9.69 9.625 9.563 9.543 9.552 9.537 9.485 9.405 9.303 9.208 9.17 9.175 9.19 9.213 9.238 9.265 9.292 9.31 9.317 9.31 9.26 9.175 9.065 8.94 8.83 8.743 8.705 8.718 8.743 8.768 8.8 8.805 8.76 8.708 8.68 8.657 8.617 8.562 8.492 8.412 8.325 8.235 8.137 8.018 7.923 7.918 7.94 7.915 7.832 7.72 7.618 7.563 7.555 7.545 7.49 7.385 7.27 7.188 7.148 7.123 7.098 7.088 7.105 7.155 7.227 7.303 7.388 7.482 7.542
12.48 12.493 12.49 12.47 12.422 12.327 12.23 12.165 12.115 12.022 11.875 11.723 11.593 11.49 11.405 11.32 11.23 11.135 11.053 11.03 11.037 10.99 10.912 10.83 10.722 10.605 10.475 10.4 10.382 10.353 10.378 10.46 10.542 10.625 10.68 10.697 10.67 10.595 10.505 10.418 10.333 10.25 10.188 10.145 10.143 10.19 10.25 10.217 10.123 10.08 10.073 10.08 10.09 10.105 10.123 10.16 10.233 10.317 10.347 10.32 10.29 10.258 10.23 10.223 10.245 10.285 10.32 10.345 10.368 10.39 10.385 10.355 10.328 10.308 10.318 10.345 10.355 10.355 10.38 10.452 10.53 10.57 10.557 10.505 10.445 10.38 10.3 10.215 10.155 10.145 10.16 10.17 10.177 10.18 10.195 10.228 10.265 10.305 10.315 10.278 10.25 10.247 10.237 10.222 10.21 10.197 10.182 10.167 10.153 10.14 10.117 10.062 9.99 9.935 9.917 9.905 9.865 9.82 9.783 9.75 9.723 9.703 9.685 9.668 9.653 9.64 9.655 9.69 9.72 9.747 9.752 9.732 9.685 9.628 9.607 9.592 9.537 9.465 9.392 9.303 9.243 9.235 9.24 9.248 9.26 9.283 9.307 9.325 9.335 9.34 9.34 9.307 9.217 9.09 8.963 8.853 8.75 8.67 8.648 8.673 8.708 8.745 8.755 8.723 8.69 8.672 8.65 8.6 8.517 8.433 8.37 8.302 8.212 8.102 7.975 7.845 7.8 7.84 7.852 7.787 7.68 7.583 7.513 7.485 7.45 7.377 7.278 7.193 7.155 7.135 7.11 7.098 7.115 7.148 7.198 7.27 7.348 7.432 7.51 7.532
12.385 12.398 12.393 12.37 12.347 12.302 12.242 12.19 12.14 12.06 11.925 11.765 11.6 11.465 11.373 11.288 11.203 11.113 11.023 10.988 11.005 10.997 10.93 10.805 10.648 10.483 10.358 10.323 10.338 10.353 10.403 10.485 10.567 10.65 10.697 10.71 10.71 10.667 10.585 10.495 10.405 10.318 10.255 10.235 10.272 10.345 10.407 10.38 10.282 10.222 10.21 10.22 10.23 10.242 10.255 10.265 10.292 10.335 10.34 10.308 10.275 10.243 10.22 10.233 10.27 10.31 10.347 10.375 10.4 10.417 10.405 10.375 10.345 10.323 10.322 10.332 10.33 10.325 10.348 10.418 10.515 10.595 10.595 10.535 10.475 10.422 10.357 10.275 10.19 10.13 10.118 10.125 10.135 10.143 10.16 10.195 10.238 10.28 10.295 10.282 10.27 10.265 10.26 10.247 10.232 10.22 10.207 10.195 10.182 10.17 10.152 10.105 10.037 9.98 9.942 9.9 9.845 9.8 9.765 9.74 9.723 9.707 9.69 9.673 9.657 9.643 9.645 9.668 9.687 9.705 9.717 9.725 9.712 9.68 9.647 9.595 9.523 9.45 9.383 9.323 9.298 9.3 9.305 9.312 9.317 9.327 9.34 9.345 9.347 9.35 9.352 9.332 9.245 9.11 8.985 8.878 8.775 8.673 8.608 8.615 8.655 8.693 8.707 8.692 8.672 8.655 8.622 8.552 8.458 8.363 8.303 8.262 8.182 8.065 7.933 7.798 7.695 7.7 7.76 7.735 7.643 7.55 7.465 7.403 7.343 7.268 7.198 7.158 7.143 7.125 7.115 7.13 7.16 7.193 7.24 7.31 7.392 7.47 7.51 7.507
12.343 12.338 12.318 12.295 12.275 12.255 12.232 12.205 12.167 12.1 11.975 11.79 11.61 11.478 11.375 11.285 11.195 11.105 11.003 10.923 10.905 10.912 10.862 10.737 10.58 10.408 10.308 10.31 10.338 10.368 10.428 10.51 10.59 10.67 10.715 10.725 10.735 10.725 10.665 10.575 10.485 10.395 10.32 10.292 10.317 10.362 10.405 10.39 10.322 10.265 10.245 10.255 10.265 10.275 10.285 10.3 10.327 10.352 10.342 10.308 10.275 10.25 10.24 10.258 10.295 10.335 10.372 10.402 10.427 10.435 10.415 10.385 10.355 10.325 10.31 10.31 10.305 10.3 10.32 10.39 10.49 10.587 10.615 10.563 10.508 10.465 10.405 10.325 10.242 10.158 10.113 10.11 10.113 10.115 10.135 10.175 10.218 10.262 10.28 10.27 10.255 10.242 10.255 10.26 10.238 10.218 10.205 10.195 10.185 10.175 10.157 10.117 10.06 9.997 9.94 9.888 9.838 9.803 9.773 9.745 9.728 9.712 9.695 9.678 9.663 9.658 9.658 9.655 9.653 9.66 9.675 9.688 9.703 9.705 9.67 9.608 9.54 9.47 9.408 9.365 9.35 9.352 9.357 9.362 9.367 9.357 9.34 9.335 9.335 9.337 9.34 9.312 9.237 9.125 9.008 8.903 8.8 8.698 8.62 8.605 8.635 8.67 8.683 8.665 8.64 8.617 8.57 8.488 8.398 8.323 8.275 8.245 8.18 8.055 7.903 7.758 7.623 7.555 7.607 7.657 7.607 7.512 7.425 7.365 7.318 7.255 7.208 7.183 7.158 7.133 7.138 7.172 7.207 7.24 7.28 7.347 7.427 7.477 7.485 7.475
12.325 12.295 12.263 12.24 12.22 12.203 12.19 12.18 12.162 12.092 11.95 11.77 11.62 11.505 11.4 11.31 11.215 11.107 10.98 10.863 10.793 10.775 10.747 10.67 10.555 10.398 10.318 10.34 10.372 10.405 10.455 10.532 10.615 10.69 10.73 10.74 10.75 10.757 10.732 10.657 10.565 10.478 10.388 10.305 10.275 10.305 10.35 10.337 10.27 10.208 10.185 10.195 10.205 10.22 10.245 10.28 10.325 10.362 10.357 10.325 10.3 10.288 10.288 10.3 10.328 10.365 10.4 10.427 10.442 10.435 10.41 10.38 10.345 10.305 10.288 10.29 10.287 10.283 10.305 10.378 10.473 10.57 10.62 10.592 10.55 10.515 10.455 10.372 10.285 10.195 10.145 10.135 10.13 10.128 10.14 10.173 10.213 10.257 10.27 10.24 10.208 10.19 10.225 10.265 10.248 10.218 10.195 10.178 10.165 10.155 10.132 10.095 10.05 9.992 9.935 9.89 9.86 9.845 9.815 9.77 9.738 9.718 9.703 9.688 9.683 9.695 9.7 9.685 9.665 9.653 9.663 9.685 9.702 9.71 9.697 9.655 9.59 9.523 9.468 9.425 9.398 9.393 9.395 9.397 9.392 9.362 9.328 9.31 9.305 9.31 9.3 9.25 9.185 9.115 9.03 8.93 8.825 8.725 8.66 8.645 8.655 8.68 8.687 8.648 8.6 8.572 8.515 8.433 8.37 8.33 8.3 8.265 8.212 8.095 7.925 7.763 7.61 7.473 7.445 7.53 7.547 7.468 7.395 7.367 7.355 7.32 7.28 7.24 7.19 7.145 7.155 7.202 7.24 7.277 7.313 7.363 7.427 7.46 7.443 7.42
12.285 12.245 12.208 12.183 12.165 12.15 12.14 12.097 12.045 11.98 11.868 11.755 11.65 11.535 11.43 11.332 11.215 11.08 10.943 10.828 10.733 10.663 10.61 10.55 10.477 10.383 10.345 10.375 10.408 10.44 10.48 10.55 10.637 10.707 10.74 10.75 10.76 10.77 10.772 10.732 10.65 10.565 10.475 10.37 10.283 10.26 10.29 10.285 10.222 10.153 10.125 10.14 10.165 10.2 10.243 10.29 10.34 10.377 10.375 10.353 10.343 10.34 10.345 10.355 10.37 10.398 10.427 10.442 10.44 10.427 10.405 10.367 10.32 10.278 10.265 10.27 10.27 10.268 10.298 10.375 10.465 10.555 10.622 10.63 10.6 10.565 10.502 10.412 10.32 10.23 10.183 10.175 10.17 10.17 10.178 10.195 10.223 10.26 10.267 10.225 10.173 10.14 10.175 10.252 10.27 10.24 10.208 10.178 10.155 10.137 10.11 10.07 10.03 9.985 9.943 9.918 9.907 9.902 9.875 9.82 9.768 9.73 9.713 9.713 9.725 9.745 9.747 9.73 9.71 9.685 9.685 9.705 9.71 9.71 9.71 9.692 9.642 9.583 9.535 9.495 9.46 9.435 9.428 9.427 9.402 9.36 9.323 9.295 9.28 9.275 9.245 9.19 9.143 9.103 9.042 8.952 8.855 8.758 8.703 8.695 8.695 8.702 8.705 8.655 8.575 8.523 8.473 8.418 8.383 8.355 8.322 8.282 8.237 8.142 7.985 7.815 7.647 7.473 7.365 7.388 7.447 7.422 7.365 7.355 7.355 7.352 7.327 7.27 7.205 7.145 7.153 7.215 7.26 7.3 7.335 7.37 7.417 7.445 7.413 7.363
12.235 12.192 12.15 12.123 12.11 12.09 12.057 11.993 11.92 11.87 11.807 11.732 11.647 11.552 11.447 11.325 11.185 11.04 10.908 10.795 10.698 10.603 10.525 10.465 10.41 10.38 10.39 10.42 10.45 10.48 10.51 10.563 10.64 10.702 10.732 10.745 10.757 10.77 10.782 10.78 10.732 10.652 10.56 10.455 10.345 10.263 10.243 10.232 10.175 10.103 10.085 10.12 10.163 10.21 10.258 10.305 10.355 10.395 10.405 10.4 10.4 10.4 10.405 10.415 10.422 10.43 10.44 10.44 10.43 10.42 10.395 10.347 10.295 10.253 10.24 10.247 10.25 10.253 10.295 10.375 10.455 10.532 10.6 10.627 10.617 10.6 10.542 10.448 10.353 10.263 10.22 10.215 10.21 10.213 10.222 10.237 10.252 10.272 10.262 10.21 10.15 10.105 10.128 10.212 10.272 10.267 10.232 10.197 10.16 10.122 10.085 10.045 10.005 9.97 9.95 9.945 9.94 9.935 9.902 9.842 9.787 9.738 9.723 9.745 9.77 9.79 9.792 9.772 9.742 9.71 9.702 9.71 9.71 9.71 9.71 9.707 9.685 9.645 9.605 9.565 9.53 9.495 9.468 9.447 9.415 9.373 9.32 9.275 9.252 9.24 9.21 9.17 9.14 9.11 9.05 8.962 8.875 8.785 8.735 8.73 8.73 8.727 8.715 8.657 8.56 8.488 8.453 8.43 8.405 8.375 8.34 8.297 8.252 8.18 8.045 7.867 7.685 7.495 7.365 7.338 7.368 7.37 7.35 7.358 7.365 7.377 7.357 7.288 7.215 7.15 7.145 7.212 7.275 7.32 7.357 7.392 7.422 7.435 7.4 7.335
12.145 12.12 12.09 12.062 12.022 11.992 11.967 11.92 11.87 11.817 11.752 11.68 11.605 11.525 11.422 11.29 11.145 11 10.87 10.763 10.665 10.573 10.5 10.448 10.418 10.418 10.44 10.47 10.5 10.53 10.553 10.573 10.618 10.675 10.705 10.715 10.73 10.745 10.76 10.755 10.745 10.722 10.642 10.537 10.43 10.323 10.24 10.188 10.145 10.11 10.11 10.148 10.193 10.238 10.285 10.335 10.382 10.405 10.412 10.427 10.44 10.445 10.447 10.45 10.447 10.44 10.432 10.427 10.42 10.405 10.37 10.32 10.27 10.228 10.213 10.22 10.227 10.233 10.273 10.345 10.412 10.48 10.54 10.57 10.58 10.605 10.582 10.493 10.395 10.313 10.278 10.27 10.263 10.257 10.257 10.265 10.275 10.275 10.24 10.18 10.128 10.095 10.118 10.188 10.257 10.28 10.247 10.202 10.152 10.1 10.055 10.015 9.978 9.955 9.95 9.95 9.947 9.942 9.902 9.833 9.775 9.725 9.715 9.75 9.785 9.812 9.81 9.772 9.727 9.7 9.702 9.71 9.71 9.71 9.71 9.71 9.71 9.695 9.66 9.622 9.587 9.55 9.513 9.478 9.445 9.397 9.323 9.25 9.213 9.205 9.197 9.175 9.145 9.115 9.057 8.97 8.885 8.803 8.74 8.717 8.715 8.71 8.685 8.617 8.528 8.463 8.433 8.417 8.397 8.365 8.325 8.282 8.242 8.192 8.075 7.892 7.697 7.503 7.385 7.365 7.36 7.353 7.363 7.382 7.398 7.412 7.4 7.327 7.235 7.16 7.143 7.203 7.28 7.337 7.375 7.4 7.415 7.42 7.387 7.325
12.01 11.995 11.985 11.957 11.877 11.84 11.862 11.855 11.817 11.762 11.7 11.63 11.55 11.457 11.355 11.237 11.105 10.963 10.833 10.73 10.635 10.548 10.488 10.46 10.46 10.47 10.493 10.525 10.555 10.585 10.6 10.593 10.6 10.645 10.675 10.678 10.69 10.707 10.712 10.668 10.663 10.717 10.69 10.592 10.485 10.375 10.265 10.193 10.18 10.185 10.19 10.205 10.238 10.28 10.325 10.375 10.405 10.395 10.39 10.412 10.437 10.455 10.457 10.45 10.44 10.43 10.42 10.412 10.402 10.377 10.337 10.29 10.24 10.205 10.193 10.193 10.2 10.205 10.23 10.285 10.348 10.415 10.472 10.5 10.528 10.59 10.615 10.55 10.458 10.4 10.378 10.36 10.327 10.285 10.265 10.265 10.262 10.245 10.2 10.148 10.115 10.103 10.133 10.195 10.242 10.255 10.227 10.18 10.125 10.07 10.025 9.988 9.963 9.955 9.955 9.955 9.952 9.947 9.907 9.83 9.758 9.7 9.69 9.725 9.76 9.785 9.77 9.715 9.678 9.678 9.692 9.705 9.712 9.715 9.715 9.72 9.735 9.73 9.697 9.665 9.63 9.59 9.555 9.522 9.48 9.412 9.328 9.245 9.18 9.158 9.167 9.17 9.15 9.12 9.065 8.98 8.898 8.82 8.745 8.688 8.663 8.657 8.627 8.558 8.485 8.433 8.4 8.38 8.355 8.307 8.255 8.217 8.182 8.14 8.045 7.89 7.705 7.51 7.405 7.392 7.382 7.368 7.378 7.41 7.432 7.45 7.447 7.38 7.275 7.18 7.138 7.185 7.27 7.337 7.372 7.382 7.39 7.397 7.372 7.315
11.883 11.843 11.823 11.778 11.693 11.665 11.705 11.737 11.742 11.71 11.65 11.575 11.485 11.385 11.28 11.17 11.055 10.923 10.798 10.7 10.605 10.533 10.503 10.5 10.51 10.52 10.545 10.58 10.61 10.637 10.642 10.627 10.615 10.628 10.645 10.645 10.653 10.67 10.647 10.575 10.568 10.645 10.66 10.582 10.485 10.38 10.275 10.228 10.237 10.242 10.255 10.277 10.295 10.323 10.365 10.405 10.405 10.375 10.368 10.388 10.415 10.442 10.45 10.44 10.43 10.42 10.41 10.395 10.372 10.342 10.302 10.255 10.215 10.195 10.185 10.178 10.175 10.175 10.193 10.235 10.288 10.35 10.405 10.443 10.498 10.575 10.637 10.612 10.543 10.515 10.49 10.442 10.372 10.295 10.258 10.252 10.235 10.205 10.168 10.135 10.12 10.115 10.145 10.19 10.202 10.187 10.165 10.137 10.092 10.04 9.995 9.968 9.96 9.96 9.96 9.96 9.957 9.955 9.915 9.833 9.75 9.678 9.66 9.687 9.707 9.72 9.697 9.658 9.65 9.665 9.68 9.695 9.71 9.717 9.725 9.743 9.765 9.76 9.73 9.7 9.667 9.632 9.597 9.56 9.5 9.417 9.335 9.252 9.17 9.115 9.115 9.137 9.145 9.13 9.072 8.99 8.913 8.838 8.765 8.69 8.63 8.608 8.572 8.508 8.453 8.407 8.367 8.335 8.292 8.228 8.17 8.133 8.097 8.052 7.97 7.847 7.697 7.523 7.425 7.412 7.395 7.375 7.385 7.422 7.455 7.482 7.49 7.432 7.328 7.223 7.153 7.17 7.245 7.315 7.35 7.357 7.365 7.372 7.357 7.313
11.805 11.743 11.7 11.655 11.585 11.558 11.583 11.608 11.63 11.632 11.59 11.507 11.412 11.317 11.215 11.105 10.995 10.88 10.773 10.68 10.598 10.553 10.545 10.55 10.56 10.57 10.595 10.63 10.662 10.682 10.675 10.657 10.64 10.623 10.615 10.615 10.618 10.617 10.578 10.515 10.505 10.565 10.59 10.53 10.447 10.357 10.278 10.248 10.25 10.245 10.262 10.305 10.335 10.365 10.402 10.415 10.393 10.36 10.35 10.37 10.4 10.43 10.437 10.425 10.415 10.405 10.392 10.37 10.338 10.305 10.268 10.228 10.205 10.192 10.18 10.17 10.16 10.153 10.16 10.195 10.242 10.293 10.348 10.407 10.48 10.557 10.632 10.65 10.612 10.58 10.535 10.467 10.387 10.308 10.255 10.23 10.205 10.175 10.153 10.14 10.13 10.125 10.14 10.147 10.13 10.105 10.085 10.07 10.045 10.007 9.973 9.96 9.96 9.96 9.96 9.96 9.96 9.957 9.92 9.84 9.755 9.673 9.635 9.64 9.643 9.648 9.635 9.628 9.64 9.655 9.67 9.682 9.695 9.702 9.73 9.77 9.797 9.792 9.76 9.73 9.7 9.67 9.637 9.585 9.507 9.422 9.34 9.255 9.17 9.093 9.065 9.085 9.11 9.122 9.08 9.005 8.93 8.855 8.783 8.708 8.635 8.578 8.525 8.47 8.422 8.375 8.327 8.28 8.218 8.145 8.09 8.05 8.013 7.965 7.88 7.767 7.647 7.52 7.448 7.43 7.41 7.388 7.395 7.433 7.468 7.503 7.527 7.492 7.398 7.298 7.218 7.2 7.238 7.288 7.32 7.33 7.343 7.355 7.347 7.312
11.81 11.745 11.7 11.67 11.6 11.54 11.54 11.55 11.56 11.555 11.51 11.43 11.337 11.248 11.177 11.095 10.985 10.88 10.785 10.703 10.655 10.633 10.61 10.603 10.61 10.623 10.648 10.68 10.705 10.71 10.695 10.675 10.65 10.613 10.59 10.59 10.585 10.567 10.535 10.495 10.465 10.493 10.52 10.47 10.39 10.313 10.263 10.245 10.237 10.23 10.24 10.278 10.322 10.37 10.417 10.43 10.405 10.375 10.365 10.385 10.412 10.415 10.4 10.39 10.38 10.37 10.36 10.34 10.305 10.27 10.24 10.215 10.2 10.188 10.175 10.165 10.155 10.145 10.138 10.153 10.195 10.242 10.29 10.35 10.422 10.497 10.572 10.635 10.635 10.585 10.53 10.462 10.387 10.315 10.26 10.223 10.193 10.168 10.153 10.145 10.137 10.125 10.107 10.083 10.053 10.025 10.003 9.987 9.972 9.952 9.942 9.942 9.94 9.94 9.94 9.937 9.935 9.927 9.9 9.842 9.762 9.678 9.628 9.615 9.608 9.6 9.59 9.592 9.605 9.617 9.63 9.64 9.65 9.655 9.692 9.755 9.802 9.807 9.772 9.737 9.705 9.672 9.637 9.58 9.502 9.42 9.332 9.247 9.163 9.085 9.055 9.07 9.093 9.115 9.1 9.04 8.965 8.89 8.815 8.74 8.67 8.573 8.478 8.42 8.37 8.32 8.27 8.22 8.157 8.083 8.025 7.985 7.945 7.887 7.795 7.685 7.573 7.493 7.46 7.44 7.42 7.408 7.423 7.46 7.498 7.535 7.562 7.547 7.482 7.395 7.313 7.28 7.29 7.3 7.31 7.323 7.34 7.352 7.34 7.302
11.86 11.808 11.77 11.73 11.64 11.55 11.53 11.54 11.547 11.482 11.385 11.33 11.257 11.17 11.137 11.112 11.025 10.92 10.828 10.773 10.768 10.76 10.718 10.675 10.663 10.675 10.7 10.72 10.725 10.72 10.705 10.68 10.645 10.6 10.57 10.562 10.545 10.52 10.5 10.475 10.44 10.435 10.447 10.405 10.33 10.268 10.235 10.228 10.222 10.215 10.215 10.243 10.29 10.355 10.422 10.45 10.44 10.415 10.405 10.422 10.417 10.37 10.34 10.337 10.33 10.32 10.315 10.305 10.277 10.243 10.22 10.208 10.195 10.185 10.175 10.165 10.152 10.14 10.125 10.118 10.14 10.185 10.228 10.27 10.33 10.405 10.488 10.58 10.617 10.58 10.525 10.455 10.38 10.323 10.285 10.243 10.198 10.17 10.155 10.145 10.132 10.105 10.068 10.033 9.995 9.953 9.92 9.903 9.885 9.87 9.875 9.89 9.895 9.895 9.895 9.892 9.885 9.867 9.847 9.82 9.762 9.683 9.633 9.62 9.607 9.588 9.56 9.54 9.54 9.55 9.56 9.57 9.577 9.583 9.62 9.69 9.75 9.77 9.747 9.71 9.675 9.642 9.6 9.542 9.475 9.4 9.317 9.235 9.15 9.09 9.08 9.09 9.105 9.125 9.12 9.077 9.012 8.94 8.865 8.79 8.712 8.567 8.425 8.353 8.295 8.245 8.198 8.155 8.107 8.04 7.978 7.937 7.887 7.81 7.712 7.605 7.513 7.475 7.465 7.445 7.433 7.443 7.47 7.505 7.545 7.582 7.595 7.58 7.55 7.487 7.405 7.37 7.372 7.347 7.328 7.337 7.35 7.352 7.33 7.285
11.918 11.875 11.84 11.78 11.67 11.56 11.52 11.53 11.497 11.355 11.225 11.19 11.152 11.088 11.063 11.077 11.045 10.96 10.89 10.878 10.892 10.895 10.857 10.795 10.75 10.732 10.735 10.737 10.732 10.725 10.71 10.677 10.632 10.585 10.547 10.522 10.49 10.458 10.44 10.427 10.41 10.39 10.38 10.342 10.283 10.24 10.215 10.21 10.205 10.198 10.193 10.213 10.27 10.365 10.44 10.457 10.457 10.45 10.445 10.427 10.365 10.298 10.278 10.28 10.277 10.27 10.265 10.265 10.25 10.22 10.205 10.2 10.19 10.18 10.17 10.16 10.145 10.128 10.113 10.1 10.103 10.13 10.17 10.205 10.248 10.315 10.403 10.505 10.58 10.575 10.517 10.448 10.385 10.353 10.327 10.275 10.215 10.175 10.155 10.14 10.11 10.07 10.03 9.987 9.937 9.88 9.84 9.82 9.805 9.8 9.805 9.818 9.83 9.84 9.845 9.842 9.828 9.803 9.783 9.765 9.737 9.682 9.638 9.622 9.605 9.582 9.55 9.51 9.485 9.485 9.495 9.502 9.505 9.508 9.548 9.617 9.67 9.7 9.7 9.67 9.638 9.607 9.56 9.497 9.43 9.362 9.292 9.217 9.143 9.105 9.107 9.113 9.123 9.14 9.132 9.095 9.047 8.987 8.915 8.84 8.73 8.538 8.378 8.293 8.22 8.168 8.125 8.085 8.045 7.992 7.935 7.882 7.81 7.72 7.63 7.535 7.478 7.475 7.47 7.458 7.465 7.49 7.523 7.557 7.592 7.62 7.62 7.602 7.587 7.557 7.495 7.455 7.435 7.388 7.353 7.348 7.35 7.345 7.315 7.268
11.985 11.945 11.907 11.827 11.7 11.573 11.515 11.497 11.385 11.19 11.063 11.033 11.018 10.993 10.985 11.01 11.022 10.997 10.977 10.987 11 11.01 10.975 10.895 10.815 10.75 10.725 10.725 10.725 10.722 10.7 10.655 10.602 10.547 10.502 10.465 10.425 10.39 10.373 10.365 10.357 10.342 10.325 10.295 10.253 10.218 10.198 10.193 10.185 10.18 10.175 10.19 10.263 10.37 10.437 10.45 10.452 10.457 10.442 10.38 10.288 10.225 10.213 10.218 10.22 10.218 10.218 10.223 10.217 10.203 10.195 10.19 10.182 10.175 10.162 10.147 10.132 10.115 10.1 10.09 10.082 10.088 10.113 10.145 10.178 10.23 10.318 10.425 10.527 10.56 10.512 10.45 10.41 10.395 10.37 10.315 10.25 10.193 10.15 10.118 10.078 10.033 9.983 9.925 9.863 9.803 9.773 9.768 9.765 9.77 9.775 9.778 9.785 9.795 9.803 9.803 9.793 9.768 9.74 9.72 9.7 9.67 9.637 9.615 9.595 9.57 9.535 9.495 9.458 9.433 9.428 9.43 9.43 9.433 9.473 9.537 9.585 9.622 9.645 9.632 9.605 9.572 9.517 9.45 9.383 9.323 9.263 9.2 9.14 9.115 9.122 9.13 9.142 9.157 9.145 9.105 9.065 9.022 8.962 8.875 8.715 8.49 8.333 8.245 8.165 8.108 8.063 8.02 7.98 7.935 7.882 7.813 7.728 7.643 7.558 7.488 7.468 7.48 7.48 7.485 7.51 7.542 7.577 7.61 7.635 7.645 7.635 7.62 7.605 7.59 7.565 7.535 7.5 7.453 7.413 7.385 7.368 7.345 7.305 7.255
12.068 12.015 11.965 11.867 11.733 11.595 11.508 11.412 11.25 11.078 10.97 10.95 10.948 10.945 10.95 10.968 10.99 10.997 10.992 10.995 11.005 11.017 10.985 10.897 10.797 10.71 10.68 10.685 10.687 10.685 10.65 10.595 10.54 10.483 10.438 10.4 10.36 10.325 10.308 10.3 10.29 10.285 10.28 10.26 10.228 10.205 10.2 10.195 10.185 10.175 10.165 10.173 10.24 10.34 10.405 10.425 10.427 10.427 10.395 10.32 10.238 10.2 10.2 10.205 10.21 10.198 10.19 10.195 10.19 10.182 10.177 10.17 10.165 10.16 10.137 10.11 10.095 10.082 10.067 10.052 10.042 10.045 10.065 10.095 10.128 10.168 10.228 10.332 10.455 10.525 10.512 10.467 10.445 10.435 10.407 10.35 10.282 10.215 10.153 10.105 10.065 10.007 9.95 9.903 9.84 9.778 9.748 9.75 9.757 9.763 9.768 9.772 9.775 9.78 9.79 9.795 9.79 9.757 9.718 9.7 9.68 9.653 9.627 9.605 9.58 9.545 9.505 9.467 9.432 9.4 9.37 9.355 9.355 9.36 9.4 9.455 9.495 9.545 9.587 9.59 9.57 9.53 9.465 9.408 9.368 9.323 9.268 9.21 9.14 9.1 9.105 9.117 9.132 9.162 9.167 9.128 9.085 9.047 8.997 8.887 8.692 8.463 8.298 8.203 8.125 8.065 8.015 7.968 7.925 7.883 7.835 7.768 7.683 7.6 7.52 7.463 7.45 7.465 7.482 7.505 7.532 7.57 7.612 7.642 7.647 7.63 7.612 7.597 7.582 7.575 7.595 7.62 7.605 7.565 7.525 7.48 7.44 7.403 7.355 7.298
12.21 12.125 12.04 11.928 11.798 11.665 11.535 11.38 11.225 11.093 10.995 10.96 10.958 10.96 10.953 10.955 10.975 10.972 10.945 10.925 10.925 10.932 10.905 10.84 10.752 10.663 10.63 10.632 10.625 10.61 10.57 10.515 10.46 10.408 10.37 10.335 10.298 10.263 10.24 10.23 10.23 10.243 10.247 10.23 10.213 10.215 10.217 10.21 10.2 10.188 10.175 10.175 10.21 10.285 10.36 10.39 10.39 10.382 10.345 10.273 10.223 10.228 10.242 10.25 10.242 10.205 10.183 10.182 10.17 10.158 10.15 10.143 10.14 10.135 10.102 10.055 10.028 10.015 10 9.988 9.99 10.005 10.03 10.06 10.093 10.125 10.158 10.22 10.328 10.445 10.48 10.442 10.412 10.405 10.397 10.36 10.3 10.23 10.165 10.115 10.06 9.975 9.92 9.9 9.86 9.802 9.758 9.748 9.753 9.757 9.763 9.768 9.773 9.785 9.8 9.805 9.787 9.74 9.693 9.675 9.665 9.64 9.615 9.59 9.555 9.515 9.475 9.435 9.405 9.385 9.348 9.303 9.283 9.285 9.323 9.373 9.423 9.487 9.527 9.535 9.522 9.478 9.425 9.398 9.385 9.352 9.3 9.235 9.148 9.08 9.065 9.08 9.108 9.172 9.205 9.165 9.117 9.06 8.982 8.87 8.692 8.473 8.28 8.16 8.085 8.025 7.975 7.925 7.878 7.835 7.797 7.745 7.667 7.583 7.513 7.46 7.423 7.423 7.447 7.475 7.51 7.57 7.627 7.645 7.62 7.58 7.56 7.545 7.538 7.563 7.625 7.69 7.715 7.695 7.655 7.605 7.552 7.495 7.425 7.352
12.413 12.323 12.213 12.075 11.943 11.82 11.663 11.478 11.315 11.178 11.075 11.008 10.98 10.977 10.96 10.95 10.962 10.952 10.918 10.883 10.86 10.853 10.82 10.763 10.695 10.615 10.578 10.57 10.55 10.53 10.492 10.438 10.383 10.335 10.3 10.267 10.232 10.198 10.175 10.175 10.195 10.222 10.227 10.215 10.218 10.232 10.235 10.225 10.215 10.205 10.195 10.195 10.21 10.248 10.315 10.355 10.35 10.335 10.295 10.245 10.238 10.265 10.287 10.295 10.262 10.203 10.173 10.162 10.145 10.13 10.12 10.115 10.115 10.112 10.08 10.02 9.973 9.943 9.928 9.935 9.955 9.975 9.998 10.025 10.057 10.087 10.115 10.143 10.198 10.3 10.345 10.325 10.318 10.328 10.342 10.33 10.292 10.237 10.175 10.115 10.032 9.93 9.875 9.862 9.845 9.812 9.775 9.753 9.748 9.753 9.76 9.77 9.78 9.795 9.81 9.812 9.78 9.72 9.665 9.64 9.64 9.627 9.6 9.565 9.525 9.485 9.445 9.41 9.388 9.372 9.345 9.288 9.23 9.213 9.245 9.308 9.385 9.445 9.462 9.47 9.472 9.452 9.43 9.42 9.41 9.382 9.33 9.252 9.16 9.075 9.035 9.05 9.108 9.202 9.24 9.187 9.11 9.02 8.915 8.81 8.682 8.497 8.293 8.138 8.048 7.99 7.94 7.888 7.835 7.788 7.753 7.715 7.65 7.573 7.513 7.465 7.418 7.388 7.393 7.428 7.49 7.58 7.635 7.622 7.577 7.533 7.508 7.503 7.53 7.598 7.677 7.74 7.787 7.807 7.785 7.717 7.607 7.51 7.44 7.362
12.627 12.552 12.445 12.3 12.155 12.015 11.842 11.64 11.445 11.275 11.16 11.08 11.02 10.993 10.97 10.948 10.943 10.927 10.893 10.858 10.828 10.803 10.76 10.698 10.633 10.56 10.515 10.497 10.473 10.45 10.415 10.36 10.308 10.265 10.23 10.2 10.165 10.138 10.135 10.153 10.18 10.208 10.22 10.225 10.235 10.25 10.255 10.245 10.235 10.222 10.213 10.218 10.235 10.253 10.288 10.315 10.305 10.285 10.26 10.253 10.272 10.3 10.322 10.315 10.262 10.195 10.158 10.14 10.12 10.103 10.093 10.09 10.09 10.087 10.055 9.995 9.938 9.898 9.885 9.898 9.92 9.94 9.963 9.99 10.022 10.052 10.078 10.105 10.135 10.175 10.2 10.215 10.245 10.272 10.287 10.277 10.252 10.22 10.172 10.097 9.993 9.888 9.833 9.823 9.82 9.812 9.79 9.76 9.745 9.747 9.76 9.775 9.785 9.8 9.812 9.805 9.762 9.7 9.638 9.605 9.607 9.597 9.57 9.535 9.495 9.452 9.415 9.39 9.375 9.368 9.345 9.285 9.21 9.165 9.193 9.277 9.355 9.39 9.398 9.405 9.412 9.417 9.427 9.437 9.435 9.412 9.355 9.267 9.172 9.08 9.023 9.04 9.115 9.205 9.225 9.15 9.045 8.94 8.835 8.73 8.625 8.495 8.32 8.13 8.01 7.955 7.905 7.853 7.8 7.753 7.715 7.68 7.628 7.568 7.515 7.468 7.422 7.375 7.358 7.405 7.492 7.587 7.622 7.585 7.532 7.485 7.468 7.498 7.567 7.655 7.732 7.79 7.84 7.885 7.882 7.76 7.558 7.43 7.382 7.325
12.687 12.622 12.522 12.392 12.237 12.05 11.845 11.635 11.432 11.28 11.19 11.12 11.055 11.01 10.98 10.95 10.93 10.91 10.88 10.853 10.825 10.793 10.745 10.68 10.61 10.538 10.465 10.42 10.395 10.37 10.335 10.28 10.233 10.198 10.163 10.13 10.11 10.11 10.13 10.158 10.183 10.208 10.228 10.243 10.255 10.267 10.27 10.26 10.25 10.238 10.23 10.24 10.26 10.277 10.293 10.293 10.275 10.255 10.245 10.257 10.282 10.302 10.307 10.277 10.217 10.168 10.145 10.13 10.11 10.09 10.07 10.06 10.06 10.055 10.02 9.96 9.91 9.888 9.883 9.883 9.89 9.905 9.928 9.955 9.985 10.015 10.042 10.065 10.087 10.108 10.13 10.16 10.19 10.217 10.232 10.222 10.198 10.175 10.145 10.07 9.955 9.858 9.82 9.825 9.827 9.817 9.795 9.765 9.74 9.735 9.75 9.765 9.775 9.78 9.77 9.75 9.712 9.657 9.6 9.56 9.545 9.525 9.5 9.472 9.44 9.413 9.398 9.39 9.385 9.377 9.34 9.272 9.2 9.14 9.16 9.25 9.307 9.325 9.335 9.342 9.34 9.34 9.362 9.392 9.41 9.407 9.35 9.25 9.15 9.05 8.978 8.99 9.062 9.14 9.145 9.065 8.967 8.863 8.757 8.652 8.545 8.425 8.255 8.078 7.978 7.925 7.875 7.825 7.775 7.73 7.69 7.653 7.612 7.565 7.518 7.472 7.425 7.373 7.343 7.37 7.447 7.54 7.565 7.52 7.47 7.443 7.45 7.497 7.577 7.66 7.715 7.745 7.782 7.827 7.827 7.692 7.463 7.323 7.278 7.233
12.552 12.52 12.452 12.315 12.115 11.885 11.655 11.443 11.288 11.218 11.17 11.11 11.06 11.022 10.988 10.958 10.935 10.913 10.888 10.862 10.832 10.797 10.752 10.69 10.62 10.552 10.458 10.363 10.315 10.29 10.255 10.205 10.163 10.13 10.103 10.09 10.1 10.12 10.143 10.17 10.198 10.225 10.247 10.262 10.275 10.285 10.285 10.275 10.265 10.255 10.25 10.26 10.28 10.3 10.312 10.3 10.27 10.245 10.235 10.245 10.26 10.257 10.24 10.2 10.15 10.128 10.127 10.125 10.112 10.092 10.058 10.028 10.02 10.012 9.975 9.928 9.905 9.9 9.897 9.89 9.883 9.883 9.895 9.92 9.95 9.975 9.997 10.015 10.03 10.05 10.075 10.105 10.135 10.162 10.177 10.167 10.145 10.133 10.115 10.045 9.943 9.868 9.848 9.855 9.842 9.82 9.795 9.765 9.735 9.72 9.727 9.74 9.735 9.71 9.68 9.662 9.637 9.59 9.54 9.493 9.455 9.425 9.4 9.375 9.35 9.363 9.397 9.412 9.41 9.385 9.33 9.26 9.19 9.12 9.13 9.202 9.242 9.26 9.27 9.275 9.27 9.263 9.27 9.297 9.322 9.32 9.272 9.18 9.072 8.965 8.89 8.895 8.96 9.035 9.037 8.967 8.885 8.785 8.68 8.572 8.447 8.295 8.123 8.005 7.953 7.905 7.855 7.805 7.758 7.715 7.675 7.638 7.602 7.565 7.522 7.475 7.427 7.37 7.333 7.335 7.37 7.447 7.475 7.435 7.423 7.448 7.458 7.465 7.518 7.592 7.622 7.605 7.61 7.645 7.64 7.535 7.348 7.218 7.18 7.153
12.42 12.41 12.362 12.187 11.928 11.68 11.453 11.293 11.225 11.195 11.15 11.095 11.055 11.025 10.993 10.965 10.945 10.925 10.9 10.867 10.835 10.8 10.757 10.7 10.633 10.57 10.475 10.348 10.253 10.21 10.175 10.133 10.095 10.075 10.078 10.093 10.115 10.135 10.158 10.185 10.215 10.245 10.27 10.285 10.295 10.305 10.305 10.295 10.285 10.273 10.268 10.28 10.3 10.32 10.327 10.307 10.273 10.24 10.223 10.22 10.21 10.188 10.165 10.13 10.103 10.1 10.105 10.11 10.11 10.095 10.057 10.015 9.988 9.97 9.94 9.918 9.915 9.915 9.912 9.905 9.895 9.885 9.883 9.89 9.905 9.922 9.938 9.953 9.968 9.988 10.015 10.045 10.075 10.105 10.122 10.115 10.103 10.102 10.095 10.04 9.96 9.903 9.88 9.87 9.847 9.822 9.795 9.765 9.735 9.71 9.695 9.682 9.652 9.608 9.58 9.575 9.56 9.52 9.47 9.42 9.375 9.335 9.303 9.275 9.273 9.33 9.405 9.437 9.422 9.38 9.32 9.25 9.177 9.103 9.093 9.135 9.165 9.19 9.202 9.202 9.195 9.185 9.183 9.202 9.2 9.162 9.13 9.072 8.977 8.87 8.803 8.81 8.865 8.927 8.922 8.857 8.787 8.7 8.592 8.465 8.315 8.155 8.033 7.97 7.93 7.885 7.835 7.788 7.745 7.705 7.665 7.625 7.59 7.56 7.522 7.477 7.417 7.358 7.335 7.335 7.34 7.373 7.398 7.405 7.448 7.5 7.5 7.468 7.465 7.512 7.53 7.485 7.453 7.46 7.437 7.333 7.225 7.165 7.135 7.115
12.342 12.31 12.235 12.065 11.795 11.503 11.3 11.228 11.2 11.17 11.133 11.093 11.058 11.025 10.998 10.978 10.96 10.93 10.895 10.862 10.83 10.797 10.762 10.712 10.65 10.59 10.495 10.36 10.233 10.148 10.098 10.068 10.055 10.063 10.085 10.105 10.128 10.15 10.175 10.205 10.235 10.268 10.3 10.318 10.32 10.325 10.323 10.31 10.3 10.288 10.288 10.305 10.325 10.345 10.345 10.312 10.272 10.235 10.205 10.183 10.155 10.128 10.105 10.085 10.078 10.083 10.09 10.095 10.1 10.095 10.062 10.018 9.975 9.945 9.93 9.925 9.927 9.93 9.93 9.925 9.915 9.902 9.89 9.873 9.86 9.868 9.88 9.893 9.905 9.925 9.955 9.985 10.015 10.048 10.07 10.07 10.068 10.07 10.065 10.032 9.977 9.93 9.9 9.877 9.852 9.825 9.795 9.765 9.738 9.707 9.668 9.618 9.565 9.513 9.485 9.488 9.48 9.448 9.4 9.353 9.308 9.263 9.223 9.203 9.24 9.323 9.407 9.45 9.422 9.367 9.307 9.237 9.16 9.083 9.04 9.053 9.085 9.117 9.135 9.13 9.12 9.107 9.097 9.09 9.047 8.995 8.967 8.935 8.872 8.775 8.715 8.73 8.775 8.82 8.807 8.742 8.672 8.6 8.495 8.345 8.188 8.055 7.98 7.94 7.902 7.862 7.817 7.775 7.735 7.695 7.655 7.618 7.583 7.55 7.518 7.47 7.395 7.348 7.345 7.35 7.36 7.358 7.368 7.423 7.495 7.542 7.537 7.5 7.463 7.458 7.45 7.403 7.348 7.308 7.275 7.23 7.213 7.205 7.175 7.143
12.252 12.18 12.087 11.97 11.737 11.425 11.26 11.23 11.203 11.173 11.14 11.108 11.073 11.038 11.01 10.993 10.977 10.945 10.885 10.835 10.805 10.772 10.722 10.662 10.62 10.587 10.51 10.382 10.248 10.123 10.053 10.045 10.063 10.085 10.108 10.13 10.155 10.18 10.203 10.23 10.26 10.293 10.332 10.372 10.388 10.385 10.378 10.368 10.352 10.318 10.305 10.325 10.345 10.362 10.35 10.307 10.265 10.225 10.188 10.155 10.125 10.1 10.083 10.075 10.075 10.08 10.088 10.093 10.095 10.087 10.065 10.027 9.983 9.948 9.935 9.935 9.94 9.945 9.945 9.94 9.93 9.915 9.9 9.875 9.843 9.83 9.835 9.845 9.86 9.883 9.91 9.94 9.97 10.003 10.025 10.03 10.03 10.03 10.022 9.995 9.955 9.917 9.897 9.882 9.855 9.825 9.795 9.768 9.742 9.707 9.655 9.59 9.525 9.465 9.43 9.425 9.425 9.405 9.365 9.325 9.283 9.24 9.203 9.188 9.233 9.315 9.382 9.41 9.38 9.322 9.275 9.215 9.135 9.055 8.998 8.983 9 9.032 9.045 9.032 9.02 9.007 8.992 8.957 8.895 8.84 8.805 8.777 8.742 8.673 8.628 8.65 8.69 8.71 8.672 8.597 8.53 8.482 8.402 8.26 8.103 7.99 7.93 7.885 7.847 7.812 7.775 7.735 7.695 7.665 7.65 7.633 7.603 7.57 7.54 7.468 7.393 7.38 7.39 7.405 7.417 7.387 7.373 7.425 7.497 7.542 7.522 7.475 7.437 7.413 7.422 7.417 7.365 7.3 7.265 7.278 7.295 7.282 7.25 7.217
12.122 12.03 11.94 11.845 11.667 11.423 11.29 11.263 11.237 11.207 11.173 11.137 11.1 11.06 11.03 11.01 10.993 10.972 10.893 10.8 10.76 10.712 10.63 10.543 10.5 10.492 10.467 10.395 10.275 10.138 10.058 10.06 10.092 10.122 10.147 10.173 10.198 10.22 10.24 10.26 10.285 10.315 10.358 10.42 10.472 10.487 10.48 10.457 10.41 10.345 10.32 10.34 10.357 10.37 10.347 10.298 10.253 10.21 10.173 10.143 10.12 10.105 10.095 10.088 10.085 10.09 10.095 10.097 10.092 10.075 10.057 10.032 9.995 9.96 9.945 9.945 9.947 9.947 9.942 9.942 9.94 9.927 9.912 9.885 9.845 9.813 9.805 9.82 9.843 9.865 9.89 9.918 9.943 9.97 9.987 9.99 9.99 9.99 9.98 9.95 9.905 9.865 9.867 9.88 9.86 9.83 9.8 9.773 9.745 9.702 9.642 9.577 9.512 9.45 9.408 9.395 9.41 9.407 9.373 9.335 9.298 9.26 9.225 9.2 9.22 9.275 9.31 9.325 9.3 9.245 9.215 9.177 9.105 9.025 8.97 8.938 8.923 8.94 8.942 8.915 8.893 8.88 8.862 8.817 8.753 8.693 8.65 8.62 8.592 8.552 8.528 8.542 8.565 8.56 8.5 8.425 8.388 8.367 8.312 8.195 8.04 7.933 7.878 7.825 7.778 7.74 7.705 7.67 7.648 7.645 7.658 7.662 7.65 7.625 7.595 7.518 7.45 7.455 7.473 7.49 7.47 7.403 7.38 7.418 7.475 7.52 7.487 7.418 7.373 7.355 7.405 7.472 7.467 7.413 7.368 7.363 7.372 7.357 7.322 7.282
11.975 11.88 11.79 11.695 11.572 11.418 11.32 11.295 11.27 11.24 11.205 11.167 11.127 11.083 11.05 11.03 11.01 10.992 10.92 10.793 10.703 10.628 10.53 10.43 10.353 10.328 10.34 10.337 10.282 10.172 10.08 10.075 10.115 10.152 10.185 10.215 10.242 10.262 10.28 10.295 10.313 10.34 10.385 10.45 10.52 10.565 10.552 10.495 10.42 10.355 10.34 10.357 10.37 10.377 10.352 10.298 10.245 10.195 10.16 10.143 10.133 10.125 10.115 10.105 10.098 10.098 10.1 10.095 10.082 10.065 10.045 10.025 10 9.968 9.95 9.95 9.945 9.935 9.925 9.93 9.942 9.94 9.925 9.895 9.855 9.818 9.798 9.81 9.835 9.858 9.882 9.905 9.928 9.95 9.945 9.937 9.947 9.947 9.935 9.902 9.852 9.808 9.815 9.852 9.862 9.842 9.81 9.777 9.742 9.692 9.628 9.563 9.498 9.435 9.385 9.378 9.41 9.42 9.39 9.353 9.317 9.28 9.245 9.215 9.198 9.198 9.208 9.225 9.212 9.168 9.145 9.13 9.075 8.998 8.943 8.908 8.875 8.863 8.85 8.813 8.775 8.755 8.727 8.673 8.625 8.593 8.548 8.495 8.45 8.415 8.395 8.388 8.387 8.372 8.32 8.278 8.275 8.26 8.205 8.115 7.983 7.88 7.83 7.775 7.72 7.675 7.645 7.635 7.643 7.657 7.672 7.682 7.685 7.677 7.645 7.593 7.555 7.548 7.557 7.552 7.48 7.398 7.39 7.42 7.463 7.502 7.467 7.38 7.313 7.293 7.35 7.45 7.52 7.517 7.475 7.455 7.452 7.43 7.385 7.33
11.828 11.733 11.64 11.55 11.468 11.388 11.332 11.31 11.287 11.262 11.23 11.19 11.147 11.102 11.07 11.05 11.03 11.01 10.962 10.833 10.688 10.585 10.488 10.39 10.295 10.238 10.223 10.215 10.207 10.17 10.1 10.085 10.125 10.165 10.207 10.247 10.282 10.305 10.32 10.335 10.35 10.37 10.408 10.467 10.532 10.587 10.57 10.495 10.42 10.363 10.353 10.365 10.375 10.38 10.355 10.3 10.245 10.193 10.163 10.155 10.148 10.142 10.135 10.125 10.115 10.108 10.1 10.085 10.068 10.053 10.035 10.015 9.995 9.97 9.952 9.945 9.93 9.913 9.903 9.91 9.93 9.942 9.932 9.903 9.868 9.838 9.813 9.808 9.828 9.852 9.875 9.898 9.922 9.937 9.91 9.868 9.865 9.88 9.88 9.847 9.795 9.75 9.755 9.8 9.837 9.847 9.822 9.777 9.732 9.683 9.62 9.555 9.49 9.428 9.373 9.368 9.407 9.427 9.405 9.37 9.335 9.295 9.258 9.233 9.218 9.18 9.13 9.12 9.122 9.095 9.075 9.072 9.037 8.97 8.915 8.88 8.845 8.815 8.783 8.733 8.68 8.64 8.608 8.575 8.558 8.55 8.507 8.435 8.368 8.315 8.278 8.243 8.218 8.195 8.17 8.165 8.175 8.152 8.09 8.017 7.92 7.833 7.78 7.73 7.68 7.635 7.62 7.635 7.655 7.67 7.682 7.69 7.695 7.702 7.692 7.675 7.662 7.647 7.635 7.58 7.465 7.393 7.4 7.433 7.467 7.492 7.452 7.358 7.27 7.238 7.298 7.405 7.52 7.582 7.572 7.552 7.532 7.492 7.432 7.37
11.683 11.598 11.525 11.455 11.39 11.34 11.31 11.29 11.27 11.252 11.23 11.195 11.152 11.11 11.083 11.072 11.06 11.04 11.007 10.9 10.743 10.62 10.523 10.425 10.335 10.26 10.208 10.173 10.153 10.14 10.105 10.1 10.143 10.185 10.228 10.272 10.31 10.33 10.342 10.355 10.37 10.382 10.41 10.465 10.525 10.582 10.572 10.497 10.415 10.358 10.355 10.37 10.38 10.382 10.355 10.3 10.245 10.198 10.175 10.172 10.165 10.158 10.15 10.14 10.133 10.125 10.113 10.095 10.075 10.06 10.045 10.025 10.005 9.977 9.947 9.927 9.91 9.89 9.88 9.89 9.91 9.93 9.935 9.917 9.89 9.863 9.835 9.815 9.823 9.845 9.868 9.892 9.91 9.915 9.885 9.818 9.77 9.77 9.787 9.78 9.737 9.69 9.695 9.74 9.785 9.82 9.802 9.752 9.722 9.685 9.622 9.558 9.493 9.43 9.38 9.368 9.398 9.425 9.412 9.377 9.34 9.3 9.263 9.248 9.26 9.24 9.153 9.068 9.04 9.023 9.005 9.007 8.995 8.942 8.885 8.85 8.818 8.79 8.75 8.69 8.633 8.588 8.555 8.538 8.532 8.522 8.48 8.41 8.343 8.288 8.238 8.185 8.14 8.1 8.07 8.065 8.072 8.042 7.978 7.913 7.85 7.795 7.745 7.7 7.655 7.618 7.615 7.637 7.657 7.65 7.635 7.637 7.645 7.668 7.71 7.74 7.74 7.727 7.685 7.582 7.45 7.393 7.415 7.448 7.48 7.487 7.435 7.343 7.255 7.235 7.313 7.43 7.54 7.605 7.615 7.602 7.582 7.54 7.478 7.415
11.563 11.508 11.46 11.407 11.35 11.298 11.265 11.245 11.23 11.22 11.205 11.18 11.147 11.108 11.085 11.092 11.095 11.08 11.047 10.96 10.813 10.68 10.58 10.483 10.4 10.325 10.26 10.22 10.188 10.165 10.15 10.145 10.173 10.215 10.258 10.3 10.325 10.335 10.345 10.358 10.37 10.378 10.405 10.458 10.515 10.572 10.567 10.487 10.39 10.318 10.325 10.367 10.385 10.387 10.357 10.302 10.248 10.203 10.185 10.185 10.182 10.175 10.165 10.158 10.153 10.145 10.137 10.127 10.11 10.093 10.075 10.055 10.025 9.98 9.933 9.903 9.887 9.87 9.86 9.87 9.893 9.915 9.927 9.925 9.91 9.887 9.86 9.833 9.823 9.838 9.862 9.882 9.89 9.89 9.86 9.792 9.72 9.67 9.663 9.675 9.665 9.63 9.633 9.675 9.717 9.755 9.74 9.71 9.715 9.69 9.627 9.563 9.5 9.443 9.4 9.383 9.393 9.415 9.41 9.377 9.342 9.305 9.273 9.268 9.285 9.297 9.247 9.128 9.028 8.968 8.94 8.943 8.942 8.907 8.855 8.823 8.798 8.772 8.73 8.675 8.63 8.6 8.565 8.525 8.508 8.497 8.455 8.388 8.335 8.292 8.243 8.193 8.155 8.113 8.043 7.985 7.968 7.93 7.875 7.833 7.798 7.765 7.722 7.678 7.638 7.61 7.61 7.63 7.627 7.58 7.538 7.535 7.56 7.618 7.692 7.75 7.775 7.775 7.715 7.588 7.45 7.403 7.437 7.467 7.485 7.477 7.417 7.328 7.275 7.295 7.385 7.497 7.572 7.605 7.612 7.61 7.612 7.585 7.525 7.465
11.493 11.455 11.41 11.36 11.307 11.255 11.22 11.203 11.193 11.185 11.172 11.155 11.132 11.1 11.085 11.1 11.115 11.115 11.082 11 10.872 10.743 10.638 10.548 10.47 10.395 10.323 10.27 10.248 10.257 10.257 10.22 10.21 10.248 10.292 10.322 10.332 10.338 10.348 10.36 10.367 10.373 10.4 10.452 10.502 10.542 10.532 10.452 10.347 10.253 10.253 10.327 10.377 10.392 10.36 10.305 10.25 10.208 10.198 10.2 10.203 10.2 10.19 10.183 10.175 10.165 10.16 10.157 10.145 10.127 10.105 10.072 10.025 9.97 9.92 9.883 9.863 9.848 9.84 9.853 9.88 9.905 9.915 9.912 9.905 9.892 9.875 9.852 9.83 9.833 9.855 9.867 9.87 9.867 9.835 9.768 9.698 9.635 9.603 9.598 9.588 9.565 9.568 9.603 9.64 9.675 9.68 9.68 9.7 9.687 9.632 9.57 9.513 9.458 9.42 9.405 9.4 9.407 9.402 9.375 9.345 9.31 9.288 9.295 9.315 9.33 9.31 9.23 9.12 9.015 8.943 8.908 8.885 8.86 8.828 8.8 8.78 8.757 8.718 8.675 8.648 8.625 8.59 8.54 8.498 8.472 8.435 8.38 8.338 8.297 8.25 8.213 8.19 8.16 8.08 7.973 7.898 7.848 7.813 7.788 7.765 7.737 7.7 7.658 7.625 7.608 7.607 7.6 7.555 7.49 7.443 7.45 7.513 7.6 7.68 7.737 7.78 7.807 7.755 7.627 7.498 7.44 7.46 7.477 7.472 7.457 7.403 7.34 7.34 7.378 7.455 7.537 7.575 7.595 7.608 7.618 7.637 7.625 7.573 7.525
11.45 11.407 11.36 11.31 11.26 11.213 11.183 11.17 11.16 11.15 11.137 11.122 11.105 11.08 11.072 11.09 11.112 11.13 11.11 11.03 10.92 10.802 10.698 10.615 10.537 10.457 10.375 10.318 10.315 10.342 10.345 10.302 10.265 10.283 10.317 10.333 10.338 10.345 10.353 10.358 10.365 10.37 10.378 10.405 10.437 10.46 10.45 10.382 10.287 10.193 10.178 10.255 10.337 10.38 10.352 10.29 10.235 10.218 10.228 10.233 10.238 10.235 10.225 10.213 10.2 10.19 10.182 10.18 10.172 10.152 10.117 10.067 10.012 9.957 9.905 9.868 9.845 9.825 9.82 9.84 9.87 9.895 9.905 9.9 9.89 9.88 9.87 9.857 9.84 9.833 9.84 9.845 9.845 9.842 9.812 9.755 9.695 9.64 9.615 9.605 9.578 9.548 9.538 9.555 9.588 9.62 9.645 9.665 9.682 9.682 9.642 9.583 9.528 9.473 9.438 9.425 9.415 9.41 9.398 9.373 9.345 9.308 9.287 9.295 9.305 9.312 9.297 9.23 9.14 9.052 8.967 8.907 8.863 8.825 8.797 8.775 8.757 8.74 8.712 8.685 8.665 8.645 8.612 8.562 8.505 8.455 8.415 8.377 8.342 8.305 8.268 8.245 8.23 8.207 8.135 8.013 7.888 7.813 7.785 7.758 7.735 7.71 7.677 7.645 7.617 7.597 7.575 7.53 7.473 7.413 7.375 7.41 7.498 7.59 7.667 7.715 7.75 7.785 7.75 7.652 7.555 7.485 7.467 7.462 7.447 7.432 7.408 7.402 7.427 7.457 7.505 7.545 7.567 7.59 7.607 7.625 7.65 7.657 7.632 7.602
11.415 11.36 11.305 11.255 11.21 11.183 11.168 11.155 11.142 11.123 11.095 11.07 11.05 11.027 11.025 11.045 11.07 11.1 11.092 11.02 10.925 10.835 10.742 10.65 10.562 10.472 10.383 10.34 10.352 10.367 10.365 10.345 10.32 10.32 10.338 10.355 10.37 10.378 10.37 10.36 10.365 10.367 10.34 10.313 10.32 10.342 10.342 10.285 10.2 10.115 10.083 10.137 10.225 10.31 10.315 10.245 10.215 10.248 10.275 10.28 10.282 10.275 10.265 10.25 10.235 10.217 10.192 10.177 10.17 10.147 10.105 10.05 9.995 9.94 9.888 9.855 9.835 9.818 9.818 9.84 9.868 9.893 9.902 9.895 9.885 9.875 9.865 9.858 9.85 9.838 9.825 9.82 9.818 9.815 9.8 9.76 9.708 9.658 9.64 9.642 9.622 9.59 9.558 9.55 9.575 9.605 9.635 9.66 9.678 9.685 9.655 9.598 9.543 9.49 9.46 9.447 9.435 9.425 9.405 9.377 9.342 9.293 9.26 9.255 9.255 9.26 9.24 9.155 9.053 8.972 8.91 8.875 8.84 8.79 8.755 8.735 8.717 8.695 8.67 8.65 8.63 8.61 8.585 8.545 8.487 8.427 8.382 8.35 8.322 8.3 8.287 8.282 8.27 8.252 8.187 8.057 7.905 7.803 7.765 7.738 7.712 7.683 7.653 7.627 7.602 7.58 7.54 7.485 7.433 7.378 7.358 7.41 7.5 7.585 7.642 7.665 7.682 7.707 7.68 7.602 7.527 7.462 7.427 7.412 7.398 7.413 7.428 7.432 7.457 7.485 7.507 7.527 7.552 7.575 7.6 7.632 7.665 7.69 7.69 7.667
11.377 11.31 11.25 11.205 11.18 11.178 11.172 11.155 11.132 11.102 11.06 11.015 10.98 10.953 10.95 10.975 11.008 11.047 11.04 10.968 10.893 10.842 10.762 10.643 10.54 10.445 10.368 10.348 10.357 10.355 10.348 10.348 10.355 10.37 10.393 10.418 10.435 10.432 10.407 10.378 10.368 10.36 10.31 10.243 10.215 10.228 10.235 10.185 10.1 10.013 9.953 9.98 10.08 10.215 10.255 10.198 10.215 10.287 10.322 10.327 10.325 10.315 10.302 10.287 10.27 10.235 10.188 10.155 10.14 10.12 10.08 10.027 9.975 9.92 9.873 9.845 9.83 9.825 9.83 9.85 9.878 9.905 9.912 9.9 9.89 9.883 9.875 9.868 9.86 9.845 9.82 9.8 9.793 9.79 9.785 9.762 9.72 9.678 9.665 9.672 9.665 9.637 9.598 9.565 9.57 9.6 9.63 9.657 9.682 9.697 9.67 9.613 9.557 9.508 9.48 9.467 9.455 9.442 9.415 9.375 9.325 9.265 9.22 9.205 9.208 9.215 9.182 9.085 8.97 8.873 8.815 8.797 8.777 8.735 8.7 8.682 8.657 8.62 8.588 8.565 8.545 8.525 8.507 8.485 8.44 8.383 8.338 8.305 8.283 8.275 8.282 8.292 8.295 8.292 8.232 8.092 7.928 7.803 7.748 7.722 7.692 7.658 7.628 7.603 7.583 7.562 7.527 7.482 7.43 7.375 7.363 7.42 7.505 7.572 7.605 7.603 7.603 7.622 7.597 7.523 7.453 7.393 7.353 7.335 7.353 7.43 7.46 7.428 7.435 7.462 7.483 7.503 7.525 7.545 7.578 7.625 7.67 7.71 7.725 7.707
11.333 11.258 11.203 11.18 11.183 11.187 11.175 11.15 11.118 11.085 11.045 10.993 10.94 10.895 10.885 10.915 10.958 11.002 10.99 10.923 10.875 10.852 10.78 10.648 10.523 10.418 10.36 10.353 10.358 10.363 10.37 10.385 10.408 10.44 10.475 10.497 10.497 10.48 10.45 10.41 10.382 10.355 10.295 10.215 10.15 10.123 10.125 10.085 9.997 9.902 9.815 9.828 9.958 10.13 10.19 10.175 10.24 10.327 10.37 10.372 10.365 10.355 10.34 10.32 10.29 10.242 10.19 10.145 10.115 10.09 10.05 10.002 9.955 9.9 9.858 9.843 9.84 9.84 9.845 9.863 9.892 9.922 9.927 9.915 9.905 9.897 9.89 9.88 9.87 9.852 9.823 9.793 9.773 9.765 9.762 9.752 9.725 9.693 9.685 9.695 9.7 9.682 9.642 9.598 9.575 9.59 9.62 9.65 9.68 9.705 9.687 9.627 9.567 9.515 9.485 9.475 9.465 9.452 9.417 9.363 9.305 9.243 9.185 9.158 9.16 9.17 9.127 9.018 8.895 8.783 8.725 8.715 8.702 8.675 8.645 8.62 8.582 8.54 8.505 8.48 8.46 8.44 8.423 8.405 8.38 8.335 8.293 8.27 8.255 8.25 8.26 8.275 8.282 8.285 8.227 8.092 7.94 7.805 7.73 7.7 7.665 7.63 7.6 7.578 7.565 7.545 7.51 7.472 7.427 7.375 7.368 7.425 7.492 7.54 7.565 7.555 7.538 7.542 7.515 7.448 7.385 7.328 7.283 7.29 7.375 7.485 7.507 7.455 7.43 7.44 7.46 7.477 7.495 7.515 7.553 7.605 7.655 7.702 7.737 7.737
11.318 11.23 11.178 11.178 11.195 11.192 11.165 11.135 11.102 11.07 11.035 10.987 10.933 10.88 10.86 10.88 10.915 10.957 10.95 10.903 10.88 10.867 10.8 10.672 10.535 10.418 10.37 10.375 10.39 10.41 10.43 10.45 10.478 10.515 10.547 10.555 10.537 10.517 10.49 10.442 10.392 10.345 10.28 10.2 10.12 10.053 10.025 9.982 9.89 9.785 9.685 9.703 9.855 10.037 10.132 10.18 10.277 10.372 10.415 10.41 10.4 10.392 10.377 10.345 10.3 10.25 10.197 10.147 10.105 10.065 10.02 9.975 9.93 9.883 9.855 9.852 9.855 9.855 9.857 9.875 9.907 9.937 9.945 9.932 9.92 9.91 9.9 9.89 9.877 9.857 9.83 9.8 9.768 9.743 9.735 9.732 9.72 9.707 9.71 9.717 9.725 9.72 9.687 9.642 9.602 9.59 9.61 9.637 9.662 9.687 9.682 9.632 9.57 9.515 9.485 9.475 9.468 9.46 9.425 9.363 9.3 9.238 9.173 9.123 9.11 9.122 9.08 8.97 8.853 8.738 8.673 8.658 8.64 8.615 8.585 8.545 8.498 8.458 8.425 8.4 8.383 8.365 8.345 8.325 8.307 8.275 8.242 8.23 8.217 8.212 8.217 8.22 8.217 8.212 8.155 8.03 7.89 7.768 7.69 7.652 7.622 7.59 7.567 7.555 7.545 7.525 7.493 7.458 7.418 7.373 7.37 7.417 7.465 7.505 7.527 7.515 7.49 7.48 7.453 7.403 7.355 7.31 7.283 7.333 7.455 7.545 7.542 7.492 7.45 7.43 7.438 7.453 7.468 7.488 7.528 7.577 7.625 7.672 7.717 7.747
11.335 11.23 11.168 11.175 11.19 11.177 11.145 11.115 11.082 11.047 11.01 10.977 10.94 10.893 10.863 10.868 10.893 10.925 10.93 10.908 10.893 10.88 10.82 10.697 10.563 10.46 10.425 10.435 10.455 10.475 10.495 10.518 10.55 10.582 10.58 10.535 10.495 10.477 10.457 10.417 10.36 10.302 10.242 10.172 10.095 10.018 9.955 9.888 9.795 9.693 9.62 9.66 9.805 9.975 10.102 10.195 10.297 10.385 10.417 10.41 10.4 10.392 10.387 10.357 10.305 10.255 10.197 10.14 10.087 10.035 9.987 9.943 9.9 9.868 9.852 9.85 9.85 9.852 9.855 9.873 9.907 9.942 9.957 9.947 9.933 9.92 9.91 9.9 9.885 9.865 9.84 9.807 9.77 9.73 9.71 9.708 9.705 9.702 9.702 9.707 9.712 9.712 9.69 9.645 9.602 9.585 9.593 9.61 9.63 9.647 9.647 9.615 9.562 9.51 9.483 9.478 9.475 9.467 9.43 9.367 9.303 9.24 9.172 9.103 9.068 9.072 9.04 8.947 8.84 8.733 8.665 8.638 8.613 8.583 8.543 8.495 8.445 8.398 8.358 8.33 8.313 8.295 8.275 8.255 8.225 8.18 8.147 8.132 8.127 8.135 8.137 8.13 8.123 8.117 8.06 7.935 7.803 7.705 7.633 7.58 7.552 7.527 7.512 7.507 7.507 7.51 7.492 7.455 7.418 7.375 7.368 7.403 7.44 7.478 7.5 7.498 7.485 7.478 7.47 7.458 7.433 7.398 7.383 7.445 7.55 7.582 7.547 7.502 7.46 7.433 7.43 7.445 7.46 7.47 7.498 7.543 7.588 7.635 7.68 7.725
11.347 11.225 11.155 11.162 11.167 11.152 11.122 11.09 11.052 11.002 10.958 10.942 10.935 10.905 10.868 10.863 10.887 10.912 10.922 10.917 10.907 10.895 10.842 10.725 10.605 10.535 10.51 10.508 10.52 10.54 10.56 10.587 10.615 10.617 10.565 10.46 10.388 10.365 10.35 10.33 10.29 10.235 10.18 10.125 10.057 9.985 9.907 9.818 9.725 9.638 9.62 9.693 9.81 9.957 10.087 10.185 10.265 10.325 10.35 10.345 10.335 10.335 10.357 10.352 10.305 10.252 10.19 10.12 10.055 10 9.953 9.91 9.875 9.85 9.838 9.835 9.835 9.84 9.845 9.86 9.893 9.93 9.952 9.952 9.945 9.935 9.922 9.91 9.895 9.872 9.845 9.807 9.762 9.715 9.69 9.688 9.69 9.685 9.67 9.665 9.668 9.67 9.65 9.605 9.575 9.573 9.575 9.58 9.593 9.602 9.6 9.582 9.545 9.5 9.48 9.482 9.485 9.475 9.435 9.372 9.305 9.24 9.17 9.093 9.033 9.015 8.992 8.925 8.832 8.728 8.663 8.635 8.605 8.57 8.525 8.475 8.422 8.365 8.315 8.278 8.248 8.225 8.202 8.167 8.115 8.053 8.01 8 8.015 8.037 8.042 8.037 8.03 8.022 7.967 7.845 7.733 7.658 7.583 7.51 7.468 7.448 7.438 7.443 7.468 7.505 7.51 7.478 7.44 7.378 7.355 7.395 7.435 7.473 7.503 7.522 7.53 7.53 7.54 7.555 7.557 7.54 7.52 7.567 7.615 7.582 7.533 7.493 7.463 7.445 7.445 7.455 7.46 7.453 7.465 7.508 7.55 7.595 7.64 7.685
11.35 11.215 11.145 11.145 11.14 11.125 11.097 11.06 11.01 10.943 10.893 10.885 10.895 10.892 10.87 10.863 10.882 10.905 10.915 10.917 10.917 10.91 10.865 10.763 10.67 10.623 10.6 10.59 10.59 10.605 10.627 10.642 10.637 10.612 10.535 10.403 10.295 10.253 10.24 10.225 10.202 10.162 10.11 10.06 10.005 9.942 9.862 9.765 9.668 9.61 9.645 9.735 9.833 9.952 10.057 10.125 10.177 10.222 10.247 10.245 10.243 10.265 10.307 10.33 10.302 10.242 10.175 10.102 10.03 9.967 9.92 9.887 9.86 9.835 9.825 9.825 9.825 9.83 9.835 9.85 9.883 9.917 9.937 9.942 9.945 9.942 9.932 9.917 9.902 9.88 9.842 9.795 9.745 9.695 9.67 9.673 9.68 9.675 9.655 9.635 9.625 9.627 9.61 9.575 9.563 9.565 9.567 9.57 9.57 9.565 9.555 9.542 9.517 9.49 9.48 9.482 9.482 9.472 9.437 9.375 9.305 9.237 9.167 9.09 9.013 8.968 8.935 8.88 8.812 8.723 8.658 8.627 8.59 8.55 8.505 8.452 8.395 8.335 8.285 8.24 8.195 8.158 8.115 8.058 7.995 7.933 7.89 7.893 7.92 7.945 7.95 7.943 7.937 7.93 7.872 7.765 7.678 7.612 7.54 7.46 7.395 7.368 7.378 7.408 7.45 7.5 7.527 7.512 7.457 7.368 7.34 7.39 7.44 7.485 7.522 7.555 7.58 7.59 7.6 7.62 7.64 7.65 7.647 7.652 7.625 7.568 7.528 7.5 7.48 7.463 7.458 7.457 7.447 7.433 7.44 7.475 7.513 7.555 7.602 7.647
11.345 11.205 11.13 11.12 11.11 11.097 11.067 11.015 10.95 10.875 10.828 10.825 10.835 10.845 10.85 10.855 10.87 10.887 10.897 10.907 10.915 10.915 10.885 10.815 10.75 10.71 10.69 10.68 10.672 10.672 10.672 10.652 10.615 10.57 10.475 10.333 10.215 10.16 10.14 10.12 10.103 10.077 10.038 9.993 9.948 9.895 9.812 9.71 9.62 9.61 9.685 9.77 9.85 9.932 9.992 10.03 10.073 10.117 10.145 10.15 10.165 10.205 10.25 10.287 10.282 10.217 10.135 10.052 9.967 9.9 9.862 9.837 9.812 9.81 9.818 9.815 9.818 9.823 9.825 9.843 9.875 9.902 9.915 9.92 9.925 9.922 9.915 9.902 9.887 9.862 9.82 9.772 9.725 9.675 9.653 9.66 9.67 9.665 9.645 9.62 9.598 9.588 9.573 9.557 9.555 9.555 9.557 9.56 9.555 9.543 9.528 9.51 9.485 9.46 9.447 9.442 9.435 9.427 9.405 9.36 9.302 9.235 9.162 9.085 9 8.93 8.88 8.825 8.77 8.705 8.647 8.61 8.57 8.53 8.482 8.425 8.368 8.31 8.257 8.207 8.155 8.105 8.045 7.98 7.92 7.865 7.833 7.833 7.845 7.858 7.86 7.85 7.843 7.837 7.787 7.703 7.633 7.567 7.495 7.415 7.348 7.328 7.358 7.403 7.448 7.493 7.535 7.527 7.445 7.345 7.328 7.38 7.435 7.487 7.53 7.567 7.605 7.635 7.652 7.667 7.682 7.695 7.7 7.67 7.613 7.578 7.56 7.538 7.513 7.488 7.468 7.453 7.435 7.418 7.418 7.445 7.48 7.518 7.562 7.605
11.34 11.2 11.115 11.095 11.085 11.067 11.02 10.95 10.88 10.805 10.768 10.775 10.785 10.798 10.812 10.822 10.835 10.85 10.862 10.877 10.887 10.892 10.882 10.84 10.782 10.742 10.735 10.737 10.73 10.717 10.66 10.59 10.545 10.48 10.367 10.24 10.15 10.1 10.07 10.043 10.02 10 9.978 9.945 9.905 9.852 9.765 9.658 9.59 9.613 9.687 9.76 9.832 9.902 9.943 9.963 9.988 10.018 10.045 10.067 10.095 10.127 10.16 10.187 10.182 10.115 10.02 9.925 9.843 9.79 9.76 9.735 9.733 9.788 9.825 9.818 9.818 9.818 9.815 9.83 9.855 9.872 9.882 9.887 9.89 9.887 9.878 9.865 9.847 9.815 9.772 9.73 9.688 9.653 9.643 9.65 9.66 9.655 9.635 9.61 9.585 9.565 9.543 9.53 9.53 9.53 9.535 9.54 9.535 9.525 9.51 9.49 9.455 9.413 9.385 9.37 9.36 9.352 9.337 9.31 9.267 9.197 9.11 9.02 8.935 8.878 8.835 8.78 8.725 8.67 8.612 8.565 8.525 8.485 8.445 8.395 8.34 8.285 8.225 8.168 8.115 8.065 8.005 7.94 7.883 7.84 7.82 7.815 7.81 7.81 7.81 7.798 7.783 7.77 7.73 7.658 7.588 7.523 7.45 7.385 7.35 7.353 7.385 7.43 7.475 7.512 7.537 7.5 7.395 7.303 7.303 7.36 7.415 7.47 7.515 7.555 7.595 7.635 7.665 7.68 7.69 7.697 7.69 7.648 7.61 7.615 7.62 7.6 7.573 7.54 7.5 7.47 7.45 7.43 7.415 7.423 7.453 7.487 7.518 7.55
11.325 11.195 11.103 11.075 11.06 11.025 10.957 10.88 10.81 10.74 10.718 10.735 10.745 10.76 10.775 10.78 10.788 10.803 10.817 10.83 10.835 10.825 10.82 10.802 10.748 10.71 10.72 10.742 10.75 10.742 10.653 10.52 10.445 10.37 10.263 10.17 10.103 10.053 10.02 9.99 9.963 9.94 9.927 9.907 9.87 9.815 9.725 9.625 9.57 9.583 9.638 9.71 9.793 9.877 9.925 9.935 9.945 9.952 9.947 9.952 9.975 9.995 10.012 10.02 10.005 9.945 9.853 9.768 9.71 9.67 9.64 9.633 9.683 9.787 9.842 9.835 9.83 9.817 9.8 9.805 9.822 9.837 9.85 9.855 9.855 9.852 9.842 9.825 9.797 9.76 9.718 9.675 9.643 9.635 9.638 9.64 9.65 9.645 9.625 9.6 9.575 9.555 9.525 9.498 9.49 9.49 9.5 9.512 9.512 9.507 9.495 9.47 9.42 9.365 9.33 9.308 9.293 9.28 9.265 9.24 9.19 9.1 8.995 8.903 8.843 8.82 8.792 8.74 8.685 8.632 8.565 8.5 8.455 8.415 8.385 8.355 8.307 8.25 8.188 8.128 8.075 8.025 7.965 7.903 7.855 7.825 7.81 7.805 7.803 7.803 7.802 7.795 7.78 7.76 7.72 7.653 7.575 7.493 7.428 7.403 7.4 7.408 7.438 7.482 7.512 7.522 7.515 7.445 7.325 7.245 7.26 7.325 7.385 7.44 7.485 7.525 7.565 7.605 7.64 7.665 7.68 7.69 7.675 7.638 7.63 7.652 7.67 7.667 7.647 7.61 7.56 7.518 7.49 7.47 7.443 7.42 7.43 7.46 7.483 7.503
11.285 11.182 11.093 11.055 11.025 10.972 10.895 10.813 10.738 10.68 10.673 10.692 10.708 10.722 10.735 10.74 10.745 10.758 10.77 10.77 10.752 10.728 10.725 10.735 10.702 10.673 10.69 10.72 10.745 10.76 10.682 10.518 10.378 10.275 10.195 10.125 10.06 10.01 9.973 9.94 9.908 9.88 9.87 9.862 9.835 9.777 9.693 9.618 9.57 9.555 9.593 9.67 9.758 9.845 9.9 9.915 9.912 9.865 9.805 9.79 9.805 9.822 9.832 9.828 9.813 9.77 9.695 9.633 9.59 9.55 9.53 9.57 9.67 9.792 9.857 9.847 9.82 9.782 9.758 9.765 9.785 9.802 9.815 9.82 9.82 9.815 9.802 9.777 9.743 9.705 9.665 9.633 9.623 9.635 9.64 9.635 9.64 9.635 9.615 9.593 9.57 9.55 9.517 9.473 9.45 9.45 9.46 9.475 9.485 9.49 9.48 9.445 9.38 9.318 9.28 9.255 9.233 9.21 9.192 9.165 9.092 8.983 8.878 8.81 8.785 8.775 8.75 8.702 8.648 8.595 8.525 8.445 8.388 8.345 8.318 8.302 8.27 8.215 8.155 8.095 8.038 7.983 7.923 7.873 7.84 7.815 7.8 7.795 7.795 7.798 7.8 7.8 7.792 7.775 7.735 7.672 7.6 7.518 7.473 7.47 7.467 7.467 7.485 7.505 7.502 7.487 7.47 7.39 7.255 7.183 7.21 7.28 7.35 7.412 7.457 7.495 7.535 7.572 7.607 7.64 7.665 7.68 7.665 7.65 7.668 7.69 7.71 7.725 7.717 7.68 7.63 7.58 7.538 7.51 7.48 7.443 7.423 7.435 7.457 7.47
11.222 11.147 11.075 11.025 10.98 10.918 10.838 10.753 10.67 10.625 10.63 10.65 10.67 10.685 10.693 10.698 10.705 10.718 10.71 10.678 10.64 10.623 10.635 10.655 10.648 10.635 10.657 10.687 10.71 10.725 10.667 10.517 10.343 10.218 10.148 10.08 10.015 9.968 9.93 9.893 9.858 9.828 9.813 9.81 9.797 9.748 9.68 9.633 9.603 9.59 9.613 9.668 9.733 9.81 9.872 9.875 9.813 9.71 9.65 9.645 9.65 9.655 9.658 9.658 9.655 9.638 9.588 9.53 9.48 9.438 9.453 9.542 9.657 9.775 9.842 9.822 9.765 9.71 9.695 9.715 9.74 9.765 9.78 9.785 9.783 9.775 9.758 9.725 9.69 9.655 9.623 9.613 9.625 9.645 9.65 9.64 9.635 9.625 9.607 9.59 9.57 9.55 9.515 9.46 9.418 9.408 9.42 9.435 9.45 9.462 9.455 9.41 9.335 9.27 9.23 9.203 9.177 9.15 9.125 9.085 9.003 8.898 8.805 8.758 8.745 8.735 8.71 8.665 8.61 8.555 8.487 8.403 8.328 8.278 8.255 8.243 8.222 8.182 8.125 8.065 8.005 7.945 7.888 7.85 7.827 7.802 7.787 7.785 7.787 7.792 7.795 7.797 7.797 7.787 7.747 7.685 7.622 7.56 7.525 7.515 7.507 7.505 7.5 7.482 7.46 7.443 7.425 7.34 7.19 7.12 7.16 7.23 7.302 7.372 7.422 7.46 7.5 7.537 7.575 7.61 7.642 7.667 7.672 7.68 7.7 7.717 7.732 7.75 7.755 7.727 7.682 7.637 7.592 7.552 7.517 7.48 7.445 7.428 7.43 7.44
11.153 11.098 11.05 11 10.95 10.888 10.81 10.728 10.655 10.623 10.623 10.63 10.643 10.665 10.693 10.718 10.733 10.738 10.7 10.625 10.578 10.573 10.588 10.603 10.608 10.6 10.61 10.632 10.647 10.64 10.587 10.472 10.308 10.18 10.105 10.035 9.97 9.923 9.887 9.85 9.82 9.803 9.793 9.785 9.77 9.738 9.695 9.668 9.66 9.663 9.678 9.713 9.758 9.813 9.855 9.833 9.748 9.663 9.628 9.623 9.618 9.598 9.603 9.628 9.635 9.635 9.598 9.535 9.473 9.4 9.395 9.485 9.595 9.705 9.785 9.79 9.738 9.678 9.648 9.658 9.685 9.712 9.737 9.755 9.755 9.748 9.733 9.703 9.67 9.638 9.615 9.62 9.64 9.655 9.647 9.627 9.615 9.602 9.587 9.572 9.555 9.535 9.507 9.46 9.403 9.373 9.38 9.398 9.415 9.43 9.42 9.367 9.29 9.22 9.178 9.15 9.117 9.077 9.042 9.01 8.947 8.858 8.775 8.73 8.713 8.697 8.672 8.627 8.57 8.51 8.44 8.357 8.278 8.228 8.213 8.203 8.18 8.137 8.08 8.02 7.96 7.903 7.855 7.822 7.8 7.777 7.763 7.762 7.767 7.772 7.777 7.782 7.787 7.787 7.757 7.7 7.64 7.583 7.54 7.518 7.51 7.507 7.49 7.463 7.438 7.412 7.38 7.305 7.18 7.09 7.105 7.172 7.24 7.31 7.365 7.405 7.44 7.475 7.515 7.552 7.59 7.63 7.66 7.677 7.69 7.702 7.715 7.73 7.747 7.737 7.697 7.655 7.615 7.572 7.542 7.517 7.482 7.448 7.433 7.44
11.103 11.078 11.05 11 10.945 10.887 10.815 10.743 10.698 10.68 10.67 10.665 10.688 10.74 10.787 10.812 10.817 10.807 10.755 10.678 10.65 10.66 10.67 10.678 10.67 10.618 10.563 10.558 10.57 10.547 10.487 10.407 10.272 10.143 10.065 9.995 9.93 9.88 9.845 9.82 9.808 9.805 9.802 9.795 9.78 9.758 9.735 9.725 9.73 9.735 9.745 9.778 9.82 9.857 9.872 9.85 9.8 9.74 9.705 9.697 9.672 9.62 9.633 9.695 9.72 9.72 9.685 9.622 9.54 9.423 9.36 9.403 9.498 9.607 9.7 9.757 9.75 9.693 9.633 9.605 9.62 9.645 9.675 9.71 9.73 9.732 9.722 9.705 9.68 9.65 9.633 9.64 9.655 9.657 9.635 9.6 9.578 9.565 9.552 9.537 9.52 9.495 9.472 9.447 9.4 9.36 9.36 9.38 9.392 9.39 9.365 9.315 9.245 9.17 9.115 9.072 9.02 8.968 8.94 8.93 8.902 8.835 8.755 8.71 8.69 8.662 8.625 8.577 8.52 8.457 8.385 8.308 8.248 8.213 8.197 8.18 8.137 8.08 8.02 7.96 7.903 7.853 7.815 7.785 7.76 7.74 7.728 7.728 7.733 7.74 7.747 7.752 7.757 7.76 7.747 7.712 7.66 7.605 7.56 7.528 7.513 7.505 7.485 7.457 7.425 7.375 7.307 7.26 7.217 7.138 7.09 7.113 7.17 7.24 7.295 7.332 7.36 7.388 7.425 7.465 7.51 7.565 7.61 7.63 7.643 7.657 7.67 7.69 7.72 7.725 7.692 7.65 7.608 7.565 7.545 7.537 7.515 7.483 7.463 7.467
11.09 11.09 11.067 11.012 10.95 10.893 10.83 10.78 10.76 10.75 10.74 10.75 10.797 10.86 10.895 10.895 10.885 10.87 10.828 10.793 10.805 10.827 10.837 10.83 10.802 10.717 10.59 10.513 10.485 10.445 10.38 10.315 10.217 10.105 10.023 9.95 9.885 9.843 9.823 9.815 9.813 9.81 9.807 9.805 9.802 9.795 9.792 9.797 9.802 9.807 9.815 9.84 9.877 9.902 9.905 9.892 9.867 9.822 9.787 9.76 9.695 9.62 9.635 9.722 9.787 9.807 9.772 9.687 9.57 9.438 9.36 9.36 9.415 9.508 9.598 9.68 9.732 9.712 9.645 9.585 9.563 9.575 9.608 9.65 9.687 9.71 9.71 9.7 9.685 9.66 9.648 9.655 9.662 9.657 9.627 9.585 9.55 9.528 9.515 9.5 9.475 9.443 9.42 9.412 9.392 9.36 9.355 9.365 9.355 9.33 9.295 9.25 9.192 9.122 9.05 8.983 8.913 8.86 8.843 8.835 8.825 8.795 8.735 8.687 8.655 8.607 8.558 8.512 8.462 8.405 8.338 8.275 8.24 8.215 8.182 8.137 8.08 8.02 7.963 7.908 7.855 7.808 7.773 7.745 7.72 7.7 7.69 7.693 7.7 7.707 7.713 7.717 7.72 7.72 7.715 7.7 7.67 7.625 7.582 7.547 7.52 7.502 7.48 7.435 7.367 7.285 7.193 7.155 7.167 7.157 7.135 7.117 7.123 7.17 7.222 7.255 7.28 7.305 7.338 7.38 7.435 7.497 7.552 7.58 7.595 7.613 7.628 7.653 7.685 7.702 7.685 7.645 7.6 7.555 7.535 7.535 7.53 7.512 7.492 7.472
11.103 11.107 11.082 11.025 10.963 10.91 10.863 10.83 10.82 10.807 10.798 10.822 10.875 10.927 10.955 10.95 10.94 10.93 10.922 10.935 10.965 10.99 10.987 10.95 10.902 10.825 10.687 10.54 10.435 10.363 10.293 10.223 10.145 10.063 9.99 9.923 9.87 9.835 9.82 9.82 9.817 9.812 9.81 9.807 9.808 9.815 9.825 9.84 9.855 9.87 9.885 9.902 9.92 9.925 9.922 9.915 9.907 9.89 9.852 9.79 9.7 9.62 9.635 9.725 9.812 9.87 9.835 9.717 9.585 9.453 9.368 9.35 9.368 9.425 9.508 9.588 9.665 9.702 9.665 9.595 9.538 9.518 9.543 9.585 9.625 9.66 9.672 9.67 9.667 9.66 9.657 9.662 9.667 9.657 9.622 9.58 9.538 9.5 9.478 9.455 9.422 9.388 9.365 9.36 9.357 9.342 9.327 9.315 9.29 9.26 9.222 9.177 9.13 9.07 8.997 8.92 8.84 8.783 8.76 8.75 8.738 8.725 8.695 8.647 8.595 8.54 8.49 8.445 8.402 8.352 8.3 8.257 8.225 8.202 8.16 8.095 8.033 7.97 7.915 7.865 7.815 7.765 7.73 7.708 7.683 7.66 7.65 7.655 7.665 7.672 7.677 7.68 7.677 7.672 7.665 7.657 7.647 7.625 7.595 7.56 7.525 7.49 7.435 7.355 7.26 7.165 7.07 7.02 7.017 7.032 7.067 7.08 7.078 7.108 7.155 7.193 7.225 7.258 7.288 7.323 7.373 7.433 7.492 7.527 7.545 7.57 7.598 7.623 7.65 7.677 7.675 7.637 7.59 7.548 7.528 7.525 7.525 7.522 7.502 7.437
11.12 11.125 11.1 11.04 10.988 10.963 10.928 10.88 10.86 10.847 10.843 10.868 10.918 10.972 11 10.997 10.99 10.98 10.99 11.022 11.055 11.06 11.025 10.967 10.905 10.837 10.745 10.607 10.453 10.345 10.27 10.193 10.118 10.05 9.99 9.93 9.903 9.868 9.823 9.815 9.812 9.807 9.805 9.803 9.805 9.815 9.825 9.84 9.862 9.887 9.91 9.915 9.905 9.897 9.895 9.892 9.89 9.887 9.865 9.8 9.705 9.625 9.64 9.73 9.817 9.88 9.837 9.71 9.58 9.463 9.395 9.38 9.393 9.45 9.535 9.613 9.685 9.727 9.685 9.6 9.53 9.48 9.478 9.51 9.55 9.585 9.6 9.605 9.612 9.627 9.647 9.662 9.672 9.657 9.617 9.575 9.53 9.483 9.443 9.405 9.368 9.333 9.308 9.3 9.302 9.297 9.275 9.247 9.22 9.19 9.15 9.103 9.057 9.005 8.942 8.867 8.785 8.723 8.693 8.68 8.665 8.655 8.64 8.595 8.54 8.498 8.448 8.39 8.345 8.3 8.257 8.222 8.193 8.182 8.142 8.065 7.998 7.935 7.88 7.828 7.775 7.725 7.693 7.683 7.67 7.64 7.615 7.613 7.622 7.635 7.637 7.627 7.612 7.6 7.592 7.587 7.587 7.59 7.572 7.537 7.502 7.45 7.36 7.255 7.153 7.05 6.95 6.885 6.848 6.84 6.888 6.963 7.048 7.113 7.158 7.2 7.24 7.275 7.298 7.318 7.35 7.395 7.445 7.485 7.515 7.55 7.583 7.607 7.632 7.645 7.645 7.622 7.577 7.538 7.518 7.515 7.515 7.515 7.487 7.4
11.14 11.142 11.115 11.063 11.043 11.05 11.015 10.943 10.898 10.88 10.885 10.915 10.963 11.015 11.042 11.042 11.03 11.013 11.02 11.045 11.05 11.017 10.962 10.902 10.838 10.775 10.715 10.632 10.502 10.375 10.288 10.21 10.138 10.073 10.01 9.958 9.952 9.927 9.848 9.805 9.798 9.795 9.798 9.8 9.805 9.815 9.825 9.833 9.848 9.87 9.882 9.87 9.845 9.83 9.825 9.825 9.828 9.832 9.83 9.795 9.717 9.635 9.645 9.735 9.805 9.84 9.797 9.68 9.565 9.49 9.453 9.44 9.475 9.568 9.665 9.742 9.792 9.797 9.727 9.615 9.525 9.458 9.425 9.435 9.47 9.505 9.52 9.528 9.548 9.583 9.62 9.645 9.657 9.642 9.602 9.557 9.51 9.46 9.41 9.363 9.318 9.278 9.253 9.245 9.25 9.24 9.21 9.18 9.15 9.117 9.077 9.03 8.98 8.925 8.867 8.807 8.735 8.665 8.625 8.61 8.603 8.605 8.592 8.55 8.508 8.475 8.425 8.358 8.3 8.25 8.205 8.175 8.165 8.167 8.127 8.043 7.968 7.905 7.848 7.793 7.745 7.713 7.698 7.695 7.675 7.625 7.585 7.573 7.575 7.587 7.585 7.558 7.53 7.515 7.508 7.505 7.52 7.54 7.527 7.492 7.452 7.39 7.295 7.185 7.075 6.963 6.853 6.793 6.758 6.77 6.865 6.985 7.105 7.18 7.222 7.262 7.295 7.32 7.335 7.35 7.373 7.403 7.438 7.473 7.508 7.545 7.575 7.59 7.585 7.555 7.55 7.57 7.552 7.513 7.495 7.497 7.502 7.505 7.472 7.385
11.152 11.16 11.138 11.118 11.138 11.152 11.11 11.03 10.96 10.918 10.923 10.963 11.01 11.06 11.09 11.085 11.06 11.038 11.04 11.04 11.005 10.955 10.9 10.837 10.77 10.705 10.645 10.59 10.515 10.407 10.308 10.228 10.16 10.095 10.03 9.995 10.01 10.005 9.92 9.825 9.788 9.788 9.795 9.8 9.805 9.815 9.825 9.83 9.838 9.852 9.85 9.822 9.788 9.765 9.76 9.763 9.77 9.78 9.777 9.757 9.717 9.648 9.65 9.722 9.76 9.78 9.752 9.665 9.59 9.55 9.52 9.503 9.565 9.695 9.795 9.847 9.86 9.852 9.79 9.665 9.545 9.45 9.398 9.383 9.398 9.427 9.445 9.465 9.503 9.547 9.587 9.607 9.605 9.59 9.56 9.517 9.472 9.427 9.38 9.33 9.278 9.228 9.2 9.198 9.197 9.177 9.145 9.113 9.08 9.045 9.002 8.952 8.895 8.835 8.78 8.73 8.672 8.605 8.558 8.545 8.55 8.562 8.552 8.518 8.485 8.455 8.405 8.333 8.263 8.203 8.16 8.145 8.15 8.155 8.117 8.032 7.945 7.873 7.815 7.778 7.755 7.745 7.737 7.712 7.662 7.598 7.553 7.535 7.528 7.532 7.527 7.493 7.455 7.433 7.425 7.435 7.462 7.487 7.48 7.442 7.392 7.327 7.235 7.125 7.013 6.903 6.808 6.788 6.828 6.885 6.99 7.115 7.202 7.247 7.285 7.317 7.34 7.357 7.372 7.39 7.407 7.422 7.445 7.475 7.505 7.53 7.532 7.51 7.465 7.41 7.41 7.462 7.492 7.477 7.463 7.467 7.475 7.477 7.45 7.382
11.15 11.175 11.187 11.212 11.25 11.255 11.205 11.122 11.04 10.973 10.965 11.01 11.06 11.11 11.13 11.11 11.08 11.052 11.03 10.995 10.945 10.895 10.837 10.77 10.7 10.635 10.575 10.52 10.465 10.397 10.32 10.247 10.182 10.115 10.053 10.038 10.07 10.082 10.015 9.895 9.815 9.798 9.805 9.81 9.813 9.818 9.822 9.825 9.83 9.835 9.817 9.78 9.74 9.708 9.698 9.705 9.718 9.73 9.725 9.705 9.682 9.643 9.64 9.675 9.695 9.715 9.715 9.68 9.642 9.615 9.587 9.583 9.67 9.82 9.905 9.917 9.912 9.907 9.847 9.725 9.592 9.465 9.393 9.363 9.345 9.358 9.385 9.423 9.468 9.512 9.545 9.55 9.535 9.52 9.5 9.462 9.42 9.377 9.337 9.295 9.242 9.188 9.155 9.155 9.145 9.112 9.08 9.045 9.01 8.975 8.925 8.865 8.805 8.745 8.69 8.64 8.59 8.535 8.498 8.495 8.505 8.52 8.517 8.492 8.465 8.432 8.38 8.307 8.232 8.155 8.113 8.117 8.132 8.142 8.11 8.022 7.922 7.838 7.79 7.777 7.772 7.767 7.747 7.697 7.635 7.573 7.523 7.5 7.49 7.485 7.472 7.435 7.39 7.355 7.348 7.37 7.4 7.43 7.427 7.382 7.327 7.265 7.175 7.063 6.958 6.873 6.808 6.828 6.935 7.032 7.13 7.225 7.277 7.31 7.335 7.352 7.367 7.377 7.387 7.402 7.412 7.417 7.435 7.465 7.492 7.495 7.455 7.395 7.333 7.273 7.275 7.333 7.39 7.42 7.422 7.425 7.427 7.427 7.405 7.35
11.15 11.185 11.225 11.27 11.305 11.305 11.255 11.17 11.082 11.018 11.018 11.062 11.107 11.137 11.12 11.08 11.052 11.022 10.982 10.935 10.885 10.835 10.775 10.703 10.633 10.568 10.505 10.45 10.395 10.343 10.297 10.255 10.2 10.133 10.083 10.088 10.13 10.155 10.102 9.985 9.878 9.83 9.833 9.835 9.837 9.83 9.815 9.81 9.812 9.81 9.785 9.745 9.708 9.678 9.663 9.665 9.678 9.69 9.69 9.678 9.655 9.63 9.605 9.593 9.605 9.625 9.65 9.665 9.652 9.627 9.602 9.608 9.707 9.852 9.917 9.92 9.922 9.925 9.882 9.772 9.635 9.495 9.41 9.375 9.335 9.32 9.348 9.393 9.437 9.47 9.477 9.472 9.462 9.447 9.43 9.397 9.352 9.308 9.277 9.252 9.207 9.153 9.118 9.107 9.08 9.037 9.002 8.967 8.927 8.887 8.845 8.79 8.73 8.673 8.625 8.58 8.53 8.48 8.453 8.455 8.468 8.482 8.48 8.46 8.44 8.41 8.347 8.262 8.175 8.078 8.033 8.05 8.072 8.095 8.065 7.97 7.865 7.775 7.732 7.727 7.725 7.722 7.705 7.665 7.607 7.545 7.495 7.47 7.46 7.45 7.427 7.388 7.345 7.308 7.273 7.263 7.287 7.322 7.332 7.307 7.265 7.205 7.115 7.015 6.94 6.88 6.838 6.885 7.005 7.12 7.217 7.275 7.305 7.33 7.345 7.355 7.362 7.367 7.375 7.382 7.387 7.393 7.41 7.44 7.46 7.45 7.4 7.33 7.26 7.208 7.205 7.25 7.31 7.362 7.377 7.37 7.37 7.37 7.342 7.283
11.165 11.195 11.235 11.27 11.287 11.287 11.252 11.177 11.093 11.048 11.07 11.112 11.135 11.13 11.092 11.033 10.988 10.955 10.915 10.87 10.822 10.775 10.715 10.64 10.568 10.5 10.438 10.383 10.33 10.285 10.253 10.235 10.205 10.148 10.115 10.143 10.19 10.222 10.18 10.07 9.955 9.883 9.87 9.87 9.865 9.84 9.81 9.793 9.785 9.78 9.755 9.72 9.695 9.683 9.668 9.653 9.655 9.665 9.67 9.667 9.652 9.63 9.583 9.525 9.505 9.515 9.548 9.595 9.612 9.592 9.568 9.568 9.66 9.785 9.835 9.847 9.86 9.867 9.855 9.785 9.66 9.525 9.443 9.405 9.352 9.31 9.323 9.367 9.397 9.397 9.39 9.39 9.385 9.372 9.352 9.322 9.28 9.235 9.21 9.195 9.165 9.118 9.083 9.055 9.003 8.953 8.917 8.88 8.825 8.778 8.76 8.727 8.67 8.618 8.582 8.547 8.5 8.45 8.423 8.42 8.43 8.445 8.44 8.42 8.4 8.357 8.275 8.175 8.075 7.973 7.933 7.958 7.985 8.007 7.97 7.875 7.775 7.683 7.638 7.633 7.633 7.635 7.627 7.607 7.572 7.517 7.465 7.44 7.43 7.42 7.395 7.355 7.318 7.285 7.225 7.158 7.143 7.165 7.187 7.192 7.177 7.142 7.078 7.008 6.953 6.898 6.88 6.95 7.062 7.157 7.227 7.267 7.285 7.3 7.317 7.33 7.337 7.343 7.35 7.357 7.363 7.368 7.385 7.407 7.412 7.405 7.367 7.298 7.24 7.218 7.213 7.225 7.27 7.325 7.335 7.315 7.31 7.31 7.28 7.225
11.185 11.207 11.235 11.247 11.25 11.247 11.232 11.182 11.118 11.095 11.115 11.132 11.125 11.105 11.08 11 10.92 10.885 10.845 10.8 10.755 10.712 10.655 10.58 10.502 10.43 10.37 10.32 10.275 10.235 10.208 10.2 10.19 10.155 10.148 10.195 10.247 10.285 10.247 10.145 10.037 9.943 9.905 9.897 9.872 9.838 9.81 9.785 9.765 9.752 9.733 9.713 9.702 9.697 9.682 9.658 9.643 9.645 9.65 9.65 9.645 9.627 9.577 9.505 9.448 9.42 9.44 9.5 9.552 9.555 9.535 9.54 9.618 9.707 9.735 9.75 9.767 9.775 9.775 9.755 9.675 9.555 9.475 9.427 9.36 9.298 9.295 9.325 9.325 9.308 9.303 9.305 9.305 9.297 9.275 9.245 9.207 9.165 9.138 9.122 9.107 9.077 9.042 8.997 8.93 8.873 8.832 8.782 8.71 8.663 8.66 8.652 8.61 8.563 8.535 8.51 8.47 8.423 8.398 8.393 8.395 8.405 8.4 8.375 8.332 8.26 8.163 8.06 7.963 7.875 7.85 7.88 7.91 7.917 7.865 7.775 7.683 7.588 7.54 7.54 7.545 7.547 7.54 7.525 7.507 7.48 7.438 7.41 7.4 7.387 7.362 7.328 7.295 7.265 7.205 7.115 7.048 7.025 7.035 7.045 7.06 7.085 7.07 7.02 6.967 6.913 6.92 7.002 7.087 7.16 7.215 7.24 7.245 7.255 7.28 7.3 7.31 7.317 7.323 7.33 7.337 7.345 7.36 7.367 7.36 7.352 7.325 7.273 7.243 7.24 7.237 7.233 7.245 7.285 7.297 7.273 7.255 7.247 7.223 7.193
11.192 11.202 11.21 11.21 11.207 11.203 11.2 11.177 11.147 11.14 11.132 11.115 11.095 11.077 11.06 10.975 10.868 10.812 10.767 10.722 10.677 10.635 10.58 10.507 10.432 10.365 10.313 10.27 10.23 10.19 10.168 10.163 10.158 10.153 10.175 10.23 10.29 10.34 10.31 10.207 10.102 9.998 9.933 9.905 9.87 9.832 9.802 9.777 9.752 9.727 9.712 9.707 9.705 9.7 9.685 9.66 9.635 9.622 9.617 9.615 9.615 9.605 9.56 9.49 9.417 9.355 9.345 9.395 9.465 9.502 9.507 9.52 9.57 9.62 9.635 9.65 9.67 9.682 9.685 9.685 9.66 9.58 9.498 9.435 9.36 9.285 9.253 9.25 9.235 9.22 9.218 9.225 9.238 9.232 9.2 9.165 9.132 9.093 9.063 9.05 9.04 9.025 8.992 8.932 8.86 8.798 8.74 8.67 8.59 8.548 8.55 8.555 8.54 8.51 8.485 8.465 8.435 8.398 8.375 8.368 8.363 8.365 8.355 8.307 8.232 8.148 8.055 7.958 7.865 7.798 7.79 7.818 7.847 7.85 7.788 7.693 7.595 7.495 7.448 7.455 7.463 7.46 7.45 7.438 7.425 7.418 7.398 7.375 7.365 7.352 7.332 7.305 7.275 7.245 7.185 7.095 7.01 6.94 6.903 6.915 6.973 7.048 7.065 7.023 6.978 6.93 6.948 7.022 7.088 7.152 7.192 7.2 7.2 7.208 7.235 7.265 7.28 7.29 7.297 7.303 7.31 7.317 7.322 7.32 7.31 7.3 7.285 7.268 7.26 7.26 7.26 7.255 7.25 7.26 7.26 7.235 7.21 7.193 7.18 7.18
11.17 11.172 11.175 11.173 11.168 11.165 11.165 11.163 11.157 11.15 11.125 11.088 11.06 11.042 11.01 10.915 10.795 10.72 10.672 10.627 10.582 10.537 10.48 10.41 10.345 10.31 10.283 10.24 10.2 10.163 10.143 10.138 10.138 10.15 10.178 10.227 10.292 10.352 10.335 10.237 10.132 10.028 9.95 9.908 9.867 9.817 9.778 9.752 9.725 9.695 9.673 9.665 9.665 9.66 9.645 9.62 9.6 9.59 9.57 9.55 9.545 9.542 9.505 9.432 9.36 9.308 9.285 9.303 9.36 9.422 9.457 9.472 9.497 9.525 9.54 9.555 9.575 9.593 9.6 9.6 9.6 9.57 9.502 9.425 9.345 9.275 9.228 9.198 9.17 9.148 9.15 9.17 9.19 9.187 9.15 9.103 9.06 9.018 8.99 8.98 8.967 8.955 8.925 8.862 8.79 8.725 8.655 8.578 8.51 8.475 8.473 8.475 8.475 8.462 8.44 8.417 8.392 8.367 8.35 8.34 8.33 8.32 8.285 8.21 8.125 8.048 7.965 7.875 7.79 7.735 7.735 7.763 7.795 7.807 7.75 7.648 7.543 7.46 7.433 7.433 7.423 7.405 7.393 7.388 7.383 7.38 7.368 7.343 7.325 7.315 7.302 7.282 7.255 7.225 7.165 7.075 6.99 6.915 6.873 6.908 6.995 7.07 7.077 7.035 6.995 6.955 6.968 7.03 7.095 7.155 7.17 7.158 7.155 7.16 7.185 7.225 7.25 7.26 7.27 7.277 7.282 7.28 7.272 7.267 7.26 7.25 7.245 7.257 7.27 7.27 7.267 7.262 7.26 7.252 7.223 7.185 7.16 7.14 7.132 7.14
11.133 11.137 11.142 11.14 11.135 11.135 11.143 11.152 11.152 11.145 11.117 11.073 11.032 10.997 10.93 10.813 10.69 10.61 10.565 10.522 10.477 10.43 10.37 10.305 10.27 10.278 10.267 10.225 10.185 10.148 10.128 10.125 10.133 10.15 10.173 10.21 10.265 10.325 10.317 10.235 10.137 10.033 9.955 9.91 9.857 9.79 9.743 9.715 9.688 9.66 9.628 9.603 9.595 9.59 9.575 9.555 9.55 9.555 9.53 9.485 9.463 9.46 9.422 9.35 9.298 9.275 9.255 9.238 9.263 9.322 9.362 9.38 9.405 9.43 9.448 9.465 9.488 9.51 9.52 9.52 9.523 9.525 9.482 9.398 9.325 9.273 9.23 9.19 9.15 9.12 9.115 9.13 9.15 9.152 9.12 9.065 9.008 8.963 8.928 8.905 8.89 8.875 8.845 8.785 8.718 8.657 8.59 8.518 8.475 8.455 8.438 8.43 8.43 8.417 8.395 8.37 8.335 8.302 8.282 8.27 8.255 8.23 8.18 8.103 8.028 7.96 7.885 7.798 7.723 7.68 7.68 7.71 7.747 7.775 7.73 7.625 7.538 7.5 7.495 7.488 7.465 7.428 7.393 7.38 7.38 7.38 7.362 7.323 7.29 7.275 7.265 7.255 7.237 7.207 7.145 7.055 6.99 6.965 6.97 7.02 7.097 7.14 7.12 7.073 7.028 6.985 6.993 7.05 7.107 7.155 7.16 7.133 7.115 7.113 7.135 7.18 7.217 7.232 7.24 7.25 7.247 7.23 7.215 7.21 7.207 7.202 7.198 7.22 7.255 7.265 7.263 7.26 7.257 7.245 7.2 7.138 7.098 7.078 7.07 7.073
11.097 11.102 11.107 11.108 11.105 11.115 11.135 11.145 11.145 11.14 11.112 11.062 11 10.94 10.85 10.72 10.595 10.505 10.455 10.415 10.372 10.325 10.265 10.225 10.235 10.262 10.255 10.215 10.173 10.133 10.115 10.12 10.135 10.155 10.177 10.203 10.243 10.297 10.29 10.217 10.135 10.038 9.96 9.905 9.835 9.758 9.708 9.68 9.652 9.625 9.592 9.558 9.533 9.52 9.51 9.505 9.513 9.522 9.5 9.445 9.4 9.38 9.34 9.288 9.268 9.26 9.24 9.208 9.193 9.22 9.253 9.278 9.31 9.335 9.355 9.378 9.405 9.43 9.44 9.443 9.453 9.47 9.442 9.373 9.32 9.277 9.235 9.192 9.15 9.118 9.103 9.103 9.113 9.12 9.092 9.04 9 8.975 8.945 8.898 8.84 8.8 8.765 8.71 8.65 8.595 8.53 8.473 8.453 8.442 8.418 8.393 8.385 8.372 8.342 8.302 8.25 8.203 8.175 8.155 8.13 8.098 8.058 8 7.935 7.87 7.8 7.723 7.663 7.63 7.63 7.663 7.705 7.745 7.71 7.62 7.57 7.56 7.56 7.557 7.542 7.5 7.44 7.393 7.375 7.375 7.352 7.305 7.263 7.238 7.225 7.22 7.212 7.187 7.13 7.075 7.065 7.085 7.112 7.152 7.195 7.202 7.17 7.12 7.067 7.018 7.015 7.06 7.107 7.15 7.162 7.135 7.1 7.075 7.088 7.133 7.175 7.202 7.212 7.212 7.195 7.17 7.155 7.15 7.15 7.152 7.15 7.17 7.217 7.25 7.257 7.255 7.25 7.232 7.185 7.113 7.05 7.018 7.01 7.01
11.063 11.068 11.073 11.078 11.088 11.115 11.135 11.135 11.135 11.12 11.072 11 10.922 10.867 10.777 10.638 10.508 10.405 10.345 10.305 10.265 10.22 10.185 10.19 10.22 10.25 10.245 10.205 10.16 10.118 10.105 10.12 10.14 10.16 10.18 10.2 10.228 10.272 10.262 10.19 10.117 10.035 9.957 9.885 9.805 9.725 9.673 9.645 9.615 9.585 9.555 9.523 9.49 9.468 9.463 9.473 9.485 9.49 9.465 9.412 9.358 9.313 9.275 9.253 9.247 9.242 9.222 9.185 9.148 9.133 9.148 9.177 9.212 9.242 9.267 9.295 9.327 9.352 9.363 9.373 9.39 9.41 9.4 9.357 9.315 9.275 9.232 9.187 9.145 9.11 9.095 9.092 9.09 9.092 9.08 9.055 9.045 9.04 9.03 8.982 8.882 8.783 8.705 8.645 8.59 8.535 8.48 8.445 8.438 8.43 8.407 8.373 8.345 8.317 8.272 8.215 8.158 8.11 8.08 8.055 8.028 8 7.973 7.94 7.885 7.81 7.733 7.663 7.615 7.585 7.583 7.618 7.665 7.712 7.695 7.643 7.627 7.622 7.62 7.62 7.615 7.582 7.52 7.45 7.398 7.372 7.34 7.29 7.242 7.205 7.185 7.18 7.175 7.162 7.137 7.13 7.15 7.17 7.19 7.22 7.255 7.257 7.22 7.165 7.102 7.037 7.01 7.04 7.09 7.137 7.157 7.127 7.075 7.035 7.063 7.12 7.148 7.173 7.177 7.16 7.137 7.113 7.095 7.09 7.09 7.095 7.098 7.12 7.167 7.207 7.225 7.23 7.235 7.22 7.167 7.092 7.018 6.963 6.945 6.945
11.058 11.063 11.068 11.068 11.08 11.112 11.127 11.125 11.12 11.067 10.972 10.883 10.823 10.795 10.71 10.565 10.428 10.308 10.238 10.203 10.17 10.143 10.148 10.18 10.21 10.24 10.235 10.192 10.148 10.113 10.103 10.118 10.14 10.16 10.18 10.202 10.225 10.255 10.237 10.16 10.082 10.002 9.927 9.855 9.775 9.695 9.64 9.61 9.58 9.553 9.53 9.505 9.475 9.448 9.44 9.455 9.467 9.452 9.412 9.365 9.31 9.255 9.218 9.202 9.197 9.192 9.17 9.13 9.09 9.055 9.048 9.07 9.102 9.135 9.17 9.21 9.25 9.277 9.29 9.3 9.312 9.325 9.32 9.287 9.245 9.205 9.162 9.12 9.09 9.08 9.072 9.062 9.055 9.05 9.052 9.055 9.057 9.055 9.045 9.007 8.907 8.767 8.653 8.583 8.528 8.475 8.44 8.428 8.423 8.415 8.395 8.355 8.305 8.252 8.195 8.138 8.09 8.055 8.025 7.995 7.97 7.95 7.93 7.91 7.875 7.807 7.723 7.653 7.61 7.568 7.543 7.568 7.615 7.665 7.672 7.652 7.645 7.635 7.627 7.62 7.612 7.59 7.537 7.472 7.407 7.355 7.307 7.252 7.2 7.158 7.143 7.145 7.14 7.135 7.127 7.122 7.132 7.147 7.16 7.187 7.235 7.252 7.217 7.155 7.085 7.013 6.97 6.985 7.03 7.08 7.105 7.07 7.005 6.975 7.038 7.132 7.172 7.188 7.163 7.11 7.08 7.057 7.035 7.028 7.03 7.033 7.04 7.068 7.11 7.142 7.16 7.175 7.187 7.172 7.122 7.05 6.97 6.9 6.87 6.87
11.09 11.093 11.095 11.085 11.078 11.098 11.115 11.112 11.072 10.965 10.848 10.773 10.74 10.727 10.645 10.495 10.353 10.23 10.163 10.135 10.108 10.095 10.12 10.165 10.2 10.23 10.225 10.18 10.145 10.13 10.12 10.12 10.135 10.155 10.175 10.2 10.222 10.23 10.19 10.107 10.022 9.938 9.87 9.812 9.742 9.663 9.605 9.578 9.553 9.53 9.515 9.497 9.47 9.44 9.433 9.447 9.437 9.39 9.34 9.3 9.252 9.2 9.16 9.135 9.123 9.112 9.087 9.05 9.01 8.975 8.96 8.968 8.988 9.015 9.055 9.105 9.15 9.182 9.197 9.2 9.202 9.207 9.2 9.165 9.12 9.08 9.04 9.01 9.028 9.057 9.045 9.02 9.003 8.995 8.995 8.992 8.987 8.977 8.962 8.925 8.837 8.705 8.588 8.518 8.465 8.41 8.39 8.407 8.412 8.405 8.372 8.312 8.248 8.188 8.13 8.075 8.05 8.037 8.002 7.96 7.93 7.91 7.89 7.87 7.852 7.817 7.745 7.675 7.627 7.563 7.515 7.523 7.558 7.605 7.622 7.605 7.585 7.57 7.56 7.545 7.527 7.505 7.465 7.41 7.352 7.305 7.252 7.185 7.125 7.093 7.093 7.105 7.107 7.105 7.093 7.073 7.065 7.075 7.09 7.122 7.155 7.157 7.145 7.1 7.03 6.963 6.925 6.92 6.945 6.995 7.015 6.977 6.913 6.905 6.993 7.115 7.207 7.242 7.195 7.105 7.038 7 6.978 6.965 6.967 6.97 6.98 7.01 7.05 7.077 7.09 7.1 7.102 7.08 7.035 6.977 6.905 6.83 6.795 6.79
11.138 11.13 11.127 11.115 11.093 11.088 11.097 11.072 10.977 10.84 10.733 10.685 10.673 10.665 10.582 10.428 10.283 10.173 10.118 10.09 10.063 10.048 10.075 10.132 10.182 10.22 10.215 10.18 10.163 10.155 10.145 10.135 10.133 10.145 10.165 10.182 10.187 10.175 10.122 10.038 9.95 9.865 9.8 9.752 9.7 9.628 9.57 9.545 9.525 9.505 9.49 9.477 9.46 9.435 9.427 9.422 9.377 9.313 9.263 9.228 9.19 9.145 9.108 9.08 9.055 9.033 9.003 8.967 8.93 8.895 8.88 8.88 8.885 8.903 8.938 8.982 9.022 9.055 9.072 9.077 9.08 9.085 9.08 9.045 9 8.958 8.93 8.95 9.02 9.052 9.025 8.995 8.965 8.933 8.91 8.897 8.88 8.863 8.847 8.81 8.742 8.637 8.523 8.45 8.395 8.333 8.318 8.357 8.392 8.392 8.34 8.263 8.188 8.123 8.065 8.028 8.037 8.032 7.985 7.935 7.895 7.87 7.85 7.83 7.815 7.8 7.757 7.697 7.63 7.543 7.495 7.498 7.51 7.542 7.555 7.53 7.503 7.483 7.47 7.452 7.43 7.407 7.377 7.33 7.28 7.247 7.2 7.125 7.053 7.025 7.037 7.052 7.065 7.072 7.067 7.045 7.018 7.008 7.02 7.045 7.05 7.035 7.037 7.027 6.975 6.918 6.888 6.87 6.873 6.91 6.922 6.882 6.82 6.838 6.95 7.072 7.192 7.267 7.237 7.142 7.048 6.973 6.928 6.905 6.905 6.91 6.923 6.953 6.987 7.01 7.017 7.02 7.01 6.977 6.93 6.88 6.822 6.758 6.72 6.705
11.203 11.177 11.162 11.145 11.12 11.095 11.067 10.99 10.857 10.718 10.633 10.613 10.607 10.6 10.517 10.365 10.215 10.115 10.075 10.045 10.018 10 10.025 10.085 10.147 10.202 10.21 10.19 10.177 10.165 10.157 10.15 10.142 10.142 10.145 10.14 10.125 10.105 10.055 9.97 9.883 9.8 9.735 9.688 9.64 9.585 9.543 9.52 9.5 9.48 9.465 9.455 9.445 9.427 9.405 9.367 9.31 9.25 9.203 9.165 9.128 9.088 9.055 9.03 9 8.965 8.925 8.888 8.85 8.818 8.805 8.805 8.808 8.815 8.833 8.858 8.885 8.915 8.935 8.945 8.953 8.96 8.958 8.925 8.885 8.853 8.865 8.95 9.025 9.027 8.995 8.962 8.925 8.868 8.81 8.78 8.763 8.747 8.73 8.69 8.63 8.555 8.46 8.38 8.315 8.248 8.233 8.28 8.337 8.352 8.3 8.22 8.14 8.065 8.013 8.01 8.037 8.022 7.97 7.917 7.868 7.833 7.81 7.792 7.778 7.765 7.745 7.697 7.617 7.523 7.478 7.48 7.48 7.49 7.487 7.46 7.43 7.403 7.383 7.36 7.333 7.31 7.285 7.248 7.21 7.177 7.12 7.037 6.975 6.958 6.97 6.987 7.005 7.022 7.032 7.02 6.988 6.96 6.95 6.943 6.928 6.913 6.913 6.922 6.905 6.873 6.85 6.83 6.818 6.833 6.83 6.785 6.74 6.785 6.91 7.03 7.147 7.227 7.22 7.15 7.062 6.972 6.898 6.855 6.848 6.853 6.87 6.9 6.922 6.932 6.935 6.935 6.915 6.87 6.823 6.775 6.725 6.683 6.648 6.618
11.257 11.215 11.167 11.125 11.092 11.06 10.997 10.877 10.738 10.62 10.55 10.535 10.537 10.532 10.452 10.3 10.148 10.055 10.027 10 9.97 9.95 9.975 10.038 10.102 10.165 10.197 10.195 10.18 10.165 10.16 10.155 10.142 10.12 10.095 10.075 10.055 10.035 9.985 9.905 9.825 9.745 9.68 9.63 9.58 9.538 9.51 9.492 9.475 9.455 9.44 9.43 9.417 9.4 9.372 9.328 9.273 9.218 9.17 9.133 9.093 9.045 9.01 8.985 8.947 8.9 8.855 8.815 8.778 8.755 8.75 8.753 8.758 8.76 8.765 8.775 8.79 8.805 8.815 8.828 8.84 8.853 8.86 8.848 8.825 8.805 8.835 8.935 9.002 8.99 8.953 8.917 8.875 8.81 8.73 8.673 8.648 8.63 8.61 8.57 8.51 8.45 8.385 8.32 8.258 8.193 8.17 8.208 8.265 8.295 8.255 8.175 8.095 8.02 7.97 7.972 8.005 7.995 7.945 7.892 7.84 7.795 7.768 7.752 7.737 7.725 7.705 7.655 7.577 7.498 7.455 7.445 7.437 7.43 7.417 7.395 7.365 7.338 7.315 7.293 7.265 7.238 7.21 7.167 7.112 7.062 6.997 6.923 6.898 6.9 6.895 6.905 6.925 6.945 6.967 6.977 6.96 6.927 6.895 6.865 6.843 6.825 6.82 6.83 6.835 6.832 6.82 6.8 6.783 6.775 6.76 6.728 6.705 6.755 6.87 6.99 7.09 7.142 7.137 7.092 7.027 6.95 6.87 6.823 6.813 6.808 6.823 6.847 6.85 6.845 6.845 6.842 6.815 6.765 6.718 6.675 6.645 6.633 6.598 6.548
11.275 11.222 11.145 11.058 11 10.965 10.887 10.76 10.648 10.565 10.493 10.443 10.435 10.442 10.377 10.232 10.085 10 9.975 9.95 9.923 9.903 9.928 9.992 10.055 10.115 10.165 10.187 10.18 10.165 10.16 10.145 10.11 10.063 10.025 10.005 9.985 9.957 9.91 9.847 9.775 9.695 9.63 9.58 9.535 9.5 9.475 9.458 9.44 9.422 9.407 9.395 9.38 9.357 9.335 9.302 9.255 9.203 9.155 9.115 9.067 9.013 8.973 8.942 8.892 8.835 8.79 8.753 8.725 8.713 8.71 8.715 8.72 8.72 8.725 8.735 8.74 8.735 8.735 8.748 8.765 8.783 8.793 8.807 8.812 8.795 8.805 8.885 8.952 8.945 8.91 8.872 8.822 8.75 8.668 8.59 8.538 8.513 8.492 8.45 8.39 8.348 8.32 8.282 8.23 8.175 8.148 8.158 8.198 8.232 8.2 8.123 8.05 7.985 7.93 7.9 7.92 7.925 7.88 7.832 7.785 7.74 7.715 7.705 7.695 7.682 7.647 7.588 7.523 7.46 7.41 7.38 7.362 7.348 7.34 7.332 7.31 7.283 7.262 7.245 7.22 7.192 7.157 7.092 7.005 6.93 6.868 6.83 6.84 6.85 6.835 6.828 6.84 6.863 6.89 6.917 6.92 6.892 6.86 6.83 6.8 6.775 6.768 6.775 6.788 6.8 6.802 6.79 6.77 6.753 6.74 6.728 6.713 6.738 6.832 6.937 7.005 7.045 7.04 7 6.955 6.9 6.835 6.798 6.787 6.77 6.778 6.79 6.775 6.763 6.76 6.747 6.71 6.663 6.628 6.61 6.608 6.61 6.572 6.505
11.277 11.22 11.132 11.02 10.928 10.865 10.782 10.678 10.595 10.525 10.452 10.378 10.328 10.305 10.255 10.15 10.025 9.95 9.925 9.903 9.88 9.86 9.883 9.945 10.005 10.065 10.122 10.16 10.17 10.162 10.14 10.1 10.05 9.998 9.958 9.93 9.9 9.86 9.817 9.775 9.717 9.645 9.58 9.533 9.495 9.465 9.44 9.422 9.405 9.387 9.37 9.352 9.335 9.312 9.287 9.262 9.23 9.185 9.137 9.09 9.035 8.978 8.933 8.892 8.835 8.773 8.728 8.7 8.685 8.675 8.67 8.675 8.68 8.68 8.685 8.69 8.682 8.67 8.67 8.688 8.715 8.727 8.728 8.752 8.782 8.785 8.78 8.838 8.897 8.89 8.865 8.827 8.767 8.69 8.61 8.525 8.448 8.403 8.375 8.33 8.29 8.285 8.277 8.25 8.21 8.165 8.143 8.138 8.148 8.172 8.145 8.075 8.015 7.958 7.905 7.855 7.83 7.827 7.797 7.748 7.7 7.668 7.655 7.648 7.642 7.632 7.595 7.535 7.478 7.42 7.36 7.313 7.283 7.263 7.258 7.26 7.25 7.227 7.208 7.192 7.172 7.145 7.092 7.01 6.92 6.838 6.778 6.765 6.79 6.802 6.787 6.768 6.765 6.785 6.815 6.845 6.865 6.857 6.828 6.795 6.763 6.733 6.725 6.735 6.75 6.765 6.775 6.78 6.77 6.755 6.745 6.735 6.723 6.725 6.783 6.855 6.908 6.947 6.94 6.9 6.863 6.83 6.792 6.763 6.747 6.73 6.73 6.727 6.703 6.683 6.672 6.648 6.613 6.59 6.58 6.585 6.59 6.59 6.555 6.475
11.277 11.22 11.13 11.01 10.89 10.783 10.69 10.605 10.53 10.457 10.382 10.305 10.24 10.185 10.12 10.04 9.958 9.908 9.883 9.86 9.84 9.82 9.838 9.895 9.955 10.015 10.075 10.117 10.135 10.127 10.087 10.035 9.983 9.93 9.885 9.845 9.803 9.755 9.713 9.675 9.635 9.585 9.533 9.493 9.46 9.43 9.405 9.388 9.372 9.352 9.328 9.305 9.285 9.262 9.237 9.215 9.192 9.157 9.11 9.057 9.002 8.945 8.89 8.838 8.775 8.71 8.67 8.655 8.645 8.635 8.63 8.635 8.64 8.64 8.64 8.632 8.618 8.608 8.615 8.645 8.67 8.662 8.658 8.685 8.725 8.757 8.763 8.8 8.842 8.83 8.81 8.767 8.697 8.625 8.55 8.465 8.38 8.31 8.26 8.233 8.232 8.24 8.23 8.207 8.18 8.15 8.135 8.13 8.125 8.13 8.102 8.045 7.99 7.935 7.882 7.83 7.78 7.753 7.722 7.668 7.62 7.6 7.598 7.593 7.588 7.58 7.555 7.505 7.443 7.38 7.32 7.265 7.218 7.183 7.173 7.177 7.177 7.167 7.152 7.14 7.125 7.092 7.03 6.953 6.878 6.805 6.748 6.728 6.74 6.752 6.742 6.718 6.705 6.72 6.748 6.775 6.803 6.815 6.798 6.765 6.735 6.71 6.698 6.7 6.713 6.728 6.74 6.752 6.757 6.755 6.75 6.743 6.735 6.73 6.755 6.803 6.848 6.872 6.858 6.825 6.795 6.768 6.743 6.72 6.703 6.688 6.678 6.66 6.63 6.605 6.588 6.57 6.56 6.56 6.562 6.567 6.57 6.57 6.537 6.453
11.242 11.185 11.087 10.96 10.837 10.723 10.605 10.505 10.427 10.352 10.275 10.203 10.16 10.112 10.033 9.958 9.918 9.903 9.88 9.855 9.833 9.808 9.81 9.855 9.915 9.975 10.037 10.072 10.075 10.062 10.025 9.975 9.923 9.868 9.818 9.773 9.728 9.683 9.643 9.605 9.568 9.528 9.508 9.495 9.465 9.438 9.398 9.36 9.342 9.322 9.285 9.25 9.23 9.207 9.182 9.16 9.125 9.082 9.055 9.015 8.96 8.905 8.85 8.797 8.735 8.67 8.635 8.623 8.61 8.598 8.588 8.588 8.59 8.59 8.585 8.57 8.56 8.565 8.583 8.61 8.615 8.59 8.585 8.615 8.658 8.702 8.732 8.767 8.787 8.75 8.682 8.59 8.497 8.43 8.365 8.297 8.235 8.177 8.14 8.137 8.145 8.14 8.127 8.11 8.092 8.09 8.092 8.085 8.077 8.072 8.057 8.02 7.967 7.912 7.858 7.805 7.755 7.71 7.665 7.61 7.563 7.545 7.545 7.545 7.537 7.525 7.51 7.472 7.412 7.345 7.28 7.222 7.168 7.118 7.09 7.09 7.097 7.095 7.085 7.072 7.052 7.025 6.992 6.942 6.875 6.808 6.745 6.71 6.705 6.705 6.703 6.695 6.688 6.698 6.72 6.743 6.768 6.788 6.782 6.755 6.73 6.715 6.698 6.68 6.683 6.698 6.71 6.72 6.735 6.76 6.77 6.763 6.758 6.76 6.783 6.82 6.84 6.827 6.803 6.778 6.752 6.725 6.7 6.68 6.66 6.65 6.638 6.613 6.588 6.558 6.53 6.52 6.52 6.522 6.527 6.53 6.533 6.55 6.542 6.47
11.175 11.112 11.005 10.88 10.77 10.67 10.543 10.41 10.315 10.238 10.165 10.115 10.095 10.05 9.975 9.928 9.92 9.922 9.907 9.885 9.86 9.825 9.805 9.833 9.89 9.95 10.007 10.022 10.008 9.995 9.96 9.912 9.865 9.813 9.763 9.718 9.678 9.643 9.607 9.57 9.53 9.485 9.485 9.517 9.51 9.482 9.425 9.353 9.315 9.295 9.25 9.198 9.17 9.15 9.125 9.085 9.017 8.96 8.952 8.947 8.91 8.855 8.805 8.765 8.715 8.653 8.615 8.6 8.585 8.573 8.555 8.54 8.535 8.533 8.528 8.523 8.525 8.54 8.557 8.565 8.55 8.518 8.513 8.548 8.592 8.635 8.675 8.7 8.667 8.57 8.445 8.318 8.218 8.155 8.105 8.06 8.025 8.005 8.005 8.007 8 7.987 7.973 7.96 7.958 7.98 8.005 8.005 7.995 7.99 7.99 7.977 7.94 7.887 7.835 7.785 7.735 7.688 7.64 7.585 7.528 7.498 7.495 7.492 7.482 7.468 7.455 7.432 7.385 7.318 7.245 7.178 7.118 7.063 7.023 7.008 7.01 7.012 7.002 6.985 6.957 6.932 6.925 6.907 6.867 6.812 6.745 6.7 6.688 6.688 6.695 6.702 6.7 6.703 6.72 6.74 6.762 6.782 6.777 6.755 6.74 6.732 6.72 6.69 6.668 6.67 6.68 6.69 6.718 6.767 6.795 6.79 6.788 6.8 6.827 6.845 6.827 6.79 6.76 6.735 6.71 6.685 6.66 6.64 6.628 6.63 6.622 6.597 6.567 6.525 6.49 6.473 6.463 6.463 6.465 6.468 6.493 6.56 6.582 6.522
11.105 11.032 10.928 10.818 10.715 10.617 10.492 10.34 10.215 10.125 10.068 10.045 10.032 9.988 9.935 9.923 9.927 9.932 9.93 9.912 9.882 9.84 9.805 9.818 9.868 9.925 9.97 9.97 9.945 9.925 9.892 9.847 9.802 9.755 9.708 9.668 9.635 9.605 9.57 9.53 9.487 9.443 9.445 9.5 9.537 9.53 9.467 9.37 9.3 9.267 9.222 9.16 9.115 9.087 9.045 8.972 8.888 8.83 8.825 8.845 8.845 8.805 8.758 8.722 8.685 8.633 8.595 8.583 8.57 8.56 8.54 8.515 8.497 8.482 8.478 8.485 8.492 8.502 8.512 8.502 8.475 8.443 8.44 8.48 8.52 8.537 8.542 8.517 8.43 8.3 8.178 8.08 8 7.94 7.895 7.865 7.853 7.855 7.862 7.86 7.847 7.832 7.818 7.813 7.828 7.86 7.897 7.917 7.915 7.91 7.91 7.91 7.897 7.86 7.81 7.762 7.717 7.675 7.627 7.57 7.507 7.46 7.445 7.437 7.425 7.412 7.398 7.382 7.352 7.295 7.22 7.14 7.068 7.008 6.968 6.943 6.928 6.927 6.92 6.895 6.857 6.825 6.815 6.815 6.81 6.787 6.742 6.695 6.678 6.695 6.712 6.715 6.71 6.71 6.725 6.743 6.76 6.78 6.777 6.763 6.755 6.75 6.745 6.717 6.675 6.65 6.65 6.668 6.71 6.77 6.81 6.82 6.825 6.842 6.852 6.83 6.787 6.748 6.718 6.693 6.67 6.645 6.62 6.608 6.613 6.625 6.615 6.58 6.535 6.485 6.45 6.433 6.418 6.405 6.4 6.43 6.51 6.61 6.63 6.567
11.045 10.96 10.86 10.76 10.662 10.565 10.44 10.285 10.135 10.033 9.993 9.98 9.967 9.94 9.923 9.927 9.932 9.937 9.94 9.93 9.897 9.852 9.81 9.808 9.85 9.902 9.93 9.918 9.89 9.863 9.828 9.783 9.74 9.698 9.658 9.625 9.595 9.565 9.53 9.49 9.448 9.405 9.408 9.46 9.52 9.555 9.51 9.405 9.31 9.25 9.197 9.13 9.067 9.01 8.935 8.845 8.758 8.705 8.705 8.728 8.747 8.742 8.712 8.677 8.645 8.605 8.575 8.567 8.56 8.547 8.52 8.482 8.445 8.418 8.42 8.432 8.437 8.445 8.447 8.43 8.4 8.37 8.357 8.365 8.367 8.35 8.315 8.255 8.168 8.078 7.99 7.903 7.818 7.743 7.703 7.7 7.718 7.733 7.728 7.71 7.693 7.678 7.665 7.675 7.705 7.74 7.78 7.812 7.827 7.83 7.83 7.83 7.83 7.815 7.772 7.722 7.677 7.632 7.582 7.527 7.472 7.42 7.393 7.383 7.368 7.355 7.34 7.325 7.31 7.27 7.2 7.115 7.032 6.96 6.913 6.888 6.863 6.848 6.832 6.797 6.753 6.72 6.708 6.705 6.705 6.705 6.695 6.675 6.678 6.707 6.725 6.725 6.72 6.718 6.73 6.747 6.765 6.78 6.78 6.775 6.772 6.767 6.762 6.742 6.7 6.658 6.635 6.653 6.702 6.76 6.807 6.83 6.842 6.852 6.832 6.787 6.743 6.703 6.673 6.65 6.627 6.603 6.588 6.59 6.602 6.615 6.597 6.548 6.495 6.445 6.413 6.4 6.393 6.388 6.383 6.435 6.56 6.662 6.665 6.602
11.015 10.925 10.815 10.705 10.608 10.51 10.387 10.235 10.08 9.973 9.933 9.918 9.903 9.892 9.892 9.895 9.9 9.91 9.925 9.927 9.895 9.85 9.81 9.808 9.85 9.897 9.91 9.888 9.86 9.823 9.775 9.73 9.69 9.65 9.615 9.585 9.555 9.528 9.503 9.473 9.435 9.398 9.4 9.45 9.51 9.542 9.495 9.397 9.305 9.227 9.155 9.077 9 8.915 8.825 8.738 8.66 8.623 8.628 8.645 8.663 8.667 8.647 8.615 8.585 8.557 8.535 8.522 8.515 8.5 8.462 8.412 8.365 8.335 8.345 8.365 8.375 8.385 8.382 8.36 8.325 8.277 8.235 8.208 8.18 8.153 8.123 8.07 7.995 7.935 7.892 7.82 7.72 7.64 7.623 7.648 7.665 7.66 7.635 7.603 7.575 7.553 7.545 7.568 7.6 7.633 7.668 7.7 7.728 7.742 7.74 7.732 7.725 7.712 7.677 7.622 7.57 7.52 7.467 7.415 7.383 7.375 7.368 7.353 7.335 7.318 7.303 7.288 7.272 7.227 7.147 7.06 6.975 6.91 6.875 6.853 6.825 6.798 6.758 6.7 6.648 6.615 6.603 6.598 6.603 6.618 6.63 6.64 6.66 6.695 6.717 6.725 6.727 6.725 6.735 6.753 6.77 6.782 6.772 6.76 6.76 6.755 6.75 6.745 6.717 6.672 6.633 6.625 6.66 6.712 6.762 6.785 6.795 6.8 6.78 6.742 6.7 6.66 6.63 6.607 6.583 6.563 6.56 6.57 6.58 6.59 6.57 6.517 6.463 6.423 6.413 6.415 6.42 6.43 6.43 6.453 6.557 6.672 6.687 6.635
11.007 10.925 10.81 10.68 10.563 10.455 10.337 10.193 10.048 9.93 9.873 9.858 9.84 9.828 9.825 9.83 9.848 9.875 9.902 9.905 9.875 9.833 9.803 9.815 9.858 9.902 9.912 9.885 9.847 9.797 9.743 9.693 9.65 9.61 9.575 9.543 9.515 9.495 9.483 9.475 9.45 9.413 9.418 9.47 9.505 9.485 9.41 9.315 9.23 9.15 9.07 8.99 8.905 8.818 8.73 8.653 8.6 8.578 8.583 8.597 8.602 8.59 8.565 8.535 8.513 8.502 8.483 8.455 8.44 8.422 8.382 8.33 8.283 8.253 8.26 8.287 8.307 8.32 8.312 8.275 8.217 8.147 8.09 8.058 8.033 8.013 7.997 7.955 7.883 7.813 7.81 7.795 7.7 7.64 7.647 7.662 7.645 7.61 7.573 7.537 7.503 7.475 7.483 7.52 7.555 7.583 7.61 7.64 7.665 7.662 7.63 7.603 7.585 7.565 7.53 7.475 7.42 7.368 7.32 7.3 7.315 7.355 7.37 7.348 7.325 7.305 7.29 7.272 7.23 7.15 7.055 6.965 6.895 6.863 6.85 6.832 6.805 6.775 6.723 6.648 6.578 6.53 6.52 6.53 6.55 6.578 6.598 6.61 6.623 6.652 6.682 6.697 6.71 6.728 6.745 6.758 6.775 6.787 6.765 6.73 6.72 6.715 6.713 6.72 6.712 6.675 6.633 6.605 6.603 6.635 6.685 6.707 6.71 6.715 6.707 6.687 6.655 6.618 6.588 6.565 6.548 6.533 6.53 6.54 6.55 6.557 6.537 6.49 6.448 6.433 6.455 6.482 6.495 6.505 6.502 6.49 6.538 6.642 6.692 6.662
11.002 10.927 10.827 10.693 10.553 10.423 10.295 10.163 10.033 9.915 9.845 9.818 9.79 9.768 9.77 9.795 9.83 9.87 9.887 9.875 9.85 9.813 9.8 9.83 9.87 9.91 9.915 9.877 9.825 9.77 9.715 9.66 9.61 9.568 9.535 9.505 9.483 9.468 9.46 9.462 9.457 9.43 9.435 9.465 9.445 9.392 9.315 9.215 9.12 9.035 8.96 8.885 8.805 8.723 8.643 8.588 8.555 8.535 8.537 8.542 8.53 8.51 8.485 8.463 8.455 8.455 8.437 8.403 8.373 8.347 8.307 8.253 8.2 8.168 8.173 8.2 8.227 8.245 8.222 8.157 8.08 8.005 7.948 7.915 7.895 7.88 7.87 7.835 7.767 7.693 7.698 7.735 7.69 7.653 7.652 7.63 7.59 7.55 7.51 7.473 7.438 7.423 7.45 7.502 7.547 7.577 7.605 7.63 7.64 7.607 7.54 7.48 7.443 7.42 7.383 7.328 7.28 7.245 7.235 7.265 7.313 7.357 7.372 7.35 7.32 7.295 7.277 7.237 7.155 7.053 6.955 6.88 6.843 6.833 6.822 6.807 6.787 6.76 6.707 6.633 6.563 6.505 6.488 6.51 6.54 6.562 6.572 6.58 6.588 6.608 6.635 6.653 6.688 6.75 6.78 6.775 6.785 6.795 6.767 6.718 6.688 6.675 6.675 6.687 6.695 6.675 6.64 6.61 6.585 6.58 6.61 6.632 6.63 6.628 6.62 6.61 6.593 6.57 6.547 6.53 6.52 6.505 6.5 6.51 6.517 6.522 6.505 6.47 6.458 6.465 6.498 6.545 6.57 6.58 6.575 6.555 6.555 6.615 6.672 6.672
10.992 10.922 10.837 10.717 10.575 10.433 10.293 10.165 10.045 9.935 9.865 9.825 9.785 9.75 9.755 9.793 9.83 9.862 9.862 9.84 9.815 9.79 9.8 9.837 9.875 9.91 9.905 9.855 9.795 9.74 9.685 9.63 9.575 9.53 9.503 9.48 9.46 9.445 9.438 9.438 9.445 9.44 9.432 9.41 9.355 9.297 9.222 9.122 9.02 8.928 8.848 8.773 8.7 8.63 8.575 8.543 8.515 8.49 8.477 8.465 8.447 8.43 8.41 8.4 8.4 8.402 8.387 8.347 8.302 8.27 8.232 8.177 8.12 8.083 8.088 8.115 8.145 8.16 8.12 8.04 7.96 7.885 7.82 7.78 7.763 7.75 7.74 7.715 7.655 7.58 7.565 7.63 7.662 7.64 7.61 7.57 7.527 7.485 7.445 7.408 7.375 7.378 7.42 7.475 7.53 7.57 7.595 7.605 7.597 7.555 7.48 7.403 7.338 7.288 7.25 7.22 7.198 7.195 7.22 7.265 7.315 7.362 7.38 7.357 7.323 7.29 7.245 7.165 7.065 6.963 6.875 6.828 6.81 6.805 6.795 6.78 6.765 6.745 6.7 6.633 6.575 6.525 6.495 6.502 6.525 6.54 6.545 6.55 6.555 6.568 6.598 6.643 6.718 6.81 6.845 6.822 6.807 6.802 6.772 6.717 6.67 6.64 6.638 6.652 6.667 6.667 6.645 6.618 6.593 6.568 6.56 6.57 6.583 6.588 6.58 6.57 6.558 6.525 6.493 6.48 6.472 6.467 6.468 6.475 6.482 6.49 6.487 6.48 6.487 6.502 6.535 6.587 6.632 6.65 6.642 6.625 6.605 6.613 6.638 6.655
10.925 10.867 10.802 10.725 10.61 10.47 10.33 10.195 10.07 9.963 9.895 9.855 9.81 9.765 9.765 9.8 9.822 9.81 9.775 9.75 9.73 9.73 9.76 9.795 9.83 9.865 9.862 9.817 9.76 9.705 9.65 9.595 9.543 9.505 9.493 9.48 9.46 9.445 9.435 9.435 9.442 9.425 9.38 9.322 9.26 9.2 9.125 9.027 8.925 8.83 8.748 8.675 8.615 8.575 8.548 8.52 8.485 8.437 8.4 8.38 8.362 8.342 8.317 8.3 8.297 8.302 8.285 8.242 8.205 8.187 8.157 8.1 8.043 8.005 8.008 8.033 8.06 8.067 8.02 7.94 7.865 7.8 7.73 7.663 7.628 7.615 7.605 7.59 7.547 7.478 7.465 7.537 7.59 7.58 7.545 7.505 7.463 7.42 7.38 7.345 7.323 7.34 7.39 7.445 7.505 7.547 7.555 7.54 7.517 7.472 7.4 7.325 7.258 7.203 7.18 7.175 7.17 7.185 7.223 7.268 7.315 7.365 7.385 7.362 7.33 7.275 7.185 7.085 6.99 6.91 6.853 6.818 6.795 6.78 6.768 6.755 6.745 6.743 6.725 6.678 6.628 6.565 6.493 6.47 6.485 6.495 6.502 6.508 6.515 6.543 6.583 6.645 6.735 6.822 6.847 6.82 6.797 6.777 6.747 6.697 6.645 6.602 6.59 6.6 6.615 6.632 6.645 6.64 6.618 6.595 6.573 6.565 6.585 6.6 6.595 6.585 6.552 6.48 6.425 6.41 6.403 6.415 6.43 6.433 6.44 6.45 6.457 6.467 6.48 6.495 6.535 6.595 6.66 6.697 6.687 6.662 6.637 6.625 6.635 6.653
10.825 10.758 10.708 10.672 10.622 10.515 10.375 10.233 10.098 9.99 9.923 9.877 9.825 9.778 9.778 9.8 9.775 9.697 9.638 9.615 9.613 9.64 9.68 9.715 9.75 9.785 9.79 9.762 9.717 9.665 9.61 9.555 9.51 9.485 9.487 9.492 9.48 9.465 9.455 9.455 9.437 9.372 9.298 9.233 9.17 9.092 9.005 8.927 8.842 8.747 8.665 8.608 8.575 8.56 8.54 8.507 8.447 8.365 8.315 8.295 8.275 8.25 8.215 8.18 8.16 8.155 8.138 8.108 8.098 8.105 8.08 8.023 7.973 7.938 7.933 7.95 7.975 7.975 7.922 7.848 7.783 7.73 7.66 7.57 7.505 7.478 7.465 7.455 7.435 7.385 7.39 7.455 7.49 7.49 7.465 7.435 7.4 7.36 7.318 7.28 7.275 7.31 7.36 7.415 7.475 7.505 7.485 7.445 7.41 7.367 7.303 7.24 7.198 7.173 7.163 7.155 7.153 7.178 7.225 7.272 7.318 7.365 7.387 7.37 7.32 7.225 7.115 7.028 6.958 6.905 6.865 6.83 6.8 6.775 6.76 6.75 6.755 6.78 6.787 6.757 6.7 6.597 6.468 6.413 6.422 6.43 6.44 6.463 6.505 6.565 6.6 6.623 6.688 6.77 6.78 6.735 6.71 6.69 6.665 6.627 6.58 6.535 6.515 6.517 6.528 6.558 6.617 6.667 6.67 6.65 6.628 6.605 6.608 6.62 6.615 6.59 6.522 6.43 6.363 6.335 6.333 6.363 6.392 6.393 6.393 6.398 6.403 6.413 6.425 6.448 6.5 6.57 6.64 6.692 6.692 6.657 6.633 6.638 6.66 6.677
10.758 10.663 10.603 10.583 10.575 10.527 10.417 10.277 10.135 10.018 9.943 9.89 9.835 9.79 9.782 9.76 9.675 9.568 9.503 9.495 9.52 9.56 9.6 9.635 9.67 9.705 9.712 9.695 9.667 9.625 9.573 9.525 9.49 9.47 9.473 9.487 9.492 9.482 9.472 9.452 9.387 9.295 9.213 9.145 9.06 8.93 8.825 8.77 8.712 8.65 8.603 8.578 8.565 8.555 8.53 8.47 8.37 8.273 8.225 8.205 8.185 8.16 8.125 8.085 8.048 8.02 8.003 7.998 8.013 8.027 8.002 7.953 7.908 7.87 7.86 7.873 7.892 7.885 7.83 7.765 7.71 7.66 7.59 7.495 7.405 7.348 7.325 7.315 7.308 7.293 7.305 7.345 7.375 7.385 7.37 7.35 7.325 7.292 7.253 7.22 7.23 7.278 7.33 7.385 7.44 7.447 7.408 7.36 7.315 7.27 7.225 7.193 7.173 7.158 7.145 7.135 7.14 7.175 7.225 7.275 7.322 7.37 7.395 7.36 7.267 7.16 7.073 7.01 6.96 6.913 6.873 6.84 6.813 6.788 6.77 6.773 6.8 6.842 6.862 6.83 6.737 6.6 6.453 6.368 6.358 6.375 6.413 6.473 6.548 6.622 6.655 6.643 6.65 6.705 6.71 6.643 6.598 6.573 6.55 6.522 6.485 6.445 6.425 6.425 6.428 6.465 6.55 6.642 6.702 6.71 6.685 6.655 6.638 6.637 6.622 6.565 6.475 6.38 6.298 6.255 6.27 6.322 6.36 6.36 6.353 6.348 6.35 6.36 6.37 6.403 6.465 6.532 6.595 6.65 6.667 6.643 6.633 6.655 6.682 6.702
