ncols         200
nrows         71
xllcorner     546000
yllcorner     253115
cellsize      5
NODATA_value  -9999.0
15.22 15.275 15.325 15.378 15.433 15.49 15.55 15.567 15.523 15.485 15.625 15.885 16.082 16.222 16.267 16.235 16.19 16.14 16.09 16.03 15.955 15.878 15.823 15.788 15.748 15.705 15.703 15.75 15.802 15.832 15.84 15.823 15.783 15.738 15.693 15.665 15.66 15.67 15.7 15.735 15.763 15.79 15.782 15.737 15.69 15.638 15.61 15.608 15.603 15.598 15.605 15.63 15.655 15.672 15.657 15.61 15.558 15.518 15.5 15.493 15.488 15.495 15.505 15.53 15.58 15.63 15.68 15.733 15.785 15.828 15.885 15.965 16.042 16.095 16.12 16.14 16.162 16.182 16.202 16.205 16.18 16.163 16.205 16.295 16.385 16.473 16.588 16.743 16.905 17.067 17.192 17.267 17.33 17.39 17.452 17.51 17.552 17.585 17.625 17.67 17.703 17.733 17.78 17.835 17.885 17.94 18.035 18.168 18.3 18.42 18.53 18.635 18.733 18.823 18.918 19.023 19.127 19.22 19.272 19.298 19.328 19.363 19.405 19.452 19.498 19.553 19.628 19.72 19.82 19.923 20.038 20.17 20.31 20.448 20.585 20.722 20.857 20.985 21.067 21.11 21.153 21.198 21.238 21.275 21.313 21.353 21.418 21.505 21.595 21.685 21.783 21.892 22.007 22.125 22.245 22.365 22.485 22.605 22.722 22.837 22.95 23.062 23.18 23.305 23.43 23.555 23.698 23.855 24.018 24.185 24.378 24.6 24.825 25.04 25.23 25.4 25.57 25.75 25.915 26.055 26.197 26.345 26.51 26.69 26.87 27.053 27.268 27.512 27.76 28.013 28.285 28.578 28.873 29.165 29.495 29.87 30.248 30.625 31.01 31.4
15.237 15.285 15.323 15.36 15.41 15.47 15.532 15.567 15.533 15.485 15.563 15.785 16.017 16.177 16.24 16.23 16.197 16.15 16.1 16.047 15.982 15.905 15.855 15.832 15.8 15.76 15.763 15.802 15.825 15.815 15.815 15.837 15.825 15.782 15.733 15.685 15.663 15.67 15.71 15.76 15.795 15.825 15.817 15.77 15.712 15.648 15.615 15.615 15.61 15.605 15.615 15.637 15.655 15.657 15.63 15.58 15.543 15.533 15.53 15.52 15.523 15.565 15.588 15.57 15.58 15.62 15.672 15.722 15.762 15.795 15.853 15.932 15.985 16.005 16.02 16.04 16.057 16.07 16.115 16.17 16.17 16.155 16.195 16.275 16.352 16.423 16.503 16.615 16.76 16.922 17.06 17.157 17.23 17.29 17.363 17.442 17.502 17.542 17.59 17.652 17.697 17.73 17.78 17.835 17.883 17.933 18.03 18.165 18.29 18.4 18.5 18.6 18.69 18.765 18.853 18.957 19.052 19.127 19.175 19.203 19.238 19.28 19.325 19.373 19.425 19.495 19.57 19.648 19.74 19.84 19.945 20.063 20.193 20.33 20.47 20.61 20.752 20.892 20.99 21.045 21.09 21.132 21.173 21.21 21.25 21.29 21.35 21.43 21.515 21.608 21.698 21.793 21.9 22.015 22.135 22.257 22.38 22.5 22.622 22.742 22.855 22.965 23.083 23.208 23.333 23.46 23.598 23.748 23.905 24.068 24.263 24.485 24.697 24.895 25.075 25.248 25.43 25.632 25.802 25.928 26.06 26.205 26.37 26.55 26.727 26.905 27.12 27.365 27.613 27.87 28.148 28.442 28.732 29.02 29.35 29.73 30.115 30.495 30.88 31.27
15.252 15.297 15.33 15.36 15.398 15.448 15.515 15.585 15.56 15.485 15.498 15.683 15.94 16.122 16.2 16.2 16.19 16.157 16.11 16.057 16 15.933 15.883 15.863 15.842 15.815 15.81 15.817 15.802 15.778 15.778 15.815 15.842 15.825 15.777 15.723 15.678 15.67 15.71 15.765 15.815 15.857 15.852 15.797 15.722 15.65 15.62 15.62 15.617 15.615 15.625 15.637 15.637 15.632 15.605 15.568 15.555 15.557 15.555 15.56 15.605 15.69 15.735 15.693 15.64 15.633 15.663 15.7 15.73 15.76 15.82 15.882 15.9 15.905 15.92 15.935 15.945 15.958 16.005 16.085 16.135 16.147 16.188 16.26 16.327 16.39 16.458 16.538 16.638 16.775 16.917 17.03 17.12 17.19 17.265 17.355 17.435 17.492 17.55 17.625 17.687 17.73 17.783 17.845 17.902 17.958 18.047 18.162 18.265 18.365 18.465 18.557 18.635 18.703 18.785 18.882 18.965 19.03 19.075 19.11 19.153 19.198 19.245 19.3 19.368 19.445 19.52 19.588 19.665 19.76 19.865 19.975 20.09 20.215 20.35 20.493 20.643 20.787 20.89 20.957 21.017 21.067 21.11 21.15 21.188 21.228 21.288 21.363 21.443 21.533 21.622 21.71 21.803 21.908 22.028 22.15 22.267 22.385 22.508 22.632 22.752 22.868 22.988 23.112 23.24 23.37 23.505 23.65 23.8 23.955 24.145 24.355 24.55 24.737 24.918 25.108 25.32 25.532 25.695 25.81 25.93 26.068 26.23 26.407 26.583 26.76 26.973 27.218 27.47 27.73 28.01 28.302 28.587 28.873 29.203 29.587 29.977 30.36 30.745 31.137
15.265 15.31 15.34 15.37 15.4 15.433 15.498 15.595 15.58 15.485 15.458 15.605 15.855 16.057 16.155 16.155 16.155 16.145 16.115 16.065 16.01 15.955 15.913 15.893 15.875 15.855 15.827 15.798 15.773 15.748 15.743 15.775 15.82 15.845 15.82 15.762 15.708 15.68 15.71 15.768 15.823 15.875 15.875 15.81 15.728 15.653 15.62 15.62 15.62 15.62 15.622 15.62 15.613 15.607 15.593 15.583 15.585 15.585 15.595 15.643 15.73 15.827 15.875 15.835 15.755 15.69 15.67 15.683 15.703 15.73 15.772 15.8 15.8 15.802 15.812 15.82 15.825 15.843 15.895 15.975 16.055 16.115 16.167 16.23 16.29 16.353 16.423 16.495 16.568 16.663 16.783 16.895 16.995 17.085 17.17 17.257 17.345 17.425 17.505 17.593 17.67 17.73 17.785 17.845 17.902 17.955 18.008 18.093 18.205 18.317 18.422 18.505 18.575 18.64 18.712 18.792 18.865 18.933 18.985 19.028 19.073 19.118 19.173 19.24 19.315 19.395 19.47 19.535 19.603 19.685 19.785 19.895 20.008 20.123 20.25 20.393 20.543 20.687 20.79 20.86 20.93 20.997 21.05 21.09 21.128 21.165 21.223 21.297 21.375 21.458 21.545 21.635 21.723 21.815 21.925 22.04 22.155 22.275 22.395 22.518 22.643 22.767 22.89 23.015 23.145 23.275 23.41 23.555 23.7 23.848 24.023 24.213 24.4 24.588 24.783 25.003 25.235 25.437 25.585 25.7 25.815 25.938 26.09 26.265 26.44 26.62 26.83 27.078 27.335 27.595 27.87 28.155 28.44 28.725 29.055 29.44 29.833 30.22 30.605 31
15.265 15.305 15.335 15.365 15.395 15.443 15.505 15.585 15.595 15.505 15.45 15.558 15.773 15.995 16.122 16.13 16.13 16.13 16.127 16.102 16.055 16.005 15.963 15.933 15.913 15.892 15.843 15.788 15.758 15.73 15.72 15.748 15.79 15.835 15.832 15.775 15.72 15.693 15.718 15.775 15.832 15.877 15.872 15.812 15.733 15.655 15.615 15.61 15.61 15.61 15.605 15.595 15.59 15.588 15.598 15.62 15.627 15.625 15.66 15.74 15.827 15.887 15.905 15.89 15.845 15.772 15.723 15.715 15.718 15.712 15.695 15.685 15.682 15.68 15.685 15.692 15.7 15.72 15.788 15.88 15.963 16.042 16.11 16.17 16.235 16.318 16.4 16.473 16.548 16.62 16.698 16.783 16.875 16.978 17.075 17.16 17.248 17.36 17.475 17.568 17.653 17.722 17.778 17.833 17.887 17.94 17.965 17.998 18.09 18.212 18.33 18.422 18.495 18.562 18.63 18.7 18.775 18.858 18.923 18.965 19.01 19.055 19.115 19.19 19.265 19.34 19.415 19.487 19.555 19.63 19.723 19.833 19.948 20.06 20.185 20.328 20.47 20.605 20.712 20.79 20.86 20.935 20.997 21.04 21.08 21.115 21.16 21.228 21.302 21.38 21.465 21.555 21.645 21.738 21.838 21.945 22.06 22.18 22.295 22.41 22.535 22.663 22.788 22.915 23.045 23.175 23.31 23.455 23.6 23.748 23.91 24.083 24.265 24.455 24.663 24.895 25.13 25.322 25.46 25.575 25.688 25.81 25.965 26.14 26.315 26.493 26.703 26.955 27.215 27.475 27.745 28.025 28.31 28.595 28.923 29.305 29.698 30.08 30.453 30.837
15.25 15.285 15.315 15.345 15.398 15.485 15.545 15.59 15.625 15.545 15.45 15.51 15.688 15.94 16.105 16.127 16.135 16.135 16.145 16.155 16.132 16.085 16.033 15.985 15.958 15.935 15.877 15.803 15.753 15.72 15.713 15.738 15.775 15.817 15.815 15.763 15.72 15.705 15.733 15.79 15.837 15.86 15.85 15.807 15.737 15.658 15.61 15.595 15.59 15.59 15.585 15.578 15.575 15.578 15.605 15.65 15.677 15.685 15.727 15.797 15.837 15.842 15.835 15.842 15.847 15.825 15.792 15.767 15.74 15.695 15.618 15.56 15.545 15.54 15.545 15.555 15.565 15.588 15.67 15.787 15.88 15.96 16.03 16.095 16.183 16.295 16.392 16.467 16.54 16.61 16.668 16.713 16.778 16.875 16.975 17.065 17.175 17.325 17.462 17.558 17.647 17.722 17.773 17.82 17.872 17.925 17.95 17.95 17.98 18.07 18.195 18.31 18.395 18.465 18.535 18.613 18.708 18.812 18.882 18.918 18.96 19.005 19.065 19.142 19.212 19.273 19.348 19.437 19.515 19.59 19.68 19.788 19.9 20.01 20.138 20.28 20.41 20.53 20.64 20.732 20.81 20.882 20.945 20.995 21.04 21.075 21.11 21.16 21.225 21.3 21.385 21.475 21.568 21.665 21.765 21.868 21.98 22.097 22.208 22.315 22.435 22.56 22.685 22.815 22.945 23.075 23.21 23.355 23.503 23.653 23.81 23.973 24.145 24.33 24.538 24.767 24.992 25.18 25.317 25.433 25.555 25.693 25.855 26.03 26.205 26.383 26.595 26.848 27.103 27.36 27.633 27.915 28.198 28.48 28.805 29.185 29.57 29.94 30.298 30.66
15.227 15.262 15.295 15.348 15.448 15.547 15.597 15.625 15.662 15.592 15.465 15.458 15.6 15.89 16.08 16.11 16.132 16.142 16.155 16.18 16.19 16.162 16.11 16.053 16.008 15.977 15.922 15.835 15.76 15.715 15.71 15.735 15.765 15.8 15.797 15.758 15.735 15.725 15.748 15.795 15.82 15.83 15.817 15.78 15.73 15.663 15.615 15.595 15.578 15.57 15.568 15.565 15.565 15.57 15.6 15.652 15.702 15.737 15.767 15.787 15.782 15.77 15.765 15.77 15.785 15.805 15.802 15.77 15.725 15.667 15.57 15.465 15.415 15.405 15.41 15.418 15.425 15.453 15.543 15.675 15.79 15.88 15.955 16.043 16.158 16.282 16.385 16.46 16.53 16.6 16.655 16.685 16.718 16.785 16.878 16.993 17.143 17.31 17.45 17.552 17.65 17.737 17.787 17.818 17.86 17.907 17.93 17.93 17.93 17.96 18.053 18.178 18.287 18.37 18.445 18.543 18.66 18.777 18.85 18.88 18.915 18.958 19.018 19.087 19.145 19.198 19.275 19.377 19.47 19.55 19.643 19.748 19.853 19.96 20.085 20.217 20.335 20.45 20.56 20.662 20.755 20.83 20.89 20.943 20.992 21.032 21.07 21.11 21.158 21.223 21.305 21.398 21.495 21.595 21.695 21.795 21.903 22.015 22.125 22.23 22.34 22.46 22.585 22.715 22.845 22.975 23.11 23.255 23.405 23.555 23.71 23.87 24.033 24.208 24.413 24.635 24.845 25.032 25.175 25.298 25.44 25.588 25.748 25.92 26.093 26.275 26.495 26.745 26.995 27.248 27.52 27.805 28.085 28.365 28.688 29.06 29.432 29.795 30.15 30.5
15.203 15.24 15.298 15.398 15.525 15.615 15.65 15.67 15.697 15.64 15.495 15.425 15.55 15.857 16.055 16.085 16.115 16.142 16.165 16.19 16.215 16.22 16.185 16.127 16.073 16.027 15.965 15.877 15.793 15.725 15.71 15.735 15.76 15.787 15.792 15.772 15.757 15.745 15.755 15.777 15.79 15.8 15.785 15.745 15.705 15.658 15.62 15.6 15.578 15.563 15.56 15.56 15.56 15.565 15.593 15.637 15.682 15.727 15.747 15.733 15.713 15.698 15.695 15.71 15.733 15.76 15.762 15.732 15.695 15.64 15.54 15.415 15.318 15.275 15.275 15.283 15.29 15.32 15.415 15.55 15.677 15.792 15.897 16.017 16.145 16.27 16.377 16.452 16.52 16.59 16.642 16.67 16.69 16.725 16.813 16.96 17.13 17.3 17.442 17.55 17.652 17.752 17.81 17.83 17.858 17.895 17.915 17.912 17.905 17.898 17.95 18.063 18.178 18.28 18.378 18.495 18.62 18.742 18.82 18.85 18.88 18.915 18.965 19.02 19.073 19.128 19.205 19.308 19.41 19.505 19.605 19.71 19.81 19.91 20.023 20.142 20.258 20.372 20.48 20.585 20.687 20.772 20.837 20.89 20.94 20.987 21.03 21.07 21.11 21.158 21.23 21.325 21.425 21.525 21.625 21.725 21.83 21.937 22.042 22.147 22.252 22.363 22.485 22.615 22.745 22.875 23.013 23.16 23.31 23.46 23.615 23.775 23.935 24.1 24.285 24.488 24.693 24.887 25.042 25.18 25.33 25.478 25.635 25.807 25.98 26.165 26.39 26.64 26.89 27.14 27.408 27.69 27.97 28.25 28.565 28.923 29.285 29.645 30 30.35
15.185 15.225 15.303 15.425 15.552 15.64 15.672 15.69 15.707 15.665 15.525 15.425 15.525 15.825 16.035 16.073 16.108 16.142 16.172 16.198 16.225 16.252 16.237 16.182 16.127 16.072 16 15.915 15.83 15.748 15.723 15.748 15.77 15.792 15.79 15.77 15.755 15.74 15.737 15.745 15.755 15.765 15.75 15.71 15.673 15.645 15.63 15.615 15.595 15.578 15.57 15.57 15.57 15.573 15.593 15.618 15.638 15.67 15.692 15.683 15.663 15.65 15.65 15.67 15.7 15.725 15.72 15.688 15.658 15.635 15.582 15.478 15.353 15.248 15.205 15.208 15.21 15.223 15.308 15.447 15.567 15.675 15.795 15.93 16.062 16.205 16.335 16.42 16.492 16.567 16.627 16.66 16.683 16.715 16.798 16.94 17.107 17.28 17.422 17.53 17.632 17.735 17.8 17.827 17.85 17.865 17.875 17.875 17.862 17.853 17.9 18 18.103 18.21 18.328 18.452 18.577 18.702 18.785 18.82 18.85 18.88 18.92 18.97 19.025 19.078 19.15 19.25 19.355 19.46 19.562 19.665 19.762 19.855 19.958 20.07 20.185 20.295 20.395 20.497 20.602 20.702 20.78 20.835 20.885 20.935 20.982 21.025 21.065 21.108 21.173 21.263 21.36 21.458 21.558 21.66 21.762 21.86 21.953 22.053 22.157 22.265 22.383 22.51 22.64 22.77 22.91 23.06 23.21 23.357 23.512 23.675 23.835 23.993 24.165 24.36 24.563 24.762 24.925 25.065 25.215 25.36 25.518 25.692 25.868 26.053 26.275 26.525 26.775 27.028 27.293 27.57 27.85 28.13 28.44 28.79 29.147 29.48 29.81 30.16
15.178 15.215 15.288 15.403 15.525 15.622 15.667 15.685 15.697 15.67 15.552 15.438 15.478 15.745 15.997 16.067 16.108 16.147 16.178 16.205 16.245 16.285 16.272 16.217 16.162 16.105 16.032 15.947 15.86 15.775 15.748 15.77 15.79 15.807 15.79 15.75 15.728 15.713 15.705 15.708 15.715 15.725 15.71 15.673 15.65 15.645 15.645 15.637 15.62 15.603 15.595 15.592 15.588 15.585 15.605 15.632 15.64 15.65 15.66 15.653 15.643 15.64 15.64 15.648 15.67 15.685 15.673 15.653 15.64 15.65 15.67 15.637 15.517 15.348 15.248 15.235 15.223 15.195 15.243 15.357 15.447 15.528 15.635 15.77 15.92 16.1 16.255 16.35 16.427 16.5 16.582 16.652 16.688 16.733 16.813 16.923 17.073 17.245 17.382 17.485 17.585 17.685 17.757 17.795 17.807 17.787 17.785 17.807 17.81 17.808 17.86 17.96 18.06 18.163 18.28 18.407 18.532 18.652 18.737 18.785 18.82 18.85 18.89 18.94 18.99 19.035 19.105 19.208 19.312 19.415 19.515 19.612 19.702 19.79 19.89 20.002 20.112 20.207 20.3 20.403 20.518 20.635 20.717 20.772 20.825 20.875 20.925 20.975 21.02 21.063 21.125 21.208 21.298 21.393 21.493 21.595 21.69 21.777 21.865 21.955 22.055 22.163 22.278 22.403 22.53 22.66 22.8 22.95 23.097 23.24 23.395 23.56 23.72 23.878 24.055 24.255 24.458 24.66 24.82 24.95 25.095 25.24 25.4 25.577 25.753 25.938 26.16 26.41 26.66 26.913 27.175 27.45 27.728 28.005 28.318 28.667 28.995 29.272 29.575 29.925
15.172 15.21 15.273 15.375 15.492 15.602 15.66 15.672 15.68 15.67 15.575 15.448 15.425 15.64 15.94 16.065 16.108 16.152 16.188 16.225 16.28 16.322 16.305 16.25 16.195 16.137 16.067 15.98 15.888 15.8 15.77 15.79 15.807 15.82 15.8 15.75 15.71 15.688 15.678 15.675 15.678 15.685 15.675 15.653 15.65 15.655 15.655 15.65 15.64 15.627 15.62 15.615 15.605 15.598 15.62 15.662 15.687 15.692 15.683 15.663 15.645 15.64 15.64 15.64 15.648 15.653 15.645 15.64 15.64 15.645 15.657 15.677 15.627 15.475 15.345 15.297 15.265 15.208 15.195 15.238 15.295 15.37 15.475 15.628 15.815 16.017 16.175 16.267 16.335 16.393 16.48 16.61 16.692 16.75 16.84 16.935 17.055 17.205 17.335 17.435 17.535 17.635 17.712 17.742 17.725 17.68 17.675 17.715 17.742 17.76 17.82 17.92 18.02 18.12 18.233 18.357 18.48 18.595 18.68 18.735 18.782 18.82 18.86 18.907 18.95 18.99 19.06 19.162 19.265 19.365 19.46 19.55 19.635 19.72 19.82 19.927 20.025 20.113 20.205 20.315 20.448 20.575 20.655 20.71 20.765 20.815 20.865 20.92 20.972 21.015 21.075 21.155 21.238 21.33 21.427 21.52 21.607 21.693 21.78 21.868 21.96 22.06 22.175 22.3 22.425 22.555 22.693 22.837 22.98 23.12 23.275 23.442 23.605 23.765 23.948 24.15 24.355 24.56 24.72 24.845 24.98 25.123 25.283 25.46 25.638 25.823 26.045 26.295 26.545 26.798 27.06 27.333 27.605 27.88 28.19 28.51 28.785 29.035 29.335 29.685
15.162 15.2 15.255 15.348 15.463 15.577 15.645 15.657 15.66 15.662 15.59 15.46 15.403 15.56 15.877 16.06 16.107 16.155 16.205 16.26 16.32 16.357 16.337 16.283 16.228 16.172 16.097 16.005 15.913 15.823 15.79 15.807 15.82 15.83 15.81 15.76 15.71 15.67 15.655 15.655 15.658 15.665 15.665 15.66 15.665 15.667 15.665 15.663 15.657 15.648 15.638 15.63 15.62 15.61 15.63 15.675 15.717 15.745 15.737 15.71 15.683 15.668 15.665 15.665 15.655 15.643 15.64 15.64 15.64 15.637 15.603 15.575 15.567 15.497 15.397 15.332 15.277 15.215 15.178 15.173 15.193 15.235 15.343 15.53 15.738 15.943 16.092 16.173 16.23 16.28 16.355 16.513 16.672 16.773 16.868 16.965 17.065 17.175 17.285 17.382 17.477 17.575 17.655 17.667 17.623 17.57 17.565 17.608 17.653 17.703 17.78 17.88 17.98 18.08 18.188 18.305 18.425 18.54 18.623 18.678 18.735 18.785 18.828 18.87 18.913 18.955 19.018 19.11 19.21 19.307 19.395 19.48 19.565 19.65 19.745 19.84 19.93 20.018 20.118 20.243 20.385 20.515 20.595 20.647 20.702 20.755 20.805 20.86 20.915 20.963 21.025 21.102 21.18 21.262 21.35 21.437 21.522 21.607 21.695 21.785 21.872 21.963 22.073 22.198 22.323 22.45 22.585 22.725 22.865 23.005 23.158 23.325 23.49 23.655 23.843 24.047 24.255 24.46 24.62 24.745 24.875 25.013 25.173 25.348 25.525 25.708 25.925 26.175 26.427 26.682 26.945 27.215 27.482 27.752 28.035 28.305 28.555 28.805 29.103 29.448
15.147 15.185 15.24 15.328 15.44 15.555 15.622 15.637 15.64 15.642 15.592 15.483 15.413 15.5 15.792 16.027 16.095 16.145 16.205 16.27 16.332 16.38 16.375 16.325 16.27 16.215 16.137 16.043 15.95 15.858 15.818 15.83 15.843 15.85 15.827 15.78 15.733 15.688 15.665 15.665 15.67 15.68 15.685 15.685 15.685 15.675 15.673 15.682 15.68 15.67 15.66 15.65 15.638 15.633 15.653 15.693 15.74 15.782 15.787 15.767 15.747 15.727 15.717 15.705 15.672 15.645 15.64 15.64 15.64 15.64 15.61 15.525 15.448 15.398 15.357 15.322 15.265 15.213 15.19 15.188 15.2 15.225 15.338 15.538 15.74 15.925 16.045 16.11 16.165 16.215 16.293 16.455 16.662 16.807 16.905 17.002 17.087 17.147 17.208 17.29 17.38 17.475 17.555 17.575 17.538 17.485 17.48 17.525 17.578 17.643 17.735 17.84 17.94 18.04 18.148 18.265 18.388 18.507 18.595 18.655 18.713 18.768 18.815 18.855 18.898 18.938 18.978 19.048 19.142 19.237 19.325 19.407 19.49 19.57 19.655 19.742 19.83 19.915 20.02 20.157 20.302 20.432 20.522 20.58 20.632 20.687 20.743 20.8 20.855 20.905 20.962 21.03 21.102 21.175 21.255 21.345 21.432 21.515 21.602 21.695 21.78 21.865 21.97 22.095 22.22 22.345 22.478 22.613 22.75 22.89 23.04 23.205 23.37 23.54 23.73 23.935 24.145 24.35 24.52 24.655 24.783 24.915 25.075 25.253 25.427 25.598 25.803 26.05 26.302 26.55 26.802 27.067 27.332 27.6 27.86 28.108 28.355 28.605 28.898 29.238
15.13 15.17 15.228 15.315 15.42 15.532 15.6 15.612 15.615 15.615 15.59 15.507 15.423 15.438 15.68 15.962 16.072 16.125 16.183 16.25 16.323 16.387 16.402 16.367 16.32 16.265 16.19 16.095 16 15.908 15.863 15.87 15.88 15.88 15.857 15.817 15.773 15.73 15.705 15.7 15.703 15.71 15.715 15.71 15.695 15.67 15.67 15.697 15.707 15.7 15.69 15.68 15.675 15.685 15.703 15.728 15.77 15.815 15.825 15.81 15.797 15.78 15.757 15.722 15.675 15.645 15.64 15.64 15.64 15.64 15.635 15.56 15.428 15.343 15.308 15.285 15.248 15.22 15.228 15.25 15.285 15.328 15.435 15.62 15.807 15.945 16.025 16.085 16.142 16.195 16.288 16.465 16.68 16.845 16.952 17.04 17.09 17.102 17.123 17.173 17.253 17.347 17.422 17.465 17.465 17.425 17.423 17.47 17.528 17.593 17.685 17.797 17.9 18 18.11 18.233 18.36 18.487 18.587 18.66 18.72 18.775 18.825 18.865 18.9 18.927 18.953 18.995 19.07 19.165 19.255 19.335 19.41 19.477 19.553 19.638 19.722 19.805 19.913 20.052 20.187 20.31 20.42 20.502 20.56 20.615 20.677 20.74 20.795 20.845 20.893 20.943 21.005 21.078 21.158 21.245 21.33 21.407 21.495 21.592 21.68 21.765 21.87 21.995 22.12 22.245 22.375 22.503 22.635 22.775 22.925 23.088 23.25 23.42 23.61 23.815 24.025 24.23 24.41 24.562 24.697 24.828 24.985 25.162 25.33 25.485 25.678 25.922 26.167 26.4 26.643 26.898 27.16 27.43 27.687 27.933 28.18 28.43 28.72 29.058
15.115 15.15 15.213 15.305 15.408 15.515 15.577 15.585 15.585 15.588 15.592 15.532 15.43 15.398 15.583 15.877 16.035 16.102 16.165 16.24 16.32 16.395 16.417 16.392 16.362 16.315 16.24 16.148 16.053 15.96 15.915 15.915 15.915 15.91 15.89 15.855 15.813 15.77 15.745 15.74 15.738 15.74 15.737 15.717 15.69 15.66 15.66 15.695 15.722 15.727 15.72 15.72 15.735 15.755 15.77 15.783 15.808 15.842 15.852 15.837 15.82 15.8 15.78 15.75 15.713 15.675 15.648 15.64 15.64 15.64 15.64 15.602 15.493 15.393 15.34 15.3 15.253 15.248 15.305 15.357 15.4 15.443 15.533 15.692 15.84 15.93 15.995 16.055 16.117 16.175 16.283 16.473 16.687 16.872 16.992 17.047 17.052 17.048 17.06 17.088 17.14 17.22 17.29 17.337 17.37 17.36 17.368 17.423 17.483 17.548 17.635 17.747 17.857 17.963 18.078 18.205 18.335 18.465 18.57 18.65 18.722 18.785 18.835 18.87 18.895 18.915 18.94 18.97 19.015 19.093 19.18 19.255 19.32 19.38 19.45 19.532 19.615 19.695 19.805 19.937 20.055 20.168 20.285 20.397 20.482 20.545 20.608 20.672 20.732 20.785 20.83 20.87 20.918 20.983 21.06 21.142 21.22 21.293 21.38 21.48 21.575 21.665 21.77 21.895 22.022 22.148 22.275 22.4 22.528 22.665 22.815 22.975 23.135 23.303 23.49 23.698 23.91 24.112 24.29 24.45 24.602 24.74 24.895 25.065 25.217 25.365 25.553 25.787 26.022 26.248 26.485 26.738 26.995 27.257 27.512 27.758 28.005 28.255 28.545 28.88
15.11 15.138 15.2 15.295 15.397 15.5 15.555 15.557 15.555 15.563 15.595 15.557 15.448 15.395 15.515 15.78 15.98 16.072 16.152 16.24 16.323 16.405 16.432 16.407 16.385 16.355 16.297 16.213 16.115 16.018 15.965 15.958 15.953 15.948 15.928 15.89 15.853 15.815 15.79 15.783 15.778 15.772 15.75 15.713 15.68 15.65 15.65 15.685 15.72 15.742 15.755 15.772 15.795 15.817 15.835 15.845 15.857 15.872 15.87 15.847 15.82 15.803 15.803 15.802 15.795 15.76 15.698 15.653 15.64 15.64 15.64 15.63 15.57 15.485 15.427 15.332 15.233 15.238 15.307 15.385 15.462 15.537 15.625 15.735 15.83 15.9 15.965 16.028 16.095 16.16 16.283 16.483 16.698 16.897 17.002 17.007 16.992 16.987 17.002 17.028 17.058 17.105 17.16 17.205 17.25 17.28 17.315 17.378 17.44 17.503 17.585 17.695 17.813 17.928 18.053 18.185 18.315 18.445 18.552 18.633 18.71 18.785 18.837 18.865 18.885 18.905 18.93 18.96 18.99 19.035 19.1 19.165 19.225 19.288 19.353 19.425 19.505 19.585 19.688 19.805 19.915 20.028 20.145 20.268 20.38 20.467 20.535 20.6 20.667 20.725 20.77 20.81 20.847 20.893 20.958 21.035 21.11 21.18 21.265 21.365 21.465 21.563 21.67 21.795 21.925 22.05 22.175 22.3 22.425 22.555 22.7 22.86 23.02 23.185 23.373 23.583 23.795 23.995 24.17 24.33 24.49 24.642 24.797 24.955 25.103 25.25 25.428 25.643 25.87 26.098 26.335 26.588 26.84 27.09 27.337 27.583 27.83 28.078 28.368 28.705
15.1 15.123 15.183 15.28 15.38 15.48 15.532 15.533 15.53 15.54 15.59 15.575 15.473 15.405 15.453 15.68 15.915 16.03 16.125 16.23 16.325 16.41 16.442 16.42 16.395 16.382 16.357 16.297 16.21 16.11 16.053 16.045 16.035 16.018 15.99 15.95 15.915 15.88 15.848 15.833 15.827 15.815 15.783 15.738 15.698 15.66 15.64 15.658 15.69 15.72 15.75 15.775 15.797 15.835 15.857 15.86 15.87 15.875 15.86 15.83 15.81 15.815 15.835 15.857 15.88 15.87 15.8 15.713 15.658 15.64 15.64 15.64 15.622 15.57 15.465 15.293 15.185 15.198 15.24 15.308 15.405 15.515 15.617 15.7 15.77 15.837 15.927 16.03 16.108 16.175 16.305 16.51 16.725 16.92 16.967 16.915 16.897 16.895 16.935 16.98 17.005 17.035 17.073 17.118 17.165 17.215 17.28 17.353 17.415 17.478 17.558 17.663 17.78 17.9 18.03 18.165 18.295 18.43 18.545 18.628 18.705 18.785 18.837 18.86 18.88 18.9 18.92 18.945 18.975 19.003 19.038 19.09 19.15 19.212 19.27 19.328 19.4 19.48 19.575 19.685 19.798 19.915 20.035 20.155 20.275 20.38 20.457 20.522 20.59 20.652 20.697 20.735 20.772 20.81 20.865 20.938 21.01 21.083 21.168 21.265 21.365 21.465 21.575 21.7 21.827 21.945 22.062 22.187 22.312 22.438 22.583 22.745 22.903 23.065 23.255 23.465 23.675 23.875 24.05 24.212 24.375 24.537 24.695 24.845 24.992 25.135 25.3 25.505 25.728 25.955 26.195 26.445 26.69 26.922 27.158 27.402 27.65 27.9 28.175 28.492
15.08 15.1 15.16 15.26 15.36 15.46 15.51 15.51 15.518 15.538 15.585 15.58 15.495 15.415 15.4 15.59 15.84 15.977 16.087 16.202 16.317 16.41 16.447 16.433 16.415 16.412 16.4 16.367 16.317 16.235 16.18 16.165 16.14 16.107 16.07 16.03 15.995 15.96 15.92 15.893 15.88 15.867 15.837 15.792 15.748 15.703 15.658 15.63 15.64 15.67 15.7 15.728 15.765 15.825 15.85 15.838 15.838 15.842 15.83 15.81 15.818 15.845 15.875 15.905 15.937 15.94 15.882 15.795 15.71 15.652 15.627 15.615 15.605 15.562 15.405 15.22 15.158 15.173 15.2 15.24 15.303 15.395 15.505 15.6 15.675 15.743 15.868 16.035 16.147 16.22 16.348 16.547 16.722 16.902 16.945 16.833 16.778 16.768 16.825 16.915 16.962 16.993 17.03 17.075 17.125 17.175 17.25 17.34 17.41 17.473 17.553 17.653 17.765 17.885 18.013 18.145 18.28 18.422 18.542 18.63 18.71 18.79 18.842 18.865 18.882 18.897 18.91 18.925 18.95 18.977 19.003 19.035 19.085 19.145 19.2 19.248 19.305 19.38 19.475 19.588 19.705 19.825 19.945 20.065 20.182 20.287 20.37 20.437 20.502 20.565 20.612 20.648 20.685 20.725 20.78 20.85 20.923 20.998 21.08 21.175 21.273 21.373 21.485 21.607 21.725 21.83 21.94 22.065 22.19 22.318 22.468 22.63 22.788 22.948 23.135 23.345 23.555 23.757 23.935 24.098 24.263 24.43 24.59 24.74 24.88 25.01 25.17 25.375 25.595 25.818 26.055 26.305 26.535 26.745 26.973 27.218 27.465 27.72 27.98 28.26
15.06 15.08 15.14 15.24 15.34 15.44 15.492 15.503 15.523 15.55 15.585 15.585 15.517 15.428 15.383 15.528 15.757 15.915 16.045 16.165 16.292 16.402 16.452 16.45 16.445 16.445 16.432 16.407 16.38 16.335 16.292 16.26 16.225 16.19 16.15 16.11 16.073 16.037 16 15.963 15.935 15.92 15.89 15.845 15.803 15.757 15.705 15.648 15.615 15.623 15.653 15.695 15.755 15.825 15.852 15.835 15.82 15.815 15.813 15.82 15.85 15.885 15.915 15.94 15.957 15.95 15.9 15.815 15.702 15.592 15.532 15.507 15.475 15.417 15.278 15.153 15.133 15.145 15.17 15.205 15.26 15.328 15.4 15.49 15.575 15.643 15.775 15.995 16.172 16.268 16.393 16.56 16.65 16.84 16.95 16.813 16.7 16.643 16.685 16.797 16.89 16.945 16.987 17.035 17.085 17.133 17.205 17.307 17.4 17.47 17.55 17.65 17.755 17.87 17.995 18.13 18.275 18.42 18.537 18.627 18.712 18.795 18.85 18.872 18.885 18.892 18.9 18.91 18.925 18.95 18.975 18.995 19.028 19.08 19.132 19.178 19.225 19.288 19.378 19.493 19.615 19.735 19.855 19.975 20.09 20.195 20.28 20.347 20.412 20.477 20.527 20.563 20.6 20.64 20.695 20.765 20.84 20.915 20.995 21.088 21.18 21.278 21.392 21.507 21.61 21.71 21.82 21.945 22.07 22.2 22.35 22.51 22.67 22.83 23.015 23.225 23.435 23.64 23.822 23.988 24.155 24.325 24.482 24.625 24.755 24.88 25.043 25.248 25.465 25.685 25.917 26.155 26.365 26.563 26.788 27.035 27.288 27.543 27.803 28.068
15.045 15.065 15.118 15.21 15.31 15.41 15.47 15.495 15.522 15.552 15.585 15.595 15.542 15.448 15.39 15.475 15.667 15.842 15.997 16.138 16.263 16.385 16.46 16.475 16.478 16.48 16.47 16.448 16.42 16.395 16.367 16.332 16.3 16.267 16.23 16.19 16.15 16.115 16.08 16.04 16.003 15.975 15.942 15.9 15.86 15.815 15.76 15.697 15.638 15.6 15.618 15.682 15.755 15.825 15.857 15.845 15.825 15.813 15.823 15.853 15.887 15.922 15.947 15.957 15.957 15.922 15.83 15.707 15.57 15.435 15.36 15.323 15.27 15.22 15.163 15.118 15.11 15.118 15.145 15.198 15.28 15.343 15.37 15.413 15.475 15.54 15.668 15.935 16.175 16.3 16.427 16.52 16.53 16.772 16.955 16.817 16.68 16.565 16.563 16.663 16.78 16.875 16.935 16.985 17.035 17.088 17.163 17.265 17.37 17.46 17.55 17.65 17.75 17.855 17.98 18.125 18.273 18.417 18.535 18.625 18.715 18.8 18.855 18.872 18.88 18.887 18.895 18.902 18.91 18.925 18.945 18.967 18.993 19.025 19.068 19.113 19.158 19.208 19.288 19.403 19.525 19.647 19.767 19.882 19.997 20.102 20.185 20.253 20.32 20.39 20.442 20.48 20.52 20.56 20.615 20.685 20.758 20.833 20.915 21.005 21.095 21.188 21.292 21.397 21.495 21.595 21.705 21.83 21.955 22.083 22.23 22.39 22.553 22.715 22.898 23.105 23.315 23.522 23.71 23.88 24.05 24.22 24.372 24.502 24.628 24.753 24.915 25.123 25.338 25.555 25.775 25.987 26.185 26.38 26.605 26.855 27.11 27.367 27.627 27.887
15.045 15.065 15.098 15.163 15.252 15.35 15.417 15.45 15.48 15.515 15.557 15.6 15.57 15.473 15.4 15.413 15.57 15.767 15.955 16.13 16.258 16.382 16.472 16.505 16.512 16.517 16.512 16.495 16.472 16.448 16.42 16.39 16.362 16.337 16.305 16.265 16.225 16.182 16.14 16.102 16.065 16.027 15.99 15.95 15.907 15.855 15.792 15.727 15.665 15.615 15.61 15.663 15.735 15.807 15.857 15.865 15.85 15.838 15.853 15.887 15.922 15.947 15.947 15.94 15.935 15.88 15.743 15.58 15.428 15.288 15.213 15.183 15.148 15.123 15.133 15.158 15.153 15.133 15.15 15.223 15.317 15.387 15.412 15.418 15.41 15.433 15.56 15.873 16.162 16.317 16.415 16.415 16.415 16.73 16.96 16.823 16.69 16.545 16.49 16.565 16.675 16.787 16.865 16.915 16.97 17.048 17.138 17.233 17.335 17.435 17.535 17.635 17.738 17.848 17.98 18.128 18.272 18.412 18.525 18.615 18.705 18.787 18.835 18.847 18.852 18.862 18.875 18.882 18.89 18.897 18.91 18.932 18.955 18.975 19.013 19.06 19.105 19.15 19.215 19.318 19.435 19.56 19.68 19.79 19.905 20.012 20.097 20.17 20.24 20.31 20.37 20.415 20.455 20.495 20.545 20.608 20.678 20.753 20.835 20.925 21.015 21.103 21.195 21.295 21.395 21.495 21.608 21.733 21.858 21.983 22.125 22.285 22.448 22.608 22.79 23 23.21 23.42 23.607 23.773 23.94 24.112 24.262 24.385 24.51 24.635 24.798 25.008 25.222 25.432 25.63 25.823 26.015 26.21 26.435 26.685 26.94 27.182 27.412 27.655
15.05 15.07 15.09 15.125 15.188 15.275 15.342 15.375 15.413 15.463 15.52 15.59 15.607 15.517 15.41 15.375 15.495 15.7 15.923 16.127 16.267 16.397 16.485 16.525 16.545 16.552 16.552 16.542 16.525 16.5 16.47 16.443 16.42 16.402 16.375 16.335 16.287 16.23 16.18 16.142 16.105 16.067 16.027 15.982 15.93 15.867 15.8 15.735 15.683 15.65 15.635 15.648 15.698 15.77 15.835 15.875 15.885 15.873 15.885 15.922 15.95 15.955 15.93 15.905 15.895 15.84 15.702 15.528 15.398 15.31 15.21 15.15 15.14 15.135 15.165 15.227 15.255 15.233 15.225 15.273 15.355 15.432 15.467 15.467 15.382 15.265 15.44 15.902 16.235 16.347 16.35 16.3 16.34 16.717 16.97 16.842 16.677 16.515 16.475 16.523 16.595 16.698 16.78 16.84 16.92 17.025 17.127 17.215 17.31 17.41 17.51 17.613 17.725 17.85 17.988 18.132 18.272 18.4 18.507 18.597 18.68 18.755 18.795 18.802 18.81 18.823 18.835 18.845 18.855 18.862 18.873 18.888 18.905 18.925 18.965 19.02 19.067 19.113 19.168 19.245 19.348 19.47 19.59 19.702 19.815 19.92 20.015 20.095 20.167 20.237 20.3 20.355 20.402 20.443 20.485 20.54 20.605 20.675 20.758 20.847 20.932 21.015 21.105 21.208 21.31 21.41 21.523 21.645 21.77 21.895 22.035 22.195 22.352 22.505 22.69 22.907 23.12 23.33 23.515 23.673 23.835 24.007 24.155 24.275 24.4 24.528 24.695 24.905 25.11 25.302 25.485 25.668 25.855 26.048 26.273 26.525 26.76 26.965 27.165 27.388
15.042 15.072 15.095 15.12 15.155 15.213 15.27 15.313 15.368 15.435 15.5 15.57 15.635 15.575 15.435 15.375 15.453 15.653 15.907 16.122 16.272 16.41 16.492 16.53 16.565 16.585 16.587 16.58 16.57 16.55 16.523 16.5 16.483 16.467 16.442 16.4 16.337 16.27 16.22 16.18 16.14 16.102 16.057 16.002 15.94 15.873 15.808 15.753 15.718 15.693 15.675 15.67 15.683 15.733 15.797 15.852 15.895 15.905 15.918 15.947 15.96 15.957 15.93 15.888 15.86 15.8 15.675 15.56 15.523 15.5 15.365 15.205 15.15 15.158 15.205 15.272 15.322 15.35 15.357 15.365 15.408 15.48 15.522 15.482 15.345 15.213 15.443 16.007 16.34 16.36 16.333 16.308 16.335 16.635 16.872 16.792 16.603 16.468 16.485 16.52 16.56 16.625 16.705 16.795 16.902 17.017 17.12 17.205 17.293 17.39 17.493 17.605 17.73 17.86 17.995 18.132 18.26 18.38 18.49 18.575 18.645 18.712 18.75 18.758 18.77 18.785 18.795 18.805 18.815 18.825 18.835 18.845 18.858 18.875 18.915 18.975 19.027 19.075 19.133 19.198 19.275 19.383 19.5 19.61 19.715 19.817 19.92 20.012 20.092 20.16 20.222 20.285 20.342 20.387 20.43 20.483 20.538 20.6 20.68 20.765 20.845 20.925 21.015 21.12 21.225 21.325 21.435 21.558 21.682 21.805 21.945 22.102 22.255 22.405 22.59 22.81 23.027 23.24 23.425 23.58 23.735 23.9 24.045 24.167 24.295 24.423 24.59 24.792 24.98 25.16 25.34 25.518 25.698 25.885 26.105 26.34 26.542 26.728 26.928 27.143
15.02 15.065 15.1 15.13 15.155 15.185 15.235 15.295 15.358 15.42 15.48 15.55 15.632 15.65 15.515 15.385 15.413 15.615 15.905 16.12 16.275 16.415 16.497 16.533 16.57 16.605 16.617 16.612 16.607 16.595 16.577 16.562 16.547 16.53 16.505 16.455 16.382 16.313 16.26 16.22 16.177 16.135 16.082 16.017 15.95 15.88 15.825 15.79 15.762 15.735 15.718 15.712 15.705 15.718 15.765 15.82 15.875 15.917 15.937 15.95 15.955 15.955 15.935 15.89 15.845 15.795 15.738 15.72 15.735 15.712 15.57 15.35 15.2 15.178 15.23 15.287 15.327 15.382 15.445 15.47 15.493 15.54 15.555 15.5 15.435 15.44 15.713 16.165 16.37 16.37 16.38 16.39 16.4 16.503 16.602 16.575 16.49 16.455 16.495 16.53 16.565 16.608 16.668 16.758 16.877 17.005 17.11 17.195 17.275 17.365 17.475 17.6 17.732 17.865 17.995 18.12 18.24 18.36 18.462 18.537 18.605 18.667 18.702 18.717 18.732 18.747 18.757 18.765 18.775 18.782 18.79 18.8 18.812 18.828 18.865 18.925 18.98 19.033 19.095 19.162 19.23 19.31 19.408 19.51 19.61 19.713 19.817 19.92 20.012 20.085 20.147 20.21 20.27 20.325 20.375 20.425 20.472 20.525 20.595 20.675 20.755 20.835 20.925 21.027 21.132 21.235 21.345 21.47 21.595 21.718 21.855 22.005 22.155 22.308 22.493 22.71 22.93 23.147 23.332 23.487 23.64 23.792 23.932 24.057 24.185 24.31 24.468 24.655 24.835 25.015 25.195 25.372 25.55 25.733 25.93 26.13 26.32 26.508 26.705 26.915
14.995 15.045 15.097 15.14 15.168 15.195 15.248 15.318 15.38 15.438 15.495 15.56 15.638 15.712 15.615 15.423 15.375 15.553 15.867 16.115 16.287 16.425 16.502 16.535 16.57 16.61 16.63 16.63 16.625 16.617 16.617 16.615 16.6 16.582 16.555 16.497 16.422 16.35 16.292 16.25 16.205 16.16 16.105 16.035 15.965 15.888 15.838 15.82 15.797 15.772 15.757 15.75 15.74 15.733 15.76 15.818 15.873 15.92 15.932 15.925 15.927 15.93 15.935 15.917 15.87 15.835 15.837 15.86 15.877 15.852 15.702 15.47 15.265 15.19 15.23 15.275 15.298 15.343 15.442 15.522 15.562 15.595 15.597 15.583 15.595 15.665 16 16.322 16.367 16.377 16.392 16.41 16.427 16.435 16.428 16.415 16.428 16.465 16.505 16.54 16.58 16.63 16.675 16.73 16.815 16.932 17.05 17.137 17.22 17.32 17.442 17.575 17.707 17.84 17.962 18.08 18.2 18.32 18.412 18.477 18.545 18.607 18.645 18.665 18.682 18.7 18.712 18.717 18.72 18.72 18.727 18.74 18.752 18.768 18.81 18.872 18.927 18.985 19.05 19.117 19.185 19.255 19.328 19.413 19.51 19.61 19.715 19.82 19.917 19.997 20.06 20.12 20.18 20.245 20.3 20.345 20.39 20.435 20.5 20.58 20.66 20.738 20.825 20.925 21.03 21.14 21.253 21.372 21.497 21.622 21.755 21.9 22.05 22.203 22.388 22.605 22.825 23.045 23.227 23.377 23.53 23.677 23.805 23.922 24.047 24.173 24.325 24.505 24.685 24.865 25.045 25.225 25.405 25.582 25.76 25.945 26.135 26.325 26.523 26.728
14.975 15.028 15.087 15.145 15.185 15.215 15.273 15.352 15.422 15.485 15.545 15.603 15.668 15.737 15.665 15.463 15.363 15.485 15.773 16.075 16.302 16.442 16.51 16.54 16.573 16.61 16.63 16.63 16.628 16.625 16.635 16.647 16.642 16.627 16.595 16.532 16.452 16.373 16.313 16.27 16.227 16.182 16.127 16.06 15.982 15.888 15.83 15.817 15.797 15.77 15.762 15.772 15.77 15.76 15.783 15.837 15.885 15.922 15.922 15.893 15.883 15.888 15.915 15.942 15.922 15.888 15.89 15.912 15.922 15.892 15.742 15.518 15.315 15.205 15.215 15.25 15.26 15.288 15.392 15.515 15.58 15.612 15.632 15.64 15.64 15.815 16.18 16.362 16.35 16.353 16.37 16.387 16.4 16.405 16.4 16.4 16.43 16.475 16.515 16.555 16.608 16.662 16.708 16.75 16.793 16.86 16.953 17.045 17.148 17.265 17.395 17.532 17.665 17.795 17.913 18.023 18.14 18.26 18.347 18.403 18.465 18.53 18.57 18.59 18.61 18.627 18.64 18.647 18.647 18.645 18.653 18.665 18.675 18.69 18.74 18.812 18.875 18.933 18.995 19.063 19.133 19.21 19.275 19.335 19.415 19.51 19.615 19.717 19.81 19.892 19.96 20.02 20.085 20.157 20.212 20.25 20.29 20.335 20.4 20.48 20.557 20.633 20.718 20.815 20.923 21.043 21.16 21.273 21.393 21.515 21.648 21.795 21.945 22.095 22.275 22.49 22.71 22.93 23.11 23.255 23.405 23.555 23.675 23.778 23.895 24.02 24.175 24.355 24.535 24.715 24.895 25.075 25.252 25.428 25.605 25.788 25.975 26.165 26.365 26.57
14.95 15.012 15.073 15.137 15.195 15.238 15.298 15.382 15.462 15.532 15.592 15.647 15.705 15.765 15.685 15.478 15.373 15.443 15.675 15.99 16.277 16.455 16.52 16.55 16.58 16.612 16.632 16.635 16.635 16.635 16.645 16.662 16.672 16.67 16.635 16.562 16.478 16.393 16.33 16.29 16.25 16.205 16.15 16.08 15.987 15.88 15.818 15.795 15.755 15.71 15.71 15.745 15.767 15.78 15.805 15.845 15.882 15.917 15.917 15.88 15.85 15.845 15.875 15.925 15.95 15.937 15.935 15.945 15.937 15.905 15.77 15.565 15.375 15.228 15.193 15.215 15.22 15.235 15.323 15.435 15.497 15.545 15.595 15.63 15.64 15.943 16.295 16.342 16.333 16.333 16.347 16.36 16.37 16.375 16.375 16.395 16.438 16.483 16.53 16.585 16.647 16.7 16.742 16.785 16.825 16.86 16.9 16.98 17.095 17.215 17.345 17.485 17.622 17.752 17.867 17.973 18.083 18.197 18.28 18.33 18.388 18.45 18.49 18.507 18.525 18.54 18.55 18.56 18.567 18.57 18.575 18.585 18.595 18.613 18.665 18.745 18.82 18.88 18.94 19.013 19.09 19.167 19.232 19.283 19.338 19.415 19.513 19.61 19.7 19.787 19.862 19.927 19.997 20.07 20.125 20.16 20.195 20.238 20.3 20.38 20.455 20.528 20.61 20.71 20.828 20.952 21.07 21.18 21.293 21.41 21.545 21.692 21.84 21.99 22.163 22.37 22.593 22.812 22.992 23.138 23.283 23.43 23.552 23.648 23.75 23.87 24.023 24.202 24.385 24.565 24.745 24.922 25.098 25.275 25.455 25.635 25.818 26.005 26.202 26.405
14.91 14.987 15.055 15.12 15.185 15.25 15.32 15.402 15.485 15.562 15.627 15.685 15.742 15.795 15.692 15.483 15.385 15.398 15.588 15.9 16.207 16.435 16.52 16.55 16.58 16.612 16.635 16.642 16.645 16.645 16.655 16.673 16.69 16.705 16.672 16.59 16.503 16.415 16.35 16.31 16.27 16.227 16.17 16.085 15.98 15.87 15.795 15.75 15.693 15.638 15.635 15.675 15.715 15.752 15.787 15.825 15.865 15.905 15.91 15.875 15.835 15.813 15.835 15.888 15.937 15.957 15.955 15.95 15.937 15.917 15.815 15.633 15.445 15.268 15.188 15.193 15.193 15.195 15.235 15.288 15.328 15.385 15.46 15.55 15.683 16.025 16.29 16.3 16.305 16.31 16.32 16.33 16.34 16.348 16.363 16.4 16.448 16.495 16.555 16.625 16.687 16.735 16.772 16.805 16.837 16.86 16.878 16.943 17.053 17.168 17.295 17.435 17.572 17.702 17.82 17.927 18.032 18.137 18.215 18.265 18.317 18.37 18.405 18.42 18.432 18.448 18.46 18.47 18.48 18.487 18.495 18.508 18.52 18.54 18.595 18.675 18.755 18.825 18.893 18.97 19.047 19.122 19.187 19.237 19.283 19.338 19.413 19.5 19.59 19.68 19.76 19.832 19.907 19.982 20.037 20.073 20.108 20.143 20.2 20.278 20.353 20.425 20.505 20.613 20.74 20.865 20.98 21.09 21.2 21.31 21.44 21.587 21.735 21.883 22.05 22.255 22.48 22.7 22.877 23.02 23.16 23.305 23.427 23.522 23.62 23.725 23.868 24.047 24.23 24.41 24.59 24.767 24.945 25.125 25.305 25.485 25.665 25.845 26.035 26.232
14.865 14.95 15.025 15.092 15.16 15.235 15.315 15.395 15.477 15.562 15.635 15.697 15.757 15.8 15.682 15.485 15.395 15.37 15.52 15.822 16.127 16.372 16.487 16.527 16.56 16.592 16.627 16.647 16.652 16.655 16.673 16.7 16.72 16.74 16.712 16.633 16.545 16.455 16.39 16.35 16.31 16.257 16.18 16.085 15.98 15.87 15.783 15.72 15.663 15.613 15.59 15.608 15.645 15.685 15.727 15.772 15.818 15.88 15.902 15.865 15.828 15.808 15.83 15.883 15.93 15.945 15.935 15.925 15.915 15.91 15.872 15.74 15.553 15.368 15.28 15.288 15.285 15.28 15.27 15.255 15.248 15.25 15.298 15.438 15.77 16.132 16.265 16.275 16.285 16.29 16.3 16.315 16.325 16.335 16.365 16.415 16.465 16.515 16.58 16.657 16.715 16.752 16.782 16.807 16.83 16.832 16.845 16.918 17.022 17.117 17.22 17.35 17.487 17.617 17.732 17.84 17.947 18.05 18.125 18.177 18.23 18.275 18.31 18.33 18.34 18.355 18.37 18.38 18.39 18.403 18.422 18.442 18.458 18.48 18.54 18.625 18.703 18.778 18.85 18.923 18.997 19.075 19.137 19.182 19.227 19.273 19.325 19.398 19.485 19.572 19.65 19.717 19.792 19.875 19.942 19.99 20.025 20.055 20.113 20.19 20.265 20.34 20.42 20.523 20.645 20.772 20.89 21 21.107 21.21 21.33 21.475 21.625 21.773 21.94 22.148 22.372 22.587 22.76 22.9 23.043 23.187 23.297 23.383 23.48 23.578 23.703 23.868 24.045 24.225 24.407 24.592 24.777 24.968 25.15 25.325 25.502 25.678 25.863 26.058
14.828 14.912 14.99 15.06 15.13 15.205 15.285 15.368 15.458 15.552 15.63 15.69 15.742 15.775 15.672 15.5 15.408 15.375 15.475 15.738 16.05 16.297 16.425 16.482 16.527 16.56 16.605 16.645 16.657 16.665 16.695 16.735 16.76 16.78 16.755 16.685 16.605 16.515 16.45 16.41 16.355 16.27 16.172 16.08 15.982 15.878 15.79 15.728 15.678 15.633 15.59 15.568 15.583 15.62 15.663 15.71 15.773 15.862 15.895 15.858 15.833 15.83 15.858 15.905 15.93 15.915 15.893 15.88 15.875 15.88 15.887 15.835 15.687 15.513 15.445 15.47 15.48 15.48 15.455 15.405 15.35 15.275 15.268 15.458 15.897 16.222 16.262 16.27 16.275 16.273 16.288 16.315 16.33 16.34 16.375 16.432 16.485 16.535 16.6 16.672 16.72 16.75 16.778 16.802 16.81 16.79 16.808 16.892 16.987 17.057 17.125 17.233 17.367 17.495 17.608 17.715 17.827 17.935 18.01 18.063 18.115 18.16 18.2 18.232 18.25 18.265 18.28 18.29 18.3 18.315 18.345 18.38 18.402 18.425 18.493 18.59 18.67 18.742 18.81 18.873 18.945 19.022 19.08 19.12 19.163 19.208 19.253 19.308 19.383 19.467 19.542 19.598 19.66 19.74 19.82 19.89 19.94 19.975 20.033 20.115 20.195 20.27 20.35 20.443 20.553 20.68 20.797 20.905 21.01 21.108 21.223 21.36 21.505 21.655 21.828 22.04 22.262 22.472 22.645 22.785 22.927 23.07 23.17 23.238 23.323 23.42 23.535 23.675 23.838 24.015 24.2 24.39 24.595 24.817 25.002 25.16 25.33 25.505 25.69 25.885
14.798 14.878 14.955 15.027 15.1 15.175 15.255 15.345 15.445 15.545 15.622 15.672 15.715 15.745 15.667 15.52 15.42 15.38 15.418 15.638 15.97 16.222 16.355 16.42 16.48 16.525 16.575 16.63 16.66 16.68 16.718 16.76 16.797 16.82 16.792 16.727 16.657 16.577 16.51 16.45 16.362 16.255 16.155 16.067 15.98 15.883 15.798 15.743 15.7 15.657 15.615 15.575 15.55 15.56 15.603 15.67 15.76 15.857 15.887 15.863 15.858 15.863 15.882 15.91 15.905 15.873 15.848 15.84 15.843 15.85 15.86 15.86 15.792 15.66 15.605 15.637 15.665 15.675 15.652 15.585 15.487 15.365 15.183 15.445 16.037 16.257 16.26 16.262 16.255 16.248 16.27 16.305 16.33 16.345 16.383 16.445 16.502 16.555 16.617 16.675 16.712 16.745 16.775 16.787 16.77 16.74 16.77 16.857 16.93 16.988 17.045 17.13 17.245 17.368 17.485 17.597 17.712 17.822 17.9 17.947 17.995 18.042 18.085 18.122 18.152 18.175 18.19 18.2 18.21 18.225 18.258 18.302 18.34 18.368 18.435 18.542 18.635 18.71 18.775 18.835 18.9 18.97 19.023 19.06 19.1 19.143 19.187 19.235 19.293 19.365 19.435 19.485 19.535 19.603 19.68 19.76 19.832 19.887 19.95 20.035 20.12 20.198 20.28 20.373 20.473 20.588 20.702 20.807 20.907 21.003 21.118 21.253 21.39 21.535 21.715 21.93 22.147 22.357 22.53 22.67 22.81 22.947 23.047 23.11 23.178 23.263 23.375 23.505 23.645 23.808 23.995 24.205 24.44 24.687 24.875 25.013 25.165 25.333 25.518 25.723
14.777 14.847 14.92 14.992 15.067 15.145 15.23 15.33 15.435 15.532 15.602 15.645 15.685 15.717 15.665 15.54 15.433 15.383 15.383 15.56 15.89 16.15 16.287 16.355 16.423 16.485 16.545 16.605 16.655 16.697 16.74 16.78 16.825 16.855 16.827 16.76 16.692 16.622 16.545 16.452 16.345 16.235 16.138 16.053 15.97 15.883 15.81 15.762 15.72 15.68 15.64 15.597 15.553 15.52 15.558 15.655 15.757 15.855 15.892 15.885 15.89 15.895 15.897 15.89 15.865 15.83 15.808 15.81 15.817 15.822 15.83 15.84 15.832 15.785 15.765 15.792 15.815 15.827 15.79 15.685 15.552 15.415 14.933 15.308 16.182 16.27 16.27 16.262 16.238 16.228 16.253 16.285 16.315 16.34 16.385 16.45 16.51 16.57 16.627 16.672 16.708 16.742 16.762 16.75 16.72 16.695 16.728 16.802 16.862 16.92 16.983 17.06 17.158 17.263 17.36 17.462 17.577 17.69 17.77 17.817 17.867 17.925 17.975 18.013 18.05 18.085 18.105 18.115 18.123 18.135 18.17 18.218 18.265 18.308 18.38 18.49 18.595 18.683 18.753 18.818 18.885 18.953 18.998 19.028 19.06 19.085 19.12 19.17 19.22 19.275 19.33 19.378 19.423 19.475 19.548 19.63 19.71 19.788 19.868 19.953 20.038 20.122 20.212 20.307 20.4 20.5 20.607 20.708 20.803 20.898 21.01 21.145 21.282 21.42 21.6 21.817 22.032 22.242 22.415 22.555 22.692 22.825 22.922 22.987 23.05 23.118 23.22 23.35 23.48 23.625 23.815 24.05 24.3 24.55 24.745 24.88 25.015 25.165 25.353 25.577
14.747 14.81 14.877 14.95 15.025 15.11 15.205 15.31 15.415 15.505 15.565 15.605 15.648 15.69 15.665 15.56 15.448 15.39 15.385 15.505 15.797 16.08 16.232 16.31 16.38 16.45 16.515 16.575 16.642 16.707 16.755 16.795 16.837 16.872 16.85 16.78 16.71 16.637 16.55 16.445 16.335 16.225 16.128 16.043 15.96 15.885 15.825 15.775 15.73 15.687 15.645 15.602 15.557 15.498 15.52 15.635 15.742 15.842 15.89 15.89 15.892 15.895 15.887 15.867 15.838 15.803 15.778 15.773 15.78 15.787 15.795 15.802 15.81 15.812 15.822 15.84 15.85 15.857 15.8 15.677 15.552 15.422 14.893 15.35 16.28 16.29 16.29 16.272 16.23 16.213 16.235 16.265 16.298 16.328 16.37 16.43 16.49 16.555 16.617 16.665 16.702 16.737 16.742 16.715 16.683 16.663 16.685 16.74 16.8 16.86 16.928 17.013 17.107 17.19 17.245 17.308 17.408 17.52 17.602 17.655 17.72 17.82 17.9 17.94 17.983 18.033 18.065 18.075 18.083 18.105 18.15 18.2 18.25 18.31 18.398 18.505 18.613 18.705 18.78 18.85 18.923 18.99 19.03 19.055 19.072 19.053 19.05 19.093 19.14 19.19 19.238 19.283 19.328 19.378 19.448 19.53 19.61 19.695 19.785 19.87 19.955 20.04 20.13 20.225 20.317 20.412 20.515 20.615 20.71 20.805 20.91 21.038 21.175 21.31 21.483 21.7 21.915 22.115 22.28 22.42 22.56 22.697 22.797 22.862 22.927 22.99 23.085 23.215 23.35 23.505 23.673 23.875 24.12 24.37 24.577 24.727 24.86 24.993 25.153 25.365
14.702 14.76 14.825 14.9 14.98 15.075 15.175 15.28 15.38 15.46 15.515 15.558 15.613 15.667 15.655 15.57 15.465 15.4 15.39 15.443 15.693 16.007 16.18 16.277 16.355 16.425 16.49 16.555 16.635 16.712 16.765 16.805 16.842 16.875 16.857 16.79 16.717 16.64 16.55 16.445 16.335 16.225 16.125 16.04 15.965 15.9 15.838 15.778 15.728 15.683 15.64 15.597 15.542 15.465 15.475 15.592 15.712 15.82 15.87 15.87 15.867 15.862 15.855 15.845 15.822 15.79 15.76 15.738 15.733 15.74 15.75 15.755 15.757 15.757 15.765 15.782 15.795 15.8 15.74 15.62 15.5 15.175 15.18 15.867 16.295 16.307 16.307 16.282 16.23 16.203 16.22 16.25 16.282 16.313 16.345 16.393 16.45 16.515 16.585 16.647 16.695 16.73 16.73 16.7 16.678 16.678 16.678 16.69 16.74 16.8 16.873 16.962 17.055 17.127 17.16 17.183 17.24 17.335 17.42 17.488 17.595 17.752 17.86 17.9 17.955 18.027 18.067 18.075 18.098 18.143 18.195 18.248 18.308 18.385 18.483 18.585 18.685 18.775 18.85 18.92 18.987 19.05 19.09 19.107 19.087 19.013 18.98 19.013 19.055 19.105 19.152 19.198 19.248 19.305 19.375 19.453 19.53 19.615 19.703 19.787 19.87 19.945 20.03 20.125 20.217 20.313 20.42 20.53 20.63 20.725 20.825 20.94 21.068 21.203 21.373 21.582 21.785 21.967 22.125 22.265 22.413 22.56 22.667 22.737 22.802 22.868 22.963 23.093 23.248 23.432 23.58 23.71 23.913 24.16 24.375 24.542 24.685 24.807 24.925 25.075
14.655 14.71 14.775 14.855 14.945 15.045 15.145 15.242 15.33 15.407 15.468 15.523 15.597 15.657 15.637 15.562 15.478 15.413 15.393 15.4 15.598 15.922 16.117 16.227 16.322 16.4 16.468 16.543 16.632 16.717 16.775 16.812 16.845 16.875 16.862 16.797 16.72 16.64 16.55 16.445 16.335 16.225 16.125 16.045 15.98 15.92 15.855 15.79 15.733 15.683 15.637 15.582 15.51 15.425 15.425 15.538 15.67 15.79 15.845 15.843 15.835 15.828 15.82 15.813 15.8 15.777 15.75 15.72 15.7 15.695 15.7 15.702 15.697 15.693 15.698 15.715 15.732 15.74 15.68 15.563 15.445 14.886 15.33 16.284 16.307 16.325 16.32 16.282 16.228 16.195 16.205 16.235 16.265 16.295 16.325 16.363 16.413 16.475 16.545 16.615 16.68 16.722 16.72 16.705 16.713 16.732 16.722 16.69 16.695 16.743 16.82 16.907 16.992 17.062 17.092 17.1 17.12 17.173 17.255 17.37 17.53 17.71 17.82 17.87 17.943 18.027 18.072 18.09 18.135 18.19 18.243 18.305 18.38 18.465 18.562 18.66 18.753 18.842 18.92 18.987 19.05 19.11 19.145 19.125 19.05 18.95 18.913 18.943 18.98 19.023 19.068 19.118 19.175 19.235 19.305 19.38 19.453 19.535 19.62 19.7 19.775 19.845 19.93 20.025 20.115 20.213 20.323 20.437 20.547 20.647 20.75 20.86 20.975 21.1 21.263 21.455 21.637 21.812 21.97 22.115 22.27 22.42 22.53 22.607 22.677 22.743 22.838 22.983 23.165 23.365 23.515 23.613 23.745 23.953 24.165 24.34 24.497 24.622 24.725 24.83
14.603 14.658 14.73 14.82 14.915 15.015 15.11 15.195 15.275 15.355 15.43 15.507 15.592 15.647 15.622 15.548 15.475 15.42 15.398 15.395 15.525 15.825 16.05 16.163 16.272 16.367 16.45 16.535 16.627 16.72 16.782 16.815 16.845 16.872 16.862 16.8 16.72 16.64 16.55 16.445 16.332 16.22 16.122 16.047 15.985 15.925 15.862 15.8 15.74 15.682 15.622 15.55 15.47 15.385 15.378 15.485 15.623 15.755 15.825 15.825 15.813 15.803 15.795 15.785 15.775 15.76 15.735 15.705 15.68 15.66 15.65 15.645 15.635 15.628 15.633 15.65 15.67 15.682 15.625 15.51 15.24 15.083 15.715 16.3 16.322 16.342 16.327 16.277 16.223 16.185 16.19 16.22 16.25 16.28 16.31 16.343 16.38 16.435 16.505 16.578 16.652 16.71 16.727 16.737 16.762 16.785 16.78 16.735 16.693 16.703 16.768 16.85 16.93 16.997 17.027 17.033 17.043 17.07 17.163 17.323 17.495 17.67 17.79 17.86 17.94 18.022 18.082 18.125 18.177 18.232 18.295 18.372 18.457 18.545 18.637 18.73 18.82 18.91 18.987 19.047 19.105 19.162 19.165 19.09 18.99 18.89 18.85 18.877 18.91 18.943 18.988 19.045 19.105 19.165 19.235 19.31 19.383 19.46 19.538 19.613 19.685 19.758 19.84 19.93 20.02 20.118 20.225 20.34 20.457 20.567 20.675 20.785 20.892 21.003 21.143 21.31 21.485 21.66 21.82 21.975 22.132 22.282 22.392 22.47 22.545 22.615 22.728 22.9 23.095 23.295 23.447 23.55 23.65 23.78 23.95 24.127 24.297 24.432 24.535 24.635
14.555 14.605 14.673 14.762 14.86 14.96 15.055 15.14 15.22 15.3 15.387 15.48 15.57 15.635 15.635 15.585 15.528 15.478 15.428 15.4 15.463 15.718 15.98 16.108 16.22 16.317 16.405 16.492 16.582 16.687 16.76 16.79 16.82 16.86 16.857 16.782 16.697 16.62 16.527 16.42 16.307 16.195 16.097 16.02 15.952 15.89 15.832 15.777 15.72 15.66 15.59 15.507 15.425 15.35 15.35 15.45 15.588 15.73 15.812 15.822 15.813 15.8 15.79 15.78 15.765 15.732 15.695 15.667 15.642 15.615 15.595 15.585 15.575 15.565 15.57 15.59 15.61 15.625 15.572 15.46 14.896 15.263 16.222 16.315 16.33 16.337 16.312 16.26 16.21 16.18 16.19 16.22 16.25 16.278 16.305 16.335 16.365 16.41 16.475 16.55 16.622 16.68 16.72 16.745 16.767 16.79 16.785 16.74 16.693 16.693 16.745 16.818 16.89 16.945 16.972 16.983 16.995 17.038 17.155 17.325 17.49 17.64 17.752 17.835 17.915 17.995 18.065 18.12 18.17 18.227 18.302 18.39 18.477 18.57 18.665 18.757 18.85 18.932 18.997 19.05 19.102 19.157 19.135 19.035 18.932 18.825 18.778 18.8 18.83 18.863 18.91 18.97 19.03 19.095 19.168 19.243 19.318 19.392 19.463 19.533 19.608 19.683 19.763 19.85 19.94 20.033 20.135 20.25 20.37 20.48 20.582 20.69 20.795 20.9 21.025 21.178 21.348 21.52 21.685 21.845 22.003 22.157 22.282 22.368 22.443 22.518 22.623 22.788 22.987 23.192 23.355 23.46 23.552 23.643 23.755 23.913 24.085 24.23 24.34 24.44
14.507 14.553 14.61 14.688 14.778 14.875 14.977 15.075 15.16 15.243 15.333 15.427 15.522 15.6 15.635 15.64 15.63 15.597 15.493 15.405 15.415 15.61 15.9 16.065 16.175 16.25 16.315 16.403 16.505 16.632 16.715 16.745 16.788 16.855 16.862 16.768 16.66 16.575 16.48 16.372 16.263 16.15 16.053 15.97 15.898 15.833 15.775 15.725 15.672 15.615 15.545 15.463 15.388 15.335 15.353 15.445 15.568 15.705 15.792 15.815 15.817 15.81 15.8 15.785 15.747 15.685 15.635 15.61 15.585 15.555 15.535 15.525 15.515 15.505 15.51 15.53 15.55 15.567 15.52 15.297 14.938 15.52 16.302 16.312 16.315 16.31 16.28 16.233 16.198 16.185 16.2 16.227 16.252 16.278 16.305 16.335 16.363 16.398 16.458 16.53 16.59 16.632 16.67 16.705 16.73 16.75 16.745 16.705 16.68 16.703 16.758 16.822 16.877 16.912 16.932 16.948 16.965 17.033 17.175 17.337 17.48 17.595 17.695 17.785 17.865 17.945 18.015 18.073 18.128 18.19 18.268 18.355 18.448 18.548 18.648 18.742 18.83 18.902 18.957 19.003 19.05 19.105 19.085 18.982 18.87 18.748 18.693 18.715 18.745 18.778 18.825 18.885 18.95 19.025 19.103 19.18 19.255 19.33 19.4 19.463 19.533 19.608 19.69 19.778 19.865 19.955 20.058 20.172 20.285 20.387 20.483 20.583 20.688 20.793 20.918 21.068 21.228 21.395 21.56 21.72 21.883 22.045 22.187 22.295 22.38 22.455 22.535 22.65 22.825 23.032 23.205 23.325 23.417 23.505 23.6 23.718 23.87 24.022 24.14 24.245
14.455 14.498 14.555 14.625 14.7 14.79 14.895 15.002 15.097 15.185 15.275 15.367 15.46 15.535 15.582 15.62 15.65 15.66 15.597 15.47 15.405 15.53 15.79 16.002 16.122 16.17 16.22 16.323 16.45 16.587 16.672 16.718 16.785 16.862 16.872 16.777 16.65 16.538 16.432 16.327 16.217 16.105 16.01 15.925 15.845 15.778 15.72 15.67 15.62 15.567 15.5 15.428 15.375 15.34 15.368 15.46 15.565 15.685 15.77 15.8 15.817 15.82 15.802 15.765 15.702 15.628 15.578 15.552 15.525 15.498 15.478 15.465 15.455 15.445 15.45 15.47 15.493 15.515 15.5 14.926 15.113 16.07 16.292 16.29 16.283 16.277 16.25 16.215 16.2 16.195 16.208 16.23 16.25 16.275 16.305 16.332 16.355 16.385 16.442 16.502 16.542 16.575 16.61 16.652 16.69 16.715 16.708 16.685 16.693 16.723 16.775 16.83 16.862 16.882 16.898 16.915 16.94 17.033 17.182 17.315 17.425 17.528 17.632 17.73 17.815 17.895 17.967 18.03 18.093 18.158 18.233 18.323 18.425 18.532 18.632 18.72 18.795 18.865 18.92 18.96 19.003 19.052 19.03 18.92 18.795 18.665 18.61 18.635 18.663 18.693 18.74 18.805 18.88 18.96 19.04 19.117 19.193 19.27 19.34 19.4 19.463 19.535 19.618 19.703 19.79 19.88 19.983 20.092 20.192 20.29 20.387 20.483 20.583 20.688 20.815 20.963 21.113 21.273 21.438 21.603 21.772 21.937 22.08 22.202 22.31 22.395 22.475 22.56 22.675 22.85 23.022 23.157 23.27 23.367 23.462 23.56 23.678 23.818 23.943 24.068
14.4 14.44 14.498 14.57 14.64 14.72 14.82 14.93 15.033 15.125 15.215 15.305 15.395 15.47 15.517 15.555 15.59 15.625 15.63 15.53 15.428 15.465 15.655 15.907 16.055 16.093 16.15 16.27 16.41 16.545 16.642 16.712 16.79 16.867 16.882 16.79 16.647 16.503 16.38 16.275 16.167 16.062 15.967 15.882 15.8 15.725 15.665 15.615 15.565 15.515 15.465 15.418 15.38 15.35 15.38 15.472 15.57 15.672 15.745 15.777 15.802 15.812 15.78 15.715 15.645 15.573 15.523 15.495 15.465 15.44 15.423 15.41 15.398 15.398 15.413 15.43 15.453 15.487 15.375 14.903 15.428 16.285 16.278 16.268 16.255 16.247 16.23 16.213 16.205 16.2 16.21 16.23 16.25 16.275 16.302 16.325 16.347 16.375 16.415 16.455 16.485 16.518 16.555 16.598 16.64 16.675 16.685 16.69 16.715 16.745 16.782 16.812 16.83 16.847 16.865 16.885 16.925 17.025 17.15 17.255 17.358 17.463 17.568 17.67 17.762 17.847 17.925 17.99 18.055 18.122 18.203 18.302 18.407 18.515 18.61 18.685 18.755 18.825 18.88 18.92 18.96 19.002 18.967 18.845 18.715 18.585 18.53 18.555 18.583 18.613 18.665 18.738 18.815 18.895 18.975 19.052 19.13 19.21 19.28 19.34 19.4 19.465 19.543 19.63 19.72 19.81 19.903 20 20.098 20.193 20.29 20.388 20.485 20.585 20.71 20.857 21.003 21.153 21.318 21.493 21.667 21.83 21.967 22.093 22.217 22.325 22.415 22.5 22.585 22.7 22.837 22.967 23.09 23.205 23.307 23.407 23.51 23.625 23.757 23.907
14.365 14.405 14.465 14.54 14.61 14.685 14.78 14.89 14.985 15.063 15.147 15.24 15.332 15.412 15.458 15.488 15.52 15.555 15.555 15.485 15.425 15.458 15.578 15.79 15.982 16.05 16.115 16.238 16.373 16.507 16.617 16.7 16.78 16.86 16.875 16.77 16.61 16.45 16.32 16.215 16.11 16.01 15.917 15.832 15.747 15.657 15.585 15.535 15.485 15.445 15.43 15.415 15.385 15.355 15.375 15.452 15.542 15.637 15.705 15.74 15.762 15.762 15.717 15.645 15.575 15.51 15.465 15.435 15.408 15.385 15.368 15.355 15.353 15.375 15.402 15.42 15.448 15.502 14.96 15.065 16.015 16.28 16.275 16.26 16.243 16.225 16.213 16.207 16.2 16.195 16.205 16.225 16.245 16.267 16.29 16.31 16.332 16.355 16.38 16.41 16.44 16.47 16.505 16.545 16.585 16.62 16.642 16.66 16.682 16.71 16.737 16.757 16.775 16.795 16.815 16.838 16.898 17 17.105 17.208 17.315 17.423 17.523 17.617 17.707 17.795 17.875 17.94 18.005 18.075 18.16 18.262 18.367 18.472 18.565 18.642 18.715 18.782 18.832 18.867 18.905 18.945 18.902 18.775 18.645 18.515 18.46 18.485 18.513 18.543 18.598 18.673 18.75 18.83 18.907 18.983 19.06 19.14 19.217 19.285 19.345 19.408 19.485 19.573 19.66 19.742 19.82 19.908 20.005 20.103 20.198 20.295 20.392 20.48 20.595 20.745 20.892 21.04 21.205 21.385 21.562 21.727 21.865 21.99 22.12 22.23 22.312 22.39 22.472 22.557 22.645 22.745 22.86 22.977 23.087 23.192 23.297 23.407 23.54 23.695
14.352 14.395 14.455 14.53 14.6 14.675 14.77 14.87 14.942 14.998 15.073 15.168 15.27 15.367 15.412 15.425 15.45 15.485 15.475 15.41 15.383 15.462 15.58 15.71 15.902 16.022 16.093 16.213 16.34 16.472 16.582 16.667 16.745 16.81 16.807 16.702 16.55 16.39 16.26 16.155 16.05 15.95 15.86 15.775 15.675 15.565 15.485 15.438 15.4 15.378 15.38 15.392 15.38 15.35 15.36 15.418 15.493 15.585 15.655 15.69 15.7 15.682 15.635 15.565 15.5 15.445 15.405 15.375 15.35 15.33 15.313 15.305 15.325 15.367 15.397 15.42 15.465 15.175 14.771 15.46 16.25 16.272 16.275 16.257 16.232 16.205 16.19 16.19 16.185 16.18 16.193 16.215 16.235 16.252 16.267 16.283 16.3 16.323 16.35 16.38 16.405 16.425 16.455 16.495 16.53 16.552 16.565 16.575 16.59 16.615 16.645 16.675 16.7 16.72 16.74 16.78 16.865 16.975 17.083 17.19 17.295 17.395 17.485 17.567 17.653 17.74 17.817 17.88 17.943 18.01 18.095 18.198 18.305 18.41 18.505 18.592 18.67 18.735 18.78 18.808 18.84 18.88 18.84 18.715 18.585 18.453 18.395 18.42 18.448 18.48 18.535 18.61 18.69 18.767 18.84 18.91 18.985 19.065 19.15 19.23 19.297 19.363 19.44 19.527 19.605 19.667 19.735 19.823 19.917 20.015 20.11 20.205 20.292 20.365 20.475 20.625 20.778 20.93 21.095 21.275 21.458 21.632 21.777 21.902 22.017 22.105 22.167 22.23 22.305 22.387 22.458 22.523 22.608 22.713 22.823 22.93 23.04 23.158 23.29 23.435
14.33 14.382 14.445 14.52 14.59 14.665 14.752 14.827 14.88 14.93 15 15.1 15.215 15.332 15.385 15.38 15.39 15.417 15.402 15.36 15.348 15.413 15.56 15.693 15.835 15.97 16.073 16.19 16.313 16.44 16.547 16.622 16.68 16.722 16.702 16.607 16.48 16.33 16.2 16.097 15.995 15.895 15.8 15.702 15.585 15.465 15.39 15.355 15.335 15.323 15.325 15.347 15.357 15.343 15.355 15.405 15.463 15.538 15.605 15.632 15.62 15.595 15.552 15.49 15.435 15.385 15.345 15.318 15.295 15.275 15.263 15.273 15.31 15.36 15.395 15.425 15.265 14.731 15.128 16.049 16.237 16.268 16.27 16.243 16.21 16.18 16.168 16.17 16.167 16.165 16.178 16.2 16.22 16.235 16.245 16.255 16.268 16.288 16.315 16.342 16.36 16.375 16.403 16.435 16.46 16.475 16.485 16.493 16.5 16.515 16.543 16.58 16.615 16.64 16.668 16.738 16.845 16.955 17.065 17.167 17.26 17.347 17.432 17.515 17.598 17.685 17.76 17.82 17.88 17.945 18.03 18.135 18.245 18.35 18.445 18.535 18.62 18.687 18.727 18.753 18.783 18.817 18.777 18.655 18.522 18.388 18.328 18.353 18.385 18.418 18.473 18.55 18.63 18.705 18.775 18.845 18.915 18.99 19.075 19.162 19.245 19.315 19.39 19.47 19.53 19.583 19.65 19.738 19.83 19.925 20.02 20.107 20.182 20.248 20.355 20.508 20.665 20.82 20.985 21.168 21.358 21.542 21.692 21.802 21.887 21.962 22.025 22.08 22.145 22.218 22.283 22.338 22.395 22.47 22.565 22.675 22.79 22.91 23.045 23.185
14.295 14.36 14.43 14.505 14.575 14.647 14.717 14.772 14.818 14.865 14.94 15.05 15.17 15.292 15.355 15.35 15.348 15.355 15.345 15.328 15.323 15.353 15.49 15.665 15.795 15.925 16.052 16.17 16.29 16.41 16.5 16.55 16.59 16.625 16.597 16.5 16.385 16.257 16.137 16.035 15.932 15.827 15.727 15.62 15.495 15.375 15.308 15.288 15.275 15.265 15.273 15.295 15.315 15.325 15.35 15.4 15.45 15.502 15.547 15.555 15.533 15.507 15.472 15.425 15.375 15.328 15.3 15.285 15.265 15.245 15.24 15.265 15.31 15.357 15.392 15.365 14.845 14.851 15.772 16.23 16.273 16.315 16.313 16.263 16.213 16.165 16.145 16.15 16.15 16.153 16.163 16.18 16.2 16.217 16.227 16.235 16.245 16.258 16.278 16.298 16.313 16.33 16.35 16.368 16.385 16.4 16.41 16.42 16.428 16.435 16.458 16.493 16.528 16.558 16.613 16.713 16.825 16.932 17.035 17.125 17.207 17.292 17.377 17.46 17.543 17.627 17.7 17.768 17.833 17.89 17.968 18.073 18.185 18.29 18.385 18.475 18.565 18.635 18.67 18.695 18.725 18.755 18.712 18.59 18.457 18.323 18.263 18.288 18.32 18.353 18.41 18.49 18.57 18.645 18.715 18.783 18.848 18.918 19 19.088 19.175 19.257 19.33 19.39 19.443 19.498 19.565 19.652 19.745 19.837 19.925 19.997 20.065 20.133 20.24 20.395 20.555 20.71 20.88 21.07 21.265 21.452 21.59 21.675 21.745 21.82 21.888 21.943 22 22.063 22.12 22.175 22.23 22.288 22.368 22.468 22.568 22.675 22.808 22.95
14.26 14.33 14.402 14.477 14.547 14.612 14.672 14.725 14.773 14.818 14.895 15.008 15.125 15.245 15.31 15.31 15.305 15.3 15.3 15.3 15.295 15.298 15.41 15.605 15.76 15.89 15.997 16.105 16.225 16.337 16.4 16.425 16.46 16.495 16.465 16.362 16.247 16.14 16.042 15.942 15.837 15.73 15.632 15.537 15.422 15.303 15.235 15.22 15.21 15.205 15.215 15.235 15.255 15.275 15.305 15.35 15.397 15.442 15.47 15.467 15.45 15.427 15.402 15.365 15.315 15.275 15.278 15.29 15.275 15.255 15.258 15.29 15.332 15.36 15.377 14.933 14.606 15.385 16.13 16.287 16.375 16.425 16.42 16.355 16.29 16.225 16.193 16.198 16.19 16.158 16.143 16.16 16.18 16.2 16.21 16.215 16.225 16.235 16.248 16.263 16.28 16.298 16.313 16.325 16.338 16.353 16.363 16.368 16.373 16.38 16.4 16.43 16.463 16.503 16.583 16.697 16.8 16.88 16.962 17.055 17.147 17.237 17.322 17.405 17.488 17.577 17.662 17.735 17.795 17.845 17.91 18.005 18.115 18.222 18.32 18.41 18.502 18.572 18.607 18.632 18.66 18.682 18.63 18.505 18.375 18.268 18.22 18.233 18.265 18.3 18.358 18.435 18.515 18.59 18.66 18.725 18.79 18.863 18.938 19.018 19.105 19.192 19.26 19.313 19.368 19.418 19.473 19.553 19.645 19.735 19.815 19.883 19.95 20.033 20.158 20.313 20.47 20.63 20.808 21.003 21.195 21.357 21.462 21.538 21.61 21.69 21.762 21.818 21.873 21.93 21.98 22.028 22.083 22.145 22.225 22.315 22.398 22.485 22.608 22.753
14.225 14.295 14.368 14.442 14.51 14.567 14.625 14.682 14.735 14.783 14.858 14.965 15.08 15.2 15.262 15.26 15.25 15.243 15.25 15.262 15.265 15.263 15.335 15.525 15.712 15.84 15.928 16.005 16.11 16.22 16.27 16.275 16.3 16.335 16.302 16.198 16.09 15.993 15.907 15.822 15.722 15.618 15.525 15.445 15.35 15.235 15.165 15.15 15.145 15.15 15.158 15.168 15.185 15.205 15.23 15.265 15.305 15.35 15.377 15.38 15.37 15.35 15.33 15.302 15.26 15.228 15.25 15.297 15.305 15.285 15.293 15.33 15.345 15.34 15.082 14.528 14.92 15.79 16.072 16.287 16.457 16.54 16.537 16.477 16.41 16.343 16.31 16.305 16.26 16.165 16.12 16.14 16.16 16.18 16.192 16.198 16.205 16.215 16.225 16.24 16.257 16.273 16.288 16.303 16.317 16.33 16.335 16.333 16.33 16.335 16.355 16.385 16.425 16.48 16.568 16.67 16.74 16.785 16.858 16.96 17.062 17.16 17.252 17.345 17.435 17.53 17.627 17.7 17.75 17.805 17.873 17.955 18.048 18.15 18.25 18.34 18.437 18.51 18.542 18.565 18.587 18.597 18.532 18.403 18.3 18.253 18.223 18.205 18.223 18.26 18.315 18.388 18.465 18.54 18.61 18.678 18.748 18.822 18.89 18.958 19.04 19.127 19.195 19.247 19.297 19.34 19.385 19.448 19.53 19.62 19.7 19.77 19.853 19.963 20.103 20.257 20.415 20.58 20.763 20.957 21.125 21.242 21.327 21.403 21.485 21.577 21.65 21.703 21.755 21.81 21.855 21.893 21.943 22.005 22.085 22.17 22.245 22.323 22.435 22.578
14.24 14.26 14.332 14.402 14.465 14.52 14.575 14.635 14.692 14.745 14.823 14.93 15.043 15.157 15.212 15.205 15.19 15.183 15.195 15.215 15.23 15.235 15.263 15.42 15.642 15.787 15.87 15.93 16.008 16.105 16.152 16.148 16.153 16.175 16.14 16.04 15.943 15.848 15.763 15.687 15.602 15.503 15.413 15.34 15.26 15.163 15.098 15.085 15.09 15.1 15.105 15.11 15.12 15.135 15.16 15.188 15.218 15.257 15.282 15.287 15.285 15.27 15.25 15.23 15.2 15.18 15.21 15.275 15.317 15.315 15.325 15.34 15.312 15.18 14.69 14.743 15.48 15.845 16.008 16.235 16.467 16.625 16.652 16.597 16.527 16.46 16.422 16.377 16.28 16.16 16.105 16.12 16.14 16.16 16.175 16.18 16.185 16.193 16.203 16.22 16.235 16.25 16.268 16.285 16.302 16.307 16.305 16.3 16.295 16.298 16.315 16.35 16.4 16.463 16.537 16.605 16.645 16.68 16.753 16.855 16.955 17.058 17.165 17.262 17.34 17.43 17.547 17.645 17.71 17.778 17.855 17.935 18.015 18.095 18.18 18.273 18.372 18.447 18.477 18.497 18.512 18.505 18.433 18.333 18.288 18.273 18.25 18.215 18.195 18.215 18.27 18.34 18.415 18.49 18.56 18.633 18.71 18.787 18.855 18.915 18.983 19.062 19.13 19.177 19.22 19.26 19.305 19.36 19.428 19.51 19.59 19.675 19.785 19.908 20.045 20.203 20.368 20.535 20.717 20.89 21.012 21.108 21.195 21.278 21.375 21.472 21.54 21.59 21.64 21.693 21.735 21.77 21.81 21.865 21.94 22.015 22.083 22.155 22.265 22.405
14.368 14.275 14.293 14.355 14.415 14.47 14.525 14.588 14.65 14.708 14.79 14.9 15.01 15.115 15.157 15.145 15.13 15.128 15.143 15.16 15.18 15.195 15.205 15.32 15.55 15.725 15.81 15.87 15.932 16.002 16.037 16.032 16.028 16.032 15.992 15.898 15.803 15.708 15.62 15.543 15.467 15.382 15.3 15.227 15.152 15.078 15.033 15.03 15.04 15.05 15.055 15.06 15.065 15.07 15.09 15.115 15.14 15.167 15.185 15.19 15.19 15.188 15.175 15.155 15.133 15.13 15.17 15.235 15.297 15.332 15.335 15.3 15.265 14.828 14.651 15.255 15.66 15.775 15.94 16.17 16.42 16.642 16.735 16.697 16.63 16.565 16.497 16.4 16.28 16.16 16.1 16.11 16.13 16.15 16.163 16.163 16.165 16.17 16.183 16.208 16.233 16.258 16.268 16.273 16.283 16.28 16.275 16.273 16.283 16.303 16.328 16.37 16.423 16.465 16.493 16.518 16.545 16.58 16.648 16.75 16.86 16.973 17.09 17.175 17.22 17.283 17.415 17.575 17.685 17.765 17.845 17.925 18.005 18.073 18.14 18.228 18.32 18.387 18.413 18.423 18.425 18.41 18.368 18.328 18.313 18.3 18.277 18.242 18.205 18.188 18.228 18.3 18.375 18.448 18.518 18.595 18.675 18.752 18.82 18.88 18.94 19.005 19.062 19.103 19.14 19.18 19.228 19.285 19.345 19.413 19.498 19.608 19.73 19.853 19.993 20.155 20.325 20.495 20.657 20.785 20.883 20.978 21.07 21.168 21.275 21.367 21.433 21.485 21.535 21.585 21.625 21.66 21.695 21.738 21.8 21.868 21.93 21.995 22.098 22.235
14.437 14.285 14.25 14.31 14.37 14.428 14.488 14.555 14.62 14.68 14.765 14.875 14.98 15.067 15.102 15.093 15.088 15.103 15.12 15.135 15.155 15.175 15.183 15.248 15.442 15.625 15.715 15.782 15.845 15.9 15.922 15.918 15.915 15.915 15.877 15.793 15.698 15.6 15.5 15.408 15.33 15.255 15.18 15.105 15.035 14.99 14.978 14.985 14.995 15.005 15.013 15.018 15.02 15.01 15.015 15.04 15.062 15.082 15.107 15.125 15.125 15.13 15.125 15.105 15.09 15.105 15.155 15.218 15.282 15.32 15.295 15.242 14.89 14.523 14.955 15.482 15.595 15.708 15.858 16.07 16.312 16.552 16.69 16.68 16.615 16.577 16.515 16.395 16.275 16.178 16.14 16.15 16.173 16.2 16.215 16.213 16.21 16.2 16.2 16.225 16.26 16.295 16.295 16.278 16.275 16.273 16.293 16.33 16.368 16.405 16.437 16.475 16.505 16.513 16.51 16.51 16.518 16.535 16.578 16.668 16.785 16.905 17.017 17.085 17.12 17.16 17.28 17.485 17.652 17.755 17.835 17.915 17.995 18.07 18.138 18.21 18.285 18.34 18.362 18.36 18.35 18.343 18.35 18.352 18.34 18.33 18.305 18.268 18.23 18.195 18.218 18.29 18.363 18.425 18.49 18.57 18.647 18.72 18.785 18.845 18.902 18.955 18.997 19.033 19.07 19.115 19.17 19.228 19.285 19.348 19.438 19.558 19.68 19.808 19.94 20.09 20.257 20.425 20.572 20.683 20.778 20.87 20.968 21.075 21.182 21.275 21.343 21.395 21.445 21.498 21.543 21.578 21.613 21.645 21.695 21.76 21.82 21.878 21.963 22.088
14.39 14.243 14.21 14.27 14.33 14.393 14.46 14.532 14.6 14.663 14.75 14.855 14.942 15.01 15.047 15.048 15.068 15.112 15.135 15.148 15.165 15.185 15.183 15.185 15.313 15.477 15.575 15.66 15.73 15.785 15.807 15.805 15.805 15.807 15.78 15.712 15.625 15.525 15.415 15.3 15.203 15.123 15.048 14.983 14.943 14.93 14.935 14.945 14.955 14.968 14.98 14.985 14.97 14.938 14.933 14.955 14.97 14.985 15.027 15.077 15.095 15.1 15.095 15.08 15.083 15.113 15.165 15.227 15.272 15.27 15.225 15.005 14.533 14.713 15.282 15.435 15.535 15.648 15.783 15.955 16.165 16.395 16.55 16.56 16.52 16.537 16.505 16.388 16.29 16.235 16.22 16.23 16.263 16.307 16.327 16.325 16.31 16.273 16.255 16.27 16.3 16.335 16.335 16.313 16.305 16.305 16.35 16.42 16.462 16.49 16.512 16.545 16.577 16.587 16.585 16.583 16.58 16.588 16.61 16.66 16.74 16.843 16.935 16.988 17.025 17.063 17.175 17.382 17.592 17.73 17.807 17.885 17.967 18.052 18.127 18.195 18.252 18.3 18.327 18.322 18.308 18.298 18.32 18.357 18.367 18.36 18.335 18.295 18.255 18.218 18.233 18.3 18.362 18.41 18.468 18.545 18.62 18.687 18.75 18.81 18.86 18.9 18.935 18.97 19.015 19.07 19.127 19.183 19.243 19.308 19.395 19.513 19.64 19.78 19.905 20.02 20.163 20.325 20.475 20.59 20.687 20.783 20.883 20.99 21.097 21.197 21.27 21.32 21.37 21.425 21.475 21.512 21.545 21.57 21.615 21.68 21.737 21.793 21.868 21.97
14.353 14.2 14.173 14.23 14.29 14.355 14.427 14.505 14.577 14.645 14.732 14.822 14.89 14.95 14.992 15.015 15.065 15.127 15.155 15.165 15.178 15.195 15.187 15.15 15.195 15.315 15.42 15.52 15.607 15.67 15.692 15.693 15.698 15.705 15.68 15.617 15.545 15.455 15.342 15.218 15.1 15 14.93 14.898 14.89 14.89 14.895 14.905 14.918 14.935 14.947 14.937 14.897 14.855 14.848 14.86 14.868 14.878 14.92 14.99 15.042 15.065 15.065 15.068 15.093 15.128 15.175 15.22 15.225 15.2 15.135 14.715 14.663 15.18 15.392 15.428 15.493 15.595 15.73 15.88 16.05 16.248 16.41 16.455 16.465 16.522 16.497 16.405 16.35 16.315 16.3 16.318 16.363 16.417 16.442 16.427 16.387 16.335 16.315 16.325 16.345 16.375 16.377 16.363 16.357 16.35 16.368 16.407 16.442 16.467 16.482 16.517 16.582 16.64 16.66 16.658 16.663 16.685 16.712 16.738 16.773 16.83 16.878 16.905 16.935 16.968 17.075 17.275 17.5 17.667 17.76 17.843 17.93 18.022 18.105 18.172 18.222 18.265 18.29 18.285 18.267 18.253 18.278 18.33 18.367 18.38 18.362 18.325 18.282 18.24 18.248 18.302 18.35 18.388 18.443 18.517 18.587 18.652 18.715 18.767 18.805 18.84 18.875 18.915 18.97 19.028 19.083 19.14 19.205 19.27 19.355 19.475 19.613 19.765 19.895 19.99 20.095 20.233 20.375 20.492 20.595 20.695 20.798 20.905 21.015 21.12 21.197 21.25 21.3 21.352 21.405 21.447 21.472 21.49 21.535 21.597 21.65 21.705 21.78 21.87
14.345 14.17 14.138 14.195 14.255 14.318 14.39 14.47 14.547 14.622 14.7 14.77 14.83 14.89 14.945 15.002 15.072 15.14 15.175 15.185 15.195 15.207 15.197 15.155 15.155 15.225 15.313 15.4 15.485 15.553 15.58 15.585 15.595 15.602 15.575 15.513 15.45 15.375 15.27 15.153 15.038 14.928 14.868 14.858 14.853 14.85 14.855 14.868 14.885 14.902 14.9 14.865 14.815 14.773 14.758 14.76 14.763 14.773 14.815 14.883 14.953 15.012 15.045 15.07 15.105 15.14 15.167 15.172 15.155 15.13 14.785 14.618 15.065 15.385 15.427 15.45 15.488 15.558 15.683 15.835 15.988 16.148 16.298 16.383 16.435 16.505 16.507 16.46 16.427 16.395 16.385 16.415 16.465 16.515 16.532 16.5 16.447 16.395 16.375 16.387 16.402 16.42 16.422 16.41 16.397 16.382 16.37 16.363 16.378 16.407 16.428 16.463 16.535 16.625 16.695 16.732 16.757 16.785 16.815 16.842 16.87 16.888 16.888 16.89 16.9 16.915 17 17.185 17.408 17.595 17.717 17.81 17.903 17.997 18.082 18.15 18.197 18.235 18.25 18.23 18.198 18.2 18.255 18.31 18.353 18.385 18.382 18.35 18.305 18.26 18.255 18.29 18.33 18.365 18.418 18.487 18.553 18.618 18.675 18.718 18.75 18.783 18.823 18.873 18.93 18.988 19.045 19.105 19.17 19.235 19.32 19.448 19.592 19.742 19.87 19.967 20.063 20.168 20.285 20.4 20.508 20.613 20.718 20.825 20.935 21.042 21.12 21.17 21.222 21.275 21.33 21.375 21.397 21.413 21.453 21.51 21.56 21.615 21.69 21.78
14.355 14.165 14.123 14.18 14.238 14.288 14.35 14.427 14.505 14.58 14.645 14.705 14.767 14.827 14.89 14.965 15.045 15.137 15.195 15.205 15.215 15.225 15.217 15.175 15.155 15.215 15.3 15.37 15.44 15.5 15.528 15.533 15.538 15.53 15.49 15.433 15.375 15.305 15.222 15.125 15.018 14.913 14.855 14.845 14.835 14.823 14.82 14.835 14.855 14.87 14.852 14.805 14.76 14.725 14.703 14.695 14.693 14.7 14.743 14.81 14.885 14.965 15.025 15.062 15.097 15.117 15.112 15.095 15.082 14.835 14.511 14.878 15.36 15.43 15.467 15.475 15.498 15.543 15.65 15.805 15.955 16.105 16.242 16.34 16.407 16.47 16.507 16.5 16.47 16.44 16.437 16.472 16.52 16.567 16.567 16.517 16.465 16.415 16.397 16.412 16.427 16.447 16.455 16.442 16.425 16.408 16.395 16.368 16.338 16.345 16.37 16.405 16.475 16.565 16.662 16.767 16.847 16.89 16.92 16.948 16.975 16.97 16.945 16.94 16.94 16.928 16.975 17.145 17.36 17.54 17.67 17.775 17.875 17.97 18.052 18.125 18.177 18.212 18.227 18.195 18.148 18.165 18.245 18.31 18.347 18.372 18.377 18.357 18.317 18.275 18.26 18.283 18.32 18.355 18.4 18.46 18.525 18.59 18.643 18.685 18.72 18.753 18.798 18.853 18.908 18.973 19.043 19.105 19.168 19.23 19.303 19.41 19.548 19.695 19.82 19.92 20.02 20.118 20.22 20.33 20.44 20.55 20.653 20.753 20.86 20.97 21.037 21.073 21.125 21.18 21.235 21.285 21.312 21.328 21.378 21.445 21.495 21.548 21.61 21.693
14.365 14.175 14.133 14.187 14.23 14.255 14.305 14.38 14.45 14.517 14.58 14.64 14.702 14.76 14.82 14.898 15 15.132 15.21 15.22 15.233 15.245 15.242 15.195 15.13 15.2 15.33 15.4 15.465 15.515 15.535 15.535 15.525 15.495 15.445 15.388 15.327 15.255 15.185 15.112 15.02 14.915 14.855 14.845 14.83 14.805 14.795 14.807 14.822 14.832 14.812 14.768 14.738 14.72 14.693 14.67 14.663 14.673 14.715 14.783 14.858 14.935 14.995 15.035 15.057 15.05 15.038 15.037 14.962 14.618 14.745 15.255 15.405 15.475 15.507 15.503 15.513 15.543 15.633 15.783 15.935 16.085 16.215 16.302 16.362 16.415 16.467 16.495 16.48 16.453 16.455 16.49 16.533 16.577 16.57 16.51 16.453 16.4 16.383 16.4 16.423 16.452 16.47 16.465 16.45 16.433 16.422 16.41 16.365 16.315 16.313 16.348 16.415 16.51 16.615 16.737 16.875 16.98 17.027 17.053 17.077 17.05 17.005 17 16.99 16.953 16.978 17.14 17.335 17.485 17.607 17.72 17.83 17.927 18 18.072 18.145 18.195 18.222 18.198 18.165 18.19 18.25 18.305 18.335 18.345 18.347 18.345 18.32 18.28 18.268 18.288 18.32 18.355 18.395 18.445 18.503 18.567 18.625 18.672 18.712 18.748 18.79 18.845 18.91 18.988 19.065 19.13 19.19 19.253 19.315 19.388 19.495 19.632 19.757 19.86 19.963 20.068 20.175 20.283 20.39 20.5 20.6 20.693 20.793 20.897 20.96 20.983 21.018 21.068 21.122 21.175 21.212 21.238 21.305 21.397 21.46 21.51 21.56 21.623
14.347 14.188 14.145 14.185 14.202 14.21 14.253 14.325 14.39 14.453 14.515 14.575 14.635 14.69 14.753 14.848 14.983 15.137 15.222 15.235 15.25 15.265 15.27 15.215 15.105 15.19 15.365 15.427 15.477 15.522 15.545 15.537 15.507 15.462 15.41 15.347 15.277 15.203 15.135 15.075 15.005 14.915 14.855 14.835 14.81 14.78 14.77 14.777 14.785 14.79 14.773 14.743 14.73 14.72 14.693 14.66 14.643 14.658 14.705 14.77 14.838 14.91 14.97 14.995 15 15 15.01 15.037 14.753 14.698 15.142 15.375 15.445 15.512 15.542 15.54 15.543 15.555 15.623 15.76 15.915 16.065 16.185 16.257 16.307 16.355 16.41 16.46 16.477 16.468 16.478 16.513 16.55 16.585 16.57 16.51 16.453 16.398 16.375 16.398 16.43 16.46 16.48 16.482 16.472 16.458 16.448 16.447 16.425 16.355 16.295 16.295 16.36 16.468 16.575 16.68 16.83 17 17.11 17.16 17.172 17.12 17.065 17.052 17.02 16.963 16.978 17.12 17.285 17.42 17.542 17.652 17.757 17.852 17.925 17.997 18.082 18.157 18.21 18.215 18.218 18.25 18.282 18.31 18.318 18.315 18.315 18.317 18.312 18.283 18.273 18.295 18.323 18.355 18.395 18.44 18.488 18.548 18.605 18.653 18.698 18.74 18.785 18.848 18.928 19.012 19.087 19.15 19.213 19.277 19.34 19.4 19.473 19.578 19.695 19.803 19.91 20.02 20.13 20.237 20.343 20.45 20.55 20.638 20.728 20.825 20.89 20.91 20.925 20.96 21.01 21.06 21.107 21.148 21.223 21.332 21.417 21.475 21.525 21.575
14.217 14.158 14.14 14.16 14.168 14.175 14.208 14.268 14.333 14.395 14.453 14.508 14.565 14.62 14.698 14.825 14.982 15.145 15.237 15.255 15.267 15.28 15.29 15.23 15.098 15.15 15.345 15.442 15.485 15.527 15.545 15.52 15.475 15.427 15.373 15.305 15.23 15.155 15.093 15.035 14.975 14.91 14.858 14.828 14.8 14.77 14.75 14.745 14.75 14.757 14.75 14.735 14.73 14.722 14.697 14.66 14.628 14.64 14.695 14.76 14.825 14.892 14.945 14.96 14.97 14.993 15.025 14.758 14.595 15.015 15.345 15.415 15.485 15.55 15.58 15.58 15.58 15.58 15.62 15.74 15.895 16.047 16.152 16.205 16.25 16.295 16.35 16.405 16.45 16.477 16.502 16.538 16.572 16.6 16.587 16.535 16.48 16.425 16.395 16.41 16.44 16.47 16.49 16.495 16.492 16.482 16.473 16.47 16.467 16.427 16.345 16.305 16.345 16.435 16.532 16.623 16.763 16.95 17.122 17.24 17.255 17.182 17.122 17.087 17.032 16.968 16.968 17.075 17.22 17.355 17.472 17.572 17.667 17.757 17.825 17.89 17.972 18.055 18.137 18.212 18.26 18.287 18.312 18.327 18.323 18.313 18.305 18.298 18.295 18.28 18.28 18.305 18.33 18.36 18.398 18.443 18.488 18.543 18.6 18.648 18.695 18.748 18.805 18.878 18.958 19.038 19.11 19.172 19.237 19.3 19.36 19.42 19.48 19.553 19.645 19.75 19.86 19.97 20.08 20.19 20.297 20.402 20.497 20.583 20.67 20.762 20.822 20.84 20.85 20.87 20.908 20.955 21.003 21.05 21.135 21.253 21.357 21.432 21.487 21.54
14.113 14.12 14.128 14.14 14.153 14.168 14.185 14.225 14.288 14.35 14.403 14.45 14.503 14.555 14.643 14.782 14.942 15.105 15.21 15.24 15.25 15.26 15.267 15.22 15.095 15.068 15.24 15.41 15.477 15.52 15.527 15.492 15.445 15.4 15.347 15.28 15.208 15.133 15.078 15.04 14.99 14.935 14.89 14.858 14.83 14.793 14.753 14.73 14.73 14.738 14.737 14.73 14.725 14.717 14.692 14.655 14.623 14.638 14.695 14.758 14.823 14.887 14.93 14.95 14.975 15.007 14.895 14.583 14.84 15.315 15.385 15.455 15.52 15.572 15.6 15.605 15.605 15.603 15.63 15.74 15.898 16.052 16.147 16.183 16.218 16.253 16.293 16.343 16.397 16.45 16.51 16.562 16.595 16.617 16.617 16.582 16.528 16.473 16.44 16.438 16.453 16.48 16.502 16.507 16.505 16.502 16.495 16.492 16.497 16.485 16.445 16.417 16.417 16.44 16.495 16.573 16.71 16.905 17.105 17.257 17.29 17.227 17.157 17.1 17.035 16.98 16.978 17.068 17.21 17.327 17.408 17.485 17.58 17.662 17.683 17.703 17.775 17.855 17.975 18.15 18.267 18.305 18.33 18.342 18.342 18.335 18.323 18.31 18.298 18.283 18.293 18.32 18.345 18.375 18.41 18.455 18.505 18.575 18.645 18.695 18.745 18.798 18.863 18.938 19.013 19.08 19.133 19.188 19.252 19.315 19.375 19.435 19.495 19.537 19.59 19.685 19.797 19.91 20.02 20.135 20.252 20.36 20.45 20.533 20.62 20.71 20.765 20.78 20.793 20.818 20.848 20.883 20.928 20.978 21.065 21.183 21.292 21.377 21.437 21.49
14.12 14.12 14.125 14.135 14.15 14.17 14.183 14.203 14.25 14.31 14.36 14.403 14.448 14.498 14.585 14.713 14.858 15.015 15.13 15.18 15.2 15.21 15.215 15.192 15.095 15.023 15.168 15.36 15.442 15.495 15.5 15.465 15.422 15.377 15.327 15.27 15.202 15.128 15.083 15.067 15.04 14.995 14.95 14.915 14.877 14.822 14.77 14.74 14.728 14.725 14.725 14.72 14.712 14.7 14.677 14.645 14.628 14.653 14.705 14.765 14.828 14.89 14.932 14.96 14.995 15 14.7 14.758 15.21 15.355 15.42 15.48 15.53 15.565 15.592 15.61 15.615 15.615 15.65 15.763 15.92 16.075 16.172 16.208 16.233 16.26 16.29 16.318 16.333 16.365 16.458 16.562 16.615 16.63 16.635 16.62 16.575 16.52 16.49 16.48 16.478 16.493 16.515 16.522 16.52 16.517 16.51 16.5 16.49 16.477 16.472 16.475 16.465 16.445 16.465 16.553 16.703 16.903 17.1 17.215 17.252 17.23 17.16 17.095 17.045 17.018 17.02 17.103 17.235 17.32 17.365 17.418 17.5 17.567 17.545 17.495 17.525 17.618 17.788 18.03 18.232 18.322 18.345 18.357 18.36 18.357 18.347 18.335 18.32 18.295 18.3 18.335 18.365 18.395 18.43 18.478 18.55 18.65 18.73 18.778 18.825 18.875 18.94 19.015 19.08 19.13 19.165 19.203 19.26 19.325 19.385 19.445 19.485 19.485 19.513 19.605 19.718 19.832 19.945 20.07 20.21 20.33 20.417 20.493 20.575 20.662 20.715 20.733 20.76 20.805 20.835 20.85 20.883 20.93 21.015 21.127 21.225 21.31 21.375 21.425
14.125 14.118 14.12 14.133 14.153 14.175 14.187 14.195 14.223 14.275 14.322 14.36 14.398 14.445 14.535 14.655 14.78 14.922 15.035 15.097 15.14 15.16 15.165 15.16 15.09 15.013 15.137 15.257 15.342 15.465 15.47 15.435 15.395 15.352 15.305 15.252 15.192 15.125 15.085 15.077 15.067 15.042 15.005 14.965 14.912 14.845 14.793 14.763 14.738 14.72 14.713 14.705 14.693 14.678 14.663 14.64 14.638 14.668 14.715 14.775 14.838 14.9 14.948 14.985 15.025 14.663 14.541 15.045 15.32 15.38 15.435 15.48 15.515 15.548 15.577 15.6 15.617 15.625 15.673 15.793 15.943 16.097 16.202 16.245 16.272 16.3 16.327 16.332 16.308 16.305 16.395 16.537 16.617 16.637 16.645 16.642 16.617 16.57 16.54 16.53 16.52 16.515 16.525 16.535 16.525 16.5 16.472 16.442 16.412 16.385 16.38 16.397 16.405 16.403 16.45 16.578 16.738 16.92 17.085 17.16 17.19 17.197 17.155 17.108 17.088 17.08 17.075 17.14 17.24 17.297 17.337 17.375 17.433 17.472 17.435 17.35 17.31 17.405 17.625 17.88 18.13 18.302 18.357 18.37 18.377 18.38 18.372 18.357 18.335 18.303 18.305 18.345 18.382 18.415 18.453 18.52 18.623 18.735 18.815 18.862 18.908 18.955 19.017 19.082 19.13 19.17 19.205 19.235 19.275 19.333 19.395 19.432 19.43 19.405 19.43 19.525 19.635 19.748 19.868 20.008 20.165 20.3 20.39 20.46 20.535 20.617 20.67 20.7 20.75 20.805 20.832 20.838 20.853 20.885 20.963 21.065 21.152 21.237 21.31 21.368
14.125 14.115 14.118 14.135 14.158 14.18 14.192 14.2 14.213 14.245 14.285 14.32 14.358 14.4 14.48 14.592 14.707 14.832 14.932 14.995 15.052 15.097 15.115 15.112 15.07 15.003 15.07 15.13 15.198 15.377 15.437 15.402 15.365 15.325 15.28 15.225 15.17 15.118 15.085 15.08 15.075 15.065 15.042 14.997 14.935 14.868 14.818 14.785 14.752 14.723 14.705 14.695 14.68 14.665 14.653 14.648 14.663 14.69 14.733 14.793 14.858 14.92 14.972 15.015 14.832 14.525 14.835 15.28 15.335 15.385 15.425 15.46 15.497 15.532 15.562 15.585 15.607 15.625 15.688 15.817 15.962 16.11 16.217 16.262 16.287 16.31 16.33 16.325 16.305 16.3 16.38 16.515 16.595 16.632 16.647 16.652 16.65 16.62 16.59 16.58 16.57 16.55 16.527 16.507 16.472 16.425 16.38 16.34 16.303 16.268 16.26 16.285 16.32 16.355 16.443 16.6 16.767 16.94 17.07 17.12 17.143 17.162 17.147 17.122 17.122 17.125 17.122 17.16 17.222 17.27 17.312 17.35 17.395 17.445 17.49 17.517 17.465 17.378 17.48 17.735 17.99 18.225 18.355 18.382 18.39 18.397 18.395 18.375 18.34 18.308 18.313 18.352 18.395 18.432 18.493 18.592 18.705 18.817 18.9 18.948 18.993 19.038 19.087 19.132 19.17 19.21 19.245 19.275 19.305 19.345 19.377 19.372 19.347 19.323 19.35 19.445 19.555 19.665 19.795 19.95 20.11 20.257 20.362 20.435 20.502 20.575 20.635 20.685 20.745 20.8 20.827 20.832 20.84 20.853 20.905 20.99 21.075 21.16 21.237 21.307
14.125 14.12 14.13 14.15 14.168 14.185 14.2 14.207 14.213 14.228 14.258 14.295 14.338 14.378 14.423 14.503 14.615 14.732 14.822 14.885 14.948 15.025 15.065 15.058 15.042 14.99 14.995 15.077 15.075 15.173 15.342 15.357 15.32 15.28 15.232 15.177 15.128 15.093 15.073 15.065 15.06 15.055 15.04 14.995 14.935 14.877 14.832 14.797 14.76 14.725 14.705 14.697 14.685 14.67 14.66 14.678 14.713 14.74 14.775 14.823 14.88 14.943 15 14.94 14.615 14.788 15.227 15.277 15.325 15.375 15.402 15.42 15.457 15.497 15.535 15.567 15.59 15.613 15.675 15.797 15.94 16.097 16.215 16.252 16.27 16.287 16.305 16.3 16.293 16.3 16.378 16.495 16.567 16.615 16.637 16.652 16.665 16.657 16.63 16.6 16.57 16.532 16.482 16.43 16.38 16.343 16.31 16.27 16.228 16.188 16.185 16.223 16.275 16.33 16.425 16.585 16.76 16.927 17.045 17.092 17.118 17.142 17.117 17.073 17.067 17.075 17.085 17.112 17.16 17.217 17.282 17.34 17.388 17.458 17.587 17.74 17.797 17.553 17.395 17.598 17.85 18.092 18.297 18.397 18.413 18.42 18.422 18.405 18.373 18.345 18.33 18.345 18.387 18.43 18.515 18.642 18.767 18.895 18.987 19.035 19.077 19.12 19.155 19.187 19.223 19.26 19.295 19.325 19.347 19.335 19.302 19.28 19.26 19.238 19.268 19.368 19.48 19.59 19.725 19.885 20.045 20.2 20.317 20.395 20.46 20.522 20.587 20.65 20.71 20.765 20.795 20.802 20.807 20.81 20.84 20.91 20.992 21.075 21.155 21.23
14.133 14.135 14.15 14.17 14.182 14.187 14.197 14.21 14.22 14.23 14.253 14.29 14.332 14.37 14.39 14.423 14.505 14.617 14.707 14.775 14.865 14.977 15.025 15.01 15.002 14.965 14.953 15.067 15.023 14.948 15.105 15.24 15.26 15.217 15.168 15.118 15.083 15.065 15.053 15.04 15.03 15.025 15.01 14.965 14.91 14.86 14.822 14.795 14.762 14.728 14.703 14.695 14.69 14.68 14.685 14.725 14.775 14.81 14.84 14.873 14.915 14.97 15.027 14.643 14.538 15.012 15.21 15.262 15.31 15.36 15.382 15.378 15.395 15.438 15.485 15.53 15.567 15.597 15.64 15.743 15.895 16.082 16.212 16.237 16.248 16.262 16.272 16.275 16.283 16.295 16.365 16.465 16.535 16.59 16.622 16.645 16.657 16.655 16.622 16.567 16.51 16.452 16.395 16.343 16.31 16.3 16.283 16.245 16.205 16.175 16.183 16.22 16.268 16.32 16.405 16.553 16.722 16.877 16.992 17.062 17.102 17.127 17.085 16.993 16.955 16.96 16.978 17.015 17.075 17.158 17.252 17.33 17.385 17.443 17.56 17.717 17.857 17.725 17.43 17.46 17.7 17.925 18.165 18.372 18.45 18.455 18.46 18.457 18.44 18.415 18.38 18.35 18.365 18.408 18.5 18.64 18.78 18.927 19.047 19.115 19.16 19.197 19.21 19.238 19.285 19.32 19.355 19.372 19.347 19.265 19.195 19.17 19.155 19.145 19.188 19.295 19.41 19.52 19.655 19.815 19.972 20.122 20.242 20.327 20.397 20.46 20.525 20.59 20.647 20.7 20.732 20.745 20.75 20.753 20.78 20.838 20.908 20.988 21.067 21.14
14.15 14.16 14.175 14.187 14.187 14.178 14.18 14.202 14.222 14.235 14.258 14.293 14.328 14.362 14.382 14.39 14.423 14.508 14.598 14.688 14.82 14.947 14.99 14.97 14.955 14.93 14.93 15.052 15.025 14.855 14.883 15.023 15.132 15.15 15.108 15.073 15.055 15.047 15.037 15.02 15.005 14.997 14.977 14.932 14.88 14.833 14.798 14.775 14.752 14.725 14.698 14.685 14.685 14.688 14.718 14.775 14.832 14.875 14.907 14.94 14.975 15.012 15.027 14.735 14.788 15.145 15.19 15.245 15.295 15.345 15.365 15.35 15.345 15.375 15.425 15.475 15.525 15.568 15.603 15.695 15.87 16.082 16.21 16.225 16.228 16.24 16.248 16.253 16.268 16.288 16.345 16.427 16.5 16.562 16.605 16.627 16.632 16.62 16.582 16.52 16.443 16.368 16.308 16.275 16.275 16.282 16.27 16.24 16.213 16.195 16.205 16.235 16.27 16.313 16.385 16.518 16.675 16.82 16.93 17.01 17.075 17.112 17.07 16.953 16.865 16.845 16.87 16.93 17.018 17.118 17.222 17.307 17.37 17.43 17.53 17.668 17.802 17.822 17.575 17.4 17.533 17.75 17.993 18.257 18.44 18.495 18.5 18.505 18.502 18.482 18.447 18.4 18.37 18.388 18.48 18.625 18.775 18.935 19.072 19.165 19.235 19.277 19.268 19.28 19.34 19.382 19.395 19.357 19.272 19.165 19.085 19.05 19.043 19.055 19.118 19.228 19.34 19.45 19.585 19.742 19.892 20.035 20.155 20.247 20.327 20.397 20.462 20.522 20.577 20.627 20.66 20.677 20.69 20.7 20.728 20.775 20.83 20.903 20.98 21.058
14.172 14.185 14.192 14.187 14.175 14.163 14.163 14.185 14.215 14.238 14.263 14.297 14.33 14.362 14.38 14.385 14.395 14.433 14.518 14.643 14.79 14.915 14.955 14.932 14.912 14.893 14.903 14.99 15 14.863 14.795 14.855 14.97 15.055 15.057 15.042 15.035 15.027 15.017 15 14.985 14.972 14.947 14.905 14.855 14.808 14.773 14.75 14.73 14.71 14.688 14.68 14.688 14.7 14.745 14.812 14.877 14.922 14.937 14.942 14.95 14.955 14.96 15.027 15.102 15.128 15.168 15.222 15.275 15.327 15.35 15.332 15.313 15.345 15.408 15.455 15.503 15.55 15.593 15.68 15.863 16.09 16.212 16.217 16.213 16.218 16.227 16.238 16.252 16.27 16.315 16.39 16.465 16.53 16.567 16.58 16.587 16.575 16.537 16.47 16.375 16.293 16.248 16.243 16.255 16.267 16.265 16.247 16.23 16.215 16.225 16.255 16.285 16.318 16.368 16.473 16.615 16.755 16.865 16.945 17.022 17.087 17.06 16.94 16.818 16.753 16.785 16.878 16.98 17.083 17.188 17.28 17.353 17.423 17.518 17.64 17.767 17.862 17.78 17.608 17.568 17.635 17.818 18.085 18.337 18.497 18.54 18.545 18.552 18.545 18.515 18.47 18.42 18.398 18.473 18.628 18.79 18.955 19.09 19.19 19.285 19.347 19.342 19.328 19.38 19.417 19.37 19.275 19.17 19.065 18.975 18.938 18.95 18.98 19.05 19.16 19.27 19.38 19.512 19.662 19.805 19.947 20.07 20.162 20.242 20.317 20.385 20.44 20.495 20.547 20.582 20.605 20.625 20.642 20.672 20.72 20.767 20.825 20.9 20.99
14.18 14.19 14.19 14.177 14.163 14.155 14.16 14.18 14.213 14.243 14.27 14.305 14.337 14.36 14.38 14.395 14.403 14.423 14.51 14.65 14.775 14.862 14.892 14.877 14.852 14.835 14.865 14.93 14.975 14.875 14.765 14.795 14.865 14.955 14.997 14.992 14.985 14.977 14.977 14.972 14.957 14.94 14.925 14.9 14.855 14.803 14.763 14.74 14.72 14.7 14.683 14.688 14.705 14.72 14.765 14.835 14.895 14.92 14.897 14.858 14.823 14.788 14.855 15.017 15.105 15.125 15.153 15.195 15.247 15.305 15.327 15.305 15.29 15.35 15.45 15.515 15.56 15.605 15.668 15.77 15.928 16.115 16.212 16.21 16.2 16.198 16.205 16.22 16.23 16.235 16.275 16.347 16.42 16.48 16.507 16.52 16.542 16.535 16.49 16.418 16.323 16.25 16.228 16.235 16.248 16.262 16.255 16.23 16.212 16.205 16.227 16.265 16.292 16.32 16.358 16.425 16.54 16.68 16.792 16.872 16.95 17.025 17.037 16.95 16.82 16.738 16.77 16.87 16.97 17.073 17.175 17.268 17.348 17.425 17.525 17.645 17.76 17.847 17.837 17.75 17.647 17.595 17.705 17.945 18.215 18.44 18.532 18.537 18.545 18.575 18.577 18.53 18.485 18.465 18.538 18.688 18.843 18.99 19.105 19.197 19.292 19.352 19.352 19.337 19.357 19.35 19.28 19.185 19.077 18.97 18.878 18.848 18.873 18.908 18.98 19.09 19.197 19.295 19.405 19.54 19.68 19.822 19.945 20.035 20.112 20.19 20.26 20.315 20.372 20.435 20.48 20.507 20.53 20.555 20.592 20.637 20.685 20.753 20.84 20.935
14.175 14.18 14.18 14.17 14.163 14.17 14.185 14.198 14.22 14.25 14.28 14.312 14.337 14.348 14.37 14.4 14.415 14.45 14.545 14.652 14.722 14.765 14.787 14.792 14.777 14.773 14.828 14.9 14.98 14.9 14.77 14.773 14.8 14.875 14.92 14.915 14.905 14.9 14.912 14.927 14.92 14.903 14.897 14.895 14.87 14.823 14.778 14.745 14.72 14.703 14.693 14.703 14.722 14.74 14.785 14.842 14.872 14.87 14.83 14.775 14.73 14.71 14.825 15.02 15.112 15.135 15.155 15.18 15.218 15.27 15.29 15.27 15.275 15.355 15.48 15.582 15.655 15.72 15.815 15.922 16.022 16.142 16.21 16.203 16.19 16.183 16.185 16.192 16.188 16.19 16.235 16.305 16.372 16.425 16.455 16.478 16.505 16.505 16.457 16.39 16.315 16.253 16.233 16.24 16.253 16.265 16.245 16.195 16.163 16.158 16.195 16.252 16.285 16.31 16.35 16.403 16.48 16.6 16.715 16.797 16.87 16.932 16.977 16.955 16.85 16.775 16.808 16.898 16.995 17.095 17.19 17.275 17.355 17.435 17.535 17.647 17.73 17.767 17.732 17.645 17.588 17.598 17.695 17.878 18.12 18.357 18.465 18.473 18.508 18.597 18.632 18.59 18.568 18.578 18.663 18.805 18.932 19.03 19.108 19.19 19.277 19.307 19.282 19.267 19.257 19.222 19.16 19.077 18.985 18.885 18.81 18.795 18.808 18.833 18.905 19.007 19.097 19.177 19.268 19.383 19.515 19.655 19.775 19.867 19.95 20.03 20.097 20.155 20.223 20.297 20.35 20.377 20.405 20.44 20.48 20.525 20.593 20.69 20.79 20.885
14.188 14.178 14.175 14.17 14.18 14.205 14.222 14.225 14.235 14.26 14.29 14.315 14.327 14.333 14.35 14.382 14.415 14.455 14.52 14.575 14.61 14.645 14.67 14.687 14.693 14.713 14.785 14.868 14.972 14.917 14.77 14.755 14.763 14.803 14.84 14.835 14.825 14.82 14.835 14.862 14.875 14.867 14.863 14.87 14.87 14.842 14.8 14.763 14.73 14.708 14.703 14.718 14.74 14.76 14.79 14.815 14.823 14.813 14.775 14.73 14.695 14.725 14.878 15.042 15.117 15.145 15.165 15.185 15.208 15.24 15.253 15.243 15.268 15.358 15.48 15.6 15.702 15.785 15.872 15.952 16.03 16.14 16.207 16.202 16.188 16.175 16.17 16.163 16.145 16.145 16.19 16.26 16.327 16.38 16.415 16.443 16.47 16.477 16.437 16.38 16.325 16.273 16.25 16.253 16.258 16.265 16.242 16.183 16.128 16.103 16.14 16.215 16.27 16.305 16.345 16.4 16.458 16.538 16.637 16.717 16.78 16.835 16.882 16.91 16.865 16.815 16.855 16.938 17.027 17.122 17.21 17.287 17.365 17.445 17.535 17.61 17.645 17.662 17.63 17.58 17.59 17.635 17.733 17.88 18.063 18.277 18.392 18.433 18.525 18.645 18.692 18.677 18.682 18.703 18.788 18.907 18.995 19.067 19.12 19.183 19.252 19.257 19.203 19.155 19.135 19.107 19.04 18.955 18.878 18.805 18.768 18.765 18.765 18.773 18.823 18.9 18.97 19.043 19.133 19.24 19.355 19.485 19.602 19.695 19.785 19.87 19.938 20.003 20.083 20.165 20.22 20.248 20.28 20.318 20.36 20.43 20.53 20.64 20.74 20.835
14.207 14.182 14.177 14.19 14.215 14.242 14.257 14.26 14.262 14.273 14.292 14.307 14.313 14.32 14.335 14.365 14.405 14.438 14.465 14.49 14.513 14.533 14.553 14.575 14.595 14.645 14.735 14.83 14.922 14.895 14.768 14.74 14.752 14.75 14.763 14.76 14.753 14.748 14.76 14.788 14.812 14.825 14.83 14.84 14.85 14.847 14.82 14.785 14.75 14.715 14.723 14.763 14.795 14.823 14.833 14.823 14.81 14.78 14.738 14.705 14.673 14.745 14.947 15.085 15.125 15.155 15.177 15.195 15.218 15.243 15.243 15.223 15.258 15.355 15.462 15.565 15.66 15.742 15.812 15.885 15.99 16.125 16.205 16.207 16.193 16.18 16.168 16.153 16.138 16.133 16.158 16.215 16.285 16.342 16.377 16.405 16.435 16.45 16.42 16.365 16.315 16.278 16.268 16.27 16.27 16.27 16.24 16.178 16.113 16.065 16.09 16.168 16.24 16.298 16.348 16.403 16.455 16.513 16.58 16.638 16.688 16.738 16.78 16.825 16.842 16.85 16.9 16.97 17.052 17.137 17.212 17.287 17.362 17.437 17.5 17.53 17.545 17.565 17.568 17.585 17.632 17.68 17.778 17.92 18.068 18.232 18.35 18.435 18.547 18.66 18.722 18.745 18.772 18.805 18.882 18.972 19.043 19.117 19.157 19.183 19.215 19.202 19.135 19.055 19.013 18.99 18.93 18.845 18.765 18.733 18.74 18.74 18.74 18.743 18.773 18.828 18.888 18.955 19.04 19.138 19.233 19.333 19.43 19.52 19.613 19.702 19.782 19.862 19.95 20.035 20.092 20.128 20.165 20.203 20.263 20.363 20.475 20.587 20.692 20.79
14.177 14.147 14.14 14.165 14.197 14.237 14.265 14.27 14.27 14.277 14.292 14.3 14.305 14.315 14.328 14.355 14.395 14.425 14.443 14.455 14.465 14.46 14.46 14.48 14.508 14.575 14.68 14.787 14.87 14.882 14.785 14.728 14.747 14.735 14.72 14.71 14.705 14.703 14.713 14.735 14.76 14.795 14.818 14.825 14.835 14.845 14.83 14.795 14.76 14.723 14.77 14.86 14.905 14.937 14.94 14.915 14.875 14.813 14.745 14.69 14.658 14.775 15.005 15.12 15.14 15.165 15.19 15.215 15.245 15.272 15.265 15.225 15.24 15.318 15.403 15.488 15.575 15.66 15.74 15.838 15.97 16.115 16.202 16.212 16.198 16.187 16.175 16.16 16.15 16.145 16.155 16.188 16.243 16.302 16.342 16.37 16.397 16.412 16.387 16.338 16.3 16.28 16.277 16.28 16.282 16.28 16.25 16.193 16.128 16.07 16.085 16.16 16.235 16.305 16.363 16.415 16.468 16.523 16.57 16.613 16.655 16.68 16.685 16.71 16.755 16.802 16.857 16.922 17.03 17.135 17.193 17.255 17.33 17.4 17.442 17.458 17.478 17.51 17.55 17.595 17.645 17.698 17.795 17.935 18.075 18.197 18.3 18.4 18.502 18.605 18.675 18.715 18.757 18.815 18.912 19.022 19.107 19.172 19.195 19.18 19.165 19.14 19.077 18.98 18.903 18.872 18.822 18.738 18.68 18.69 18.715 18.715 18.718 18.728 18.755 18.803 18.86 18.925 19.005 19.09 19.165 19.22 19.275 19.355 19.445 19.535 19.625 19.712 19.8 19.89 19.972 20.032 20.075 20.115 20.19 20.3 20.41 20.525 20.645 20.76
14.05 14.057 14.06 14.088 14.138 14.2 14.24 14.248 14.255 14.273 14.29 14.298 14.305 14.315 14.325 14.348 14.385 14.415 14.43 14.437 14.432 14.405 14.388 14.4 14.433 14.5 14.613 14.737 14.835 14.892 14.807 14.705 14.727 14.74 14.718 14.695 14.683 14.678 14.685 14.71 14.748 14.797 14.825 14.828 14.835 14.845 14.832 14.798 14.763 14.733 14.795 14.94 15.03 15.06 15.06 15.022 14.96 14.885 14.803 14.723 14.683 14.815 15.037 15.147 15.185 15.215 15.245 15.265 15.288 15.31 15.295 15.248 15.23 15.278 15.353 15.433 15.515 15.593 15.688 15.815 15.96 16.105 16.2 16.217 16.203 16.195 16.185 16.17 16.163 16.16 16.17 16.188 16.215 16.263 16.305 16.333 16.355 16.367 16.35 16.318 16.298 16.285 16.28 16.283 16.29 16.29 16.265 16.22 16.162 16.103 16.115 16.19 16.262 16.33 16.385 16.438 16.492 16.545 16.592 16.635 16.667 16.665 16.603 16.578 16.623 16.675 16.738 16.835 16.99 17.132 17.195 17.23 17.285 17.35 17.39 17.413 17.45 17.498 17.542 17.583 17.63 17.683 17.78 17.917 18.037 18.13 18.22 18.32 18.42 18.517 18.587 18.63 18.685 18.765 18.888 19.035 19.157 19.215 19.2 19.152 19.105 19.072 19.02 18.922 18.818 18.758 18.71 18.638 18.625 18.67 18.687 18.69 18.7 18.713 18.733 18.775 18.835 18.903 18.985 19.055 19.097 19.12 19.148 19.203 19.28 19.37 19.46 19.548 19.638 19.735 19.84 19.932 19.997 20.045 20.12 20.23 20.34 20.453 20.582 20.72
13.88 13.943 13.965 14.002 14.09 14.17 14.212 14.23 14.25 14.27 14.285 14.295 14.305 14.315 14.325 14.343 14.375 14.405 14.415 14.405 14.375 14.335 14.31 14.323 14.363 14.423 14.535 14.677 14.792 14.882 14.825 14.7 14.71 14.737 14.72 14.695 14.673 14.658 14.665 14.705 14.76 14.815 14.84 14.84 14.843 14.847 14.835 14.803 14.773 14.748 14.783 14.942 15.115 15.182 15.167 15.105 15.03 14.955 14.875 14.795 14.76 14.873 15.05 15.162 15.23 15.275 15.31 15.325 15.337 15.35 15.325 15.268 15.23 15.263 15.337 15.413 15.485 15.55 15.648 15.795 15.95 16.095 16.197 16.222 16.21 16.203 16.193 16.183 16.18 16.178 16.185 16.202 16.22 16.245 16.275 16.3 16.32 16.338 16.335 16.318 16.303 16.29 16.285 16.29 16.3 16.3 16.275 16.235 16.187 16.133 16.143 16.215 16.285 16.35 16.405 16.46 16.515 16.567 16.615 16.647 16.672 16.657 16.555 16.473 16.49 16.548 16.645 16.798 16.972 17.137 17.225 17.245 17.27 17.31 17.35 17.39 17.442 17.495 17.54 17.578 17.618 17.665 17.758 17.877 17.97 18.05 18.14 18.237 18.335 18.43 18.5 18.558 18.635 18.725 18.843 18.995 19.135 19.192 19.165 19.11 19.053 19.01 18.957 18.865 18.753 18.658 18.593 18.558 18.59 18.647 18.665 18.673 18.685 18.698 18.713 18.75 18.808 18.877 18.945 18.977 18.992 19.008 19.035 19.075 19.128 19.205 19.295 19.388 19.485 19.585 19.69 19.795 19.89 19.965 20.05 20.16 20.27 20.38 20.508 20.653
