ncols         200
nrows         79
xllcorner     547000
yllcorner     257215
cellsize      5
NODATA_value  -9999.0
12.45 12.325 12.232 12.14 12.02 11.89 11.79 11.73 11.67 11.608 11.555 11.525 11.503 11.48 11.468 11.472 11.49 11.497 11.41 11.26 11.13 11.028 10.975 10.945 10.915 10.89 10.883 10.89 10.895 10.9 10.895 10.875 10.858 10.842 10.822 10.795 10.805 10.867 10.94 11.012 11.08 11.149 10.465 10.325 10.887 10.812 10.705 10.572 10.385 10.163 9.995 9.883 9.755 9.615 9.518 9.48 9.462 9.445 9.435 9.435 9.435 9.425 9.365 9.265 9.17 9.093 9.02 8.91 8.818 8.745 8.655 8.583 8.528 8.488 8.452 8.365 8.23 8.123 8.093 8.118 8.14 8.165 8.193 8.228 8.278 8.328 8.375 8.423 8.47 8.507 8.52 8.52 8.528 8.543 8.548 8.543 8.537 8.522 8.47 8.393 8.32 8.25 8.203 8.203 8.24 8.31 8.41 8.535 8.697 8.845 8.927 8.992 9.07 9.095 9.04 8.715 7.945 7.46 7.46 7.46 7.46 7.46 7.46 7.46 7.46 7.46 7.46 7.46 7.46 7.46 7.46 7.46 7.461 8.678 10.157 10.372 10.197 9.322 8.018 7.46 7.46 7.46 7.46 7.46 7.46 7.46 7.46 7.46 7.46 7.46 7.46 7.46 7.46 7.46 7.46 7.46 7.46 7.586 8.766 11.089 12.482 12.835 13.77 14.182 13.06 11.883 11.688 12.518 13.975 15.127 15.467 15.483 15.575 15.665 15.745 15.988 16.405 16.745 16.975 17.175 17.377 17.6 17.83 18.04 18.235 18.425 18.615 18.808 19.003 19.197 19.385 19.55 19.695 19.84 19.965 20.062 20.157 20.252 20.337 20.385
12.38 12.253 12.182 12.127 12.01 11.86 11.748 11.685 11.625 11.568 11.525 11.5 11.48 11.46 11.443 11.435 11.443 11.452 11.405 11.292 11.165 11.055 10.995 10.965 10.938 10.913 10.888 10.88 10.887 10.892 10.885 10.865 10.845 10.828 10.812 10.795 10.785 10.818 10.882 10.945 11.015 10.587 9.354 9.751 10.892 10.855 10.82 10.78 10.655 10.427 10.185 9.988 9.835 9.683 9.55 9.473 9.443 9.427 9.412 9.395 9.375 9.345 9.275 9.19 9.125 9.075 9.032 8.945 8.873 8.817 8.723 8.625 8.538 8.468 8.405 8.318 8.215 8.143 8.123 8.135 8.143 8.145 8.158 8.205 8.272 8.33 8.385 8.44 8.49 8.505 8.498 8.503 8.523 8.555 8.57 8.562 8.545 8.52 8.462 8.373 8.29 8.22 8.16 8.125 8.128 8.183 8.295 8.458 8.648 8.832 8.935 8.96 8.975 8.99 8.987 8.955 8.197 7.46 7.46 7.46 7.46 7.46 7.46 7.46 7.46 7.46 7.46 7.46 7.46 7.46 7.46 7.46 7.89 9.099 10.154 10.449 10.046 8.65 7.568 7.46 7.46 7.46 7.46 7.46 7.46 7.46 7.46 7.46 7.46 7.46 7.46 7.46 7.46 7.46 7.46 7.46 7.46 7.46 8.106 10.085 11.892 12.535 13.298 14.197 13.689 12.188 11.608 12.018 13.25 14.752 15.385 15.487 15.54 15.56 15.595 15.825 16.24 16.585 16.82 17.028 17.253 17.503 17.762 18.005 18.215 18.407 18.6 18.792 18.988 19.185 19.392 19.597 19.765 19.91 20.032 20.127 20.222 20.315 20.425 20.515
12.292 12.175 12.115 12.095 11.985 11.815 11.703 11.64 11.585 11.54 11.505 11.48 11.46 11.44 11.425 11.41 11.398 11.398 11.367 11.29 11.19 11.08 11.013 10.988 10.965 10.945 10.91 10.88 10.88 10.885 10.875 10.855 10.835 10.815 10.798 10.78 10.76 10.755 10.785 10.848 10.967 10.12 9.191 10 10.74 10.66 10.672 10.737 10.76 10.627 10.39 10.178 10.015 9.855 9.675 9.515 9.423 9.388 9.365 9.338 9.31 9.278 9.225 9.168 9.125 9.085 9.045 8.975 8.93 8.89 8.795 8.698 8.603 8.508 8.418 8.328 8.243 8.183 8.165 8.167 8.157 8.14 8.143 8.195 8.275 8.352 8.417 8.472 8.505 8.49 8.475 8.495 8.535 8.575 8.587 8.572 8.545 8.515 8.46 8.368 8.27 8.19 8.133 8.09 8.06 8.088 8.215 8.405 8.602 8.8 8.945 8.992 8.98 8.958 8.945 8.937 8.198 7.46 7.46 7.46 7.46 7.46 7.46 7.46 7.46 7.46 7.46 7.46 7.46 7.46 7.46 7.46 7.89 8.49 8.817 8.98 8.625 7.863 7.46 7.46 7.46 7.46 7.46 7.46 7.46 7.46 7.46 7.46 7.46 7.46 7.46 7.46 7.46 7.46 7.46 7.46 7.46 7.46 7.796 9.216 11.237 12.365 12.91 13.939 14.067 12.688 11.723 11.711 12.635 14.112 15.092 15.38 15.365 15.38 15.423 15.663 16.077 16.425 16.673 16.903 17.158 17.42 17.68 17.94 18.18 18.39 18.585 18.778 18.975 19.175 19.378 19.6 19.812 19.98 20.1 20.193 20.285 20.378 20.493 20.615
12.19 12.103 12.068 12.062 11.945 11.765 11.66 11.605 11.56 11.523 11.488 11.458 11.438 11.423 11.41 11.4 11.39 11.378 11.338 11.27 11.19 11.095 11.035 11.015 10.998 10.98 10.945 10.9 10.878 10.872 10.86 10.842 10.825 10.805 10.785 10.762 10.738 10.71 10.7 10.785 10.977 10.293 9.86 10.465 10.625 10.493 10.468 10.548 10.66 10.7 10.575 10.37 10.195 10.027 9.84 9.65 9.483 9.373 9.32 9.285 9.248 9.235 9.22 9.177 9.135 9.095 9.055 9.003 8.982 8.955 8.865 8.77 8.68 8.59 8.497 8.395 8.295 8.22 8.185 8.167 8.142 8.118 8.123 8.175 8.25 8.34 8.427 8.492 8.505 8.473 8.465 8.5 8.55 8.59 8.595 8.57 8.54 8.51 8.462 8.378 8.273 8.183 8.135 8.115 8.093 8.093 8.183 8.36 8.557 8.755 8.937 9.022 9.01 8.985 8.965 8.947 8.2 7.46 7.46 7.46 7.46 7.46 7.46 7.46 7.46 7.46 7.46 7.46 7.46 7.46 7.46 7.46 7.46 7.461 7.461 7.461 7.461 7.46 7.46 7.46 7.46 7.46 7.46 7.46 7.46 7.46 7.46 7.46 7.46 7.46 7.46 7.46 7.46 7.46 7.46 7.46 7.46 7.46 7.785 8.873 10.625 12.022 12.613 13.457 14.104 13.295 11.983 11.603 12.175 13.313 14.65 15.272 15.228 15.203 15.25 15.498 15.912 16.275 16.555 16.81 17.075 17.34 17.6 17.858 18.112 18.355 18.567 18.765 18.965 19.167 19.37 19.585 19.815 20.025 20.165 20.258 20.35 20.443 20.555 20.69
12.12 12.073 12.073 12.05 11.9 11.718 11.623 11.578 11.545 11.523 11.49 11.45 11.433 11.425 11.418 11.413 11.405 11.395 11.362 11.293 11.208 11.128 11.075 11.05 11.033 11.015 10.98 10.933 10.893 10.865 10.845 10.828 10.81 10.79 10.77 10.748 10.72 10.693 10.69 10.795 11.01 10.453 10.26 10.67 10.523 10.39 10.35 10.413 10.508 10.607 10.64 10.537 10.37 10.195 10.002 9.802 9.595 9.398 9.273 9.218 9.193 9.217 9.225 9.185 9.145 9.105 9.06 9.008 9.007 9.01 8.94 8.85 8.763 8.675 8.58 8.477 8.373 8.275 8.205 8.158 8.123 8.095 8.1 8.155 8.225 8.305 8.4 8.485 8.512 8.49 8.475 8.495 8.54 8.582 8.592 8.57 8.54 8.51 8.49 8.442 8.348 8.255 8.215 8.215 8.197 8.17 8.203 8.33 8.513 8.71 8.907 9.022 9.035 9.017 8.995 8.974 8.212 7.46 7.46 7.46 7.46 7.46 7.46 7.46 7.46 7.46 7.46 7.46 7.46 7.46 7.46 7.46 7.46 7.46 7.46 7.46 7.46 7.46 7.46 7.46 7.46 7.46 7.46 7.46 7.46 7.46 7.46 7.46 7.46 7.46 7.46 7.46 7.46 7.46 7.46 7.46 7.46 7.46 7.825 8.76 9.885 11.422 12.485 13.03 13.974 13.799 12.373 11.621 11.798 12.668 14.057 14.995 15.182 15.07 15.08 15.335 15.74 16.105 16.407 16.68 16.95 17.23 17.517 17.787 18.045 18.305 18.535 18.735 18.937 19.143 19.358 19.58 19.808 20.037 20.22 20.337 20.43 20.52 20.63 20.763
12.105 12.095 12.105 12.047 11.863 11.688 11.628 11.608 11.575 11.54 11.492 11.453 11.445 11.442 11.44 11.435 11.425 11.417 11.397 11.335 11.253 11.185 11.133 11.095 11.07 11.05 11.015 10.968 10.928 10.915 10.915 10.9 10.87 10.83 10.78 10.74 10.718 10.703 10.75 10.875 10.942 10.48 10.333 10.572 10.445 10.333 10.293 10.333 10.403 10.485 10.572 10.605 10.502 10.312 10.105 9.887 9.657 9.425 9.238 9.143 9.148 9.212 9.23 9.19 9.15 9.097 9.025 8.97 8.998 9.052 9.025 8.94 8.85 8.757 8.66 8.56 8.455 8.35 8.263 8.195 8.14 8.09 8.083 8.135 8.205 8.28 8.365 8.457 8.53 8.537 8.508 8.498 8.52 8.557 8.577 8.57 8.545 8.523 8.53 8.535 8.477 8.388 8.345 8.335 8.292 8.25 8.265 8.34 8.478 8.665 8.857 8.977 9.022 9.035 9.022 8.617 7.84 7.46 7.46 7.46 7.46 7.46 7.46 7.46 7.46 7.46 7.46 7.46 7.46 7.46 7.46 7.46 7.46 7.46 7.46 7.46 7.46 7.46 7.46 7.46 7.46 7.46 7.46 7.46 7.46 7.46 7.46 7.46 7.46 7.46 7.46 7.46 7.46 7.46 7.46 7.46 7.46 7.46 7.725 8.392 8.931 10.58 12.312 12.723 13.595 13.974 12.9 11.823 11.61 12.248 13.335 14.592 15.205 15.028 14.96 15.16 15.542 15.9 16.207 16.485 16.775 17.085 17.405 17.71 17.99 18.255 18.485 18.685 18.898 19.123 19.358 19.588 19.813 20.04 20.245 20.407 20.522 20.615 20.725 20.852
12.13 12.132 12.135 12.07 11.91 11.76 11.69 11.655 11.605 11.542 11.485 11.46 11.458 11.455 11.455 11.452 11.447 11.442 11.43 11.377 11.303 11.245 11.195 11.148 11.113 11.09 11.055 11.008 10.993 11.022 11.04 11.027 10.992 10.925 10.835 10.76 10.723 10.745 10.85 10.952 10.897 10.595 10.47 10.502 10.39 10.285 10.245 10.273 10.323 10.395 10.475 10.552 10.535 10.367 10.145 9.917 9.682 9.448 9.223 9.093 9.115 9.2 9.227 9.19 9.127 9.042 8.945 8.91 8.973 9.067 9.092 9.027 8.937 8.84 8.74 8.64 8.537 8.432 8.338 8.265 8.2 8.133 8.113 8.158 8.225 8.293 8.36 8.435 8.517 8.562 8.555 8.535 8.528 8.538 8.55 8.555 8.543 8.538 8.56 8.585 8.582 8.522 8.473 8.442 8.38 8.333 8.345 8.4 8.48 8.623 8.8 8.91 8.962 9.007 8.917 8.135 7.46 7.46 7.46 7.46 7.46 7.46 7.46 7.46 7.46 7.46 7.46 7.46 7.46 7.46 7.46 7.46 7.46 7.46 7.46 7.46 7.46 7.46 7.46 7.46 7.46 7.46 7.46 7.46 7.46 7.46 7.46 7.46 7.46 7.46 7.46 7.46 7.46 7.46 7.46 7.46 7.46 7.46 7.555 7.845 8.026 9.543 11.854 12.612 13.138 13.869 13.402 12.098 11.533 11.848 12.638 14.037 15.007 15.072 14.933 15.015 15.338 15.685 16.005 16.295 16.61 16.935 17.26 17.585 17.897 18.192 18.44 18.658 18.89 19.135 19.377 19.602 19.82 20.04 20.245 20.43 20.592 20.71 20.82 20.93
12.155 12.152 12.15 12.095 11.975 11.84 11.732 11.663 11.598 11.53 11.485 11.475 11.473 11.468 11.465 11.465 11.465 11.463 11.455 11.418 11.358 11.305 11.255 11.205 11.16 11.13 11.095 11.07 11.077 11.087 11.082 11.07 11.052 10.995 10.9 10.805 10.738 10.74 10.79 10.805 10.77 10.65 10.525 10.442 10.335 10.235 10.2 10.223 10.253 10.308 10.387 10.46 10.49 10.387 10.172 9.94 9.705 9.47 9.23 9.088 9.108 9.19 9.215 9.157 9.063 8.958 8.863 8.863 8.955 9.06 9.135 9.115 9.022 8.92 8.82 8.72 8.615 8.502 8.405 8.337 8.275 8.21 8.185 8.223 8.29 8.337 8.38 8.443 8.51 8.572 8.59 8.565 8.538 8.528 8.535 8.543 8.54 8.552 8.585 8.612 8.64 8.63 8.587 8.535 8.465 8.415 8.425 8.48 8.535 8.615 8.743 8.84 8.89 8.947 8.503 7.743 7.46 7.46 7.46 7.46 7.46 7.46 7.46 7.46 7.46 7.46 7.46 7.46 7.46 7.46 7.46 7.46 7.46 7.46 7.46 7.46 7.46 7.46 7.46 7.46 7.46 7.46 7.46 7.46 7.46 7.46 7.46 7.46 7.46 7.46 7.46 7.46 7.46 7.46 7.46 7.46 7.46 7.46 7.46 7.51 7.556 8.418 10.879 12.537 12.843 13.63 13.702 12.49 11.648 11.6 12.163 13.285 14.57 15.135 14.973 15.008 15.238 15.523 15.82 16.133 16.457 16.783 17.113 17.443 17.773 18.1 18.38 18.63 18.887 19.145 19.39 19.615 19.83 20.042 20.242 20.427 20.615 20.78 20.897 20.975
12.158 12.153 12.15 12.092 11.972 11.84 11.735 11.665 11.595 11.533 11.51 11.52 11.525 11.52 11.515 11.513 11.508 11.505 11.5 11.483 11.443 11.388 11.33 11.273 11.218 11.173 11.138 11.125 11.117 11.09 11.068 11.058 11.057 11.025 10.94 10.843 10.77 10.73 10.695 10.66 10.625 10.553 10.453 10.37 10.28 10.185 10.155 10.175 10.198 10.235 10.3 10.365 10.415 10.375 10.195 9.96 9.723 9.487 9.253 9.118 9.133 9.205 9.212 9.125 9.018 8.913 8.835 8.85 8.943 9.05 9.155 9.182 9.102 8.987 8.875 8.765 8.647 8.53 8.45 8.402 8.35 8.288 8.255 8.29 8.342 8.365 8.403 8.47 8.527 8.57 8.585 8.562 8.535 8.53 8.538 8.54 8.538 8.55 8.58 8.612 8.645 8.675 8.667 8.615 8.55 8.498 8.505 8.557 8.612 8.663 8.738 8.83 8.9 8.967 8.55 7.778 7.46 7.46 7.46 7.46 7.46 7.46 7.46 7.46 7.46 7.46 7.46 7.46 7.46 7.46 7.46 7.46 7.46 7.46 7.46 7.46 7.46 7.46 7.46 7.46 7.46 7.46 7.46 7.46 7.46 7.46 7.46 7.46 7.46 7.46 7.46 7.46 7.46 7.46 7.46 7.46 7.46 7.46 7.46 7.46 7.46 7.641 9.528 11.954 12.69 13.265 13.707 12.96 11.89 11.515 11.863 12.595 13.98 14.992 14.995 14.978 15.152 15.39 15.66 15.975 16.3 16.638 16.988 17.325 17.66 17.995 18.287 18.547 18.815 19.085 19.34 19.572 19.792 20.002 20.197 20.385 20.572 20.752 20.902 20.995
12.163 12.15 12.147 12.085 11.967 11.84 11.735 11.668 11.608 11.563 11.56 11.585 11.602 11.61 11.607 11.603 11.595 11.59 11.588 11.585 11.57 11.523 11.458 11.395 11.33 11.255 11.185 11.138 11.105 11.075 11.053 11.048 11.055 11.035 10.96 10.875 10.818 10.78 10.747 10.71 10.662 10.577 10.443 10.318 10.223 10.135 10.108 10.13 10.153 10.178 10.22 10.28 10.342 10.352 10.212 9.977 9.74 9.503 9.285 9.178 9.183 9.235 9.227 9.125 9.028 8.948 8.898 8.893 8.938 9.03 9.14 9.197 9.137 9.012 8.887 8.765 8.643 8.543 8.488 8.452 8.415 8.363 8.328 8.352 8.365 8.373 8.427 8.482 8.517 8.54 8.555 8.547 8.535 8.54 8.545 8.542 8.535 8.533 8.55 8.585 8.625 8.675 8.695 8.662 8.61 8.568 8.58 8.63 8.68 8.725 8.788 8.883 8.98 9.07 9.027 8.2 7.46 7.46 7.46 7.46 7.46 7.46 7.46 7.46 7.46 7.46 7.46 7.46 7.46 7.46 7.46 7.46 7.46 7.46 7.46 7.46 7.46 7.46 7.46 7.46 7.46 7.46 7.46 7.46 7.46 7.46 7.46 7.46 7.46 7.46 7.46 7.46 7.46 7.46 7.46 7.46 7.46 7.46 7.46 7.46 7.46 7.461 8.714 11.327 12.672 12.948 13.595 13.359 12.158 11.525 11.613 12.083 13.248 14.609 15.035 14.885 14.99 15.238 15.508 15.813 16.148 16.515 16.882 17.225 17.562 17.895 18.185 18.438 18.698 18.965 19.225 19.47 19.702 19.917 20.112 20.3 20.48 20.645 20.825 20.98
12.198 12.16 12.142 12.075 11.957 11.835 11.738 11.683 11.64 11.605 11.605 11.632 11.66 11.682 11.695 11.7 11.695 11.69 11.69 11.692 11.697 11.677 11.622 11.55 11.465 11.365 11.26 11.17 11.1 11.055 11.038 11.043 11.055 11.045 10.988 10.92 10.87 10.83 10.8 10.755 10.695 10.61 10.477 10.323 10.188 10.09 10.063 10.085 10.105 10.125 10.16 10.22 10.292 10.34 10.23 9.993 9.757 9.52 9.33 9.255 9.248 9.27 9.242 9.15 9.083 9.033 9.003 8.985 8.983 9.023 9.102 9.172 9.132 9.007 8.882 8.758 8.645 8.573 8.533 8.5 8.467 8.427 8.398 8.39 8.373 8.385 8.435 8.465 8.483 8.498 8.505 8.508 8.525 8.545 8.55 8.545 8.535 8.523 8.525 8.558 8.608 8.667 8.697 8.675 8.643 8.628 8.645 8.69 8.735 8.778 8.845 8.94 9.032 9.11 9.157 8.595 7.741 7.46 7.46 7.46 7.46 7.46 7.46 7.46 7.46 7.46 7.46 7.46 7.46 7.46 7.46 7.46 7.46 7.46 7.46 7.46 7.46 7.46 7.46 7.46 7.46 7.46 7.46 7.46 7.46 7.46 7.46 7.46 7.46 7.46 7.46 7.46 7.46 7.46 7.46 7.46 7.46 7.46 7.46 7.46 7.46 7.548 8.836 11.392 12.747 12.823 13.402 13.514 12.52 11.673 11.485 11.77 12.545 14.025 14.979 14.89 14.858 15.078 15.355 15.655 16.013 16.405 16.777 17.122 17.462 17.795 18.085 18.335 18.588 18.847 19.105 19.355 19.6 19.827 20.025 20.202 20.372 20.535 20.718 20.915
12.26 12.195 12.145 12.065 11.948 11.835 11.755 11.713 11.678 11.648 11.65 11.677 11.705 11.732 11.76 11.782 11.79 11.79 11.79 11.795 11.797 11.782 11.737 11.652 11.55 11.447 11.345 11.242 11.14 11.06 11.033 11.043 11.055 11.06 11.03 10.975 10.925 10.883 10.845 10.79 10.725 10.642 10.512 10.358 10.205 10.093 10.045 10.045 10.063 10.078 10.113 10.178 10.255 10.315 10.232 10.01 9.772 9.535 9.378 9.335 9.325 9.32 9.285 9.225 9.175 9.133 9.108 9.092 9.077 9.055 9.065 9.125 9.112 9.002 8.877 8.753 8.663 8.615 8.578 8.545 8.513 8.48 8.447 8.403 8.373 8.388 8.415 8.435 8.453 8.468 8.475 8.523 8.575 8.57 8.552 8.54 8.53 8.517 8.508 8.535 8.595 8.66 8.707 8.71 8.7 8.7 8.715 8.75 8.79 8.833 8.885 8.95 9.007 9.05 9.107 9.045 8.685 8.1 7.618 7.461 7.46 7.46 7.46 7.46 7.46 7.46 7.46 7.46 7.46 7.46 7.46 7.46 7.46 7.46 7.46 7.46 7.46 7.46 7.46 7.46 7.46 7.46 7.46 7.46 7.46 7.46 7.46 7.46 7.46 7.46 7.46 7.46 7.46 7.46 7.46 7.46 7.46 7.46 7.46 7.46 7.46 7.566 8.943 11.457 12.789 12.9 13.17 13.507 12.987 11.88 11.428 11.58 12.048 13.31 14.654 14.965 14.788 14.875 15.178 15.523 15.895 16.295 16.67 17.015 17.355 17.69 17.98 18.23 18.477 18.733 18.99 19.24 19.49 19.73 19.925 20.085 20.25 20.415 20.625 20.868
12.285 12.212 12.145 12.065 11.96 11.86 11.795 11.755 11.712 11.68 11.682 11.707 11.737 11.77 11.8 11.83 11.855 11.867 11.865 11.855 11.84 11.815 11.777 11.705 11.605 11.505 11.405 11.305 11.202 11.105 11.055 11.055 11.065 11.077 11.07 11.03 10.982 10.935 10.88 10.817 10.755 10.675 10.545 10.393 10.273 10.198 10.095 10.028 10.04 10.055 10.1 10.175 10.23 10.247 10.18 10 9.78 9.558 9.435 9.425 9.412 9.387 9.36 9.32 9.273 9.238 9.215 9.192 9.15 9.075 9.035 9.07 9.077 8.995 8.873 8.763 8.698 8.66 8.623 8.59 8.56 8.527 8.482 8.423 8.388 8.395 8.415 8.435 8.455 8.475 8.5 8.602 8.665 8.6 8.543 8.518 8.505 8.495 8.485 8.513 8.577 8.632 8.672 8.727 8.775 8.785 8.798 8.825 8.86 8.882 8.882 8.895 8.928 8.963 9.023 9.16 9.297 9.005 8.52 8.388 8.367 7.895 7.46 7.46 7.46 7.46 7.46 7.46 7.46 7.46 7.46 7.46 7.46 7.555 7.555 7.46 7.46 7.46 7.46 7.46 7.46 7.46 7.46 7.46 7.46 7.46 7.46 7.46 7.46 7.46 7.46 7.46 7.46 7.46 7.46 7.46 7.46 7.46 7.46 7.46 7.46 7.478 8.543 10.882 12.562 12.992 13.098 13.465 13.374 12.35 11.573 11.493 11.773 12.575 14.082 14.964 14.853 14.853 15.128 15.44 15.75 16.147 16.527 16.872 17.21 17.545 17.832 18.08 18.34 18.628 18.905 19.155 19.402 19.635 19.84 20.005 20.135 20.335 20.77 21.092
12.258 12.185 12.122 12.06 11.98 11.898 11.835 11.782 11.722 11.688 11.695 11.72 11.752 11.785 11.815 11.845 11.877 11.895 11.885 11.86 11.835 11.81 11.78 11.735 11.655 11.555 11.455 11.355 11.258 11.168 11.098 11.075 11.085 11.095 11.097 11.077 11.037 10.98 10.903 10.823 10.747 10.66 10.558 10.46 10.395 10.355 10.223 10.068 10.033 10.063 10.115 10.16 10.162 10.137 10.087 9.95 9.75 9.588 9.525 9.52 9.495 9.458 9.435 9.41 9.37 9.342 9.307 9.245 9.16 9.06 9.008 9.023 9.045 8.987 8.87 8.788 8.743 8.705 8.668 8.635 8.605 8.567 8.515 8.46 8.43 8.433 8.448 8.465 8.485 8.505 8.548 8.64 8.677 8.602 8.53 8.495 8.47 8.455 8.453 8.488 8.542 8.572 8.585 8.655 8.767 8.845 8.882 8.902 8.917 8.905 8.87 8.848 8.858 8.885 8.95 9.07 9.187 9.23 9.21 9.225 9.244 8.822 8.06 7.585 7.46 7.46 7.46 7.46 7.46 7.46 7.46 7.46 7.46 7.703 7.81 7.568 7.46 7.46 7.46 7.46 7.46 7.46 7.46 7.46 7.46 7.46 7.46 7.46 7.46 7.46 7.46 7.46 7.46 7.46 7.46 7.46 7.46 7.46 7.46 7.46 7.46 7.46 8.026 9.913 12.074 12.98 13.098 13.295 13.5 12.99 11.92 11.468 11.585 12.028 13.38 14.694 15.007 15.025 15.22 15.43 15.618 15.958 16.342 16.69 17.027 17.36 17.647 17.905 18.208 18.547 18.845 19.092 19.322 19.53 19.75 19.96 20.103 20.485 21.082 21.297
12.228 12.153 12.093 12.038 11.982 11.917 11.845 11.775 11.708 11.685 11.705 11.73 11.76 11.79 11.82 11.853 11.885 11.892 11.875 11.852 11.827 11.8 11.77 11.74 11.69 11.605 11.505 11.41 11.32 11.233 11.15 11.105 11.105 11.115 11.12 11.117 11.09 11.02 10.928 10.838 10.75 10.663 10.605 10.577 10.545 10.502 10.4 10.183 10.045 10.057 10.075 10.067 10.042 10.015 9.982 9.875 9.685 9.595 9.605 9.59 9.555 9.517 9.5 9.492 9.462 9.412 9.34 9.245 9.145 9.045 8.988 8.99 9.017 8.977 8.883 8.825 8.788 8.752 8.715 8.68 8.645 8.6 8.548 8.505 8.483 8.478 8.485 8.5 8.518 8.535 8.585 8.632 8.632 8.585 8.525 8.485 8.448 8.42 8.42 8.45 8.477 8.49 8.498 8.54 8.655 8.8 8.912 8.955 8.937 8.905 8.872 8.838 8.815 8.818 8.875 8.975 9.075 9.15 9.14 9.133 9.203 9.287 9.004 8.07 7.46 7.46 7.46 7.46 7.46 7.46 7.46 7.46 7.67 8.012 8.15 7.807 7.46 7.46 7.46 7.46 7.46 7.46 7.46 7.46 7.46 7.46 7.46 7.46 7.46 7.46 7.46 7.46 7.46 7.46 7.46 7.46 7.46 7.46 7.46 7.46 7.46 7.46 7.613 8.973 11.314 12.712 13.035 13.07 13.31 13.349 12.478 11.643 11.498 11.755 12.633 14.17 15.029 15.108 15.302 15.46 15.58 15.808 16.145 16.495 16.837 17.17 17.47 17.77 18.12 18.482 18.782 19.012 19.217 19.415 19.635 19.875 20.09 20.55 21.005 21.107
12.208 12.13 12.08 12.033 11.985 11.92 11.838 11.758 11.698 11.69 11.715 11.74 11.77 11.8 11.833 11.87 11.892 11.885 11.867 11.847 11.82 11.79 11.76 11.73 11.697 11.642 11.56 11.472 11.385 11.297 11.213 11.145 11.125 11.135 11.143 11.147 11.13 11.065 10.975 10.89 10.805 10.723 10.683 10.675 10.66 10.635 10.585 10.36 10.105 10.018 9.975 9.943 9.918 9.893 9.865 9.785 9.653 9.608 9.632 9.625 9.595 9.56 9.547 9.55 9.517 9.432 9.333 9.233 9.13 9.03 8.97 8.968 8.988 8.967 8.913 8.872 8.835 8.797 8.76 8.722 8.68 8.63 8.585 8.555 8.535 8.523 8.527 8.542 8.555 8.567 8.59 8.597 8.585 8.56 8.52 8.48 8.44 8.403 8.39 8.4 8.408 8.413 8.42 8.438 8.535 8.708 8.875 8.95 8.927 8.895 8.865 8.832 8.8 8.778 8.8 8.875 8.97 9.065 9.112 9.145 9.205 9.27 9.344 8.517 7.556 7.46 7.46 7.46 7.46 7.46 7.46 7.46 7.965 8.395 8.287 7.857 7.46 7.46 7.46 7.46 7.46 7.46 7.46 7.46 7.46 7.46 7.46 7.46 7.46 7.46 7.46 7.46 7.46 7.46 7.46 7.46 7.46 7.46 7.46 7.46 7.46 7.46 7.46 8.268 10.26 12.177 12.915 12.843 12.97 13.335 13.032 12.02 11.5 11.58 12.038 13.47 14.74 15.147 15.375 15.492 15.598 15.73 15.968 16.3 16.645 16.985 17.32 17.67 18.04 18.405 18.697 18.907 19.105 19.305 19.525 19.763 20 20.31 20.573 20.715
12.205 12.133 12.09 12.05 11.995 11.92 11.838 11.76 11.715 11.713 11.733 11.758 11.785 11.815 11.85 11.885 11.892 11.875 11.86 11.84 11.813 11.785 11.755 11.725 11.7 11.675 11.612 11.522 11.435 11.35 11.265 11.185 11.155 11.165 11.175 11.182 11.16 11.102 11.03 10.95 10.865 10.78 10.738 10.73 10.725 10.72 10.707 10.492 10.19 10.048 9.965 9.905 9.855 9.805 9.755 9.693 9.638 9.625 9.635 9.64 9.625 9.593 9.58 9.575 9.53 9.445 9.343 9.238 9.133 9.033 8.983 8.99 9.008 8.982 8.93 8.895 8.86 8.82 8.785 8.752 8.71 8.66 8.62 8.595 8.575 8.56 8.56 8.57 8.58 8.59 8.59 8.578 8.565 8.547 8.517 8.48 8.44 8.403 8.383 8.385 8.39 8.393 8.395 8.395 8.48 8.658 8.825 8.907 8.902 8.875 8.845 8.815 8.785 8.77 8.78 8.815 8.89 8.99 9.075 9.14 9.2 9.26 9.32 8.98 8.458 8.038 7.621 7.466 7.461 7.46 7.46 7.583 8.225 8.617 8.133 7.618 7.46 7.46 7.46 7.46 7.46 7.46 7.46 7.46 7.46 7.46 7.46 7.46 7.46 7.46 7.46 7.46 7.46 7.46 7.46 7.46 7.46 7.46 7.46 7.46 7.46 7.46 7.46 7.731 9.176 11.49 12.714 12.75 12.795 13.102 13.292 12.59 11.695 11.495 11.728 12.665 14.227 15.209 15.402 15.507 15.61 15.673 15.823 16.125 16.46 16.805 17.165 17.535 17.902 18.262 18.565 18.79 18.99 19.193 19.42 19.663 19.9 20.13 20.303 20.433
12.228 12.16 12.11 12.067 12.005 11.923 11.85 11.795 11.768 11.765 11.775 11.79 11.808 11.835 11.87 11.892 11.885 11.865 11.85 11.832 11.807 11.78 11.75 11.733 11.73 11.722 11.662 11.565 11.473 11.385 11.3 11.223 11.195 11.205 11.215 11.225 11.19 11.125 11.07 11.005 10.925 10.84 10.793 10.783 10.778 10.773 10.767 10.567 10.303 10.173 10.065 9.98 9.905 9.83 9.753 9.67 9.63 9.633 9.635 9.645 9.647 9.627 9.612 9.587 9.527 9.455 9.362 9.26 9.155 9.078 9.06 9.077 9.07 9 8.93 8.89 8.85 8.813 8.785 8.767 8.737 8.69 8.653 8.628 8.605 8.588 8.58 8.58 8.585 8.595 8.595 8.58 8.562 8.542 8.517 8.485 8.445 8.413 8.4 8.405 8.41 8.41 8.407 8.405 8.473 8.628 8.78 8.857 8.867 8.85 8.82 8.79 8.778 8.805 8.835 8.828 8.848 8.93 9.02 9.095 9.16 9.22 9.28 9.335 9.314 9.015 8.71 8.652 8.485 8.24 8.275 8.602 8.965 8.92 8.091 7.461 7.46 7.46 7.46 7.46 7.46 7.46 7.46 7.46 7.46 7.46 7.46 7.46 7.46 7.46 7.46 7.46 7.46 7.46 7.46 7.46 7.46 7.46 7.46 7.46 7.46 7.46 7.46 7.468 8.551 10.827 12.437 12.802 12.765 12.903 13.232 13.054 12.1 11.485 11.523 12.033 13.532 14.944 15.372 15.502 15.577 15.583 15.7 15.983 16.29 16.625 16.985 17.352 17.715 18.067 18.385 18.652 18.875 19.08 19.32 19.58 19.827 20.057 20.217 20.333
12.26 12.19 12.133 12.08 12.013 11.943 11.89 11.855 11.84 11.84 11.843 11.845 11.85 11.863 11.883 11.89 11.875 11.855 11.84 11.825 11.8 11.775 11.763 11.77 11.782 11.775 11.717 11.618 11.515 11.42 11.33 11.26 11.24 11.248 11.255 11.265 11.222 11.145 11.09 11.037 10.975 10.9 10.848 10.835 10.832 10.828 10.822 10.667 10.448 10.313 10.188 10.085 10.003 9.927 9.835 9.715 9.65 9.657 9.663 9.66 9.663 9.655 9.637 9.595 9.525 9.455 9.377 9.283 9.195 9.16 9.165 9.175 9.117 9.003 8.93 8.885 8.84 8.8 8.773 8.765 8.755 8.722 8.687 8.66 8.633 8.613 8.602 8.597 8.595 8.6 8.597 8.58 8.56 8.538 8.515 8.49 8.455 8.428 8.42 8.422 8.422 8.417 8.413 8.413 8.473 8.608 8.737 8.802 8.822 8.82 8.795 8.78 8.808 8.87 8.912 8.888 8.848 8.88 8.96 9.04 9.115 9.18 9.24 9.295 9.345 9.397 9.577 9.744 9.614 9.395 9.415 9.557 9.49 9.36 9.015 8.453 8.07 7.786 7.556 7.461 7.461 7.461 7.46 7.46 7.46 7.46 7.46 7.46 7.46 7.46 7.46 7.46 7.46 7.46 7.46 7.46 7.46 7.46 7.46 7.46 7.46 7.46 7.46 7.461 8.426 10.358 11.982 12.732 12.79 12.845 13.058 13.197 12.602 11.705 11.433 11.685 12.645 14.27 15.309 15.475 15.49 15.465 15.593 15.87 16.153 16.458 16.803 17.165 17.522 17.87 18.185 18.475 18.74 18.967 19.215 19.492 19.757 19.987 20.142 20.253
12.29 12.22 12.158 12.098 12.04 11.995 11.955 11.928 11.92 11.92 11.92 11.92 11.92 11.935 11.95 11.915 11.855 11.825 11.817 11.81 11.803 11.803 11.815 11.832 11.837 11.825 11.77 11.672 11.57 11.468 11.368 11.3 11.285 11.29 11.295 11.305 11.255 11.163 11.1 11.05 11 10.94 10.892 10.882 10.885 10.882 10.872 10.765 10.595 10.46 10.327 10.203 10.102 10.007 9.885 9.75 9.663 9.67 9.707 9.71 9.7 9.688 9.658 9.6 9.528 9.455 9.385 9.313 9.268 9.263 9.27 9.247 9.14 9.005 8.93 8.885 8.84 8.793 8.758 8.753 8.755 8.742 8.715 8.685 8.657 8.635 8.62 8.612 8.605 8.6 8.595 8.58 8.558 8.533 8.51 8.488 8.46 8.44 8.435 8.432 8.428 8.423 8.418 8.42 8.48 8.6 8.7 8.748 8.773 8.785 8.785 8.81 8.873 8.945 8.987 8.962 8.9 8.87 8.908 8.988 9.07 9.148 9.213 9.265 9.318 9.37 9.455 9.55 9.615 9.672 9.66 9.572 9.47 9.595 9.887 9.832 9.532 9.282 9.09 9.032 8.967 8.725 8.408 8.091 7.766 7.531 7.461 7.461 7.461 7.461 7.461 7.46 7.46 7.46 7.46 7.46 7.46 7.46 7.46 7.46 7.46 7.46 7.51 7.878 9 10.168 11.265 12.44 12.835 12.848 13.005 13.22 13.052 12.165 11.453 11.458 11.988 13.467 14.932 15.387 15.415 15.375 15.483 15.742 16.015 16.293 16.615 16.972 17.327 17.672 17.985 18.275 18.56 18.827 19.1 19.39 19.672 19.912 20.07 20.18
12.333 12.258 12.193 12.14 12.098 12.06 12.023 12.003 12 12 12 12.01 12.035 12.08 12.117 12.057 11.938 11.85 11.79 11.783 11.825 11.862 11.885 11.895 11.887 11.872 11.822 11.73 11.63 11.53 11.43 11.35 11.308 11.295 11.3 11.307 11.26 11.165 11.092 11.037 10.982 10.927 10.887 10.875 10.877 10.882 10.875 10.815 10.7 10.57 10.437 10.302 10.18 10.055 9.918 9.783 9.67 9.66 9.725 9.765 9.765 9.745 9.705 9.638 9.563 9.49 9.42 9.355 9.335 9.357 9.365 9.292 9.143 9.005 8.93 8.885 8.835 8.778 8.738 8.733 8.735 8.73 8.71 8.682 8.657 8.63 8.607 8.595 8.585 8.575 8.582 8.585 8.563 8.538 8.515 8.49 8.458 8.44 8.442 8.44 8.435 8.43 8.425 8.43 8.49 8.6 8.692 8.765 8.808 8.815 8.84 8.9 8.973 9.04 9.06 9.015 8.945 8.875 8.89 8.995 9.093 9.178 9.245 9.298 9.345 9.352 9.348 9.385 9.445 9.51 9.56 9.57 9.545 9.61 9.88 10.185 10.365 10.462 10.537 10.609 10.579 10.372 10.084 9.795 9.497 9.305 9.307 9.252 8.985 8.7 8.473 8.246 8.016 7.771 7.569 7.478 7.461 7.461 7.46 7.46 7.461 7.603 8.201 9.25 10.192 10.42 10.946 12.232 12.847 12.878 13.035 13.24 13.337 12.695 11.688 11.355 11.655 12.6 14.162 15.209 15.387 15.37 15.403 15.583 15.84 16.11 16.425 16.782 17.132 17.462 17.765 18.055 18.342 18.627 18.92 19.215 19.507 19.785 19.992 20.125
12.385 12.308 12.245 12.2 12.163 12.125 12.09 12.075 12.078 12.083 12.103 12.145 12.2 12.255 12.29 12.245 12.122 11.985 11.868 11.84 11.883 11.923 11.947 11.947 11.92 11.882 11.857 11.8 11.703 11.608 11.513 11.423 11.345 11.288 11.268 11.272 11.24 11.157 11.07 10.998 10.938 10.885 10.848 10.828 10.818 10.818 10.812 10.782 10.712 10.607 10.487 10.355 10.22 10.085 9.95 9.815 9.685 9.653 9.715 9.78 9.817 9.815 9.772 9.703 9.63 9.56 9.487 9.413 9.378 9.402 9.405 9.307 9.148 9.008 8.93 8.882 8.822 8.755 8.715 8.71 8.707 8.7 8.68 8.655 8.63 8.603 8.578 8.558 8.545 8.535 8.562 8.59 8.575 8.55 8.525 8.495 8.448 8.418 8.422 8.435 8.44 8.437 8.433 8.435 8.498 8.595 8.687 8.8 8.89 8.935 8.982 9.04 9.092 9.13 9.105 9.027 8.942 8.86 8.865 9.005 9.16 9.262 9.33 9.37 9.367 9.302 9.258 9.278 9.32 9.38 9.477 9.58 9.627 9.648 9.838 10.117 10.3 10.417 10.485 10.547 10.61 10.672 10.73 10.784 10.837 10.909 11.044 11.071 10.867 10.622 10.432 10.245 10.055 9.852 9.62 9.37 9.085 8.725 8.391 8.353 8.595 8.751 9.495 10.669 11.032 10.915 11.33 12.272 12.805 12.935 13.122 13.33 13.485 13.195 12.205 11.468 11.46 11.966 13.35 14.774 15.34 15.417 15.388 15.463 15.665 15.92 16.235 16.587 16.92 17.232 17.527 17.815 18.105 18.39 18.68 18.978 19.283 19.597 19.867 20.06
12.438 12.365 12.308 12.265 12.227 12.19 12.16 12.15 12.168 12.203 12.247 12.297 12.342 12.385 12.397 12.352 12.265 12.15 12.043 12.005 12.01 12.012 12.005 11.975 11.925 11.865 11.843 11.832 11.777 11.69 11.598 11.51 11.425 11.34 11.275 11.248 11.217 11.15 11.058 10.97 10.898 10.843 10.81 10.79 10.773 10.765 10.74 10.7 10.66 10.592 10.492 10.375 10.25 10.118 9.982 9.845 9.71 9.653 9.695 9.767 9.835 9.87 9.84 9.77 9.697 9.625 9.552 9.48 9.418 9.41 9.395 9.29 9.145 9.01 8.928 8.87 8.8 8.73 8.693 8.687 8.68 8.67 8.65 8.625 8.6 8.575 8.552 8.528 8.508 8.495 8.53 8.582 8.585 8.562 8.532 8.487 8.433 8.388 8.38 8.402 8.422 8.435 8.437 8.44 8.495 8.575 8.663 8.777 8.89 8.985 9.082 9.155 9.187 9.182 9.115 9.025 8.935 8.848 8.805 8.93 9.157 9.325 9.397 9.382 9.315 9.223 9.18 9.193 9.213 9.255 9.35 9.485 9.607 9.683 9.825 10.027 10.172 10.275 10.34 10.393 10.448 10.503 10.558 10.61 10.655 10.708 10.823 10.965 11.062 11.132 11.202 11.279 11.357 11.439 11.454 11.346 11.139 10.812 10.46 10.372 10.572 10.605 10.855 11.345 11.4 11.37 11.8 12.435 12.77 12.897 13.057 13.272 13.495 13.512 12.782 11.78 11.405 11.64 12.54 14 15.067 15.39 15.42 15.43 15.548 15.75 16.04 16.37 16.685 16.995 17.29 17.575 17.865 18.15 18.44 18.748 19.073 19.402 19.69 19.93
12.493 12.423 12.37 12.33 12.292 12.255 12.24 12.255 12.288 12.332 12.375 12.41 12.442 12.477 12.472 12.417 12.352 12.272 12.192 12.152 12.135 12.11 12.067 12.01 11.953 11.895 11.85 11.838 11.82 11.762 11.685 11.6 11.512 11.427 11.343 11.27 11.213 11.14 11.05 10.963 10.878 10.813 10.785 10.775 10.765 10.76 10.72 10.653 10.595 10.538 10.465 10.37 10.27 10.152 10.015 9.878 9.743 9.66 9.68 9.752 9.822 9.872 9.88 9.835 9.762 9.69 9.618 9.545 9.473 9.432 9.375 9.257 9.127 9.003 8.915 8.847 8.775 8.703 8.663 8.658 8.65 8.64 8.625 8.605 8.583 8.555 8.53 8.505 8.478 8.46 8.493 8.562 8.59 8.57 8.527 8.47 8.415 8.363 8.343 8.36 8.382 8.407 8.425 8.44 8.485 8.55 8.628 8.725 8.822 8.915 9.04 9.175 9.237 9.202 9.115 9.025 8.935 8.842 8.76 8.838 9.082 9.302 9.377 9.32 9.23 9.143 9.105 9.115 9.125 9.145 9.23 9.373 9.518 9.663 9.802 9.928 10.035 10.125 10.19 10.238 10.288 10.34 10.39 10.435 10.478 10.523 10.595 10.673 10.728 10.783 10.848 10.93 11.023 11.12 11.22 11.327 11.442 11.53 11.562 11.522 11.48 11.537 11.637 11.652 11.693 11.815 12.187 12.605 12.705 12.69 12.74 12.915 13.215 13.505 13.277 12.308 11.535 11.453 11.92 13.13 14.512 15.24 15.41 15.442 15.498 15.64 15.87 16.158 16.45 16.755 17.052 17.337 17.625 17.91 18.21 18.535 18.87 19.205 19.497 19.75
12.545 12.48 12.435 12.395 12.357 12.323 12.33 12.372 12.405 12.435 12.468 12.5 12.535 12.565 12.542 12.477 12.407 12.335 12.277 12.24 12.21 12.177 12.132 12.075 12.018 11.963 11.913 11.878 11.855 11.822 11.76 11.677 11.59 11.502 11.417 11.333 11.253 11.173 11.088 11.003 10.918 10.838 10.795 10.79 10.787 10.782 10.742 10.663 10.575 10.5 10.43 10.355 10.292 10.195 10.055 9.915 9.775 9.668 9.665 9.727 9.777 9.817 9.867 9.88 9.825 9.755 9.682 9.608 9.535 9.462 9.357 9.23 9.105 8.988 8.9 8.83 8.758 8.685 8.648 8.645 8.64 8.633 8.623 8.608 8.585 8.548 8.515 8.49 8.463 8.453 8.488 8.555 8.592 8.567 8.51 8.453 8.398 8.34 8.308 8.318 8.34 8.363 8.398 8.44 8.485 8.54 8.59 8.645 8.725 8.815 8.93 9.095 9.19 9.152 9.07 8.98 8.887 8.792 8.71 8.778 9.012 9.195 9.245 9.212 9.135 9.05 9.015 9.025 9.033 9.068 9.18 9.34 9.495 9.648 9.79 9.9 9.983 10.043 10.09 10.135 10.18 10.235 10.285 10.325 10.368 10.41 10.455 10.498 10.538 10.58 10.64 10.733 10.845 10.96 11.065 11.17 11.28 11.385 11.48 11.55 11.6 11.66 11.752 11.835 11.952 12.177 12.47 12.62 12.562 12.468 12.403 12.46 12.735 13.202 13.482 12.89 11.86 11.42 11.583 12.353 13.74 14.882 15.32 15.43 15.488 15.59 15.788 16.05 16.318 16.565 16.795 17.055 17.335 17.64 17.972 18.307 18.642 18.977 19.29 19.562
12.605 12.54 12.5 12.457 12.413 12.378 12.403 12.467 12.51 12.54 12.57 12.6 12.632 12.64 12.595 12.525 12.45 12.373 12.323 12.3 12.275 12.242 12.197 12.14 12.083 12.03 11.98 11.935 11.905 11.872 11.812 11.737 11.655 11.568 11.483 11.4 11.323 11.247 11.17 11.087 10.975 10.873 10.828 10.813 10.81 10.805 10.765 10.685 10.598 10.513 10.43 10.373 10.335 10.245 10.105 9.96 9.815 9.675 9.63 9.672 9.705 9.74 9.81 9.885 9.88 9.815 9.745 9.67 9.587 9.487 9.355 9.218 9.09 8.975 8.89 8.82 8.748 8.68 8.65 8.652 8.652 8.647 8.637 8.622 8.592 8.543 8.505 8.48 8.465 8.478 8.52 8.585 8.622 8.587 8.515 8.448 8.383 8.323 8.278 8.273 8.3 8.343 8.408 8.465 8.5 8.542 8.575 8.598 8.643 8.718 8.825 8.967 9.045 9.02 8.962 8.88 8.788 8.705 8.653 8.738 8.927 9.027 9.052 9.06 9.025 8.955 8.915 8.92 8.94 9.028 9.188 9.36 9.525 9.682 9.817 9.905 9.952 9.982 10.018 10.065 10.118 10.18 10.235 10.275 10.312 10.348 10.398 10.457 10.505 10.54 10.598 10.69 10.798 10.91 11.01 11.105 11.205 11.315 11.425 11.542 11.647 11.727 11.842 11.98 12.117 12.305 12.485 12.505 12.408 12.315 12.238 12.215 12.36 12.758 13.29 13.302 12.433 11.613 11.425 11.815 12.86 14.25 15.135 15.372 15.472 15.565 15.763 16.025 16.242 16.372 16.49 16.705 16.993 17.343 17.712 18.05 18.385 18.72 19.05 19.355
12.69 12.605 12.555 12.508 12.46 12.425 12.455 12.535 12.605 12.652 12.685 12.715 12.712 12.667 12.61 12.552 12.487 12.413 12.37 12.355 12.335 12.31 12.265 12.205 12.148 12.095 12.045 11.995 11.955 11.915 11.855 11.785 11.71 11.63 11.548 11.47 11.398 11.325 11.25 11.17 11.023 10.9 10.87 10.843 10.83 10.827 10.787 10.707 10.623 10.54 10.465 10.42 10.387 10.295 10.155 9.99 9.797 9.605 9.535 9.585 9.625 9.66 9.733 9.837 9.9 9.875 9.805 9.722 9.622 9.51 9.37 9.218 9.08 8.965 8.88 8.81 8.74 8.675 8.648 8.655 8.66 8.657 8.65 8.632 8.595 8.54 8.498 8.48 8.488 8.515 8.563 8.642 8.685 8.64 8.56 8.478 8.398 8.328 8.263 8.248 8.295 8.37 8.452 8.502 8.522 8.55 8.575 8.59 8.608 8.643 8.72 8.825 8.87 8.848 8.815 8.76 8.69 8.637 8.612 8.677 8.78 8.825 8.852 8.877 8.89 8.857 8.815 8.81 8.875 9.02 9.192 9.367 9.527 9.665 9.775 9.847 9.885 9.91 9.948 10.003 10.065 10.13 10.185 10.222 10.255 10.285 10.335 10.405 10.467 10.513 10.573 10.66 10.755 10.86 10.96 11.053 11.14 11.25 11.377 11.495 11.61 11.735 11.885 12.045 12.192 12.258 12.343 12.395 12.32 12.255 12.21 12.18 12.208 12.375 12.85 13.369 13.032 12.038 11.483 11.545 12.168 13.437 14.687 15.262 15.432 15.553 15.74 15.945 16.05 16.1 16.16 16.338 16.66 17.063 17.452 17.792 18.125 18.457 18.785 19.107
12.788 12.69 12.62 12.565 12.515 12.478 12.508 12.59 12.673 12.745 12.79 12.79 12.725 12.645 12.593 12.547 12.497 12.445 12.415 12.402 12.39 12.372 12.33 12.27 12.213 12.16 12.11 12.06 12.013 11.963 11.903 11.835 11.765 11.693 11.618 11.545 11.473 11.4 11.327 11.245 11.082 10.95 10.918 10.883 10.858 10.85 10.812 10.733 10.65 10.577 10.51 10.465 10.427 10.305 10.115 9.902 9.663 9.455 9.403 9.468 9.523 9.575 9.658 9.76 9.857 9.902 9.855 9.755 9.645 9.53 9.39 9.23 9.078 8.955 8.87 8.803 8.735 8.67 8.645 8.652 8.657 8.66 8.66 8.64 8.592 8.538 8.493 8.485 8.512 8.547 8.602 8.69 8.742 8.71 8.635 8.553 8.47 8.39 8.31 8.268 8.31 8.402 8.485 8.525 8.535 8.555 8.577 8.593 8.608 8.62 8.65 8.693 8.705 8.693 8.678 8.658 8.622 8.372 8.063 8.048 8.255 8.482 8.622 8.69 8.72 8.73 8.712 8.732 8.852 9.01 9.145 9.277 9.397 9.497 9.587 9.672 9.742 9.807 9.877 9.945 10.012 10.08 10.132 10.162 10.19 10.223 10.275 10.345 10.415 10.478 10.548 10.635 10.725 10.82 10.92 11.017 11.093 11.175 11.29 11.41 11.53 11.642 11.783 11.99 12.177 12.248 12.315 12.362 12.32 12.273 12.228 12.198 12.208 12.24 12.52 13.102 13.322 12.64 11.733 11.435 11.73 12.608 13.965 14.995 15.36 15.505 15.64 15.732 15.768 15.805 15.845 16.008 16.365 16.797 17.192 17.535 17.865 18.195 18.523 18.85
12.893 12.798 12.71 12.643 12.588 12.55 12.588 12.675 12.755 12.835 12.87 12.815 12.71 12.625 12.575 12.533 12.49 12.46 12.447 12.44 12.43 12.415 12.382 12.332 12.28 12.23 12.177 12.125 12.075 12.022 11.967 11.908 11.84 11.77 11.7 11.627 11.552 11.472 11.385 11.267 11.11 11.008 10.97 10.933 10.9 10.877 10.835 10.76 10.68 10.6 10.52 10.445 10.385 10.252 10.025 9.788 9.568 9.393 9.35 9.41 9.473 9.543 9.615 9.7 9.8 9.87 9.842 9.745 9.645 9.537 9.395 9.225 9.06 8.94 8.865 8.798 8.733 8.67 8.64 8.64 8.642 8.645 8.647 8.632 8.587 8.535 8.488 8.468 8.49 8.532 8.597 8.68 8.745 8.752 8.71 8.647 8.57 8.49 8.413 8.345 8.33 8.395 8.475 8.507 8.523 8.552 8.58 8.597 8.615 8.63 8.64 8.638 8.625 8.618 8.61 8.602 8.417 7.848 7.38 7.345 7.523 7.735 7.86 7.913 7.965 8.097 8.26 8.442 8.69 8.885 8.99 9.09 9.192 9.295 9.392 9.49 9.587 9.69 9.792 9.875 9.94 10 10.05 10.087 10.12 10.158 10.218 10.298 10.38 10.46 10.548 10.64 10.73 10.813 10.903 10.992 11.052 11.108 11.198 11.315 11.427 11.518 11.628 11.845 12.122 12.295 12.36 12.38 12.35 12.3 12.25 12.213 12.213 12.233 12.415 12.868 13.342 13.15 12.218 11.548 11.508 12.02 13.14 14.437 15.192 15.42 15.52 15.56 15.593 15.625 15.655 15.763 16.075 16.51 16.92 17.287 17.625 17.955 18.285 18.615
13.01 12.915 12.82 12.735 12.67 12.64 12.688 12.78 12.865 12.945 12.942 12.842 12.728 12.638 12.578 12.53 12.49 12.468 12.465 12.462 12.455 12.442 12.42 12.382 12.337 12.29 12.237 12.185 12.132 12.083 12.037 11.987 11.927 11.857 11.782 11.697 11.607 11.512 11.407 11.245 11.11 11.075 11.045 11.005 10.967 10.922 10.85 10.762 10.675 10.582 10.49 10.388 10.293 10.172 9.983 9.775 9.59 9.425 9.37 9.428 9.508 9.595 9.633 9.673 9.765 9.81 9.762 9.675 9.582 9.48 9.337 9.16 9.015 8.93 8.865 8.795 8.73 8.673 8.633 8.618 8.615 8.615 8.615 8.612 8.585 8.535 8.485 8.44 8.433 8.475 8.545 8.622 8.695 8.735 8.732 8.702 8.657 8.595 8.52 8.455 8.4 8.398 8.443 8.478 8.51 8.55 8.58 8.6 8.622 8.642 8.655 8.645 8.62 8.605 8.595 8.587 8.178 7.5 7.23 7.23 7.23 7.23 7.23 7.23 7.268 7.385 7.545 7.703 7.878 8.003 8.058 8.185 8.417 8.685 8.955 9.212 9.387 9.492 9.599 9.7 9.785 9.852 9.905 9.955 10.002 10.073 10.172 10.285 10.39 10.48 10.575 10.67 10.752 10.82 10.895 10.965 11.015 11.063 11.125 11.225 11.33 11.43 11.563 11.713 11.982 12.25 12.35 12.395 12.385 12.335 12.282 12.228 12.205 12.218 12.35 12.753 13.2 13.365 12.827 11.87 11.463 11.673 12.398 13.675 14.815 15.312 15.45 15.507 15.547 15.575 15.6 15.643 15.823 16.193 16.62 17.025 17.395 17.735 18.065 18.37
13.127 13.032 12.937 12.843 12.76 12.73 12.783 12.877 12.97 13.037 13 12.88 12.768 12.678 12.605 12.543 12.495 12.475 12.478 12.48 12.477 12.467 12.445 12.407 12.365 12.322 12.277 12.232 12.185 12.137 12.092 12.045 11.992 11.92 11.827 11.725 11.62 11.515 11.41 11.248 11.135 11.135 11.125 11.092 11.037 10.96 10.86 10.75 10.643 10.545 10.455 10.35 10.235 10.115 9.967 9.807 9.645 9.475 9.4 9.458 9.568 9.675 9.695 9.675 9.73 9.747 9.667 9.57 9.47 9.365 9.23 9.083 8.985 8.925 8.863 8.798 8.735 8.68 8.638 8.608 8.588 8.58 8.58 8.585 8.575 8.535 8.485 8.43 8.39 8.415 8.485 8.558 8.632 8.695 8.715 8.702 8.687 8.657 8.605 8.54 8.472 8.425 8.43 8.47 8.51 8.55 8.58 8.6 8.622 8.647 8.667 8.655 8.623 8.605 8.6 8.64 8.327 7.603 7.23 7.23 7.23 7.23 7.23 7.23 7.23 7.23 7.23 7.23 7.23 7.23 7.23 7.303 7.478 7.688 7.905 8.11 8.233 8.288 8.423 8.702 9.047 9.375 9.632 9.769 9.854 9.972 10.104 10.24 10.365 10.475 10.59 10.69 10.762 10.825 10.89 10.967 11.022 11.048 11.08 11.145 11.263 11.418 11.575 11.655 11.818 12.092 12.285 12.395 12.415 12.375 12.31 12.235 12.2 12.205 12.288 12.603 12.977 13.297 13.264 12.44 11.63 11.495 11.908 12.868 14.15 15.07 15.367 15.445 15.497 15.537 15.57 15.608 15.683 15.91 16.298 16.72 17.127 17.502 17.82 18.067
13.23 13.137 13.045 12.95 12.858 12.823 12.88 12.975 13.065 13.1 13.03 12.91 12.803 12.717 12.642 12.57 12.513 12.49 12.493 12.495 12.495 12.49 12.465 12.42 12.373 12.33 12.29 12.25 12.205 12.155 12.105 12.055 12.005 11.935 11.835 11.728 11.622 11.515 11.41 11.273 11.185 11.185 11.187 11.152 11.067 10.97 10.867 10.755 10.635 10.523 10.42 10.31 10.195 10.08 9.95 9.81 9.665 9.513 9.445 9.515 9.64 9.752 9.775 9.725 9.71 9.673 9.573 9.468 9.365 9.263 9.148 9.048 8.98 8.92 8.863 8.805 8.745 8.695 8.658 8.62 8.585 8.56 8.548 8.55 8.552 8.53 8.485 8.433 8.383 8.388 8.448 8.513 8.58 8.648 8.687 8.685 8.662 8.637 8.6 8.537 8.462 8.42 8.433 8.47 8.51 8.547 8.577 8.6 8.62 8.642 8.662 8.655 8.628 8.615 8.623 8.672 8.602 7.933 7.303 7.23 7.23 7.23 7.23 7.23 7.23 7.23 7.23 7.23 7.23 7.23 7.23 7.23 7.23 7.23 7.23 7.23 7.231 7.231 7.311 7.535 7.825 8.11 8.34 8.453 8.51 8.7 9.057 9.492 9.987 10.337 10.492 10.609 10.709 10.81 10.9 10.987 11.05 11.13 11.26 11.34 11.415 11.53 11.61 11.64 11.7 11.88 12.122 12.32 12.42 12.41 12.297 12.173 12.142 12.165 12.215 12.42 12.723 13.042 13.34 13.017 12.073 11.533 11.64 12.223 13.363 14.55 15.192 15.375 15.432 15.485 15.532 15.577 15.623 15.723 15.985 16.377 16.792 17.197 17.502 17.71
13.305 13.215 13.125 13.032 12.948 12.92 12.978 13.072 13.135 13.125 13.042 12.928 12.825 12.743 12.667 12.595 12.543 12.525 12.523 12.52 12.52 12.525 12.492 12.43 12.38 12.335 12.295 12.252 12.195 12.135 12.085 12.035 11.987 11.925 11.832 11.73 11.625 11.518 11.412 11.298 11.235 11.235 11.232 11.165 11.047 10.945 10.845 10.745 10.635 10.515 10.398 10.275 10.155 10.04 9.912 9.775 9.638 9.535 9.535 9.63 9.75 9.832 9.83 9.777 9.735 9.675 9.575 9.47 9.37 9.243 9.12 9.048 8.99 8.93 8.875 8.82 8.765 8.723 8.685 8.648 8.612 8.568 8.535 8.533 8.533 8.522 8.492 8.45 8.41 8.408 8.453 8.51 8.57 8.628 8.662 8.647 8.61 8.577 8.532 8.47 8.415 8.408 8.438 8.475 8.512 8.542 8.57 8.595 8.617 8.64 8.652 8.645 8.623 8.613 8.617 8.623 8.627 8.34 7.64 7.23 7.23 7.23 7.23 7.23 7.23 7.23 7.23 7.23 7.23 7.23 7.23 7.23 7.23 7.23 7.23 7.23 7.23 7.23 7.23 7.23 7.23 7.23 7.231 7.231 7.231 7.353 7.646 8.013 8.44 8.725 8.813 9.01 9.437 9.965 10.484 10.857 11.022 11.164 11.332 11.472 11.565 11.587 11.605 11.627 11.623 11.703 11.91 12.145 12.342 12.37 12.19 12.028 12.015 12.06 12.158 12.283 12.468 12.788 13.152 13.307 12.695 11.775 11.51 11.82 12.625 13.78 14.805 15.29 15.37 15.427 15.482 15.532 15.58 15.628 15.733 16.003 16.395 16.805 17.112 17.315
13.362 13.275 13.185 13.1 13.038 13.02 13.073 13.145 13.162 13.13 13.05 12.943 12.845 12.76 12.683 12.62 12.585 12.573 12.568 12.565 12.575 12.592 12.54 12.448 12.388 12.34 12.3 12.252 12.185 12.118 12.068 12.02 11.972 11.915 11.83 11.73 11.625 11.52 11.403 11.31 11.285 11.28 11.26 11.16 11.008 10.89 10.795 10.707 10.615 10.505 10.382 10.25 10.12 10 9.875 9.74 9.64 9.615 9.673 9.78 9.862 9.887 9.857 9.81 9.787 9.755 9.672 9.57 9.437 9.25 9.115 9.062 9.01 8.95 8.895 8.843 8.795 8.755 8.718 8.682 8.637 8.578 8.54 8.533 8.528 8.522 8.51 8.485 8.45 8.44 8.478 8.535 8.59 8.635 8.645 8.603 8.548 8.51 8.465 8.41 8.393 8.413 8.443 8.48 8.51 8.53 8.557 8.587 8.613 8.637 8.645 8.63 8.613 8.605 8.6 8.593 8.585 8.577 8.235 7.563 7.23 7.23 7.23 7.23 7.23 7.23 7.23 7.23 7.23 7.23 7.23 7.23 7.23 7.23 7.23 7.23 7.23 7.23 7.23 7.23 7.23 7.23 7.23 7.23 7.23 7.23 7.23 7.23 7.231 7.231 7.231 7.363 7.726 8.185 8.645 8.978 9.25 9.657 10.12 10.622 11.152 11.439 11.505 11.545 11.55 11.563 11.69 11.917 12.135 12.192 12.013 11.865 11.878 11.975 12.18 12.253 12.273 12.533 12.898 13.265 13.184 12.32 11.615 11.59 12.028 12.948 14.132 15.012 15.305 15.37 15.427 15.48 15.53 15.572 15.6 15.7 15.983 16.38 16.695 16.905
13.407 13.335 13.253 13.185 13.145 13.125 13.15 13.177 13.167 13.137 13.062 12.96 12.865 12.778 12.705 12.663 12.64 12.62 12.61 12.62 12.655 12.677 12.607 12.485 12.398 12.345 12.302 12.245 12.173 12.105 12.053 12.005 11.955 11.902 11.825 11.725 11.623 11.52 11.403 11.335 11.33 11.312 11.272 11.157 10.985 10.843 10.745 10.663 10.577 10.485 10.367 10.233 10.098 9.965 9.84 9.75 9.73 9.75 9.81 9.885 9.912 9.912 9.885 9.853 9.842 9.827 9.762 9.627 9.43 9.225 9.115 9.072 9.025 8.972 8.918 8.868 8.825 8.787 8.752 8.707 8.647 8.583 8.545 8.538 8.532 8.527 8.522 8.512 8.487 8.473 8.505 8.557 8.597 8.63 8.625 8.57 8.503 8.448 8.4 8.375 8.39 8.42 8.45 8.48 8.497 8.51 8.54 8.577 8.607 8.632 8.635 8.62 8.613 8.61 8.605 8.595 8.585 8.572 8.552 8.217 7.563 7.23 7.23 7.23 7.23 7.23 7.23 7.23 7.23 7.23 7.23 7.23 7.23 7.23 7.23 7.23 7.23 7.23 7.23 7.23 7.23 7.23 7.23 7.23 7.23 7.23 7.23 7.23 7.23 7.23 7.23 7.23 7.23 7.23 7.231 7.231 7.368 7.713 8.131 8.55 9.168 9.935 10.552 11.064 11.372 11.43 11.497 11.675 11.85 11.927 11.817 11.705 11.793 12 12.26 12.305 12.228 12.353 12.65 13.007 13.287 12.917 12.005 11.543 11.658 12.213 13.285 14.475 15.15 15.315 15.375 15.43 15.48 15.52 15.542 15.56 15.665 15.96 16.28 16.533
13.438 13.388 13.333 13.29 13.26 13.23 13.21 13.198 13.18 13.15 13.082 12.985 12.888 12.798 12.74 12.715 12.695 12.673 12.665 12.695 12.75 12.765 12.685 12.55 12.43 12.355 12.302 12.235 12.158 12.09 12.035 11.985 11.935 11.877 11.815 11.732 11.625 11.52 11.428 11.377 11.355 11.322 11.265 11.14 10.968 10.813 10.705 10.625 10.543 10.46 10.35 10.215 10.08 9.94 9.83 9.802 9.83 9.862 9.905 9.932 9.937 9.935 9.917 9.902 9.887 9.86 9.77 9.582 9.358 9.193 9.12 9.077 9.035 8.992 8.942 8.895 8.855 8.815 8.772 8.717 8.652 8.588 8.548 8.54 8.535 8.53 8.525 8.52 8.51 8.5 8.525 8.562 8.59 8.62 8.605 8.543 8.475 8.41 8.368 8.37 8.4 8.43 8.457 8.475 8.483 8.493 8.52 8.56 8.6 8.627 8.627 8.62 8.615 8.607 8.602 8.595 8.585 8.567 8.538 8.53 8.217 7.563 7.23 7.23 7.23 7.23 7.23 7.23 7.23 7.23 7.23 7.23 7.23 7.23 7.23 7.23 7.23 7.23 7.23 7.23 7.23 7.23 7.23 7.23 7.23 7.23 7.23 7.23 7.23 7.23 7.23 7.23 7.23 7.23 7.23 7.23 7.23 7.23 7.23 7.231 7.401 7.888 8.473 9.218 9.98 10.507 11 11.372 11.535 11.617 11.595 11.602 11.807 12.082 12.34 12.382 12.313 12.368 12.533 12.79 13.117 13.252 12.612 11.743 11.5 11.71 12.443 13.602 14.595 15.14 15.325 15.38 15.43 15.467 15.487 15.503 15.52 15.635 15.888 16.228
13.495 13.45 13.412 13.387 13.36 13.327 13.285 13.245 13.22 13.187 13.117 13.023 12.925 12.835 12.783 12.76 12.74 12.72 12.703 12.72 12.782 12.807 12.732 12.605 12.48 12.375 12.295 12.222 12.145 12.073 12.015 11.965 11.907 11.833 11.78 11.735 11.655 11.553 11.453 11.383 11.335 11.292 11.232 11.107 10.938 10.788 10.68 10.6 10.517 10.435 10.327 10.192 10.055 9.91 9.805 9.792 9.827 9.887 9.935 9.945 9.952 9.94 9.912 9.887 9.85 9.8 9.672 9.458 9.268 9.16 9.11 9.07 9.03 8.98 8.925 8.877 8.835 8.797 8.752 8.695 8.635 8.583 8.553 8.543 8.538 8.532 8.528 8.523 8.517 8.507 8.517 8.547 8.572 8.592 8.585 8.537 8.47 8.405 8.373 8.385 8.415 8.442 8.465 8.475 8.48 8.49 8.515 8.555 8.595 8.617 8.615 8.607 8.6 8.59 8.582 8.577 8.572 8.557 8.53 8.51 8.525 8.222 7.565 7.23 7.23 7.23 7.23 7.23 7.23 7.23 7.23 7.23 7.23 7.23 7.23 7.23 7.23 7.23 7.23 7.23 7.23 7.23 7.23 7.23 7.23 7.23 7.23 7.23 7.23 7.23 7.23 7.23 7.23 7.23 7.23 7.23 7.23 7.23 7.23 7.23 7.23 7.23 7.251 7.503 8.026 8.823 9.73 10.177 10.325 10.544 10.762 11.099 11.587 12.074 12.422 12.504 12.495 12.54 12.613 12.735 12.93 13.23 13.112 12.305 11.64 11.508 11.818 12.543 13.545 14.527 15.125 15.325 15.375 15.41 15.43 15.445 15.46 15.48 15.65 16.03
13.585 13.525 13.48 13.465 13.447 13.42 13.377 13.323 13.283 13.242 13.165 13.07 12.978 12.89 12.835 12.805 12.78 12.757 12.72 12.693 12.723 12.752 12.692 12.575 12.47 12.38 12.293 12.21 12.13 12.055 11.995 11.935 11.86 11.775 11.72 11.697 11.662 11.6 11.505 11.405 11.323 11.25 11.187 11.072 10.908 10.765 10.66 10.577 10.493 10.41 10.305 10.17 10.022 9.863 9.745 9.728 9.778 9.867 9.932 9.945 9.937 9.892 9.837 9.79 9.74 9.682 9.537 9.34 9.215 9.143 9.09 9.05 9.005 8.937 8.865 8.81 8.768 8.742 8.705 8.648 8.598 8.573 8.568 8.553 8.54 8.535 8.53 8.525 8.512 8.49 8.49 8.515 8.532 8.54 8.545 8.532 8.482 8.418 8.39 8.408 8.432 8.457 8.477 8.485 8.488 8.498 8.525 8.562 8.59 8.6 8.59 8.575 8.565 8.555 8.548 8.545 8.545 8.54 8.52 8.488 8.49 8.53 8.225 7.565 7.23 7.23 7.23 7.23 7.23 7.23 7.23 7.23 7.23 7.23 7.23 7.23 7.23 7.23 7.23 7.23 7.23 7.23 7.23 7.23 7.23 7.23 7.23 7.23 7.23 7.23 7.23 7.23 7.23 7.23 7.23 7.23 7.23 7.23 7.23 7.23 7.23 7.23 7.23 7.23 7.285 7.615 8.053 8.195 8.256 8.453 8.78 9.313 9.957 10.559 11.014 11.439 11.982 12.526 12.802 12.857 12.94 13.1 13.262 12.9 12.1 11.603 11.55 11.878 12.625 13.5 14.365 15.065 15.32 15.352 15.37 15.387 15.402 15.425 15.573 15.923
13.667 13.595 13.543 13.53 13.525 13.507 13.472 13.417 13.36 13.3 13.217 13.125 13.032 12.948 12.893 12.857 12.827 12.795 12.752 12.705 12.678 12.665 12.61 12.518 12.438 12.372 12.295 12.208 12.123 12.04 11.965 11.885 11.8 11.715 11.66 11.64 11.617 11.602 11.542 11.435 11.335 11.237 11.152 11.037 10.885 10.745 10.638 10.553 10.47 10.39 10.282 10.137 9.977 9.81 9.685 9.67 9.75 9.862 9.93 9.925 9.875 9.802 9.735 9.68 9.63 9.557 9.42 9.283 9.2 9.13 9.075 9.03 8.967 8.885 8.803 8.743 8.71 8.692 8.655 8.603 8.575 8.583 8.597 8.58 8.55 8.538 8.532 8.52 8.492 8.46 8.455 8.468 8.475 8.48 8.485 8.49 8.477 8.433 8.41 8.43 8.45 8.475 8.495 8.497 8.495 8.505 8.532 8.557 8.57 8.577 8.565 8.543 8.53 8.52 8.515 8.515 8.515 8.515 8.505 8.468 8.455 8.49 8.53 8.225 7.565 7.23 7.23 7.23 7.23 7.23 7.23 7.23 7.23 7.23 7.23 7.23 7.23 7.23 7.23 7.23 7.23 7.23 7.23 7.23 7.23 7.23 7.23 7.23 7.23 7.23 7.23 7.23 7.23 7.23 7.23 7.23 7.23 7.23 7.23 7.23 7.23 7.23 7.23 7.23 7.23 7.23 7.23 7.23 7.231 7.248 7.371 7.618 7.906 8.163 8.398 8.788 9.583 10.605 11.404 12.012 12.639 13.087 13.297 13.277 12.732 11.96 11.563 11.605 12.088 12.798 13.52 14.34 15.03 15.3 15.315 15.327 15.338 15.385 15.545 15.812
13.737 13.663 13.61 13.593 13.59 13.582 13.562 13.51 13.417 13.322 13.237 13.155 13.072 12.995 12.94 12.9 12.862 12.827 12.787 12.74 12.69 12.635 12.573 12.505 12.44 12.372 12.29 12.202 12.115 12.028 11.94 11.848 11.758 11.665 11.605 11.585 11.565 11.577 11.532 11.41 11.31 11.215 11.115 10.995 10.852 10.725 10.628 10.545 10.465 10.375 10.25 10.092 9.928 9.76 9.63 9.633 9.737 9.852 9.9 9.852 9.775 9.697 9.625 9.568 9.52 9.45 9.353 9.262 9.19 9.118 9.057 8.997 8.915 8.825 8.738 8.683 8.663 8.645 8.608 8.575 8.583 8.607 8.627 8.617 8.58 8.55 8.527 8.495 8.45 8.433 8.443 8.443 8.443 8.445 8.445 8.445 8.448 8.433 8.428 8.45 8.47 8.495 8.512 8.51 8.505 8.51 8.525 8.537 8.542 8.55 8.542 8.517 8.5 8.493 8.49 8.49 8.49 8.488 8.482 8.455 8.43 8.45 8.49 8.53 8.222 7.563 7.23 7.23 7.23 7.23 7.23 7.23 7.23 7.23 7.23 7.23 7.23 7.23 7.23 7.23 7.23 7.23 7.23 7.23 7.23 7.23 7.23 7.23 7.23 7.23 7.23 7.23 7.23 7.23 7.23 7.23 7.23 7.23 7.23 7.23 7.23 7.23 7.23 7.23 7.23 7.23 7.23 7.23 7.23 7.23 7.23 7.23 7.23 7.23 7.231 7.256 7.524 8.016 8.563 9.363 10.572 11.839 12.861 13.404 13.235 12.54 11.818 11.525 11.705 12.365 13.142 13.745 14.35 14.817 15.112 15.26 15.265 15.35 15.535 15.697
13.805 13.73 13.677 13.65 13.632 13.615 13.592 13.525 13.402 13.29 13.207 13.132 13.065 13.01 12.962 12.915 12.875 12.85 12.817 12.77 12.715 12.64 12.565 12.502 12.435 12.36 12.275 12.185 12.098 12.017 11.935 11.84 11.743 11.638 11.563 11.535 11.53 11.562 11.515 11.375 11.263 11.165 11.065 10.945 10.808 10.708 10.642 10.57 10.48 10.35 10.197 10.047 9.885 9.718 9.58 9.575 9.68 9.78 9.792 9.72 9.64 9.563 9.515 9.48 9.423 9.36 9.295 9.227 9.16 9.095 9.04 8.975 8.893 8.81 8.73 8.668 8.628 8.598 8.578 8.583 8.608 8.633 8.655 8.652 8.607 8.54 8.477 8.425 8.395 8.43 8.467 8.463 8.46 8.458 8.453 8.45 8.448 8.44 8.443 8.46 8.48 8.505 8.52 8.515 8.507 8.495 8.48 8.48 8.487 8.495 8.487 8.465 8.468 8.483 8.485 8.485 8.485 8.48 8.475 8.45 8.41 8.413 8.45 8.49 8.527 8.19 7.533 7.23 7.23 7.23 7.23 7.23 7.23 7.23 7.23 7.23 7.23 7.23 7.23 7.23 7.23 7.23 7.23 7.23 7.23 7.23 7.23 7.23 7.23 7.23 7.23 7.23 7.23 7.23 7.23 7.23 7.23 7.23 7.23 7.23 7.23 7.23 7.23 7.23 7.23 7.23 7.23 7.23 7.23 7.23 7.23 7.23 7.23 7.23 7.23 7.23 7.23 7.23 7.231 7.439 8.054 9.073 10.722 12.601 13.439 13.112 12.35 11.735 11.563 11.875 12.672 13.492 13.938 14.21 14.525 14.767 15.005 15.26 15.442 15.557
13.715 13.672 13.655 13.64 13.615 13.587 13.547 13.467 13.348 13.24 13.163 13.095 13.043 13.005 12.965 12.92 12.89 12.87 12.842 12.8 12.732 12.64 12.56 12.495 12.42 12.34 12.255 12.165 12.083 12.01 11.932 11.84 11.735 11.618 11.525 11.488 11.515 11.562 11.5 11.353 11.223 11.118 11.017 10.893 10.773 10.705 10.66 10.595 10.475 10.292 10.125 9.995 9.845 9.68 9.54 9.498 9.57 9.647 9.635 9.56 9.483 9.413 9.418 9.435 9.36 9.273 9.21 9.158 9.118 9.088 9.058 9.01 8.943 8.868 8.795 8.71 8.633 8.593 8.593 8.617 8.64 8.662 8.682 8.657 8.572 8.473 8.388 8.343 8.373 8.457 8.502 8.5 8.497 8.493 8.488 8.485 8.482 8.473 8.463 8.465 8.48 8.505 8.52 8.515 8.495 8.46 8.425 8.408 8.405 8.41 8.403 8.403 8.445 8.482 8.492 8.495 8.495 8.49 8.482 8.447 8.398 8.393 8.423 8.46 8.497 8.5 8.125 7.498 7.23 7.23 7.23 7.23 7.23 7.23 7.23 7.23 7.23 7.23 7.23 7.23 7.23 7.23 7.23 7.23 7.23 7.23 7.23 7.23 7.23 7.23 7.23 7.23 7.23 7.23 7.23 7.23 7.23 7.23 7.23 7.23 7.23 7.23 7.23 7.23 7.23 7.23 7.23 7.23 7.23 7.23 7.23 7.23 7.23 7.23 7.23 7.23 7.23 7.23 7.23 7.23 7.23 7.389 8.141 9.898 12.274 13.389 12.942 12.21 11.7 11.628 12.055 12.94 13.757 14.087 14.13 14.243 14.495 14.725 14.887 15.052
13.555 13.54 13.548 13.558 13.553 13.527 13.475 13.397 13.29 13.19 13.125 13.078 13.04 13.005 12.968 12.933 12.91 12.89 12.867 12.825 12.742 12.64 12.555 12.48 12.4 12.32 12.235 12.148 12.073 12.005 11.93 11.835 11.717 11.593 11.488 11.455 11.515 11.565 11.49 11.34 11.195 11.075 10.967 10.848 10.76 10.712 10.657 10.57 10.417 10.215 10.045 9.927 9.8 9.645 9.515 9.438 9.465 9.515 9.475 9.402 9.328 9.288 9.345 9.402 9.33 9.213 9.15 9.125 9.115 9.113 9.1 9.067 9.017 8.952 8.877 8.78 8.678 8.63 8.635 8.652 8.667 8.68 8.69 8.635 8.513 8.398 8.31 8.308 8.393 8.492 8.537 8.535 8.532 8.528 8.523 8.52 8.517 8.507 8.493 8.483 8.485 8.505 8.52 8.507 8.467 8.42 8.385 8.36 8.343 8.33 8.335 8.375 8.435 8.475 8.49 8.5 8.505 8.5 8.482 8.445 8.405 8.39 8.408 8.442 8.475 8.505 8.467 8.09 7.498 7.23 7.23 7.23 7.23 7.23 7.23 7.23 7.23 7.23 7.23 7.23 7.23 7.23 7.23 7.23 7.23 7.23 7.23 7.23 7.23 7.23 7.23 7.23 7.23 7.23 7.23 7.23 7.23 7.23 7.23 7.23 7.23 7.23 7.23 7.23 7.23 7.23 7.23 7.23 7.23 7.23 7.23 7.23 7.23 7.23 7.23 7.23 7.23 7.23 7.23 7.23 7.23 7.23 7.231 7.597 9.323 12.094 13.314 12.765 12.068 11.658 11.69 12.223 13.17 13.937 14.2 14.23 14.265 14.245 14.175 14.24
13.588 13.553 13.538 13.535 13.528 13.483 13.403 13.32 13.23 13.153 13.108 13.075 13.04 13.003 12.97 12.945 12.925 12.905 12.885 12.832 12.735 12.627 12.535 12.455 12.375 12.295 12.215 12.138 12.067 12 11.92 11.812 11.687 11.565 11.455 11.443 11.53 11.567 11.48 11.33 11.18 11.04 10.918 10.823 10.755 10.692 10.617 10.495 10.325 10.133 9.965 9.848 9.737 9.612 9.497 9.4 9.38 9.382 9.317 9.245 9.18 9.193 9.295 9.37 9.315 9.203 9.158 9.153 9.15 9.147 9.14 9.115 9.072 9.022 8.96 8.865 8.745 8.668 8.655 8.662 8.67 8.677 8.677 8.612 8.485 8.363 8.295 8.338 8.44 8.532 8.572 8.57 8.567 8.563 8.558 8.555 8.55 8.54 8.525 8.51 8.503 8.51 8.515 8.485 8.433 8.383 8.345 8.32 8.31 8.308 8.3 8.333 8.407 8.46 8.482 8.497 8.507 8.507 8.488 8.455 8.43 8.413 8.403 8.415 8.445 8.472 8.497 8.445 8.037 7.463 7.23 7.23 7.23 7.23 7.23 7.23 7.23 7.23 7.23 7.23 7.23 7.23 7.23 7.23 7.23 7.23 7.23 7.23 7.23 7.23 7.23 7.23 7.23 7.23 7.23 7.23 7.23 7.23 7.23 7.23 7.23 7.23 7.23 7.23 7.23 7.23 7.23 7.23 7.23 7.23 7.23 7.23 7.23 7.23 7.23 7.23 7.23 7.23 7.23 7.23 7.23 7.23 7.23 7.23 7.407 9.901 12.796 13.167 12.582 11.928 11.623 11.77 12.41 13.377 14.102 14.342 14.377 14.185 13.705 13.55
13.743 13.66 13.635 13.613 13.567 13.48 13.378 13.288 13.205 13.148 13.115 13.085 13.05 13.008 12.965 12.935 12.915 12.895 12.865 12.797 12.695 12.587 12.495 12.415 12.335 12.255 12.185 12.122 12.055 11.985 11.9 11.78 11.648 11.525 11.435 11.455 11.552 11.575 11.475 11.325 11.175 11.025 10.888 10.792 10.72 10.64 10.542 10.397 10.222 10.043 9.885 9.768 9.665 9.562 9.462 9.368 9.3 9.243 9.165 9.088 9.058 9.125 9.245 9.34 9.315 9.225 9.193 9.188 9.185 9.182 9.177 9.157 9.117 9.075 9.03 8.95 8.833 8.73 8.678 8.663 8.665 8.672 8.662 8.587 8.468 8.37 8.343 8.405 8.502 8.577 8.605 8.605 8.602 8.597 8.592 8.587 8.58 8.57 8.555 8.54 8.53 8.522 8.505 8.458 8.398 8.345 8.315 8.313 8.33 8.347 8.3 8.27 8.332 8.4 8.435 8.455 8.475 8.5 8.512 8.5 8.483 8.47 8.43 8.393 8.405 8.43 8.45 8.447 8.395 7.992 7.43 7.23 7.23 7.23 7.23 7.23 7.23 7.23 7.23 7.23 7.23 7.23 7.23 7.23 7.23 7.23 7.23 7.23 7.23 7.23 7.23 7.23 7.23 7.23 7.23 7.23 7.23 7.23 7.23 7.23 7.23 7.23 7.23 7.23 7.23 7.23 7.23 7.23 7.23 7.23 7.23 7.23 7.23 7.23 7.23 7.23 7.23 7.23 7.23 7.23 7.23 7.23 7.23 7.23 7.231 8.556 11.407 13.074 13.005 12.407 11.84 11.64 11.855 12.598 13.592 14.277 14.43 14.102 13.553 13.315
13.92 13.775 13.745 13.712 13.625 13.5 13.395 13.31 13.23 13.17 13.135 13.105 13.067 13.02 12.955 12.905 12.885 12.86 12.81 12.73 12.635 12.533 12.44 12.36 12.283 12.21 12.15 12.097 12.037 11.97 11.882 11.755 11.61 11.478 11.423 11.47 11.542 11.58 11.51 11.36 11.21 11.058 10.883 10.743 10.66 10.577 10.457 10.295 10.12 9.958 9.82 9.7 9.595 9.498 9.405 9.312 9.215 9.125 9.045 8.965 8.925 8.99 9.12 9.242 9.295 9.26 9.228 9.222 9.22 9.217 9.212 9.195 9.16 9.12 9.09 9.03 8.922 8.818 8.74 8.693 8.67 8.667 8.65 8.57 8.473 8.413 8.408 8.475 8.565 8.62 8.635 8.635 8.635 8.632 8.627 8.62 8.61 8.6 8.585 8.567 8.55 8.53 8.507 8.465 8.403 8.345 8.333 8.36 8.392 8.397 8.325 8.235 8.238 8.3 8.34 8.365 8.405 8.467 8.525 8.555 8.557 8.545 8.5 8.418 8.375 8.388 8.402 8.395 8.415 8.39 7.945 7.393 7.23 7.23 7.23 7.23 7.23 7.23 7.23 7.23 7.23 7.23 7.23 7.23 7.23 7.23 7.23 7.23 7.23 7.23 7.23 7.23 7.23 7.23 7.23 7.23 7.23 7.23 7.23 7.23 7.23 7.23 7.23 7.23 7.23 7.23 7.23 7.23 7.23 7.23 7.23 7.23 7.23 7.23 7.23 7.23 7.23 7.23 7.23 7.23 7.23 7.23 7.23 7.23 7.23 7.646 9.718 12.202 13.044 12.835 12.268 11.788 11.655 11.975 12.825 13.82 14.34 14.185 13.8 13.503
14.13 13.923 13.855 13.792 13.657 13.52 13.423 13.345 13.27 13.2 13.155 13.122 13.08 13.027 12.953 12.885 12.855 12.815 12.745 12.66 12.572 12.477 12.385 12.308 12.238 12.173 12.115 12.065 12.015 11.955 11.865 11.735 11.585 11.44 11.393 11.44 11.49 11.565 11.56 11.43 11.277 11.12 10.915 10.715 10.598 10.502 10.365 10.198 10.043 9.913 9.788 9.658 9.538 9.433 9.337 9.237 9.133 9.038 8.955 8.873 8.793 8.788 8.89 9.027 9.15 9.217 9.24 9.252 9.255 9.252 9.247 9.235 9.205 9.175 9.16 9.107 9.007 8.905 8.823 8.76 8.708 8.675 8.64 8.575 8.513 8.468 8.47 8.54 8.617 8.655 8.662 8.665 8.665 8.665 8.66 8.65 8.637 8.62 8.6 8.577 8.552 8.53 8.515 8.492 8.445 8.393 8.39 8.425 8.457 8.447 8.36 8.243 8.178 8.2 8.243 8.283 8.348 8.43 8.507 8.565 8.6 8.615 8.59 8.495 8.39 8.355 8.357 8.345 8.323 8.422 8.42 7.865 7.328 7.23 7.23 7.23 7.23 7.23 7.23 7.23 7.23 7.23 7.23 7.23 7.23 7.23 7.23 7.23 7.23 7.23 7.23 7.23 7.23 7.23 7.23 7.23 7.23 7.23 7.23 7.23 7.23 7.23 7.23 7.23 7.23 7.23 7.23 7.23 7.23 7.23 7.23 7.23 7.23 7.23 7.23 7.23 7.23 7.23 7.23 7.23 7.23 7.23 7.23 7.23 7.23 7.231 8.654 11.407 12.889 12.96 12.645 12.123 11.74 11.715 12.155 13.068 13.972 14.325 14.145 13.805
14.325 14.09 13.945 13.84 13.683 13.545 13.455 13.385 13.31 13.235 13.18 13.137 13.087 13.03 12.96 12.878 12.818 12.757 12.675 12.59 12.505 12.42 12.338 12.268 12.202 12.138 12.08 12.03 11.982 11.93 11.845 11.715 11.565 11.415 11.35 11.378 11.43 11.525 11.58 11.497 11.34 11.177 10.97 10.718 10.54 10.42 10.275 10.133 10.01 9.9 9.775 9.637 9.503 9.378 9.268 9.16 9.053 8.955 8.87 8.788 8.708 8.648 8.675 8.795 8.938 9.067 9.127 9.135 9.16 9.202 9.242 9.265 9.257 9.235 9.212 9.162 9.08 8.987 8.907 8.84 8.77 8.702 8.645 8.6 8.56 8.52 8.528 8.595 8.66 8.685 8.687 8.692 8.695 8.695 8.685 8.667 8.647 8.62 8.595 8.57 8.548 8.53 8.515 8.5 8.475 8.443 8.448 8.487 8.522 8.497 8.395 8.278 8.17 8.125 8.16 8.233 8.315 8.4 8.482 8.545 8.595 8.64 8.657 8.59 8.46 8.36 8.315 8.295 8.27 8.293 8.477 8.422 7.74 7.245 7.23 7.23 7.23 7.23 7.23 7.23 7.23 7.23 7.23 7.23 7.23 7.23 7.23 7.23 7.23 7.23 7.23 7.23 7.23 7.23 7.23 7.23 7.23 7.23 7.23 7.23 7.23 7.23 7.23 7.23 7.23 7.23 7.23 7.23 7.23 7.23 7.23 7.23 7.23 7.23 7.23 7.23 7.23 7.23 7.23 7.23 7.23 7.23 7.231 7.326 7.629 8.114 9.423 11.56 12.807 12.995 12.865 12.455 11.978 11.698 11.798 12.35 13.262 14.08 14.36 14.15
14.382 14.197 14.035 13.902 13.738 13.58 13.48 13.41 13.337 13.265 13.205 13.153 13.098 13.043 12.977 12.883 12.793 12.718 12.638 12.558 12.478 12.398 12.315 12.238 12.165 12.103 12.05 12 11.947 11.895 11.82 11.695 11.545 11.395 11.318 11.325 11.395 11.523 11.617 11.482 11.253 11.125 10.95 10.705 10.5 10.358 10.23 10.115 10.007 9.882 9.74 9.6 9.462 9.335 9.22 9.11 9.003 8.908 8.825 8.745 8.67 8.595 8.56 8.623 8.755 8.895 8.937 8.908 8.91 8.973 9.077 9.16 9.185 9.16 9.132 9.105 9.047 8.977 8.927 8.87 8.79 8.71 8.645 8.605 8.57 8.54 8.565 8.637 8.687 8.7 8.7 8.7 8.702 8.707 8.695 8.668 8.64 8.613 8.588 8.563 8.545 8.53 8.515 8.503 8.488 8.478 8.5 8.547 8.582 8.542 8.433 8.32 8.21 8.13 8.14 8.215 8.295 8.375 8.458 8.53 8.593 8.658 8.705 8.655 8.525 8.39 8.275 8.215 8.192 8.183 8.31 8.592 8.44 7.683 7.23 7.23 7.23 7.23 7.23 7.23 7.23 7.23 7.23 7.23 7.23 7.23 7.23 7.23 7.23 7.23 7.23 7.23 7.23 7.23 7.23 7.23 7.23 7.23 7.23 7.23 7.23 7.23 7.23 7.23 7.23 7.23 7.23 7.23 7.23 7.23 7.23 7.23 7.23 7.23 7.23 7.23 7.23 7.23 7.23 7.23 7.23 7.421 8.498 9.62 10.082 10.607 11.305 12.145 12.672 12.9 13.012 13.007 12.557 11.903 11.715 11.898 12.485 13.382 14.169 14.39
14.413 14.275 14.14 13.985 13.795 13.618 13.505 13.425 13.35 13.28 13.22 13.17 13.12 13.07 13.005 12.908 12.808 12.725 12.648 12.573 12.495 12.41 12.32 12.23 12.145 12.07 12.01 11.957 11.902 11.847 11.777 11.667 11.527 11.38 11.295 11.305 11.413 11.587 11.717 11.532 11.195 11.02 10.86 10.67 10.49 10.343 10.225 10.117 10 9.845 9.685 9.545 9.415 9.3 9.19 9.083 8.983 8.893 8.813 8.735 8.658 8.583 8.525 8.518 8.59 8.722 8.772 8.73 8.7 8.73 8.833 8.935 8.977 8.96 8.945 8.952 8.922 8.87 8.85 8.83 8.772 8.695 8.628 8.585 8.553 8.54 8.585 8.647 8.677 8.687 8.69 8.69 8.698 8.71 8.7 8.67 8.64 8.62 8.598 8.568 8.548 8.533 8.518 8.508 8.503 8.51 8.545 8.595 8.637 8.602 8.495 8.388 8.29 8.213 8.198 8.243 8.31 8.385 8.463 8.548 8.63 8.71 8.755 8.695 8.56 8.412 8.258 8.138 8.098 8.115 8.235 8.495 8.809 8.447 7.578 7.23 7.23 7.23 7.23 7.23 7.23 7.23 7.23 7.23 7.23 7.23 7.23 7.23 7.23 7.23 7.23 7.23 7.23 7.23 7.23 7.23 7.23 7.23 7.23 7.23 7.23 7.23 7.23 7.23 7.23 7.23 7.23 7.23 7.23 7.23 7.23 7.23 7.23 7.23 7.23 7.23 7.23 7.23 7.23 7.23 7.918 9.36 10.959 11.956 12.154 12.247 12.299 12.357 12.485 12.653 12.855 13.137 13.079 12.455 11.888 11.748 11.96 12.553 13.467 14.239
14.512 14.377 14.23 14.047 13.838 13.653 13.533 13.448 13.368 13.292 13.23 13.187 13.147 13.1 13.035 12.942 12.843 12.753 12.67 12.592 12.51 12.42 12.33 12.235 12.125 12.02 11.95 11.9 11.85 11.795 11.727 11.63 11.502 11.363 11.27 11.308 11.462 11.657 11.805 11.647 11.255 10.975 10.803 10.655 10.515 10.372 10.238 10.12 9.975 9.793 9.63 9.498 9.38 9.273 9.165 9.063 8.97 8.88 8.798 8.722 8.645 8.57 8.515 8.48 8.478 8.555 8.605 8.578 8.568 8.583 8.64 8.713 8.755 8.758 8.758 8.787 8.785 8.748 8.735 8.74 8.725 8.675 8.608 8.563 8.535 8.543 8.587 8.62 8.643 8.665 8.677 8.685 8.7 8.712 8.712 8.7 8.68 8.668 8.642 8.595 8.558 8.538 8.525 8.525 8.535 8.55 8.583 8.63 8.68 8.67 8.582 8.483 8.395 8.318 8.29 8.315 8.36 8.425 8.503 8.595 8.69 8.775 8.81 8.735 8.585 8.425 8.262 8.128 8.073 8.1 8.215 8.455 8.78 8.914 8.24 7.415 7.23 7.23 7.23 7.23 7.23 7.23 7.23 7.23 7.23 7.23 7.23 7.23 7.23 7.23 7.23 7.23 7.23 7.23 7.23 7.23 7.23 7.23 7.23 7.23 7.23 7.23 7.23 7.23 7.23 7.23 7.23 7.23 7.23 7.23 7.23 7.23 7.23 7.23 7.23 7.23 7.23 7.23 7.23 7.268 8.9 11.385 12.208 12.142 12.2 12.275 12.277 12.268 12.36 12.49 12.58 12.735 12.915 12.815 12.3 11.843 11.77 11.98 12.585 13.53
14.6 14.465 14.315 14.113 13.88 13.685 13.558 13.475 13.387 13.295 13.228 13.192 13.162 13.125 13.065 12.977 12.877 12.775 12.682 12.6 12.517 12.43 12.327 12.207 12.07 11.948 11.875 11.83 11.787 11.74 11.68 11.585 11.463 11.335 11.258 11.32 11.475 11.632 11.735 11.555 11.173 10.92 10.763 10.617 10.495 10.367 10.235 10.102 9.935 9.738 9.578 9.46 9.352 9.247 9.142 9.045 8.958 8.87 8.785 8.708 8.633 8.56 8.505 8.47 8.435 8.435 8.453 8.458 8.475 8.495 8.528 8.558 8.573 8.573 8.58 8.613 8.633 8.625 8.618 8.62 8.625 8.615 8.575 8.54 8.52 8.533 8.567 8.593 8.62 8.65 8.67 8.682 8.697 8.7 8.705 8.717 8.725 8.73 8.702 8.64 8.58 8.55 8.55 8.562 8.577 8.592 8.62 8.665 8.715 8.732 8.677 8.587 8.502 8.423 8.393 8.41 8.433 8.475 8.55 8.645 8.742 8.835 8.855 8.742 8.565 8.385 8.23 8.145 8.12 8.125 8.198 8.42 8.752 9.06 8.867 7.905 7.25 7.23 7.23 7.23 7.23 7.23 7.23 7.23 7.23 7.23 7.23 7.23 7.23 7.23 7.23 7.23 7.23 7.23 7.23 7.23 7.23 7.23 7.23 7.23 7.23 7.23 7.23 7.23 7.23 7.23 7.23 7.23 7.23 7.23 7.23 7.23 7.23 7.23 7.23 7.23 7.23 7.23 7.23 7.268 8.213 9.64 10.612 11.654 12.269 12.257 12.22 12.225 12.27 12.368 12.47 12.553 12.603 12.68 12.562 12.113 11.798 11.785 11.993 12.613
14.67 14.53 14.382 14.205 13.98 13.745 13.575 13.475 13.375 13.27 13.205 13.177 13.152 13.122 13.065 12.977 12.875 12.765 12.665 12.58 12.5 12.41 12.287 12.145 12.003 11.878 11.798 11.75 11.71 11.67 11.622 11.542 11.43 11.31 11.23 11.268 11.385 11.505 11.552 11.335 11.028 10.873 10.725 10.55 10.413 10.295 10.177 10.05 9.882 9.685 9.533 9.425 9.317 9.21 9.11 9.027 8.95 8.865 8.78 8.7 8.625 8.553 8.498 8.463 8.428 8.393 8.4 8.448 8.485 8.518 8.548 8.555 8.545 8.505 8.478 8.495 8.515 8.52 8.515 8.518 8.525 8.53 8.525 8.507 8.5 8.52 8.548 8.575 8.605 8.635 8.66 8.677 8.69 8.68 8.675 8.695 8.717 8.74 8.727 8.67 8.6 8.563 8.57 8.585 8.6 8.617 8.645 8.69 8.74 8.762 8.73 8.667 8.6 8.527 8.495 8.507 8.512 8.52 8.562 8.64 8.727 8.817 8.815 8.667 8.472 8.295 8.193 8.17 8.17 8.168 8.193 8.383 8.71 9.042 9.207 8.642 7.655 7.23 7.23 7.23 7.23 7.23 7.23 7.23 7.23 7.23 7.23 7.23 7.23 7.23 7.23 7.23 7.23 7.23 7.23 7.23 7.23 7.23 7.23 7.23 7.23 7.23 7.23 7.23 7.23 7.23 7.23 7.23 7.23 7.23 7.23 7.23 7.23 7.23 7.23 7.23 7.23 7.23 7.23 7.23 7.231 7.424 8.096 9.175 10.155 11.234 12.054 12.182 12.198 12.258 12.35 12.42 12.48 12.433 12.427 12.307 11.93 11.775 11.798 11.983
14.737 14.585 14.428 14.285 14.115 13.885 13.653 13.468 13.33 13.23 13.175 13.15 13.12 13.087 13.027 12.935 12.83 12.72 12.623 12.537 12.45 12.35 12.222 12.078 11.945 11.838 11.753 11.683 11.63 11.59 11.55 11.502 11.415 11.295 11.198 11.173 11.243 11.36 11.37 11.153 10.938 10.842 10.7 10.51 10.34 10.208 10.092 9.97 9.82 9.638 9.488 9.38 9.27 9.16 9.068 9.005 8.945 8.865 8.78 8.7 8.625 8.55 8.495 8.46 8.425 8.39 8.415 8.497 8.557 8.6 8.632 8.64 8.615 8.533 8.46 8.455 8.46 8.458 8.453 8.453 8.458 8.463 8.467 8.46 8.47 8.505 8.532 8.56 8.59 8.62 8.65 8.67 8.672 8.65 8.643 8.665 8.688 8.715 8.715 8.672 8.61 8.568 8.568 8.583 8.603 8.628 8.658 8.7 8.74 8.747 8.727 8.692 8.645 8.587 8.547 8.54 8.53 8.515 8.523 8.568 8.64 8.72 8.69 8.533 8.36 8.245 8.218 8.23 8.248 8.265 8.27 8.388 8.64 8.935 9.212 9.192 8.417 7.503 7.23 7.23 7.23 7.23 7.23 7.23 7.23 7.23 7.23 7.23 7.23 7.23 7.23 7.23 7.23 7.23 7.23 7.23 7.23 7.23 7.23 7.23 7.23 7.23 7.23 7.23 7.23 7.23 7.23 7.23 7.23 7.23 7.23 7.23 7.23 7.23 7.23 7.23 7.23 7.23 7.23 7.23 7.23 7.23 7.23 7.231 7.616 8.731 10.03 11.376 12.159 12.195 12.24 12.288 12.35 12.29 12.263 12.3 12.06 11.81 11.773 11.788
14.802 14.635 14.475 14.335 14.185 13.995 13.762 13.528 13.333 13.203 13.143 13.112 13.075 13.04 12.977 12.88 12.778 12.673 12.578 12.487 12.39 12.282 12.155 12.023 11.918 11.835 11.75 11.658 11.578 11.515 11.468 11.44 11.39 11.29 11.198 11.143 11.138 11.217 11.192 11.02 10.895 10.812 10.675 10.485 10.298 10.135 10.005 9.88 9.742 9.583 9.44 9.33 9.22 9.11 9.023 8.97 8.922 8.857 8.78 8.7 8.625 8.55 8.495 8.46 8.425 8.39 8.418 8.515 8.605 8.672 8.715 8.727 8.672 8.555 8.46 8.43 8.428 8.423 8.418 8.413 8.41 8.41 8.413 8.418 8.443 8.482 8.515 8.545 8.575 8.607 8.64 8.66 8.65 8.615 8.608 8.633 8.66 8.69 8.695 8.665 8.615 8.573 8.565 8.583 8.61 8.64 8.67 8.707 8.727 8.72 8.707 8.685 8.645 8.595 8.55 8.52 8.495 8.475 8.475 8.498 8.545 8.597 8.543 8.41 8.33 8.315 8.338 8.368 8.402 8.385 8.37 8.478 8.658 8.875 9.14 9.305 9.055 8.148 7.373 7.23 7.23 7.23 7.23 7.23 7.23 7.23 7.23 7.23 7.23 7.23 7.23 7.23 7.23 7.23 7.23 7.23 7.23 7.23 7.23 7.23 7.23 7.23 7.23 7.23 7.23 7.23 7.23 7.23 7.23 7.23 7.23 7.23 7.23 7.23 7.23 7.23 7.23 7.23 7.23 7.23 7.23 7.23 7.23 7.23 7.23 7.231 7.686 8.913 10.562 11.829 12.232 12.255 12.273 12.26 12.245 12.242 12.09 11.893 11.848 11.873
14.857 14.68 14.51 14.35 14.18 13.99 13.78 13.56 13.348 13.195 13.125 13.08 13.033 12.99 12.923 12.828 12.735 12.643 12.543 12.433 12.328 12.218 12.098 11.998 11.918 11.84 11.755 11.663 11.57 11.473 11.39 11.352 11.332 11.272 11.198 11.147 11.103 11.108 11.06 10.945 10.865 10.785 10.65 10.46 10.27 10.088 9.928 9.79 9.658 9.518 9.393 9.285 9.175 9.065 8.98 8.928 8.882 8.832 8.767 8.692 8.62 8.547 8.493 8.457 8.422 8.388 8.423 8.522 8.62 8.712 8.785 8.797 8.71 8.57 8.458 8.418 8.418 8.41 8.405 8.4 8.393 8.385 8.378 8.388 8.42 8.462 8.5 8.53 8.56 8.593 8.625 8.642 8.625 8.585 8.575 8.6 8.63 8.66 8.672 8.65 8.607 8.573 8.57 8.595 8.625 8.655 8.685 8.707 8.707 8.693 8.68 8.667 8.64 8.595 8.553 8.518 8.48 8.45 8.448 8.465 8.493 8.515 8.48 8.423 8.428 8.48 8.527 8.562 8.555 8.453 8.445 8.605 8.78 8.95 9.137 9.31 9.352 8.882 7.845 7.24 7.23 7.23 7.23 7.23 7.23 7.23 7.23 7.23 7.23 7.23 7.23 7.23 7.23 7.23 7.23 7.23 7.23 7.23 7.23 7.23 7.23 7.23 7.23 7.23 7.23 7.23 7.23 7.23 7.23 7.23 7.23 7.23 7.23 7.23 7.23 7.23 7.23 7.23 7.23 7.23 7.23 7.23 7.23 7.23 7.23 7.23 7.23 7.231 8.106 9.972 11.646 12.329 12.315 12.295 12.26 12.208 12.113 12.015 11.997 12.005
14.842 14.657 14.487 14.317 14.135 13.945 13.735 13.523 13.338 13.208 13.135 13.08 13.025 12.975 12.903 12.813 12.728 12.642 12.537 12.41 12.29 12.175 12.075 11.997 11.92 11.84 11.757 11.667 11.57 11.435 11.295 11.235 11.227 11.215 11.185 11.142 11.095 11.053 10.99 10.91 10.835 10.755 10.622 10.435 10.24 10.045 9.865 9.713 9.58 9.453 9.345 9.245 9.135 9.025 8.94 8.885 8.84 8.795 8.735 8.665 8.595 8.528 8.475 8.437 8.403 8.38 8.405 8.478 8.572 8.677 8.78 8.807 8.712 8.563 8.448 8.423 8.44 8.442 8.438 8.43 8.42 8.41 8.393 8.378 8.398 8.445 8.492 8.53 8.56 8.59 8.62 8.627 8.597 8.553 8.543 8.57 8.6 8.632 8.65 8.63 8.59 8.555 8.553 8.58 8.61 8.64 8.67 8.687 8.685 8.67 8.653 8.64 8.625 8.595 8.563 8.543 8.53 8.52 8.525 8.548 8.55 8.525 8.52 8.542 8.565 8.635 8.717 8.722 8.612 8.498 8.56 8.73 8.88 9.012 9.145 9.265 9.365 9.324 8.575 7.57 7.23 7.23 7.23 7.23 7.23 7.23 7.23 7.23 7.23 7.23 7.23 7.23 7.23 7.23 7.23 7.23 7.23 7.23 7.23 7.23 7.23 7.23 7.23 7.23 7.23 7.23 7.23 7.23 7.23 7.23 7.23 7.23 7.23 7.23 7.23 7.23 7.23 7.23 7.23 7.23 7.23 7.23 7.23 7.23 7.23 7.23 7.23 7.23 7.231 7.846 9.47 11.381 12.349 12.382 12.31 12.238 12.173 12.122 12.102 12.097
14.742 14.567 14.41 14.262 14.09 13.897 13.69 13.503 13.353 13.233 13.155 13.103 13.053 13.002 12.922 12.828 12.74 12.655 12.55 12.42 12.28 12.143 12.052 11.992 11.922 11.845 11.762 11.667 11.535 11.352 11.175 11.095 11.103 11.137 11.15 11.12 11.075 11.022 10.947 10.86 10.785 10.715 10.587 10.395 10.192 9.99 9.808 9.653 9.513 9.385 9.285 9.197 9.095 8.985 8.903 8.848 8.8 8.755 8.692 8.623 8.558 8.495 8.445 8.408 8.383 8.38 8.39 8.415 8.475 8.57 8.67 8.715 8.665 8.538 8.433 8.42 8.45 8.472 8.485 8.485 8.475 8.465 8.44 8.39 8.378 8.42 8.477 8.532 8.57 8.6 8.627 8.62 8.575 8.533 8.525 8.548 8.575 8.607 8.63 8.615 8.57 8.525 8.515 8.535 8.56 8.59 8.62 8.647 8.66 8.65 8.633 8.618 8.608 8.603 8.618 8.645 8.665 8.68 8.69 8.685 8.642 8.578 8.563 8.607 8.647 8.735 8.842 8.792 8.6 8.52 8.617 8.747 8.855 8.947 9.045 9.158 9.287 9.385 9.187 8.295 7.43 7.23 7.23 7.23 7.23 7.23 7.23 7.23 7.23 7.23 7.23 7.23 7.23 7.23 7.23 7.23 7.23 7.23 7.23 7.23 7.23 7.23 7.23 7.23 7.23 7.23 7.23 7.23 7.23 7.23 7.23 7.23 7.23 7.23 7.23 7.23 7.23 7.23 7.23 7.23 7.23 7.23 7.23 7.23 7.23 7.23 7.23 7.23 7.23 7.23 7.574 8.851 10.732 12.049 12.379 12.302 12.233 12.187 12.17 12.16
14.607 14.46 14.318 14.19 14.04 13.853 13.665 13.513 13.377 13.255 13.178 13.13 13.085 13.035 12.95 12.848 12.755 12.667 12.56 12.42 12.257 12.098 12.003 11.955 11.9 11.837 11.76 11.635 11.452 11.248 11.053 10.965 11.01 11.072 11.09 11.077 11.047 10.992 10.912 10.815 10.725 10.652 10.525 10.33 10.13 9.933 9.755 9.6 9.453 9.32 9.22 9.137 9.047 8.948 8.868 8.813 8.76 8.71 8.65 8.585 8.525 8.465 8.415 8.39 8.385 8.39 8.4 8.405 8.42 8.468 8.525 8.558 8.557 8.492 8.415 8.41 8.44 8.47 8.5 8.52 8.527 8.525 8.492 8.423 8.375 8.395 8.455 8.522 8.575 8.61 8.63 8.61 8.568 8.54 8.528 8.535 8.558 8.583 8.607 8.597 8.542 8.493 8.483 8.498 8.518 8.545 8.573 8.6 8.622 8.627 8.618 8.605 8.603 8.613 8.662 8.737 8.797 8.827 8.812 8.762 8.697 8.63 8.595 8.623 8.685 8.79 8.867 8.77 8.578 8.498 8.552 8.645 8.735 8.825 8.928 9.05 9.182 9.315 9.395 9.037 7.973 7.255 7.23 7.23 7.23 7.23 7.23 7.23 7.23 7.23 7.23 7.23 7.23 7.23 7.23 7.23 7.23 7.23 7.23 7.23 7.23 7.23 7.23 7.23 7.23 7.23 7.23 7.23 7.23 7.23 7.23 7.23 7.23 7.23 7.23 7.23 7.23 7.23 7.23 7.23 7.23 7.23 7.23 7.23 7.23 7.23 7.23 7.23 7.23 7.23 7.23 7.271 8.186 10.11 11.776 12.359 12.292 12.22 12.195 12.207
14.475 14.358 14.235 14.102 13.97 13.815 13.66 13.522 13.385 13.265 13.195 13.152 13.11 13.06 12.977 12.875 12.777 12.682 12.562 12.4 12.22 12.05 11.945 11.895 11.845 11.8 11.74 11.597 11.39 11.178 10.965 10.88 10.955 11.017 11.022 11.017 11.005 10.96 10.877 10.78 10.68 10.582 10.44 10.25 10.057 9.875 9.713 9.56 9.41 9.273 9.168 9.08 8.995 8.91 8.835 8.78 8.728 8.673 8.615 8.555 8.495 8.435 8.395 8.39 8.398 8.405 8.415 8.423 8.43 8.44 8.448 8.448 8.445 8.42 8.39 8.4 8.43 8.46 8.49 8.52 8.547 8.565 8.54 8.465 8.39 8.38 8.435 8.505 8.57 8.617 8.63 8.605 8.575 8.555 8.533 8.528 8.545 8.565 8.587 8.57 8.505 8.458 8.45 8.465 8.483 8.503 8.525 8.55 8.577 8.597 8.607 8.613 8.62 8.63 8.66 8.732 8.825 8.875 8.852 8.8 8.745 8.68 8.628 8.643 8.723 8.832 8.857 8.735 8.58 8.465 8.453 8.53 8.62 8.713 8.82 8.945 9.078 9.212 9.345 9.397 8.72 7.643 7.23 7.23 7.23 7.23 7.23 7.23 7.23 7.23 7.23 7.23 7.23 7.23 7.23 7.23 7.23 7.23 7.23 7.23 7.23 7.23 7.23 7.23 7.23 7.23 7.23 7.23 7.23 7.23 7.23 7.23 7.23 7.23 7.23 7.23 7.23 7.23 7.23 7.23 7.23 7.23 7.23 7.23 7.23 7.23 7.23 7.23 7.23 7.23 7.23 7.23 7.231 7.891 9.36 11.274 12.346 12.225 12.165 12.212
14.378 14.295 14.17 14.01 13.885 13.755 13.615 13.475 13.343 13.235 13.177 13.145 13.105 13.052 12.975 12.88 12.782 12.685 12.55 12.368 12.18 12.003 11.888 11.84 11.8 11.767 11.71 11.582 11.39 11.17 10.978 10.913 10.948 10.963 10.96 10.955 10.95 10.915 10.827 10.722 10.612 10.492 10.342 10.16 9.97 9.805 9.672 9.535 9.385 9.245 9.135 9.048 8.965 8.89 8.825 8.77 8.718 8.66 8.6 8.54 8.48 8.425 8.408 8.418 8.423 8.43 8.44 8.45 8.46 8.465 8.453 8.43 8.41 8.393 8.383 8.385 8.403 8.428 8.455 8.485 8.515 8.545 8.557 8.51 8.425 8.39 8.425 8.49 8.557 8.615 8.632 8.61 8.585 8.562 8.538 8.523 8.53 8.55 8.57 8.545 8.48 8.443 8.433 8.438 8.45 8.465 8.485 8.51 8.535 8.553 8.595 8.637 8.65 8.66 8.668 8.705 8.785 8.84 8.832 8.795 8.752 8.702 8.653 8.665 8.75 8.852 8.862 8.75 8.613 8.478 8.413 8.455 8.54 8.635 8.743 8.86 8.98 9.108 9.245 9.375 9.287 8.412 7.458 7.23 7.23 7.23 7.23 7.23 7.23 7.23 7.23 7.23 7.23 7.23 7.23 7.23 7.23 7.23 7.23 7.23 7.23 7.23 7.23 7.23 7.23 7.23 7.23 7.23 7.23 7.23 7.23 7.23 7.23 7.23 7.23 7.23 7.23 7.23 7.23 7.23 7.23 7.23 7.23 7.23 7.23 7.23 7.23 7.23 7.23 7.23 7.23 7.23 7.23 7.23 7.404 8.699 11.094 12.254 12.135 12.165
14.313 14.252 14.117 13.933 13.795 13.665 13.525 13.395 13.283 13.185 13.133 13.107 13.072 13.017 12.937 12.85 12.76 12.667 12.53 12.343 12.153 11.973 11.853 11.805 11.778 11.75 11.677 11.557 11.397 11.19 11.05 11.012 10.975 10.933 10.913 10.9 10.895 10.852 10.752 10.635 10.51 10.38 10.24 10.07 9.88 9.723 9.612 9.502 9.365 9.228 9.12 9.035 8.96 8.895 8.837 8.782 8.722 8.66 8.6 8.54 8.485 8.44 8.433 8.457 8.467 8.465 8.47 8.48 8.49 8.492 8.477 8.458 8.443 8.428 8.408 8.39 8.388 8.395 8.408 8.43 8.46 8.49 8.532 8.54 8.48 8.435 8.443 8.485 8.548 8.605 8.627 8.615 8.592 8.567 8.543 8.523 8.518 8.528 8.545 8.522 8.473 8.453 8.44 8.428 8.425 8.435 8.455 8.475 8.49 8.498 8.555 8.642 8.68 8.69 8.69 8.693 8.745 8.8 8.795 8.762 8.725 8.685 8.653 8.66 8.727 8.822 8.842 8.765 8.652 8.52 8.44 8.445 8.498 8.583 8.685 8.797 8.9 9.003 9.133 9.275 9.405 9.137 8.063 7.273 7.23 7.23 7.23 7.23 7.23 7.23 7.23 7.23 7.23 7.23 7.23 7.23 7.23 7.23 7.23 7.23 7.23 7.23 7.23 7.23 7.23 7.23 7.23 7.23 7.23 7.23 7.23 7.23 7.23 7.23 7.23 7.23 7.23 7.23 7.23 7.23 7.23 7.23 7.23 7.23 7.23 7.23 7.23 7.23 7.23 7.23 7.23 7.23 7.23 7.23 7.23 7.231 8.524 11.019 12.169 12.192
14.265 14.21 14.077 13.875 13.71 13.575 13.448 13.34 13.24 13.145 13.085 13.062 13.037 12.977 12.893 12.81 12.725 12.637 12.51 12.338 12.168 12.005 11.885 11.815 11.77 11.727 11.64 11.52 11.387 11.228 11.118 11.065 10.995 10.93 10.893 10.87 10.847 10.775 10.653 10.525 10.395 10.265 10.132 9.975 9.79 9.638 9.535 9.442 9.335 9.213 9.11 9.035 8.968 8.905 8.847 8.79 8.727 8.663 8.6 8.545 8.5 8.458 8.448 8.482 8.515 8.52 8.513 8.513 8.52 8.517 8.505 8.495 8.485 8.47 8.445 8.423 8.41 8.403 8.4 8.405 8.415 8.435 8.478 8.527 8.525 8.498 8.493 8.503 8.548 8.597 8.612 8.605 8.59 8.57 8.548 8.528 8.515 8.51 8.52 8.503 8.47 8.465 8.455 8.437 8.422 8.415 8.42 8.428 8.435 8.443 8.5 8.61 8.692 8.725 8.722 8.705 8.723 8.76 8.755 8.727 8.695 8.663 8.645 8.64 8.68 8.765 8.782 8.727 8.655 8.557 8.5 8.488 8.493 8.54 8.628 8.727 8.81 8.893 9.013 9.157 9.302 9.422 8.82 7.7 7.23 7.23 7.23 7.23 7.23 7.23 7.23 7.23 7.23 7.23 7.23 7.23 7.23 7.23 7.23 7.23 7.23 7.23 7.23 7.23 7.23 7.23 7.23 7.23 7.23 7.23 7.23 7.23 7.23 7.23 7.23 7.23 7.23 7.23 7.23 7.23 7.23 7.23 7.23 7.23 7.23 7.23 7.23 7.23 7.23 7.23 7.23 7.23 7.23 7.23 7.23 7.23 7.231 8.501 10.652 11.912
14.223 14.167 14.042 13.835 13.643 13.5 13.395 13.3 13.2 13.105 13.038 13.018 13.002 12.943 12.86 12.78 12.698 12.615 12.502 12.352 12.205 12.06 11.94 11.85 11.775 11.705 11.605 11.485 11.365 11.25 11.157 11.082 11.005 10.933 10.888 10.862 10.805 10.692 10.558 10.423 10.288 10.153 10.02 9.878 9.71 9.565 9.465 9.373 9.28 9.185 9.103 9.04 8.977 8.912 8.85 8.787 8.725 8.662 8.603 8.555 8.515 8.473 8.465 8.5 8.542 8.575 8.577 8.565 8.558 8.55 8.545 8.54 8.527 8.507 8.482 8.458 8.44 8.43 8.423 8.415 8.408 8.41 8.433 8.493 8.545 8.555 8.552 8.55 8.565 8.59 8.595 8.585 8.578 8.567 8.55 8.533 8.518 8.505 8.505 8.495 8.48 8.477 8.465 8.44 8.407 8.395 8.398 8.393 8.39 8.39 8.445 8.555 8.665 8.742 8.755 8.735 8.728 8.73 8.718 8.695 8.672 8.655 8.645 8.635 8.645 8.705 8.72 8.663 8.607 8.555 8.527 8.52 8.512 8.523 8.573 8.643 8.708 8.78 8.89 9.033 9.18 9.327 9.307 8.54 7.548 7.23 7.23 7.23 7.23 7.23 7.23 7.23 7.23 7.23 7.23 7.23 7.23 7.23 7.23 7.23 7.23 7.23 7.23 7.23 7.23 7.23 7.23 7.23 7.23 7.23 7.23 7.23 7.23 7.23 7.23 7.23 7.23 7.23 7.23 7.23 7.23 7.23 7.23 7.23 7.23 7.23 7.23 7.23 7.23 7.23 7.23 7.23 7.23 7.23 7.23 7.23 7.238 7.264 8.214 10.564
14.2 14.14 14.012 13.802 13.595 13.453 13.358 13.262 13.165 13.078 13.025 13.013 12.995 12.938 12.86 12.78 12.7 12.612 12.497 12.357 12.215 12.062 11.93 11.837 11.755 11.677 11.582 11.468 11.35 11.25 11.172 11.095 11.015 10.938 10.883 10.837 10.745 10.615 10.48 10.343 10.205 10.065 9.935 9.808 9.655 9.513 9.41 9.315 9.225 9.155 9.092 9.03 8.97 8.907 8.842 8.777 8.715 8.655 8.602 8.557 8.515 8.473 8.473 8.522 8.567 8.607 8.637 8.635 8.613 8.598 8.595 8.587 8.57 8.545 8.518 8.49 8.468 8.458 8.45 8.44 8.433 8.425 8.438 8.498 8.562 8.587 8.592 8.595 8.595 8.595 8.59 8.58 8.573 8.565 8.55 8.538 8.528 8.515 8.508 8.487 8.467 8.46 8.437 8.395 8.365 8.38 8.397 8.388 8.375 8.368 8.413 8.515 8.63 8.73 8.767 8.755 8.737 8.72 8.703 8.672 8.635 8.622 8.627 8.63 8.628 8.657 8.66 8.603 8.553 8.515 8.5 8.5 8.5 8.5 8.528 8.585 8.65 8.73 8.81 8.918 9.063 9.21 9.36 9.224 8.44 7.585 7.268 7.23 7.23 7.23 7.23 7.23 7.23 7.23 7.23 7.23 7.23 7.23 7.23 7.23 7.23 7.23 7.23 7.23 7.23 7.23 7.23 7.23 7.23 7.23 7.23 7.23 7.23 7.23 7.23 7.23 7.23 7.23 7.23 7.23 7.23 7.23 7.23 7.23 7.23 7.23 7.23 7.23 7.23 7.23 7.23 7.23 7.23 7.23 7.23 7.235 7.258 7.298 7.343 8.481
14.215 14.127 13.975 13.767 13.56 13.418 13.323 13.228 13.145 13.085 13.055 13.045 13.012 12.95 12.875 12.795 12.707 12.605 12.482 12.345 12.197 12.03 11.883 11.783 11.705 11.64 11.565 11.462 11.353 11.263 11.185 11.105 11.025 10.945 10.872 10.785 10.667 10.54 10.405 10.268 10.138 10.015 9.903 9.777 9.618 9.468 9.358 9.268 9.195 9.137 9.077 9.013 8.95 8.89 8.827 8.763 8.703 8.645 8.595 8.552 8.505 8.455 8.46 8.527 8.592 8.642 8.68 8.69 8.67 8.65 8.645 8.632 8.608 8.582 8.555 8.525 8.498 8.483 8.475 8.467 8.46 8.45 8.473 8.53 8.577 8.605 8.617 8.62 8.62 8.617 8.608 8.595 8.585 8.57 8.553 8.55 8.55 8.54 8.522 8.465 8.413 8.397 8.368 8.333 8.34 8.38 8.4 8.392 8.38 8.378 8.41 8.498 8.61 8.697 8.745 8.755 8.74 8.722 8.7 8.647 8.575 8.548 8.567 8.587 8.597 8.618 8.608 8.555 8.51 8.473 8.458 8.46 8.462 8.465 8.495 8.563 8.648 8.747 8.793 8.835 8.958 9.103 9.255 9.412 9.254 8.382 7.488 7.23 7.23 7.23 7.23 7.23 7.23 7.23 7.23 7.23 7.23 7.23 7.23 7.23 7.23 7.23 7.23 7.23 7.23 7.23 7.23 7.23 7.23 7.23 7.23 7.23 7.23 7.23 7.23 7.23 7.23 7.23 7.23 7.23 7.23 7.23 7.23 7.23 7.23 7.23 7.23 7.23 7.23 7.23 7.23 7.23 7.23 7.23 7.233 7.25 7.288 7.335 7.38 7.424
14.222 14.087 13.917 13.727 13.53 13.385 13.29 13.213 13.16 13.12 13.093 13.07 13.025 12.96 12.885 12.8 12.7 12.59 12.47 12.332 12.17 11.99 11.835 11.73 11.66 11.6 11.537 11.452 11.357 11.275 11.187 11.092 11.005 10.93 10.842 10.725 10.595 10.465 10.335 10.21 10.1 10 9.9 9.762 9.585 9.425 9.31 9.235 9.178 9.122 9.062 8.998 8.935 8.873 8.81 8.75 8.693 8.638 8.588 8.542 8.492 8.44 8.443 8.51 8.59 8.66 8.705 8.722 8.717 8.702 8.69 8.672 8.645 8.617 8.59 8.562 8.535 8.513 8.5 8.492 8.485 8.475 8.498 8.545 8.582 8.617 8.637 8.64 8.64 8.64 8.632 8.617 8.6 8.575 8.558 8.563 8.572 8.57 8.54 8.455 8.365 8.325 8.303 8.303 8.338 8.38 8.4 8.395 8.388 8.39 8.41 8.483 8.582 8.65 8.697 8.732 8.74 8.725 8.682 8.61 8.525 8.475 8.483 8.508 8.55 8.61 8.607 8.54 8.478 8.43 8.415 8.42 8.425 8.433 8.475 8.565 8.673 8.775 8.805 8.798 8.865 8.998 9.158 9.327 9.455 9.142 8.128 7.35 7.23 7.23 7.23 7.23 7.23 7.23 7.23 7.23 7.23 7.23 7.23 7.23 7.23 7.23 7.23 7.23 7.23 7.23 7.23 7.23 7.23 7.23 7.23 7.23 7.23 7.23 7.23 7.23 7.23 7.23 7.23 7.23 7.23 7.23 7.23 7.23 7.23 7.23 7.23 7.23 7.23 7.23 7.23 7.23 7.23 7.23 7.245 7.28 7.325 7.372 7.415 7.447
14.19 14.022 13.85 13.675 13.493 13.358 13.283 13.235 13.2 13.16 13.127 13.09 13.032 12.967 12.892 12.797 12.69 12.58 12.46 12.312 12.135 11.95 11.788 11.683 11.615 11.545 11.475 11.397 11.307 11.215 11.127 11.04 10.96 10.895 10.802 10.673 10.535 10.41 10.28 10.158 10.062 9.965 9.862 9.72 9.542 9.383 9.275 9.215 9.163 9.11 9.05 8.985 8.925 8.86 8.795 8.737 8.682 8.63 8.577 8.525 8.475 8.425 8.425 8.488 8.562 8.635 8.692 8.722 8.735 8.74 8.725 8.7 8.675 8.645 8.617 8.592 8.565 8.537 8.52 8.51 8.5 8.495 8.515 8.552 8.587 8.622 8.652 8.665 8.662 8.66 8.65 8.627 8.6 8.57 8.56 8.57 8.585 8.597 8.56 8.46 8.345 8.273 8.263 8.295 8.34 8.382 8.402 8.395 8.393 8.4 8.413 8.465 8.54 8.595 8.643 8.69 8.727 8.715 8.65 8.57 8.485 8.415 8.415 8.473 8.553 8.645 8.655 8.57 8.478 8.408 8.385 8.393 8.398 8.408 8.47 8.585 8.705 8.805 8.83 8.802 8.805 8.898 9.065 9.242 9.377 9.447 8.955 7.843 7.238 7.23 7.23 7.23 7.23 7.23 7.23 7.23 7.23 7.23 7.23 7.23 7.23 7.23 7.23 7.23 7.23 7.23 7.23 7.23 7.23 7.23 7.23 7.23 7.23 7.23 7.23 7.23 7.23 7.23 7.23 7.23 7.23 7.23 7.23 7.23 7.23 7.23 7.23 7.23 7.23 7.23 7.23 7.23 7.23 7.24 7.273 7.318 7.362 7.405 7.437 7.452
14.132 13.957 13.785 13.612 13.443 13.333 13.285 13.25 13.215 13.175 13.14 13.092 13.022 12.952 12.872 12.772 12.667 12.562 12.445 12.292 12.118 11.945 11.775 11.64 11.55 11.468 11.383 11.298 11.213 11.128 11.055 10.99 10.925 10.862 10.762 10.628 10.503 10.4 10.26 10.098 9.983 9.885 9.78 9.64 9.47 9.338 9.263 9.208 9.158 9.11 9.053 8.99 8.927 8.858 8.785 8.72 8.663 8.61 8.557 8.503 8.45 8.4 8.398 8.455 8.525 8.595 8.66 8.697 8.715 8.72 8.697 8.667 8.64 8.61 8.585 8.56 8.535 8.512 8.495 8.485 8.477 8.49 8.522 8.555 8.59 8.625 8.657 8.677 8.675 8.66 8.632 8.602 8.575 8.553 8.555 8.57 8.585 8.602 8.58 8.497 8.385 8.29 8.263 8.295 8.34 8.385 8.407 8.403 8.405 8.413 8.423 8.46 8.515 8.568 8.62 8.673 8.717 8.702 8.628 8.545 8.46 8.385 8.398 8.488 8.58 8.657 8.657 8.57 8.467 8.393 8.373 8.385 8.39 8.398 8.468 8.592 8.715 8.802 8.812 8.78 8.765 8.825 8.975 9.152 9.295 9.395 9.384 8.7 7.651 7.23 7.23 7.23 7.23 7.23 7.23 7.23 7.23 7.23 7.23 7.23 7.23 7.23 7.23 7.23 7.23 7.23 7.23 7.23 7.23 7.23 7.23 7.23 7.23 7.23 7.23 7.23 7.23 7.23 7.23 7.23 7.23 7.23 7.23 7.23 7.23 7.23 7.23 7.23 7.23 7.23 7.23 7.23 7.238 7.265 7.308 7.355 7.397 7.427 7.442 7.445
14.055 13.877 13.703 13.54 13.41 13.303 13.213 13.157 13.12 13.08 13.06 13.04 12.982 12.907 12.822 12.722 12.62 12.52 12.412 12.287 12.145 11.99 11.815 11.633 11.495 11.4 11.31 11.215 11.125 11.062 11.017 10.96 10.895 10.825 10.72 10.6 10.503 10.41 10.262 10.07 9.908 9.793 9.687 9.545 9.4 9.315 9.265 9.213 9.165 9.122 9.07 9.007 8.937 8.86 8.78 8.705 8.64 8.585 8.532 8.477 8.423 8.37 8.368 8.423 8.488 8.553 8.62 8.667 8.685 8.657 8.61 8.58 8.55 8.523 8.503 8.483 8.463 8.448 8.435 8.425 8.433 8.47 8.515 8.552 8.587 8.62 8.647 8.665 8.665 8.635 8.588 8.555 8.53 8.52 8.535 8.552 8.567 8.582 8.58 8.54 8.47 8.38 8.323 8.323 8.348 8.387 8.41 8.413 8.42 8.433 8.45 8.483 8.533 8.59 8.645 8.697 8.722 8.69 8.62 8.54 8.455 8.385 8.408 8.5 8.575 8.62 8.605 8.523 8.433 8.375 8.365 8.38 8.388 8.395 8.463 8.585 8.687 8.742 8.737 8.718 8.735 8.79 8.898 9.058 9.207 9.315 9.405 9.319 8.55 7.571 7.23 7.23 7.23 7.23 7.23 7.23 7.23 7.23 7.23 7.23 7.23 7.23 7.23 7.23 7.23 7.23 7.23 7.23 7.23 7.23 7.23 7.23 7.23 7.23 7.23 7.23 7.23 7.23 7.23 7.23 7.23 7.23 7.23 7.23 7.23 7.23 7.23 7.23 7.23 7.23 7.23 7.235 7.26 7.3 7.345 7.39 7.42 7.432 7.435 7.438
13.96 13.78 13.613 13.488 13.407 13.295 13.145 13.023 12.948 12.905 12.903 12.927 12.912 12.852 12.767 12.667 12.565 12.465 12.365 12.262 12.15 12.025 11.87 11.672 11.483 11.355 11.265 11.16 11.043 10.97 10.94 10.903 10.858 10.79 10.695 10.603 10.52 10.422 10.267 10.07 9.878 9.72 9.595 9.468 9.37 9.315 9.265 9.218 9.178 9.14 9.087 9.017 8.94 8.862 8.782 8.7 8.625 8.563 8.507 8.452 8.398 8.345 8.343 8.395 8.455 8.515 8.578 8.632 8.64 8.58 8.52 8.493 8.468 8.448 8.433 8.418 8.4 8.385 8.373 8.375 8.413 8.465 8.507 8.542 8.575 8.602 8.627 8.647 8.642 8.6 8.543 8.503 8.48 8.48 8.503 8.525 8.543 8.56 8.56 8.535 8.502 8.455 8.415 8.395 8.388 8.4 8.415 8.428 8.443 8.465 8.493 8.525 8.573 8.628 8.682 8.72 8.715 8.67 8.605 8.532 8.453 8.388 8.413 8.49 8.532 8.557 8.547 8.483 8.413 8.368 8.358 8.372 8.385 8.395 8.458 8.562 8.627 8.655 8.663 8.678 8.72 8.775 8.853 8.978 9.122 9.235 9.328 9.42 9.259 8.467 7.556 7.23 7.23 7.23 7.23 7.23 7.23 7.23 7.23 7.23 7.23 7.23 7.23 7.23 7.23 7.23 7.23 7.23 7.23 7.23 7.23 7.23 7.23 7.23 7.23 7.23 7.23 7.23 7.23 7.23 7.23 7.23 7.23 7.23 7.23 7.23 7.23 7.23 7.23 7.23 7.233 7.253 7.293 7.337 7.38 7.407 7.42 7.425 7.428 7.432
13.873 13.693 13.56 13.478 13.412 13.315 13.162 12.99 12.85 12.76 12.743 12.78 12.805 12.785 12.71 12.61 12.51 12.41 12.31 12.205 12.095 11.99 11.86 11.685 11.497 11.335 11.215 11.108 11 10.933 10.903 10.883 10.855 10.785 10.695 10.615 10.535 10.435 10.275 10.075 9.877 9.688 9.528 9.423 9.363 9.315 9.268 9.227 9.192 9.155 9.097 9.02 8.942 8.867 8.787 8.703 8.62 8.545 8.483 8.428 8.373 8.32 8.318 8.37 8.428 8.488 8.55 8.6 8.587 8.513 8.458 8.438 8.42 8.403 8.388 8.373 8.358 8.345 8.34 8.368 8.423 8.468 8.5 8.528 8.555 8.58 8.605 8.63 8.615 8.56 8.5 8.453 8.438 8.45 8.473 8.498 8.52 8.54 8.545 8.533 8.515 8.5 8.485 8.465 8.447 8.435 8.44 8.46 8.48 8.505 8.535 8.57 8.615 8.665 8.712 8.722 8.695 8.652 8.59 8.517 8.443 8.388 8.4 8.443 8.468 8.493 8.495 8.455 8.4 8.36 8.353 8.368 8.383 8.395 8.445 8.512 8.555 8.595 8.628 8.665 8.715 8.768 8.835 8.928 9.048 9.16 9.252 9.345 9.435 9.254 8.415 7.516 7.23 7.23 7.23 7.23 7.23 7.23 7.23 7.23 7.23 7.23 7.23 7.23 7.23 7.23 7.23 7.23 7.23 7.23 7.23 7.23 7.23 7.23 7.23 7.23 7.23 7.23 7.23 7.23 7.23 7.23 7.23 7.23 7.23 7.23 7.23 7.23 7.23 7.23 7.245 7.283 7.327 7.37 7.397 7.407 7.413 7.418 7.423 7.427
13.853 13.668 13.555 13.488 13.42 13.33 13.182 13.002 12.825 12.685 12.638 12.658 12.695 12.707 12.65 12.55 12.45 12.345 12.235 12.122 12.007 11.905 11.785 11.627 11.465 11.303 11.198 11.133 11.053 11 10.975 10.952 10.897 10.797 10.7 10.62 10.537 10.42 10.247 10.05 9.85 9.65 9.49 9.403 9.353 9.307 9.265 9.227 9.192 9.152 9.087 9.007 8.932 8.855 8.785 8.71 8.625 8.55 8.498 8.453 8.395 8.34 8.338 8.385 8.438 8.498 8.56 8.607 8.59 8.515 8.46 8.443 8.43 8.413 8.398 8.383 8.373 8.37 8.38 8.418 8.467 8.482 8.495 8.528 8.553 8.578 8.603 8.617 8.592 8.533 8.468 8.425 8.428 8.45 8.47 8.495 8.52 8.54 8.558 8.565 8.56 8.552 8.537 8.515 8.497 8.483 8.485 8.505 8.525 8.55 8.58 8.615 8.658 8.705 8.73 8.71 8.675 8.635 8.575 8.503 8.43 8.38 8.385 8.418 8.443 8.468 8.48 8.452 8.398 8.358 8.355 8.37 8.385 8.4 8.433 8.478 8.525 8.59 8.64 8.675 8.718 8.765 8.835 8.923 9.01 9.09 9.168 9.255 9.345 9.435 9.214 8.33 7.471 7.23 7.23 7.23 7.23 7.23 7.23 7.23 7.23 7.23 7.23 7.23 7.23 7.23 7.23 7.23 7.23 7.23 7.23 7.23 7.23 7.23 7.23 7.23 7.23 7.23 7.23 7.23 7.23 7.23 7.23 7.23 7.23 7.23 7.23 7.23 7.23 7.24 7.275 7.32 7.36 7.387 7.397 7.403 7.407 7.412 7.418 7.423
13.892 13.698 13.575 13.505 13.43 13.33 13.172 12.982 12.795 12.658 12.605 12.598 12.615 12.635 12.59 12.487 12.375 12.255 12.135 12.013 11.905 11.82 11.702 11.543 11.383 11.235 11.188 11.207 11.167 11.113 11.082 11.03 10.927 10.805 10.705 10.625 10.517 10.36 10.177 9.987 9.79 9.603 9.475 9.403 9.343 9.293 9.252 9.215 9.175 9.13 9.062 8.98 8.903 8.828 8.77 8.712 8.635 8.568 8.542 8.522 8.47 8.42 8.418 8.453 8.495 8.548 8.605 8.657 8.642 8.563 8.498 8.475 8.467 8.455 8.443 8.435 8.438 8.445 8.46 8.495 8.512 8.485 8.49 8.535 8.567 8.592 8.615 8.615 8.582 8.527 8.468 8.443 8.455 8.473 8.49 8.515 8.54 8.56 8.587 8.612 8.615 8.607 8.59 8.565 8.545 8.528 8.533 8.555 8.575 8.598 8.628 8.665 8.705 8.72 8.697 8.662 8.632 8.602 8.557 8.495 8.425 8.373 8.38 8.427 8.462 8.49 8.502 8.47 8.415 8.38 8.38 8.398 8.41 8.42 8.44 8.48 8.538 8.61 8.665 8.695 8.728 8.768 8.84 8.94 9.017 9.055 9.088 9.155 9.245 9.335 9.43 9.167 8.24 7.428 7.23 7.23 7.23 7.23 7.23 7.23 7.23 7.23 7.23 7.23 7.23 7.23 7.23 7.23 7.23 7.23 7.23 7.23 7.23 7.23 7.23 7.23 7.23 7.23 7.23 7.23 7.23 7.23 7.23 7.23 7.23 7.23 7.23 7.23 7.238 7.268 7.312 7.352 7.377 7.387 7.392 7.398 7.402 7.407 7.412 7.417
13.912 13.73 13.595 13.52 13.425 13.307 13.147 12.953 12.758 12.633 12.595 12.575 12.565 12.57 12.522 12.407 12.277 12.145 12.02 11.905 11.815 11.737 11.615 11.46 11.313 11.17 11.138 11.212 11.247 11.222 11.162 11.065 10.942 10.82 10.715 10.612 10.465 10.285 10.105 9.922 9.73 9.573 9.48 9.41 9.34 9.28 9.238 9.197 9.152 9.105 9.037 8.953 8.87 8.8 8.75 8.705 8.642 8.585 8.575 8.582 8.55 8.508 8.513 8.545 8.578 8.618 8.662 8.71 8.695 8.61 8.533 8.5 8.497 8.492 8.495 8.505 8.515 8.525 8.54 8.555 8.517 8.463 8.475 8.525 8.57 8.602 8.62 8.607 8.57 8.525 8.493 8.49 8.5 8.51 8.523 8.54 8.56 8.583 8.613 8.645 8.662 8.662 8.645 8.618 8.593 8.573 8.578 8.602 8.625 8.645 8.675 8.715 8.725 8.698 8.648 8.588 8.55 8.533 8.51 8.472 8.42 8.368 8.373 8.427 8.475 8.512 8.525 8.495 8.453 8.425 8.423 8.435 8.442 8.45 8.463 8.495 8.558 8.635 8.69 8.717 8.745 8.778 8.835 8.922 9 9.032 9.043 9.078 9.148 9.235 9.33 9.425 9.119 8.2 7.431 7.23 7.23 7.23 7.23 7.23 7.23 7.23 7.23 7.23 7.23 7.23 7.23 7.23 7.23 7.23 7.23 7.23 7.23 7.23 7.23 7.23 7.23 7.23 7.23 7.23 7.23 7.23 7.23 7.23 7.23 7.23 7.23 7.235 7.26 7.302 7.342 7.367 7.377 7.383 7.387 7.392 7.395 7.4 7.405 7.41
13.885 13.745 13.615 13.517 13.4 13.272 13.12 12.93 12.728 12.603 12.57 12.55 12.53 12.512 12.445 12.315 12.178 12.04 11.918 11.823 11.743 11.665 11.543 11.39 11.25 11.113 11.085 11.178 11.275 11.28 11.182 11.065 10.945 10.825 10.707 10.567 10.395 10.215 10.035 9.855 9.68 9.555 9.48 9.41 9.335 9.27 9.223 9.175 9.13 9.085 9.018 8.933 8.848 8.783 8.735 8.69 8.643 8.603 8.6 8.62 8.615 8.595 8.607 8.642 8.675 8.7 8.712 8.727 8.71 8.64 8.56 8.515 8.507 8.507 8.527 8.555 8.575 8.592 8.605 8.575 8.49 8.438 8.46 8.51 8.56 8.605 8.62 8.595 8.555 8.518 8.503 8.507 8.52 8.537 8.552 8.57 8.587 8.607 8.635 8.665 8.695 8.712 8.7 8.67 8.643 8.623 8.625 8.65 8.675 8.695 8.722 8.742 8.725 8.705 8.662 8.573 8.505 8.475 8.453 8.428 8.395 8.358 8.368 8.423 8.475 8.522 8.547 8.532 8.5 8.47 8.458 8.462 8.47 8.48 8.49 8.518 8.582 8.662 8.715 8.74 8.765 8.792 8.813 8.858 8.93 8.975 8.995 9.015 9.058 9.135 9.23 9.325 9.42 9.119 8.29 7.521 7.23 7.23 7.23 7.23 7.23 7.23 7.23 7.23 7.23 7.23 7.23 7.23 7.23 7.23 7.23 7.23 7.23 7.23 7.23 7.23 7.23 7.23 7.23 7.23 7.23 7.23 7.23 7.23 7.23 7.23 7.235 7.255 7.295 7.335 7.357 7.367 7.372 7.377 7.382 7.385 7.388 7.393 7.398 7.403
13.843 13.735 13.617 13.493 13.368 13.24 13.09 12.902 12.7 12.568 12.523 12.5 12.48 12.45 12.362 12.225 12.088 11.958 11.85 11.79 11.735 11.66 11.568 11.458 11.323 11.165 11.15 11.252 11.3 11.252 11.145 11.03 10.91 10.792 10.67 10.525 10.355 10.175 9.995 9.815 9.648 9.53 9.455 9.385 9.315 9.258 9.213 9.165 9.118 9.075 9.015 8.933 8.858 8.81 8.768 8.718 8.67 8.635 8.635 8.655 8.665 8.652 8.642 8.65 8.657 8.655 8.64 8.642 8.647 8.605 8.535 8.503 8.498 8.5 8.53 8.57 8.602 8.627 8.637 8.592 8.498 8.445 8.473 8.525 8.567 8.592 8.6 8.582 8.545 8.51 8.498 8.5 8.51 8.527 8.545 8.567 8.59 8.61 8.635 8.667 8.705 8.737 8.745 8.725 8.698 8.675 8.675 8.698 8.722 8.745 8.762 8.763 8.755 8.755 8.717 8.63 8.555 8.515 8.485 8.455 8.425 8.4 8.405 8.445 8.498 8.55 8.587 8.582 8.55 8.515 8.49 8.485 8.49 8.5 8.51 8.533 8.593 8.672 8.727 8.755 8.78 8.805 8.803 8.8 8.848 8.9 8.925 8.945 8.97 9.033 9.127 9.222 9.317 9.407 9.184 8.647 7.863 7.291 7.23 7.23 7.23 7.23 7.23 7.23 7.23 7.23 7.23 7.23 7.23 7.23 7.23 7.23 7.23 7.23 7.23 7.23 7.23 7.23 7.23 7.23 7.23 7.23 7.23 7.23 7.23 7.233 7.25 7.287 7.327 7.35 7.357 7.362 7.365 7.37 7.375 7.378 7.383 7.387 7.392 7.398
13.82 13.73 13.617 13.473 13.338 13.21 13.06 12.868 12.673 12.545 12.48 12.445 12.425 12.38 12.275 12.138 12.013 11.903 11.803 11.777 11.772 11.71 11.645 11.585 11.492 11.363 11.327 11.347 11.287 11.187 11.08 10.967 10.852 10.737 10.615 10.485 10.337 10.165 9.985 9.802 9.623 9.493 9.415 9.348 9.29 9.248 9.207 9.16 9.115 9.077 9.025 8.95 8.893 8.865 8.837 8.795 8.743 8.703 8.697 8.7 8.675 8.625 8.575 8.535 8.503 8.48 8.47 8.495 8.535 8.522 8.473 8.473 8.485 8.493 8.53 8.575 8.615 8.645 8.65 8.615 8.542 8.49 8.512 8.55 8.56 8.55 8.55 8.557 8.535 8.503 8.493 8.497 8.503 8.51 8.52 8.535 8.56 8.585 8.61 8.645 8.687 8.732 8.77 8.775 8.75 8.725 8.725 8.745 8.768 8.79 8.8 8.803 8.805 8.805 8.772 8.705 8.65 8.615 8.585 8.555 8.525 8.503 8.5 8.518 8.55 8.595 8.637 8.637 8.602 8.565 8.533 8.513 8.508 8.513 8.52 8.543 8.588 8.657 8.722 8.76 8.79 8.815 8.815 8.785 8.783 8.823 8.855 8.872 8.885 8.933 9.023 9.117 9.205 9.275 9.337 9.407 8.95 8.255 7.643 7.231 7.23 7.23 7.23 7.23 7.23 7.23 7.23 7.23 7.23 7.23 7.23 7.23 7.23 7.23 7.23 7.23 7.23 7.23 7.23 7.23 7.23 7.23 7.23 7.23 7.23 7.243 7.278 7.317 7.34 7.347 7.352 7.355 7.358 7.363 7.368 7.372 7.378 7.383 7.388 7.395
13.818 13.745 13.632 13.475 13.323 13.183 13.03 12.835 12.648 12.53 12.453 12.398 12.37 12.31 12.19 12.065 11.96 11.86 11.76 11.728 11.767 11.757 11.692 11.627 11.562 11.477 11.395 11.317 11.222 11.12 11.01 10.9 10.79 10.677 10.557 10.432 10.3 10.145 9.97 9.787 9.603 9.46 9.375 9.318 9.275 9.24 9.2 9.155 9.118 9.082 9.035 8.975 8.935 8.915 8.895 8.865 8.82 8.777 8.742 8.695 8.625 8.55 8.485 8.428 8.378 8.34 8.33 8.36 8.41 8.43 8.418 8.44 8.467 8.488 8.53 8.575 8.622 8.66 8.657 8.62 8.567 8.528 8.527 8.527 8.51 8.488 8.485 8.507 8.512 8.497 8.49 8.495 8.5 8.503 8.508 8.515 8.53 8.553 8.58 8.618 8.665 8.715 8.765 8.8 8.8 8.778 8.773 8.793 8.815 8.832 8.84 8.845 8.85 8.852 8.832 8.79 8.752 8.717 8.685 8.655 8.625 8.608 8.61 8.62 8.63 8.65 8.685 8.69 8.655 8.615 8.58 8.555 8.538 8.53 8.535 8.56 8.595 8.645 8.705 8.75 8.79 8.822 8.825 8.79 8.75 8.755 8.785 8.8 8.81 8.84 8.915 9.002 9.067 9.118 9.178 9.253 9.327 9.242 8.725 8.01 7.461 7.23 7.23 7.23 7.23 7.23 7.23 7.23 7.23 7.23 7.23 7.23 7.23 7.23 7.23 7.23 7.23 7.23 7.23 7.23 7.23 7.23 7.23 7.23 7.24 7.27 7.307 7.33 7.337 7.342 7.345 7.348 7.352 7.358 7.363 7.367 7.372 7.378 7.385 7.395
