ncols         200
nrows         82
xllcorner     547000
yllcorner     258395
cellsize      5
NODATA_value  -9999.0
7.16 7.17 7.175 7.18 7.195 7.22 7.24 7.25 7.257 7.262 7.262 7.258 7.265 7.292 7.275 7.22 7.188 7.178 7.183 7.26 7.465 7.845 8.342 8.7 8.8 8.73 8.57 8.342 8.087 7.81 7.67 7.695 7.72 7.748 7.78 7.81 7.845 7.88 7.885 7.862 7.83 7.785 7.74 7.71 7.685 7.663 7.653 7.648 7.635 7.585 7.503 7.418 7.333 7.253 7.188 7.158 7.155 7.155 7.16 7.175 7.187 7.195 7.195 7.188 7.188 7.2 7.215 7.22 7.207 7.183 7.168 7.168 7.18 7.198 7.218 7.26 7.353 7.48 7.547 7.548 7.55 7.565 7.63 7.717 7.742 7.717 7.69 7.68 7.68 7.647 7.565 7.467 7.255 6.748 6.261 6.478 7.15 7.442 7.41 7.377 7.342 7.198 7.051 7.281 7.98 8.654 8.73 8.438 8.268 8.25 8.338 8.475 8.57 8.617 8.645 8.662 8.657 8.632 8.605 8.588 8.578 8.58 8.585 8.59 8.608 8.63 8.627 8.595 8.522 8.385 8.283 8.265 8.257 8.24 8.27 8.355 8.425 8.47 8.522 8.585 8.642 8.692 8.715 8.705 8.682 8.657 8.635 8.625 8.62 8.618 8.618 8.618 8.625 8.62 8.59 8.545 8.49 8.43 8.418 8.452 8.487 8.523 8.6 8.72 8.84 8.955 9.045 9.11 9.17 9.232 9.275 9.298 9.335 9.4 9.485 9.58 9.675 9.74 9.722 9.648 9.58 9.525 9.515 9.55 9.59 9.633 9.7 9.79 9.888 9.99 10.093 10.268 10.495 10.705 10.895 11.088 11.315 11.492 11.587 11.65
7.18 7.205 7.207 7.205 7.21 7.23 7.25 7.26 7.273 7.285 7.288 7.295 7.325 7.365 7.357 7.318 7.295 7.28 7.278 7.283 7.29 7.425 7.76 8.23 8.64 8.785 8.73 8.59 8.405 8.172 7.96 7.833 7.765 7.758 7.788 7.82 7.855 7.89 7.905 7.885 7.837 7.785 7.743 7.713 7.685 7.658 7.633 7.608 7.59 7.55 7.473 7.39 7.313 7.238 7.178 7.153 7.148 7.145 7.15 7.162 7.17 7.175 7.175 7.175 7.188 7.203 7.218 7.232 7.237 7.222 7.21 7.207 7.208 7.215 7.232 7.255 7.3 7.395 7.455 7.46 7.473 7.49 7.555 7.67 7.762 7.78 7.765 7.765 7.765 7.735 7.655 7.56 7.465 7.355 6.855 6.296 6.428 6.995 7.375 7.425 7.395 7.362 7.252 7.01 7.101 7.745 8.439 8.617 8.427 8.38 8.46 8.558 8.645 8.71 8.732 8.72 8.69 8.658 8.635 8.615 8.598 8.593 8.595 8.598 8.608 8.613 8.595 8.568 8.537 8.47 8.368 8.315 8.302 8.28 8.31 8.375 8.41 8.443 8.498 8.565 8.632 8.692 8.707 8.67 8.62 8.575 8.545 8.538 8.538 8.54 8.548 8.555 8.565 8.562 8.537 8.502 8.462 8.41 8.4 8.432 8.458 8.485 8.56 8.677 8.792 8.9 8.985 9.052 9.115 9.18 9.227 9.263 9.315 9.383 9.465 9.557 9.65 9.725 9.717 9.645 9.575 9.505 9.483 9.515 9.555 9.598 9.668 9.763 9.865 9.967 10.058 10.193 10.413 10.667 10.9 11.115 11.295 11.387 11.45 11.517
7.177 7.227 7.242 7.237 7.235 7.245 7.26 7.273 7.287 7.3 7.315 7.347 7.39 7.432 7.44 7.415 7.395 7.375 7.367 7.37 7.372 7.39 7.498 7.755 8.178 8.595 8.767 8.725 8.582 8.417 8.255 8.082 7.935 7.848 7.818 7.83 7.862 7.895 7.915 7.895 7.84 7.785 7.745 7.715 7.685 7.66 7.635 7.605 7.565 7.515 7.472 7.41 7.323 7.238 7.17 7.145 7.14 7.135 7.138 7.145 7.15 7.155 7.16 7.17 7.19 7.207 7.222 7.235 7.247 7.252 7.245 7.237 7.23 7.225 7.237 7.262 7.288 7.335 7.373 7.385 7.4 7.415 7.48 7.598 7.725 7.79 7.8 7.817 7.832 7.812 7.732 7.63 7.53 7.435 7.337 6.982 6.478 6.316 6.753 7.297 7.43 7.4 7.352 7.277 7.1 7.038 7.378 7.835 8.13 8.405 8.722 8.869 8.87 8.877 8.802 8.715 8.703 8.683 8.663 8.653 8.645 8.628 8.615 8.62 8.63 8.625 8.595 8.558 8.523 8.485 8.42 8.368 8.345 8.318 8.327 8.357 8.375 8.413 8.473 8.537 8.602 8.665 8.682 8.638 8.575 8.52 8.48 8.468 8.47 8.475 8.485 8.495 8.505 8.505 8.482 8.448 8.415 8.385 8.383 8.405 8.425 8.448 8.518 8.627 8.735 8.84 8.927 8.997 9.062 9.127 9.185 9.24 9.3 9.365 9.44 9.522 9.607 9.682 9.685 9.625 9.565 9.505 9.473 9.488 9.525 9.565 9.638 9.74 9.845 9.945 10.033 10.133 10.315 10.567 10.822 11.055 11.185 11.24 11.31 11.382
7.168 7.23 7.257 7.252 7.253 7.263 7.275 7.288 7.303 7.315 7.343 7.387 7.43 7.475 7.49 7.47 7.45 7.427 7.412 7.41 7.415 7.425 7.468 7.55 7.738 8.138 8.56 8.735 8.635 8.47 8.357 8.23 8.09 7.955 7.848 7.823 7.855 7.885 7.905 7.89 7.842 7.788 7.745 7.715 7.688 7.662 7.635 7.605 7.532 7.448 7.442 7.445 7.367 7.247 7.153 7.12 7.115 7.12 7.13 7.135 7.14 7.14 7.145 7.16 7.183 7.207 7.227 7.24 7.255 7.27 7.262 7.242 7.23 7.22 7.228 7.255 7.28 7.3 7.315 7.328 7.343 7.358 7.423 7.545 7.652 7.707 7.735 7.765 7.795 7.792 7.72 7.61 7.51 7.452 7.395 7.297 7.082 6.62 6.241 6.575 7.22 7.435 7.392 7.333 7.282 7.185 7.008 7.056 7.313 7.533 7.725 7.975 8.305 8.627 8.852 8.904 8.887 8.862 8.825 8.798 8.773 8.733 8.693 8.678 8.683 8.687 8.66 8.613 8.568 8.52 8.463 8.4 8.355 8.327 8.323 8.34 8.36 8.395 8.448 8.505 8.57 8.635 8.665 8.632 8.573 8.533 8.493 8.45 8.433 8.433 8.438 8.44 8.445 8.445 8.428 8.405 8.388 8.38 8.385 8.4 8.418 8.433 8.48 8.565 8.663 8.765 8.855 8.925 8.99 9.06 9.13 9.195 9.255 9.325 9.395 9.462 9.54 9.612 9.62 9.57 9.52 9.472 9.445 9.455 9.488 9.535 9.618 9.722 9.827 9.925 10.01 10.093 10.235 10.463 10.72 10.917 11.012 11.08 11.162 11.245
7.165 7.227 7.252 7.253 7.263 7.283 7.297 7.305 7.32 7.335 7.365 7.41 7.45 7.495 7.512 7.492 7.47 7.445 7.425 7.418 7.418 7.425 7.47 7.525 7.555 7.715 8.11 8.527 8.635 8.475 8.37 8.282 8.133 7.998 7.865 7.808 7.833 7.865 7.882 7.877 7.845 7.79 7.745 7.715 7.69 7.665 7.635 7.597 7.49 7.368 7.358 7.4 7.362 7.23 7.118 7.083 7.085 7.108 7.127 7.132 7.132 7.125 7.125 7.143 7.175 7.21 7.235 7.25 7.265 7.28 7.27 7.24 7.218 7.205 7.213 7.237 7.257 7.27 7.28 7.288 7.298 7.313 7.378 7.485 7.55 7.58 7.61 7.643 7.677 7.687 7.625 7.525 7.465 7.452 7.412 7.325 7.245 7.187 6.735 6.271 6.535 7.145 7.432 7.398 7.383 7.36 7.33 7.287 7.198 7.083 6.973 7.093 7.388 7.63 7.84 7.905 8.108 8.547 8.892 8.994 8.94 8.885 8.83 8.785 8.758 8.755 8.745 8.707 8.66 8.602 8.515 8.408 8.338 8.315 8.32 8.34 8.36 8.39 8.435 8.488 8.545 8.605 8.647 8.635 8.6 8.595 8.562 8.485 8.43 8.415 8.415 8.41 8.408 8.405 8.4 8.4 8.4 8.4 8.405 8.417 8.43 8.443 8.473 8.525 8.593 8.678 8.765 8.838 8.908 8.985 9.06 9.125 9.193 9.275 9.342 9.393 9.46 9.537 9.55 9.5 9.453 9.418 9.4 9.41 9.45 9.513 9.6 9.705 9.81 9.902 9.987 10.07 10.17 10.36 10.607 10.762 10.835 10.913 11 11.09
7.16 7.222 7.252 7.263 7.283 7.307 7.322 7.33 7.343 7.355 7.385 7.43 7.473 7.517 7.535 7.515 7.49 7.465 7.445 7.435 7.428 7.428 7.462 7.5 7.508 7.53 7.698 8.103 8.492 8.542 8.398 8.322 8.212 8.043 7.9 7.81 7.808 7.84 7.855 7.855 7.837 7.79 7.745 7.718 7.692 7.665 7.635 7.572 7.43 7.29 7.263 7.29 7.267 7.172 7.08 7.055 7.075 7.105 7.125 7.125 7.115 7.105 7.108 7.133 7.175 7.217 7.245 7.26 7.275 7.29 7.28 7.245 7.213 7.193 7.198 7.217 7.23 7.24 7.247 7.253 7.258 7.27 7.325 7.392 7.427 7.453 7.483 7.52 7.562 7.585 7.538 7.473 7.46 7.467 7.432 7.365 7.325 7.305 7.245 6.875 6.431 6.488 7.06 7.489 7.515 7.482 7.455 7.44 7.43 7.417 7.402 7.39 7.33 7.223 7.118 7.056 7.251 7.633 7.885 7.955 8.16 8.52 8.812 8.924 8.872 8.837 8.825 8.8 8.745 8.662 8.545 8.42 8.33 8.305 8.32 8.34 8.363 8.393 8.435 8.485 8.535 8.585 8.627 8.652 8.665 8.675 8.635 8.543 8.458 8.413 8.405 8.4 8.392 8.385 8.39 8.405 8.415 8.417 8.423 8.435 8.445 8.458 8.485 8.527 8.573 8.623 8.688 8.76 8.835 8.915 8.99 9.063 9.145 9.235 9.302 9.343 9.39 9.46 9.477 9.435 9.4 9.378 9.36 9.37 9.425 9.495 9.58 9.685 9.79 9.88 9.963 10.045 10.128 10.278 10.47 10.59 10.665 10.745 10.83 10.917
7.155 7.22 7.26 7.28 7.305 7.33 7.345 7.355 7.365 7.373 7.4 7.447 7.495 7.54 7.555 7.535 7.507 7.482 7.465 7.455 7.445 7.438 7.45 7.47 7.478 7.485 7.528 7.713 8.12 8.502 8.52 8.37 8.292 8.142 7.95 7.823 7.785 7.812 7.827 7.83 7.825 7.792 7.748 7.72 7.695 7.665 7.632 7.535 7.363 7.215 7.173 7.178 7.145 7.088 7.04 7.04 7.07 7.1 7.117 7.11 7.095 7.085 7.095 7.133 7.18 7.227 7.257 7.273 7.287 7.297 7.285 7.252 7.217 7.188 7.183 7.193 7.2 7.21 7.215 7.22 7.225 7.233 7.26 7.288 7.305 7.328 7.36 7.403 7.45 7.487 7.483 7.465 7.47 7.48 7.467 7.442 7.437 7.432 7.375 7.275 7.012 6.585 6.443 6.86 7.374 7.569 7.585 7.57 7.56 7.55 7.537 7.525 7.512 7.5 7.49 7.48 7.445 7.36 7.233 7.168 7.396 7.72 7.85 7.925 8.128 8.427 8.742 8.882 8.807 8.695 8.567 8.445 8.338 8.298 8.318 8.34 8.365 8.392 8.422 8.457 8.492 8.525 8.56 8.617 8.677 8.72 8.69 8.595 8.502 8.425 8.393 8.385 8.375 8.368 8.373 8.39 8.41 8.425 8.437 8.45 8.46 8.47 8.487 8.517 8.55 8.575 8.62 8.693 8.77 8.85 8.928 9.01 9.1 9.19 9.26 9.302 9.34 9.39 9.407 9.385 9.365 9.345 9.325 9.335 9.392 9.467 9.557 9.665 9.767 9.857 9.94 10.02 10.102 10.21 10.327 10.418 10.495 10.575 10.66 10.745
7.182 7.235 7.267 7.292 7.317 7.342 7.36 7.37 7.377 7.378 7.398 7.445 7.495 7.542 7.56 7.542 7.515 7.493 7.48 7.47 7.46 7.453 7.453 7.46 7.47 7.48 7.515 7.57 7.765 8.19 8.542 8.515 8.35 8.25 8.065 7.86 7.78 7.788 7.8 7.805 7.805 7.787 7.752 7.722 7.692 7.66 7.61 7.48 7.295 7.14 7.09 7.105 7.083 7.038 7.013 7.023 7.05 7.08 7.1 7.097 7.085 7.075 7.093 7.138 7.188 7.242 7.275 7.29 7.302 7.3 7.282 7.252 7.217 7.185 7.173 7.178 7.185 7.19 7.188 7.188 7.193 7.198 7.208 7.22 7.23 7.248 7.283 7.33 7.38 7.423 7.445 7.452 7.457 7.47 7.482 7.485 7.487 7.487 7.485 7.457 7.367 7.187 6.705 6.391 6.498 6.625 6.82 7.045 7.29 7.534 7.629 7.619 7.607 7.595 7.585 7.575 7.567 7.557 7.545 7.535 7.525 7.458 7.263 7.196 7.42 7.643 7.738 7.875 8.12 8.37 8.557 8.574 8.457 8.375 8.33 8.323 8.348 8.372 8.382 8.38 8.39 8.413 8.455 8.52 8.582 8.652 8.667 8.592 8.5 8.423 8.383 8.37 8.36 8.355 8.36 8.373 8.393 8.417 8.432 8.44 8.45 8.46 8.46 8.465 8.485 8.505 8.553 8.63 8.708 8.788 8.87 8.955 9.045 9.14 9.212 9.255 9.295 9.335 9.355 9.35 9.335 9.318 9.3 9.298 9.338 9.41 9.505 9.62 9.722 9.802 9.88 9.96 10.04 10.122 10.205 10.28 10.355 10.433 10.51 10.59
7.22 7.25 7.27 7.295 7.322 7.347 7.367 7.377 7.377 7.368 7.383 7.43 7.48 7.53 7.547 7.53 7.513 7.5 7.49 7.48 7.475 7.478 7.475 7.47 7.475 7.485 7.52 7.555 7.615 7.863 8.295 8.61 8.522 8.315 8.19 7.98 7.803 7.76 7.77 7.775 7.775 7.77 7.75 7.72 7.687 7.655 7.572 7.413 7.233 7.093 7.038 7.053 7.062 7.03 7 7 7.02 7.05 7.075 7.085 7.082 7.075 7.095 7.143 7.195 7.255 7.292 7.307 7.31 7.292 7.27 7.245 7.215 7.183 7.168 7.172 7.177 7.175 7.165 7.158 7.16 7.165 7.173 7.188 7.202 7.218 7.25 7.3 7.347 7.387 7.407 7.415 7.428 7.45 7.47 7.475 7.47 7.465 7.512 7.582 7.592 7.517 7.387 7.025 6.583 6.481 6.6 6.603 6.503 6.513 6.573 6.703 7 7.395 7.609 7.614 7.607 7.6 7.592 7.585 7.575 7.565 7.555 7.547 7.537 7.428 7.188 7.171 7.46 7.64 7.66 7.79 8.002 8.192 8.345 8.377 8.34 8.337 8.337 8.308 8.285 8.3 8.345 8.392 8.428 8.5 8.577 8.547 8.46 8.405 8.378 8.36 8.35 8.345 8.35 8.36 8.378 8.4 8.41 8.415 8.425 8.435 8.425 8.408 8.415 8.438 8.49 8.567 8.645 8.728 8.81 8.895 8.99 9.095 9.17 9.208 9.245 9.282 9.305 9.312 9.307 9.292 9.278 9.27 9.283 9.333 9.428 9.55 9.652 9.723 9.79 9.86 9.935 10.015 10.092 10.167 10.242 10.315 10.385 10.458
7.23 7.25 7.273 7.298 7.325 7.352 7.372 7.38 7.372 7.355 7.368 7.415 7.465 7.517 7.535 7.52 7.513 7.507 7.5 7.495 7.5 7.51 7.505 7.49 7.485 7.49 7.517 7.54 7.55 7.67 7.98 8.42 8.66 8.492 8.273 8.125 7.905 7.76 7.745 7.752 7.747 7.722 7.687 7.657 7.635 7.61 7.532 7.383 7.238 7.153 7.093 7.048 7.033 7.015 6.995 6.99 6.998 7.02 7.042 7.057 7.07 7.073 7.098 7.152 7.21 7.27 7.31 7.317 7.302 7.278 7.253 7.23 7.207 7.178 7.163 7.165 7.162 7.157 7.148 7.135 7.13 7.133 7.14 7.155 7.175 7.193 7.223 7.267 7.31 7.35 7.372 7.385 7.41 7.437 7.455 7.457 7.445 7.433 7.478 7.572 7.667 7.702 7.657 7.575 7.467 7.405 7.35 7.132 6.788 6.488 6.333 6.296 6.371 6.59 6.673 6.583 6.743 7.14 7.474 7.599 7.592 7.585 7.575 7.565 7.555 7.545 7.53 7.537 7.57 7.425 7.156 7.196 7.455 7.545 7.52 7.603 7.8 8.042 8.24 8.282 8.24 8.222 8.223 8.23 8.253 8.34 8.48 8.502 8.435 8.4 8.375 8.353 8.34 8.338 8.343 8.35 8.363 8.38 8.39 8.395 8.405 8.415 8.405 8.373 8.355 8.37 8.425 8.503 8.585 8.67 8.75 8.84 8.945 9.055 9.127 9.16 9.193 9.227 9.25 9.262 9.27 9.262 9.25 9.248 9.25 9.27 9.353 9.48 9.58 9.647 9.71 9.773 9.84 9.913 9.98 10.048 10.12 10.19 10.26 10.333
7.24 7.258 7.278 7.303 7.33 7.358 7.377 7.38 7.365 7.345 7.355 7.4 7.45 7.502 7.527 7.522 7.517 7.515 7.515 7.52 7.53 7.54 7.535 7.52 7.508 7.503 7.515 7.525 7.523 7.573 7.753 8.093 8.515 8.657 8.43 8.223 8.055 7.833 7.728 7.71 7.67 7.61 7.555 7.525 7.507 7.485 7.437 7.365 7.333 7.307 7.235 7.15 7.08 7.028 6.995 6.99 6.988 6.993 7.008 7.028 7.053 7.07 7.1 7.157 7.222 7.285 7.32 7.312 7.287 7.262 7.238 7.215 7.195 7.173 7.158 7.155 7.15 7.143 7.132 7.118 7.105 7.103 7.113 7.13 7.15 7.168 7.195 7.235 7.275 7.315 7.345 7.37 7.4 7.425 7.437 7.433 7.418 7.403 7.438 7.522 7.607 7.675 7.692 7.662 7.607 7.562 7.567 7.597 7.612 7.564 7.462 7.282 6.985 6.69 6.436 6.203 6.198 6.393 6.508 6.59 6.785 7.025 7.317 7.539 7.575 7.565 7.562 7.602 7.675 7.702 7.702 7.7 7.647 7.433 7.143 7.131 7.33 7.45 7.455 7.513 7.713 7.945 8.147 8.225 8.2 8.235 8.385 8.465 8.425 8.397 8.37 8.345 8.33 8.33 8.337 8.343 8.35 8.362 8.37 8.375 8.385 8.395 8.385 8.35 8.315 8.31 8.363 8.445 8.528 8.613 8.695 8.79 8.9 9.01 9.08 9.11 9.14 9.172 9.195 9.205 9.215 9.22 9.22 9.222 9.225 9.24 9.305 9.415 9.51 9.575 9.643 9.718 9.793 9.865 9.925 9.983 10.045 10.115 10.195 10.278
7.287 7.285 7.293 7.325 7.353 7.378 7.395 7.39 7.37 7.353 7.355 7.388 7.438 7.49 7.517 7.517 7.515 7.517 7.53 7.547 7.56 7.57 7.567 7.552 7.535 7.52 7.518 7.52 7.518 7.535 7.653 7.865 8.208 8.59 8.622 8.363 8.205 8.005 7.733 7.605 7.535 7.465 7.405 7.37 7.352 7.325 7.283 7.333 7.457 7.47 7.388 7.303 7.217 7.103 7.015 6.998 6.993 6.99 7.003 7.028 7.055 7.083 7.108 7.148 7.21 7.275 7.307 7.295 7.27 7.245 7.225 7.21 7.19 7.173 7.16 7.153 7.145 7.13 7.115 7.102 7.09 7.085 7.095 7.115 7.135 7.15 7.175 7.215 7.255 7.295 7.332 7.365 7.395 7.42 7.43 7.42 7.405 7.395 7.4 7.45 7.527 7.592 7.61 7.585 7.567 7.565 7.647 7.687 7.662 7.702 7.742 7.762 7.725 7.63 7.507 7.36 7.127 6.76 6.328 6.081 6.083 6.141 6.298 6.5 6.703 6.97 7.247 7.517 7.677 7.74 7.802 7.837 7.822 7.777 7.707 7.637 7.562 7.398 7.175 7.143 7.298 7.41 7.455 7.523 7.675 7.897 8.205 8.397 8.395 8.375 8.355 8.338 8.325 8.323 8.33 8.335 8.322 8.317 8.325 8.33 8.34 8.35 8.35 8.325 8.285 8.273 8.323 8.405 8.485 8.565 8.643 8.73 8.835 8.947 9.02 9.05 9.08 9.117 9.145 9.155 9.165 9.175 9.187 9.195 9.198 9.24 9.315 9.388 9.465 9.54 9.62 9.705 9.788 9.867 9.93 9.983 10.043 10.128 10.23 10.323
7.345 7.313 7.315 7.357 7.387 7.415 7.427 7.415 7.4 7.395 7.393 7.398 7.428 7.475 7.5 7.5 7.503 7.51 7.533 7.565 7.587 7.6 7.6 7.585 7.562 7.54 7.528 7.525 7.525 7.533 7.63 7.755 7.948 8.337 8.665 8.602 8.428 8.237 7.875 7.56 7.398 7.325 7.258 7.215 7.195 7.163 7.188 7.373 7.58 7.62 7.545 7.46 7.335 7.173 7.068 7.025 7.01 7.01 7.025 7.052 7.08 7.107 7.125 7.145 7.188 7.247 7.282 7.272 7.247 7.223 7.21 7.205 7.19 7.175 7.165 7.155 7.14 7.117 7.098 7.085 7.078 7.075 7.085 7.105 7.122 7.138 7.165 7.205 7.245 7.285 7.322 7.357 7.392 7.42 7.43 7.423 7.413 7.41 7.395 7.395 7.445 7.51 7.53 7.505 7.478 7.473 7.595 7.685 7.653 7.683 7.752 7.802 7.82 7.83 7.795 7.795 7.74 7.492 7.215 6.965 6.722 6.425 6.098 5.898 5.933 6.103 6.273 6.41 6.613 6.94 7.392 7.689 7.739 7.777 7.787 7.772 7.742 7.695 7.637 7.577 7.472 7.308 7.12 7.073 7.163 7.248 7.418 7.723 7.952 8.082 8.25 8.335 8.325 8.317 8.32 8.3 8.255 8.245 8.255 8.26 8.267 8.275 8.29 8.287 8.255 8.253 8.303 8.375 8.452 8.52 8.588 8.668 8.763 8.872 8.945 8.978 9.018 9.067 9.1 9.11 9.123 9.138 9.155 9.165 9.18 9.258 9.352 9.395 9.443 9.532 9.627 9.712 9.795 9.872 9.935 9.993 10.073 10.18 10.295 10.395
7.37 7.328 7.333 7.377 7.42 7.455 7.462 7.453 7.45 7.455 7.457 7.448 7.445 7.465 7.482 7.488 7.495 7.505 7.53 7.57 7.605 7.63 7.632 7.612 7.585 7.558 7.543 7.54 7.538 7.538 7.603 7.693 7.79 8.055 8.475 8.732 8.677 8.46 8.135 7.733 7.4 7.213 7.115 7.065 7.035 7.055 7.21 7.43 7.612 7.72 7.702 7.58 7.375 7.205 7.133 7.078 7.038 7.028 7.045 7.075 7.105 7.13 7.148 7.163 7.183 7.225 7.255 7.245 7.223 7.2 7.19 7.192 7.19 7.177 7.162 7.147 7.125 7.1 7.08 7.068 7.065 7.068 7.078 7.095 7.11 7.125 7.155 7.195 7.235 7.275 7.31 7.345 7.385 7.417 7.432 7.432 7.43 7.43 7.417 7.39 7.388 7.43 7.45 7.43 7.42 7.438 7.543 7.675 7.707 7.725 7.75 7.73 7.708 7.71 7.655 7.718 7.745 7.55 7.377 7.255 7.16 7 6.765 6.54 6.395 6.28 6.105 5.896 5.873 6.071 6.393 6.56 6.663 7.1 7.542 7.702 7.722 7.717 7.687 7.635 7.552 7.5 7.485 7.445 7.332 7.17 7.078 7.123 7.128 7.233 7.527 7.715 7.87 8.09 8.245 8.217 8.16 8.177 8.185 8.19 8.195 8.2 8.22 8.24 8.23 8.243 8.288 8.345 8.412 8.465 8.53 8.613 8.7 8.797 8.867 8.91 8.965 9.02 9.05 9.063 9.08 9.1 9.12 9.135 9.18 9.29 9.38 9.397 9.415 9.503 9.622 9.72 9.805 9.877 9.94 10.02 10.125 10.24 10.355 10.462
7.375 7.338 7.348 7.395 7.445 7.487 7.502 7.502 7.507 7.512 7.515 7.505 7.485 7.473 7.475 7.485 7.495 7.505 7.528 7.565 7.605 7.642 7.65 7.627 7.602 7.575 7.56 7.557 7.552 7.548 7.573 7.628 7.69 7.843 8.175 8.592 8.782 8.655 8.375 8.012 7.61 7.258 7.025 6.918 6.92 7.03 7.21 7.372 7.52 7.702 7.777 7.625 7.393 7.255 7.198 7.14 7.083 7.053 7.065 7.095 7.125 7.153 7.172 7.185 7.197 7.22 7.232 7.22 7.203 7.188 7.18 7.183 7.185 7.177 7.158 7.135 7.11 7.085 7.068 7.06 7.06 7.063 7.073 7.088 7.1 7.115 7.145 7.185 7.225 7.265 7.303 7.34 7.383 7.417 7.432 7.437 7.442 7.445 7.437 7.41 7.378 7.373 7.383 7.388 7.405 7.44 7.547 7.662 7.7 7.725 7.677 7.56 7.585 7.66 7.623 7.715 7.73 7.513 7.3 7.118 6.985 6.898 6.868 6.872 6.88 6.87 6.805 6.7 6.587 6.448 6.26 6.051 6.021 6.326 6.53 6.633 6.925 7.367 7.652 7.642 7.582 7.535 7.525 7.507 7.48 7.452 7.422 7.297 7.07 6.918 6.818 6.863 7.173 7.585 7.865 7.962 8.05 8.11 8.115 8.12 8.125 8.125 8.142 8.177 8.207 8.242 8.275 8.315 8.368 8.413 8.473 8.555 8.64 8.727 8.8 8.855 8.915 8.972 9.007 9.025 9.045 9.065 9.085 9.11 9.193 9.325 9.392 9.39 9.388 9.455 9.587 9.712 9.812 9.888 9.965 10.07 10.185 10.298 10.412 10.525
7.395 7.363 7.378 7.425 7.472 7.5 7.51 7.517 7.525 7.53 7.532 7.527 7.507 7.483 7.475 7.485 7.495 7.508 7.525 7.553 7.59 7.63 7.64 7.62 7.6 7.577 7.567 7.567 7.562 7.558 7.563 7.588 7.625 7.705 7.93 8.32 8.702 8.79 8.59 8.275 7.89 7.485 7.113 6.86 6.843 6.987 7.135 7.278 7.413 7.582 7.685 7.582 7.42 7.328 7.27 7.213 7.16 7.135 7.148 7.173 7.197 7.19 7.175 7.182 7.192 7.215 7.227 7.218 7.203 7.19 7.185 7.185 7.188 7.187 7.17 7.143 7.118 7.088 7.068 7.068 7.07 7.07 7.078 7.09 7.1 7.118 7.15 7.19 7.23 7.27 7.31 7.35 7.387 7.412 7.42 7.425 7.435 7.442 7.437 7.412 7.377 7.348 7.353 7.38 7.405 7.44 7.542 7.627 7.633 7.65 7.587 7.435 7.468 7.63 7.687 7.752 7.707 7.49 7.253 7.065 6.96 6.933 7.003 7.082 7.087 7.095 7.132 7.142 7.145 7.12 7.04 6.93 6.815 6.67 6.371 6.218 6.246 6.378 6.708 7.02 7.285 7.482 7.559 7.547 7.527 7.505 7.49 7.482 7.467 7.352 7.105 6.893 6.833 6.995 7.223 7.477 7.757 7.765 7.61 7.488 7.388 7.3 7.223 7.228 7.448 7.93 8.245 8.285 8.333 8.378 8.428 8.498 8.58 8.665 8.742 8.805 8.865 8.925 8.972 9 9.02 9.04 9.06 9.098 9.195 9.335 9.397 9.383 9.37 9.413 9.533 9.675 9.802 9.907 10.01 10.125 10.24 10.352 10.467 10.582
7.435 7.408 7.423 7.467 7.492 7.485 7.48 7.492 7.505 7.51 7.515 7.517 7.507 7.485 7.475 7.485 7.495 7.51 7.528 7.545 7.573 7.61 7.62 7.6 7.583 7.565 7.56 7.567 7.567 7.565 7.57 7.585 7.603 7.638 7.765 8.058 8.48 8.805 8.787 8.512 8.16 7.765 7.36 6.985 6.833 6.93 7.08 7.23 7.34 7.43 7.505 7.522 7.48 7.415 7.36 7.308 7.278 7.28 7.3 7.317 7.292 7.2 7.145 7.153 7.17 7.21 7.235 7.23 7.215 7.2 7.195 7.198 7.205 7.21 7.195 7.165 7.135 7.098 7.075 7.08 7.085 7.085 7.09 7.103 7.118 7.138 7.17 7.21 7.25 7.29 7.33 7.365 7.385 7.395 7.402 7.408 7.418 7.43 7.425 7.397 7.363 7.333 7.34 7.375 7.405 7.44 7.517 7.572 7.568 7.575 7.505 7.358 7.308 7.523 7.732 7.712 7.625 7.51 7.37 7.258 7.185 7.195 7.287 7.31 7.248 7.233 7.292 7.34 7.365 7.365 7.33 7.307 7.312 7.292 7.227 7.137 6.902 6.57 6.393 6.423 6.521 6.543 6.566 6.73 6.988 7.217 7.41 7.519 7.537 7.545 7.517 7.35 7.125 6.97 6.855 6.865 7.02 7.155 7.265 7.303 7.235 7.153 7.053 6.978 6.883 7.33 8.04 8.255 8.307 8.352 8.398 8.45 8.52 8.602 8.682 8.752 8.815 8.875 8.932 8.977 9.005 9.025 9.05 9.105 9.195 9.32 9.397 9.39 9.373 9.393 9.498 9.645 9.767 9.88 10.002 10.125 10.24 10.355 10.47 10.585
7.48 7.453 7.462 7.49 7.482 7.46 7.453 7.465 7.48 7.488 7.495 7.5 7.497 7.485 7.478 7.485 7.498 7.515 7.535 7.55 7.565 7.592 7.602 7.585 7.57 7.558 7.555 7.565 7.572 7.573 7.577 7.587 7.587 7.59 7.66 7.833 8.178 8.635 8.857 8.725 8.412 8.037 7.64 7.235 6.978 6.955 7.055 7.195 7.277 7.323 7.395 7.49 7.55 7.522 7.463 7.428 7.425 7.44 7.457 7.43 7.32 7.175 7.108 7.125 7.168 7.22 7.245 7.24 7.225 7.21 7.205 7.213 7.225 7.23 7.215 7.182 7.142 7.1 7.08 7.085 7.092 7.095 7.103 7.12 7.14 7.163 7.195 7.232 7.27 7.31 7.345 7.365 7.372 7.378 7.385 7.393 7.405 7.42 7.412 7.382 7.35 7.32 7.323 7.362 7.402 7.44 7.485 7.51 7.505 7.5 7.425 7.34 7.33 7.488 7.72 7.695 7.598 7.615 7.645 7.567 7.465 7.495 7.542 7.507 7.423 7.363 7.4 7.492 7.547 7.535 7.46 7.4 7.38 7.392 7.43 7.467 7.492 7.472 7.282 7.02 6.828 6.643 6.493 6.471 6.541 6.583 6.585 6.531 6.518 6.923 7.422 7.527 7.475 7.34 7.135 6.983 6.993 7.273 7.645 7.832 7.847 7.82 7.775 7.685 7.233 6.916 7.617 8.247 8.278 8.328 8.372 8.418 8.473 8.543 8.618 8.692 8.762 8.825 8.885 8.942 8.985 9.01 9.05 9.125 9.213 9.31 9.392 9.41 9.393 9.403 9.493 9.617 9.705 9.793 9.917 10.06 10.187 10.305 10.42 10.532
7.527 7.495 7.485 7.48 7.46 7.44 7.43 7.44 7.455 7.468 7.478 7.48 7.48 7.478 7.478 7.488 7.505 7.525 7.542 7.555 7.565 7.582 7.587 7.573 7.56 7.55 7.55 7.56 7.57 7.575 7.572 7.562 7.545 7.53 7.565 7.648 7.898 8.34 8.747 8.865 8.645 8.3 7.92 7.515 7.205 7.083 7.088 7.16 7.233 7.298 7.383 7.473 7.565 7.6 7.578 7.572 7.585 7.597 7.57 7.46 7.31 7.16 7.09 7.12 7.175 7.232 7.257 7.25 7.235 7.22 7.218 7.23 7.245 7.25 7.232 7.195 7.15 7.105 7.085 7.09 7.1 7.108 7.12 7.14 7.16 7.183 7.215 7.25 7.285 7.325 7.35 7.358 7.363 7.365 7.37 7.383 7.398 7.41 7.4 7.37 7.34 7.31 7.31 7.348 7.39 7.43 7.455 7.458 7.453 7.453 7.443 7.473 7.557 7.645 7.772 7.775 7.675 7.662 7.69 7.64 7.607 7.69 7.72 7.672 7.6 7.52 7.51 7.595 7.687 7.697 7.63 7.547 7.47 7.423 7.423 7.453 7.488 7.55 7.637 7.632 7.58 7.584 7.504 7.322 7.135 6.948 6.763 6.543 6.363 6.818 7.415 7.455 7.375 7.357 7.37 7.337 7.395 7.677 7.775 7.817 7.925 7.865 7.805 7.745 7.497 6.701 7.125 8.212 8.297 8.313 8.347 8.392 8.44 8.493 8.555 8.627 8.7 8.767 8.832 8.895 8.95 8.995 9.058 9.145 9.235 9.32 9.397 9.427 9.412 9.413 9.47 9.555 9.628 9.705 9.818 9.968 10.112 10.245 10.367 10.467
7.54 7.512 7.495 7.475 7.455 7.435 7.425 7.43 7.443 7.46 7.475 7.48 7.48 7.48 7.48 7.488 7.505 7.525 7.537 7.545 7.555 7.567 7.57 7.557 7.545 7.535 7.535 7.545 7.555 7.565 7.557 7.533 7.51 7.49 7.483 7.51 7.655 8.02 8.502 8.86 8.847 8.545 8.187 7.795 7.433 7.258 7.22 7.193 7.223 7.305 7.39 7.475 7.56 7.642 7.69 7.702 7.717 7.7 7.602 7.455 7.305 7.155 7.09 7.125 7.177 7.235 7.262 7.255 7.243 7.238 7.245 7.258 7.27 7.272 7.252 7.212 7.168 7.125 7.105 7.11 7.12 7.128 7.14 7.16 7.18 7.2 7.225 7.258 7.293 7.33 7.352 7.358 7.36 7.363 7.37 7.383 7.395 7.408 7.402 7.373 7.34 7.31 7.308 7.34 7.38 7.417 7.435 7.433 7.435 7.455 7.51 7.595 7.685 7.775 7.837 7.802 7.71 7.658 7.648 7.635 7.648 7.732 7.777 7.747 7.702 7.65 7.623 7.665 7.755 7.787 7.742 7.675 7.602 7.53 7.48 7.46 7.485 7.625 7.757 7.71 7.593 7.548 7.557 7.575 7.592 7.607 7.622 7.577 7.435 7.472 7.525 7.373 7.258 7.228 7.245 7.245 7.31 7.605 7.73 7.695 7.84 7.895 7.835 7.765 7.607 6.733 6.806 7.985 8.32 8.298 8.313 8.357 8.402 8.445 8.493 8.555 8.625 8.695 8.765 8.83 8.893 8.967 9.057 9.15 9.24 9.325 9.39 9.407 9.39 9.383 9.42 9.49 9.563 9.64 9.75 9.893 10.038 10.18 10.31 10.395
7.528 7.518 7.507 7.485 7.465 7.445 7.435 7.435 7.443 7.46 7.48 7.495 7.5 7.5 7.495 7.488 7.495 7.515 7.525 7.528 7.535 7.545 7.547 7.54 7.53 7.518 7.515 7.525 7.535 7.545 7.54 7.518 7.498 7.485 7.455 7.425 7.463 7.718 8.178 8.665 8.92 8.772 8.437 8.067 7.675 7.448 7.395 7.323 7.263 7.3 7.385 7.47 7.555 7.677 7.77 7.787 7.772 7.697 7.582 7.45 7.305 7.155 7.09 7.125 7.175 7.23 7.26 7.255 7.253 7.265 7.282 7.292 7.295 7.29 7.27 7.235 7.195 7.153 7.133 7.137 7.145 7.15 7.16 7.18 7.2 7.22 7.24 7.265 7.298 7.332 7.355 7.36 7.363 7.367 7.375 7.385 7.4 7.42 7.417 7.387 7.355 7.325 7.318 7.343 7.38 7.415 7.43 7.435 7.455 7.49 7.543 7.618 7.705 7.795 7.842 7.798 7.735 7.723 7.725 7.705 7.68 7.73 7.77 7.743 7.715 7.695 7.69 7.718 7.782 7.822 7.795 7.74 7.685 7.627 7.567 7.505 7.478 7.597 7.762 7.775 7.667 7.558 7.515 7.518 7.532 7.545 7.552 7.56 7.557 7.51 7.417 7.282 7.148 7.115 7.168 7.225 7.285 7.498 7.787 7.743 7.708 7.865 7.87 7.767 7.595 6.938 6.683 7.657 8.317 8.275 8.268 8.312 8.352 8.39 8.433 8.485 8.548 8.615 8.685 8.753 8.825 8.918 9.03 9.137 9.23 9.315 9.36 9.352 9.33 9.325 9.368 9.44 9.515 9.598 9.71 9.852 9.995 10.135 10.265 10.35
7.525 7.53 7.522 7.498 7.475 7.455 7.445 7.445 7.448 7.458 7.477 7.5 7.515 7.52 7.515 7.5 7.493 7.505 7.515 7.515 7.518 7.525 7.525 7.518 7.512 7.503 7.498 7.505 7.515 7.525 7.52 7.505 7.495 7.485 7.455 7.4 7.365 7.483 7.848 8.34 8.785 8.912 8.675 8.325 7.943 7.663 7.565 7.487 7.378 7.33 7.378 7.463 7.55 7.71 7.835 7.825 7.75 7.643 7.537 7.425 7.297 7.158 7.095 7.128 7.175 7.227 7.26 7.268 7.28 7.3 7.317 7.32 7.31 7.3 7.28 7.25 7.217 7.178 7.158 7.162 7.167 7.17 7.18 7.2 7.218 7.238 7.26 7.28 7.305 7.337 7.357 7.363 7.367 7.37 7.378 7.393 7.413 7.435 7.43 7.4 7.372 7.345 7.338 7.355 7.383 7.413 7.433 7.455 7.488 7.525 7.575 7.645 7.728 7.815 7.85 7.82 7.8 7.805 7.8 7.77 7.733 7.748 7.765 7.743 7.728 7.723 7.738 7.768 7.815 7.857 7.845 7.792 7.735 7.68 7.617 7.527 7.423 7.425 7.575 7.717 7.73 7.63 7.533 7.478 7.455 7.46 7.467 7.475 7.442 7.352 7.25 7.143 7.068 7.085 7.153 7.223 7.295 7.45 7.715 7.865 7.695 7.715 7.872 7.74 7.545 7.145 6.598 7.28 8.252 8.247 8.223 8.262 8.298 8.335 8.378 8.425 8.478 8.54 8.61 8.685 8.768 8.863 8.982 9.107 9.212 9.297 9.322 9.295 9.27 9.268 9.313 9.39 9.475 9.56 9.665 9.81 9.96 10.1 10.232 10.33
7.533 7.545 7.537 7.512 7.488 7.465 7.455 7.455 7.455 7.458 7.473 7.495 7.517 7.535 7.532 7.517 7.505 7.502 7.505 7.505 7.502 7.502 7.502 7.495 7.49 7.485 7.48 7.485 7.495 7.502 7.5 7.495 7.49 7.482 7.455 7.4 7.345 7.338 7.555 8.003 8.5 8.885 8.88 8.567 8.208 7.89 7.735 7.65 7.535 7.433 7.4 7.455 7.563 7.76 7.872 7.802 7.695 7.588 7.483 7.378 7.268 7.15 7.103 7.138 7.183 7.23 7.268 7.292 7.315 7.335 7.345 7.337 7.323 7.31 7.29 7.26 7.23 7.198 7.18 7.185 7.19 7.19 7.2 7.22 7.238 7.255 7.275 7.298 7.32 7.345 7.36 7.365 7.37 7.373 7.385 7.405 7.428 7.45 7.445 7.415 7.39 7.365 7.36 7.378 7.398 7.42 7.448 7.485 7.522 7.56 7.605 7.672 7.752 7.83 7.867 7.87 7.877 7.882 7.87 7.835 7.797 7.778 7.77 7.765 7.768 7.775 7.795 7.825 7.862 7.9 7.892 7.842 7.787 7.722 7.625 7.495 7.355 7.263 7.338 7.54 7.702 7.715 7.622 7.525 7.448 7.398 7.38 7.375 7.31 7.2 7.1 7.043 7.068 7.133 7.195 7.27 7.35 7.465 7.665 7.935 7.945 7.69 7.685 7.697 7.515 7.352 6.625 6.791 7.925 8.205 8.178 8.21 8.245 8.283 8.32 8.365 8.415 8.467 8.532 8.62 8.712 8.807 8.925 9.057 9.182 9.265 9.272 9.24 9.213 9.213 9.265 9.348 9.435 9.523 9.618 9.76 9.922 10.065 10.197 10.305
7.542 7.557 7.55 7.525 7.5 7.475 7.46 7.455 7.455 7.455 7.463 7.48 7.502 7.525 7.527 7.515 7.505 7.49 7.48 7.48 7.475 7.475 7.482 7.483 7.478 7.473 7.463 7.458 7.465 7.472 7.472 7.47 7.465 7.46 7.442 7.395 7.34 7.288 7.383 7.708 8.16 8.662 8.937 8.795 8.457 8.115 7.908 7.81 7.695 7.58 7.485 7.47 7.585 7.777 7.867 7.805 7.698 7.593 7.488 7.385 7.28 7.163 7.115 7.155 7.203 7.25 7.29 7.317 7.34 7.36 7.365 7.355 7.34 7.323 7.3 7.273 7.245 7.215 7.2 7.203 7.208 7.215 7.235 7.26 7.28 7.295 7.308 7.328 7.35 7.37 7.383 7.388 7.393 7.4 7.423 7.453 7.478 7.5 7.498 7.47 7.443 7.413 7.408 7.43 7.448 7.46 7.48 7.515 7.555 7.595 7.622 7.65 7.702 7.77 7.817 7.837 7.852 7.892 7.91 7.875 7.835 7.803 7.795 7.805 7.815 7.825 7.832 7.852 7.89 7.925 7.922 7.885 7.825 7.727 7.603 7.468 7.333 7.228 7.298 7.52 7.692 7.717 7.645 7.56 7.472 7.385 7.333 7.31 7.25 7.16 7.103 7.13 7.178 7.2 7.253 7.33 7.41 7.5 7.673 7.923 8.16 7.795 7.538 7.645 7.498 7.45 6.845 6.488 7.457 8.152 8.133 8.168 8.203 8.233 8.255 8.29 8.34 8.385 8.428 8.502 8.602 8.712 8.852 8.997 9.13 9.217 9.225 9.195 9.165 9.165 9.225 9.31 9.395 9.485 9.575 9.71 9.882 10.035 10.162 10.27
7.55 7.565 7.56 7.535 7.51 7.485 7.465 7.45 7.445 7.445 7.45 7.463 7.48 7.5 7.505 7.492 7.475 7.452 7.438 7.435 7.438 7.448 7.465 7.477 7.475 7.467 7.453 7.433 7.428 7.435 7.435 7.43 7.425 7.42 7.41 7.377 7.33 7.283 7.34 7.543 7.868 8.328 8.78 8.897 8.655 8.33 8.1 7.972 7.855 7.732 7.612 7.523 7.568 7.71 7.807 7.827 7.765 7.662 7.558 7.455 7.35 7.205 7.128 7.173 7.23 7.28 7.317 7.34 7.36 7.38 7.385 7.375 7.36 7.34 7.315 7.287 7.26 7.233 7.22 7.22 7.225 7.24 7.275 7.317 7.345 7.36 7.368 7.375 7.393 7.415 7.427 7.433 7.44 7.45 7.483 7.532 7.565 7.585 7.585 7.56 7.527 7.493 7.488 7.507 7.515 7.515 7.523 7.548 7.585 7.625 7.627 7.593 7.593 7.645 7.692 7.713 7.758 7.862 7.917 7.885 7.85 7.83 7.83 7.84 7.852 7.865 7.858 7.853 7.88 7.912 7.915 7.892 7.835 7.728 7.605 7.48 7.368 7.335 7.463 7.645 7.7 7.652 7.585 7.51 7.433 7.38 7.363 7.373 7.363 7.305 7.293 7.335 7.315 7.278 7.318 7.393 7.47 7.55 7.695 7.925 8.132 7.94 7.628 7.558 7.508 7.477 7.165 6.433 7.063 8.094 8.09 8.135 8.167 8.19 8.2 8.213 8.25 8.295 8.32 8.355 8.435 8.565 8.737 8.91 9.057 9.165 9.187 9.158 9.135 9.138 9.193 9.275 9.358 9.445 9.535 9.66 9.832 9.997 10.125 10.232
7.56 7.572 7.567 7.545 7.522 7.498 7.475 7.455 7.44 7.435 7.44 7.45 7.463 7.477 7.48 7.462 7.435 7.408 7.393 7.393 7.405 7.42 7.44 7.462 7.47 7.465 7.447 7.42 7.4 7.398 7.395 7.39 7.385 7.38 7.37 7.345 7.31 7.275 7.343 7.482 7.653 8.01 8.502 8.837 8.787 8.5 8.258 8.093 7.955 7.825 7.7 7.575 7.5 7.563 7.685 7.765 7.787 7.732 7.63 7.525 7.407 7.233 7.133 7.18 7.25 7.305 7.34 7.36 7.38 7.4 7.405 7.392 7.375 7.355 7.33 7.303 7.275 7.248 7.235 7.238 7.248 7.263 7.3 7.357 7.405 7.43 7.435 7.435 7.443 7.46 7.472 7.48 7.49 7.5 7.535 7.595 7.645 7.675 7.675 7.647 7.613 7.578 7.57 7.58 7.575 7.568 7.573 7.59 7.618 7.645 7.625 7.563 7.518 7.533 7.57 7.615 7.718 7.855 7.92 7.9 7.877 7.865 7.865 7.875 7.89 7.905 7.895 7.87 7.87 7.89 7.887 7.862 7.827 7.747 7.632 7.515 7.453 7.488 7.602 7.677 7.645 7.588 7.523 7.46 7.423 7.42 7.448 7.495 7.532 7.515 7.505 7.492 7.415 7.355 7.383 7.457 7.533 7.608 7.723 7.912 8.105 8.142 7.718 7.465 7.565 7.535 7.47 6.713 6.908 7.907 8.052 8.1 8.127 8.15 8.16 8.16 8.173 8.205 8.23 8.24 8.28 8.403 8.585 8.775 8.955 9.105 9.155 9.133 9.12 9.12 9.165 9.245 9.325 9.408 9.495 9.61 9.775 9.952 10.09 10.198
7.57 7.58 7.575 7.555 7.535 7.512 7.487 7.465 7.445 7.43 7.433 7.445 7.455 7.463 7.455 7.428 7.395 7.365 7.353 7.363 7.378 7.393 7.413 7.438 7.457 7.46 7.442 7.415 7.388 7.368 7.358 7.353 7.348 7.343 7.33 7.308 7.28 7.25 7.283 7.352 7.455 7.733 8.188 8.63 8.845 8.677 8.39 8.2 8.015 7.865 7.74 7.615 7.483 7.418 7.49 7.607 7.705 7.75 7.695 7.592 7.447 7.25 7.148 7.185 7.255 7.323 7.362 7.38 7.4 7.42 7.422 7.407 7.39 7.37 7.345 7.318 7.29 7.263 7.253 7.26 7.273 7.288 7.325 7.382 7.44 7.485 7.5 7.502 7.502 7.507 7.52 7.53 7.54 7.553 7.59 7.647 7.705 7.752 7.757 7.73 7.697 7.662 7.648 7.645 7.633 7.623 7.627 7.642 7.657 7.657 7.618 7.55 7.485 7.448 7.473 7.568 7.7 7.837 7.912 7.91 7.895 7.887 7.895 7.912 7.93 7.945 7.935 7.905 7.882 7.875 7.86 7.83 7.805 7.75 7.65 7.58 7.59 7.642 7.68 7.663 7.608 7.555 7.508 7.483 7.493 7.518 7.552 7.605 7.66 7.685 7.665 7.597 7.502 7.433 7.447 7.522 7.595 7.662 7.747 7.898 8.085 8.222 7.678 7.383 7.652 7.645 7.69 7.24 6.893 7.5 8.012 8.057 8.085 8.11 8.12 8.12 8.12 8.13 8.148 8.16 8.183 8.293 8.483 8.678 8.87 9.05 9.122 9.105 9.097 9.095 9.138 9.217 9.295 9.375 9.458 9.563 9.718 9.913 10.067 10.17
7.58 7.59 7.59 7.573 7.55 7.522 7.49 7.465 7.442 7.43 7.44 7.455 7.462 7.462 7.445 7.413 7.38 7.348 7.338 7.353 7.365 7.378 7.398 7.423 7.445 7.447 7.427 7.402 7.375 7.35 7.335 7.325 7.318 7.313 7.302 7.283 7.258 7.225 7.19 7.165 7.253 7.505 7.89 8.325 8.705 8.807 8.59 8.348 8.138 7.933 7.78 7.655 7.525 7.388 7.315 7.378 7.505 7.622 7.687 7.645 7.498 7.318 7.223 7.248 7.313 7.367 7.39 7.4 7.42 7.44 7.44 7.423 7.405 7.385 7.36 7.332 7.305 7.28 7.275 7.285 7.298 7.318 7.353 7.403 7.457 7.51 7.537 7.542 7.542 7.547 7.562 7.575 7.587 7.603 7.637 7.69 7.74 7.79 7.802 7.777 7.747 7.725 7.715 7.702 7.687 7.672 7.667 7.677 7.692 7.69 7.645 7.575 7.508 7.435 7.428 7.523 7.655 7.79 7.867 7.872 7.86 7.86 7.88 7.905 7.927 7.94 7.925 7.895 7.878 7.89 7.893 7.85 7.795 7.74 7.693 7.708 7.765 7.802 7.793 7.745 7.695 7.643 7.613 7.615 7.625 7.625 7.635 7.675 7.722 7.76 7.735 7.65 7.56 7.485 7.458 7.487 7.542 7.595 7.7 7.885 8.08 8.215 7.665 7.413 7.732 7.74 7.8 7.68 6.843 7.043 7.955 8 8.037 8.062 8.07 8.07 8.07 8.068 8.088 8.125 8.16 8.278 8.473 8.662 8.842 9.017 9.082 9.053 9.045 9.05 9.098 9.177 9.257 9.34 9.42 9.525 9.695 9.907 10.065 10.163
7.59 7.6 7.607 7.597 7.57 7.53 7.485 7.453 7.428 7.433 7.46 7.472 7.475 7.47 7.45 7.42 7.387 7.353 7.343 7.355 7.365 7.375 7.393 7.415 7.43 7.427 7.405 7.38 7.36 7.345 7.33 7.31 7.295 7.29 7.282 7.265 7.242 7.212 7.155 7.08 7.123 7.328 7.63 8.028 8.425 8.73 8.745 8.527 8.31 8.073 7.855 7.695 7.565 7.432 7.29 7.24 7.338 7.485 7.64 7.692 7.592 7.443 7.348 7.363 7.412 7.432 7.43 7.428 7.44 7.457 7.457 7.44 7.42 7.398 7.373 7.347 7.323 7.3 7.298 7.31 7.328 7.355 7.385 7.423 7.47 7.522 7.552 7.555 7.56 7.575 7.595 7.61 7.625 7.64 7.668 7.712 7.755 7.8 7.815 7.79 7.77 7.773 7.772 7.757 7.735 7.703 7.688 7.698 7.722 7.737 7.702 7.635 7.557 7.47 7.435 7.483 7.588 7.72 7.795 7.8 7.798 7.808 7.83 7.855 7.875 7.88 7.86 7.84 7.863 7.93 7.98 7.965 7.898 7.823 7.813 7.875 7.942 7.98 7.967 7.922 7.872 7.818 7.79 7.795 7.782 7.732 7.698 7.705 7.735 7.77 7.745 7.665 7.588 7.522 7.443 7.365 7.36 7.423 7.618 7.92 8.152 8.235 7.795 7.588 7.787 7.788 7.855 7.902 7.008 6.953 7.865 7.947 7.987 8.007 8.007 8.005 8.005 8.003 8.033 8.092 8.16 8.292 8.475 8.65 8.82 8.99 9.05 9 8.975 8.988 9.043 9.125 9.208 9.298 9.395 9.53 9.733 9.935 10.067 10.16
7.595 7.607 7.62 7.617 7.587 7.537 7.483 7.44 7.423 7.445 7.477 7.485 7.482 7.477 7.46 7.427 7.392 7.358 7.345 7.355 7.365 7.375 7.39 7.405 7.407 7.402 7.387 7.368 7.355 7.345 7.327 7.303 7.28 7.268 7.257 7.242 7.225 7.2 7.145 7.07 7.088 7.233 7.44 7.76 8.142 8.492 8.737 8.697 8.48 8.255 8.008 7.783 7.613 7.478 7.34 7.255 7.323 7.485 7.66 7.755 7.7 7.57 7.473 7.465 7.487 7.487 7.48 7.468 7.463 7.473 7.472 7.455 7.435 7.412 7.387 7.363 7.34 7.323 7.325 7.345 7.37 7.4 7.428 7.453 7.488 7.537 7.565 7.57 7.585 7.608 7.627 7.64 7.653 7.668 7.693 7.73 7.77 7.812 7.827 7.815 7.815 7.83 7.83 7.805 7.765 7.72 7.705 7.725 7.76 7.785 7.757 7.685 7.595 7.498 7.463 7.49 7.548 7.652 7.722 7.733 7.745 7.763 7.783 7.802 7.812 7.81 7.8 7.818 7.883 7.965 8.037 8.085 8.075 8.008 7.988 8.048 8.117 8.157 8.14 8.095 8.047 7.995 7.972 7.955 7.895 7.815 7.768 7.755 7.758 7.782 7.757 7.683 7.623 7.567 7.488 7.368 7.275 7.34 7.62 8 8.27 8.302 7.983 7.728 7.775 7.835 7.885 7.902 7.328 6.973 7.54 7.91 7.937 7.945 7.94 7.935 7.935 7.935 7.965 8.027 8.105 8.245 8.435 8.617 8.79 8.96 9.027 8.97 8.918 8.925 8.988 9.08 9.178 9.283 9.408 9.583 9.787 9.95 10.06 10.15
7.6 7.612 7.625 7.627 7.597 7.54 7.48 7.43 7.425 7.465 7.49 7.49 7.485 7.48 7.465 7.432 7.397 7.36 7.345 7.355 7.365 7.375 7.382 7.385 7.382 7.377 7.37 7.36 7.352 7.345 7.325 7.297 7.272 7.25 7.235 7.22 7.203 7.185 7.138 7.065 7.083 7.21 7.368 7.58 7.873 8.208 8.555 8.762 8.672 8.435 8.2 7.95 7.715 7.535 7.388 7.313 7.373 7.528 7.715 7.825 7.78 7.657 7.562 7.535 7.54 7.54 7.532 7.515 7.5 7.497 7.487 7.465 7.445 7.425 7.403 7.38 7.363 7.348 7.355 7.385 7.415 7.445 7.472 7.495 7.52 7.555 7.58 7.595 7.618 7.642 7.66 7.67 7.68 7.695 7.72 7.755 7.793 7.83 7.852 7.86 7.872 7.887 7.877 7.835 7.785 7.738 7.728 7.76 7.8 7.835 7.807 7.717 7.62 7.52 7.488 7.52 7.555 7.613 7.66 7.68 7.7 7.723 7.74 7.745 7.745 7.748 7.773 7.838 7.92 8 8.075 8.145 8.192 8.182 8.175 8.225 8.295 8.33 8.307 8.262 8.217 8.17 8.125 8.06 7.972 7.887 7.84 7.825 7.81 7.81 7.78 7.718 7.662 7.608 7.58 7.567 7.365 7.32 7.66 8.04 8.282 8.325 8.175 7.735 7.643 7.867 7.87 7.84 7.575 6.756 6.975 7.82 7.87 7.875 7.875 7.87 7.87 7.87 7.893 7.94 7.995 8.125 8.33 8.532 8.725 8.922 9.007 8.95 8.88 8.88 8.96 9.068 9.183 9.3 9.448 9.637 9.812 9.945 10.05 10.14
7.595 7.605 7.615 7.62 7.595 7.54 7.48 7.428 7.423 7.462 7.482 7.48 7.475 7.47 7.46 7.435 7.402 7.365 7.35 7.36 7.37 7.37 7.357 7.35 7.347 7.342 7.337 7.332 7.33 7.325 7.305 7.275 7.25 7.228 7.227 7.232 7.218 7.203 7.16 7.088 7.075 7.175 7.335 7.513 7.685 7.93 8.272 8.62 8.755 8.61 8.385 8.145 7.89 7.65 7.453 7.37 7.423 7.582 7.747 7.832 7.8 7.67 7.583 7.565 7.57 7.572 7.567 7.55 7.535 7.525 7.508 7.485 7.465 7.445 7.425 7.405 7.387 7.373 7.383 7.415 7.445 7.48 7.512 7.535 7.557 7.583 7.605 7.628 7.652 7.67 7.682 7.695 7.705 7.723 7.748 7.78 7.817 7.852 7.88 7.897 7.912 7.922 7.912 7.877 7.83 7.78 7.773 7.81 7.852 7.875 7.822 7.72 7.62 7.525 7.5 7.537 7.572 7.608 7.658 7.703 7.725 7.75 7.765 7.76 7.758 7.77 7.805 7.873 7.955 8.037 8.115 8.182 8.247 8.297 8.327 8.362 8.407 8.42 8.39 8.347 8.302 8.255 8.185 8.095 8.01 7.925 7.872 7.857 7.842 7.825 7.797 7.752 7.697 7.643 7.652 7.655 7.375 7.313 7.687 8.012 8.175 8.233 8.242 7.645 7.463 7.845 7.805 7.757 7.675 6.818 6.788 7.64 7.735 7.792 7.837 7.835 7.833 7.823 7.82 7.843 7.885 7.993 8.183 8.438 8.733 8.947 8.99 8.925 8.858 8.868 8.965 9.083 9.2 9.328 9.495 9.672 9.812 9.935 10.04 10.125
7.58 7.59 7.597 7.597 7.582 7.54 7.483 7.435 7.413 7.43 7.452 7.457 7.457 7.452 7.445 7.43 7.405 7.373 7.36 7.367 7.365 7.345 7.323 7.31 7.303 7.298 7.293 7.288 7.285 7.28 7.262 7.235 7.21 7.193 7.215 7.26 7.27 7.255 7.21 7.135 7.073 7.14 7.343 7.53 7.608 7.708 7.983 8.335 8.635 8.717 8.562 8.332 8.087 7.83 7.59 7.5 7.523 7.578 7.665 7.755 7.757 7.64 7.57 7.575 7.587 7.59 7.585 7.57 7.558 7.55 7.535 7.515 7.495 7.475 7.455 7.432 7.41 7.395 7.405 7.435 7.47 7.515 7.55 7.57 7.593 7.617 7.64 7.662 7.682 7.69 7.7 7.715 7.728 7.75 7.778 7.808 7.843 7.877 7.905 7.922 7.932 7.935 7.935 7.927 7.897 7.848 7.838 7.875 7.897 7.88 7.807 7.705 7.608 7.52 7.5 7.54 7.577 7.615 7.685 7.767 7.812 7.837 7.85 7.848 7.858 7.883 7.903 7.935 7.995 8.073 8.152 8.22 8.285 8.347 8.392 8.42 8.432 8.42 8.387 8.35 8.307 8.26 8.187 8.095 8.007 7.92 7.868 7.852 7.835 7.815 7.797 7.772 7.73 7.678 7.675 7.547 7.273 7.333 7.7 8 8.15 8.22 8.257 7.635 7.428 7.812 7.745 7.68 7.63 7.1 6.81 7.272 7.567 7.72 7.82 7.817 7.802 7.778 7.763 7.765 7.79 7.95 8.243 8.585 8.892 9.002 8.965 8.895 8.85 8.873 8.97 9.1 9.22 9.365 9.532 9.68 9.807 9.927 10.03 10.105
7.562 7.575 7.58 7.575 7.565 7.537 7.49 7.448 7.413 7.405 7.42 7.43 7.437 7.435 7.425 7.415 7.402 7.38 7.367 7.362 7.34 7.31 7.288 7.273 7.26 7.253 7.248 7.243 7.24 7.235 7.22 7.198 7.175 7.16 7.185 7.25 7.297 7.302 7.26 7.188 7.12 7.198 7.402 7.54 7.567 7.593 7.748 8.043 8.395 8.667 8.642 8.457 8.275 8.022 7.778 7.667 7.647 7.548 7.525 7.645 7.692 7.62 7.57 7.583 7.597 7.607 7.602 7.59 7.585 7.58 7.565 7.545 7.522 7.5 7.48 7.458 7.435 7.418 7.425 7.46 7.505 7.555 7.59 7.61 7.63 7.652 7.675 7.692 7.705 7.71 7.72 7.738 7.758 7.783 7.81 7.84 7.87 7.902 7.93 7.942 7.945 7.947 7.95 7.952 7.945 7.91 7.902 7.92 7.9 7.857 7.787 7.693 7.603 7.52 7.5 7.54 7.583 7.625 7.695 7.795 7.875 7.92 7.935 7.945 7.972 8.005 8.027 8.043 8.07 8.12 8.19 8.26 8.32 8.37 8.41 8.435 8.43 8.405 8.375 8.342 8.307 8.265 8.192 8.098 8.005 7.915 7.863 7.845 7.825 7.808 7.793 7.775 7.747 7.707 7.645 7.458 7.25 7.365 7.725 8.067 8.275 8.327 8.297 7.695 7.49 7.815 7.733 7.65 7.58 7.3 6.608 6.755 7.442 7.655 7.782 7.785 7.755 7.725 7.715 7.723 7.763 8.048 8.52 8.872 9.015 8.995 8.935 8.878 8.86 8.883 8.97 9.112 9.247 9.395 9.54 9.67 9.8 9.922 10.017 10.072
7.535 7.552 7.557 7.552 7.545 7.53 7.497 7.46 7.427 7.403 7.398 7.403 7.41 7.415 7.41 7.4 7.392 7.38 7.365 7.345 7.315 7.285 7.26 7.245 7.23 7.218 7.21 7.205 7.205 7.2 7.185 7.165 7.145 7.13 7.155 7.22 7.285 7.33 7.325 7.28 7.238 7.3 7.432 7.512 7.52 7.535 7.618 7.795 8.1 8.45 8.642 8.51 8.318 8.14 7.868 7.755 7.755 7.57 7.45 7.543 7.62 7.607 7.578 7.59 7.605 7.62 7.62 7.615 7.612 7.607 7.595 7.573 7.548 7.525 7.505 7.485 7.465 7.445 7.453 7.495 7.545 7.595 7.63 7.647 7.665 7.685 7.702 7.715 7.725 7.73 7.74 7.762 7.79 7.815 7.84 7.867 7.895 7.925 7.945 7.95 7.952 7.957 7.96 7.96 7.96 7.95 7.94 7.92 7.88 7.837 7.773 7.685 7.6 7.52 7.5 7.545 7.598 7.653 7.728 7.823 7.915 7.992 8.03 8.05 8.08 8.107 8.132 8.152 8.172 8.2 8.24 8.293 8.343 8.385 8.425 8.44 8.42 8.39 8.36 8.33 8.3 8.265 8.197 8.103 8.01 7.92 7.865 7.845 7.825 7.808 7.793 7.775 7.755 7.727 7.615 7.425 7.28 7.415 7.787 8.115 8.307 8.35 8.305 7.708 7.505 7.825 7.742 7.658 7.577 7.455 6.643 6.596 7.387 7.615 7.737 7.73 7.7 7.69 7.71 7.75 7.823 8.165 8.702 8.99 9.015 8.965 8.908 8.878 8.885 8.9 8.968 9.11 9.262 9.4 9.53 9.66 9.79 9.915 9.995 10.025
7.522 7.535 7.535 7.53 7.525 7.515 7.497 7.467 7.435 7.405 7.39 7.393 7.398 7.403 7.4 7.39 7.38 7.373 7.365 7.348 7.32 7.29 7.265 7.248 7.233 7.225 7.223 7.218 7.213 7.195 7.17 7.15 7.128 7.115 7.148 7.218 7.288 7.352 7.377 7.357 7.335 7.355 7.43 7.49 7.475 7.478 7.545 7.64 7.84 8.158 8.505 8.567 8.38 8.247 8.005 7.8 7.762 7.565 7.415 7.478 7.555 7.585 7.58 7.59 7.602 7.622 7.637 7.637 7.632 7.63 7.625 7.605 7.58 7.56 7.54 7.52 7.5 7.485 7.498 7.54 7.59 7.632 7.657 7.672 7.69 7.71 7.725 7.732 7.74 7.748 7.76 7.782 7.81 7.835 7.857 7.88 7.905 7.935 7.94 7.927 7.927 7.93 7.93 7.93 7.93 7.947 7.947 7.91 7.87 7.828 7.78 7.715 7.633 7.553 7.553 7.62 7.68 7.745 7.825 7.915 8.002 8.065 8.092 8.11 8.135 8.16 8.185 8.21 8.235 8.267 8.308 8.35 8.388 8.42 8.445 8.443 8.415 8.388 8.36 8.33 8.303 8.277 8.215 8.12 8.033 7.953 7.9 7.873 7.85 7.833 7.818 7.8 7.78 7.747 7.61 7.395 7.27 7.438 7.795 8.035 8.155 8.23 8.265 7.7 7.5 7.827 7.745 7.668 7.595 7.522 6.928 6.693 7.26 7.595 7.675 7.652 7.63 7.673 7.762 7.832 7.908 8.245 8.715 8.917 8.937 8.907 8.877 8.877 8.89 8.895 8.953 9.095 9.252 9.39 9.52 9.65 9.777 9.895 9.955 9.97
7.517 7.52 7.515 7.51 7.505 7.495 7.485 7.465 7.435 7.405 7.39 7.395 7.4 7.397 7.392 7.385 7.378 7.375 7.372 7.365 7.347 7.32 7.295 7.278 7.27 7.273 7.275 7.27 7.247 7.207 7.173 7.15 7.138 7.14 7.178 7.25 7.322 7.382 7.402 7.388 7.385 7.4 7.44 7.47 7.435 7.428 7.488 7.555 7.66 7.885 8.212 8.507 8.52 8.397 8.242 7.93 7.683 7.535 7.465 7.508 7.557 7.565 7.567 7.575 7.593 7.627 7.652 7.652 7.65 7.65 7.647 7.637 7.62 7.6 7.58 7.56 7.545 7.538 7.55 7.59 7.632 7.657 7.673 7.688 7.705 7.725 7.74 7.748 7.755 7.765 7.78 7.798 7.82 7.845 7.865 7.885 7.908 7.935 7.93 7.893 7.873 7.87 7.87 7.87 7.888 7.937 7.95 7.91 7.867 7.823 7.79 7.757 7.695 7.62 7.643 7.742 7.817 7.883 7.96 8.047 8.107 8.122 8.125 8.138 8.158 8.18 8.205 8.23 8.265 8.325 8.395 8.442 8.47 8.497 8.5 8.468 8.43 8.403 8.375 8.345 8.323 8.305 8.247 8.155 8.078 8.015 7.963 7.923 7.895 7.877 7.86 7.84 7.81 7.762 7.605 7.355 7.24 7.435 7.765 7.96 8.063 8.158 8.245 7.69 7.483 7.83 7.755 7.685 7.615 7.545 7.19 6.675 6.998 7.557 7.59 7.57 7.55 7.63 7.79 7.905 7.99 8.292 8.63 8.745 8.805 8.81 8.81 8.845 8.865 8.868 8.933 9.075 9.23 9.372 9.505 9.622 9.71 9.785 9.862 9.91
7.5 7.5 7.495 7.488 7.48 7.47 7.46 7.447 7.43 7.405 7.39 7.392 7.395 7.392 7.387 7.383 7.38 7.38 7.377 7.372 7.365 7.345 7.323 7.315 7.32 7.327 7.327 7.307 7.262 7.213 7.18 7.168 7.175 7.19 7.223 7.285 7.35 7.405 7.427 7.428 7.44 7.46 7.465 7.442 7.393 7.38 7.432 7.498 7.565 7.683 7.93 8.265 8.502 8.49 8.38 8.162 7.795 7.635 7.63 7.615 7.597 7.555 7.545 7.563 7.595 7.64 7.665 7.665 7.668 7.667 7.663 7.66 7.655 7.64 7.62 7.605 7.598 7.593 7.603 7.635 7.662 7.675 7.688 7.703 7.72 7.74 7.755 7.765 7.775 7.785 7.8 7.815 7.833 7.855 7.875 7.895 7.913 7.935 7.927 7.875 7.83 7.813 7.813 7.83 7.88 7.94 7.945 7.905 7.863 7.82 7.79 7.77 7.737 7.685 7.715 7.832 7.935 8.015 8.09 8.15 8.165 8.16 8.163 8.17 8.185 8.203 8.225 8.268 8.335 8.42 8.497 8.54 8.563 8.59 8.58 8.523 8.468 8.428 8.395 8.368 8.35 8.335 8.28 8.2 8.138 8.082 8.03 7.985 7.948 7.92 7.9 7.872 7.825 7.767 7.635 7.428 7.31 7.465 7.767 7.982 8.13 8.242 8.297 7.71 7.498 7.845 7.775 7.705 7.635 7.565 7.412 6.613 6.653 7.447 7.51 7.493 7.475 7.558 7.752 7.93 8.06 8.278 8.48 8.56 8.64 8.685 8.71 8.765 8.817 8.84 8.91 9.05 9.2 9.34 9.455 9.53 9.567 9.6 9.748 9.867
7.477 7.482 7.48 7.468 7.455 7.445 7.435 7.425 7.415 7.4 7.387 7.385 7.385 7.385 7.382 7.38 7.38 7.38 7.377 7.372 7.37 7.362 7.355 7.357 7.365 7.372 7.36 7.317 7.262 7.218 7.2 7.208 7.222 7.238 7.265 7.315 7.373 7.427 7.457 7.467 7.482 7.495 7.472 7.415 7.355 7.32 7.36 7.44 7.51 7.577 7.708 7.975 8.31 8.507 8.507 8.37 8.065 7.833 7.787 7.737 7.65 7.56 7.53 7.56 7.602 7.65 7.68 7.685 7.688 7.687 7.685 7.685 7.683 7.675 7.663 7.655 7.652 7.648 7.652 7.67 7.685 7.695 7.705 7.72 7.74 7.76 7.775 7.785 7.795 7.805 7.817 7.832 7.85 7.867 7.885 7.905 7.92 7.937 7.925 7.87 7.813 7.77 7.77 7.82 7.887 7.937 7.937 7.9 7.86 7.82 7.79 7.773 7.758 7.74 7.79 7.908 8.022 8.125 8.187 8.205 8.2 8.195 8.198 8.208 8.223 8.235 8.27 8.345 8.437 8.53 8.602 8.64 8.66 8.675 8.647 8.582 8.517 8.458 8.418 8.395 8.377 8.36 8.315 8.255 8.2 8.145 8.097 8.052 8.007 7.97 7.935 7.887 7.83 7.767 7.677 7.56 7.46 7.533 7.77 7.997 8.192 8.35 8.365 7.748 7.538 7.86 7.79 7.72 7.65 7.58 7.512 6.74 6.448 7.192 7.457 7.418 7.4 7.48 7.688 7.903 8.108 8.28 8.378 8.445 8.513 8.573 8.618 8.67 8.74 8.795 8.868 8.987 9.12 9.245 9.332 9.375 9.402 9.428 9.667 9.85
7.453 7.465 7.47 7.458 7.445 7.445 7.433 7.41 7.4 7.39 7.375 7.365 7.365 7.365 7.365 7.365 7.365 7.365 7.362 7.36 7.357 7.357 7.362 7.367 7.375 7.377 7.35 7.297 7.248 7.225 7.23 7.245 7.26 7.278 7.305 7.348 7.403 7.457 7.487 7.492 7.5 7.507 7.477 7.413 7.35 7.298 7.29 7.315 7.33 7.39 7.528 7.733 8.02 8.355 8.555 8.515 8.302 8.015 7.88 7.802 7.658 7.54 7.5 7.54 7.59 7.657 7.72 7.745 7.72 7.708 7.727 7.735 7.733 7.73 7.718 7.703 7.7 7.695 7.69 7.693 7.7 7.71 7.717 7.73 7.747 7.765 7.78 7.79 7.8 7.812 7.83 7.847 7.865 7.88 7.895 7.915 7.932 7.945 7.927 7.875 7.815 7.748 7.738 7.802 7.87 7.912 7.907 7.87 7.833 7.818 7.825 7.825 7.815 7.813 7.875 7.993 8.105 8.187 8.22 8.225 8.222 8.22 8.235 8.26 8.275 8.288 8.338 8.425 8.517 8.612 8.677 8.702 8.72 8.725 8.687 8.622 8.555 8.488 8.443 8.422 8.405 8.37 8.32 8.27 8.217 8.17 8.13 8.087 8.042 7.997 7.945 7.885 7.825 7.762 7.692 7.615 7.545 7.575 7.737 7.94 8.142 8.36 8.395 7.775 7.57 7.87 7.802 7.735 7.665 7.595 7.527 7.09 6.453 6.875 7.475 7.385 7.333 7.403 7.64 7.923 8.2 8.39 8.46 8.515 8.57 8.568 8.56 8.615 8.685 8.755 8.8 8.868 8.98 9.087 9.162 9.205 9.237 9.263 9.555 9.812
7.43 7.45 7.462 7.455 7.453 7.47 7.457 7.413 7.39 7.38 7.36 7.34 7.333 7.33 7.332 7.335 7.338 7.34 7.338 7.335 7.333 7.335 7.34 7.345 7.35 7.345 7.315 7.265 7.238 7.245 7.26 7.275 7.293 7.315 7.348 7.388 7.438 7.49 7.515 7.513 7.515 7.522 7.492 7.43 7.375 7.328 7.283 7.238 7.19 7.23 7.408 7.583 7.775 8.073 8.39 8.547 8.475 8.223 8.013 7.87 7.65 7.483 7.453 7.51 7.585 7.667 7.742 7.755 7.723 7.733 7.772 7.797 7.805 7.805 7.785 7.753 7.74 7.735 7.725 7.715 7.713 7.72 7.725 7.73 7.743 7.76 7.775 7.785 7.795 7.81 7.832 7.855 7.875 7.892 7.908 7.925 7.942 7.952 7.932 7.882 7.815 7.723 7.7 7.762 7.82 7.857 7.852 7.815 7.8 7.833 7.88 7.91 7.915 7.91 7.968 8.082 8.167 8.2 8.215 8.23 8.237 8.238 8.265 8.312 8.335 8.355 8.41 8.49 8.575 8.67 8.725 8.733 8.743 8.747 8.712 8.647 8.58 8.513 8.468 8.447 8.417 8.355 8.29 8.24 8.195 8.163 8.13 8.09 8.045 7.99 7.932 7.875 7.815 7.755 7.687 7.615 7.558 7.545 7.62 7.798 8.035 8.307 8.382 7.783 7.583 7.875 7.807 7.737 7.665 7.595 7.527 7.37 6.618 6.608 7.352 7.42 7.325 7.388 7.663 8.015 8.342 8.56 8.65 8.7 8.695 8.582 8.528 8.593 8.665 8.735 8.75 8.753 8.83 8.925 8.987 9.03 9.067 9.098 9.38 9.735
7.418 7.442 7.457 7.46 7.473 7.502 7.495 7.44 7.393 7.37 7.35 7.325 7.305 7.295 7.298 7.303 7.31 7.315 7.313 7.31 7.31 7.315 7.32 7.32 7.315 7.305 7.278 7.25 7.255 7.275 7.29 7.308 7.333 7.36 7.395 7.435 7.477 7.522 7.545 7.54 7.535 7.535 7.507 7.453 7.405 7.36 7.315 7.27 7.22 7.23 7.35 7.487 7.613 7.825 8.13 8.422 8.535 8.415 8.185 8.007 7.758 7.475 7.415 7.48 7.558 7.628 7.687 7.705 7.72 7.765 7.807 7.847 7.872 7.877 7.855 7.815 7.785 7.773 7.762 7.748 7.735 7.733 7.735 7.738 7.745 7.758 7.77 7.783 7.795 7.81 7.83 7.855 7.882 7.905 7.922 7.935 7.945 7.955 7.937 7.877 7.787 7.683 7.66 7.715 7.76 7.797 7.798 7.78 7.81 7.87 7.92 7.965 7.997 8.008 8.062 8.145 8.18 8.19 8.205 8.225 8.245 8.253 8.285 8.347 8.387 8.423 8.485 8.563 8.643 8.732 8.777 8.773 8.773 8.772 8.737 8.672 8.607 8.54 8.493 8.46 8.402 8.328 8.263 8.218 8.185 8.16 8.132 8.092 8.04 7.978 7.918 7.862 7.805 7.745 7.68 7.615 7.565 7.52 7.525 7.685 7.968 8.27 8.37 7.75 7.54 7.865 7.792 7.717 7.645 7.575 7.518 7.48 6.928 6.463 7.037 7.507 7.45 7.53 7.798 8.128 8.467 8.727 8.83 8.815 8.702 8.54 8.495 8.57 8.645 8.715 8.73 8.693 8.705 8.763 8.81 8.85 8.89 8.93 9.193 9.647
7.41 7.437 7.458 7.475 7.5 7.535 7.532 7.48 7.42 7.37 7.335 7.31 7.287 7.268 7.262 7.267 7.275 7.282 7.29 7.295 7.295 7.3 7.3 7.29 7.28 7.27 7.26 7.265 7.285 7.305 7.322 7.345 7.375 7.405 7.44 7.475 7.507 7.54 7.555 7.552 7.547 7.545 7.522 7.477 7.435 7.392 7.347 7.3 7.25 7.225 7.285 7.4 7.508 7.643 7.875 8.19 8.472 8.537 8.362 8.182 7.92 7.565 7.433 7.48 7.54 7.6 7.655 7.7 7.742 7.787 7.835 7.882 7.925 7.945 7.925 7.885 7.845 7.815 7.797 7.782 7.765 7.75 7.748 7.753 7.755 7.76 7.77 7.783 7.795 7.81 7.83 7.855 7.885 7.912 7.932 7.942 7.95 7.96 7.935 7.852 7.745 7.64 7.615 7.66 7.698 7.735 7.758 7.785 7.845 7.91 7.96 8.005 8.052 8.087 8.127 8.16 8.17 8.18 8.195 8.215 8.24 8.263 8.303 8.367 8.425 8.482 8.555 8.632 8.71 8.79 8.825 8.817 8.812 8.8 8.76 8.695 8.63 8.565 8.507 8.45 8.378 8.303 8.243 8.21 8.185 8.16 8.132 8.087 8.027 7.965 7.905 7.848 7.793 7.735 7.675 7.62 7.572 7.525 7.533 7.668 7.923 8.227 8.36 7.673 7.44 7.84 7.768 7.695 7.625 7.563 7.518 7.482 7.23 6.506 6.728 7.56 7.675 7.773 8.02 8.313 8.622 8.88 8.937 8.82 8.658 8.503 8.468 8.545 8.622 8.695 8.705 8.653 8.625 8.638 8.668 8.703 8.74 8.78 8.895 9.155
7.41 7.438 7.463 7.49 7.52 7.557 7.56 7.51 7.447 7.367 7.305 7.28 7.257 7.227 7.213 7.217 7.223 7.243 7.282 7.31 7.315 7.318 7.298 7.265 7.25 7.24 7.248 7.27 7.29 7.31 7.332 7.36 7.392 7.42 7.447 7.477 7.502 7.527 7.54 7.54 7.54 7.535 7.51 7.47 7.432 7.397 7.357 7.31 7.26 7.218 7.245 7.335 7.428 7.528 7.673 7.928 8.285 8.535 8.515 8.34 8.075 7.74 7.53 7.52 7.58 7.635 7.68 7.72 7.76 7.803 7.85 7.9 7.95 7.977 7.957 7.915 7.875 7.837 7.812 7.795 7.777 7.765 7.768 7.775 7.775 7.78 7.79 7.8 7.81 7.82 7.835 7.86 7.89 7.92 7.937 7.945 7.955 7.965 7.935 7.848 7.74 7.635 7.615 7.665 7.703 7.74 7.78 7.83 7.895 7.96 8.01 8.055 8.102 8.14 8.162 8.175 8.183 8.19 8.2 8.215 8.24 8.27 8.315 8.378 8.445 8.52 8.6 8.675 8.75 8.825 8.857 8.852 8.84 8.807 8.755 8.692 8.627 8.57 8.515 8.445 8.37 8.298 8.235 8.2 8.175 8.15 8.12 8.07 8.01 7.95 7.897 7.845 7.79 7.735 7.678 7.625 7.575 7.535 7.58 7.713 7.908 8.182 8.347 7.665 7.413 7.82 7.748 7.675 7.608 7.555 7.512 7.47 7.402 6.758 6.551 7.357 7.827 7.99 8.23 8.492 8.752 8.962 8.96 8.793 8.628 8.485 8.455 8.523 8.6 8.662 8.655 8.605 8.58 8.575 8.585 8.613 8.648 8.673 8.665 8.698
7.42 7.445 7.468 7.495 7.525 7.57 7.582 7.535 7.455 7.343 7.265 7.24 7.21 7.17 7.148 7.15 7.17 7.215 7.28 7.335 7.357 7.36 7.322 7.26 7.228 7.215 7.225 7.252 7.275 7.295 7.32 7.35 7.377 7.395 7.415 7.447 7.477 7.502 7.515 7.515 7.51 7.497 7.47 7.43 7.398 7.372 7.34 7.297 7.25 7.213 7.24 7.315 7.39 7.478 7.57 7.723 8.025 8.39 8.557 8.465 8.242 7.953 7.675 7.573 7.615 7.66 7.7 7.74 7.78 7.82 7.863 7.91 7.957 7.977 7.952 7.908 7.865 7.83 7.805 7.79 7.783 7.78 7.79 7.802 7.807 7.813 7.82 7.83 7.837 7.84 7.85 7.873 7.9 7.93 7.945 7.948 7.955 7.965 7.94 7.867 7.77 7.67 7.668 7.737 7.785 7.825 7.863 7.903 7.955 8.017 8.07 8.112 8.15 8.175 8.192 8.207 8.217 8.225 8.23 8.233 8.25 8.278 8.323 8.388 8.46 8.54 8.62 8.695 8.77 8.847 8.882 8.872 8.84 8.785 8.725 8.665 8.608 8.57 8.532 8.462 8.383 8.31 8.243 8.188 8.153 8.127 8.095 8.047 7.99 7.928 7.883 7.847 7.8 7.745 7.685 7.628 7.575 7.565 7.65 7.788 7.938 8.155 8.332 7.743 7.478 7.81 7.735 7.66 7.595 7.545 7.503 7.458 7.415 7.085 6.506 6.98 7.835 8.067 8.31 8.547 8.782 8.977 8.962 8.783 8.615 8.485 8.455 8.51 8.582 8.617 8.593 8.563 8.55 8.54 8.535 8.55 8.58 8.595 8.623 8.69
7.427 7.452 7.475 7.498 7.533 7.587 7.607 7.547 7.437 7.31 7.228 7.195 7.155 7.11 7.085 7.095 7.143 7.205 7.267 7.332 7.382 7.397 7.357 7.285 7.225 7.195 7.205 7.235 7.262 7.285 7.31 7.335 7.347 7.355 7.375 7.41 7.447 7.477 7.487 7.482 7.47 7.455 7.43 7.395 7.37 7.35 7.32 7.28 7.238 7.208 7.24 7.312 7.38 7.45 7.52 7.595 7.793 8.15 8.48 8.565 8.422 8.17 7.863 7.665 7.64 7.68 7.72 7.76 7.8 7.84 7.88 7.922 7.957 7.967 7.945 7.9 7.855 7.82 7.8 7.798 7.8 7.803 7.813 7.825 7.837 7.845 7.85 7.857 7.86 7.86 7.87 7.89 7.913 7.937 7.952 7.955 7.957 7.962 7.935 7.87 7.79 7.71 7.72 7.802 7.87 7.917 7.955 7.992 8.03 8.08 8.127 8.16 8.185 8.202 8.218 8.235 8.252 8.265 8.267 8.263 8.265 8.283 8.33 8.403 8.48 8.56 8.64 8.715 8.79 8.87 8.902 8.875 8.82 8.755 8.695 8.64 8.603 8.585 8.557 8.49 8.403 8.323 8.255 8.193 8.138 8.103 8.067 8.02 7.965 7.903 7.86 7.835 7.802 7.755 7.695 7.633 7.578 7.608 7.728 7.863 8 8.163 8.302 7.805 7.548 7.8 7.727 7.653 7.585 7.535 7.495 7.453 7.41 7.297 6.543 6.705 7.715 8.03 8.287 8.537 8.78 8.982 8.97 8.783 8.605 8.483 8.46 8.503 8.557 8.572 8.55 8.535 8.525 8.512 8.5 8.498 8.513 8.543 8.603 8.688
7.435 7.458 7.48 7.505 7.55 7.61 7.617 7.532 7.408 7.283 7.185 7.127 7.082 7.04 7.025 7.057 7.117 7.18 7.242 7.307 7.37 7.41 7.387 7.32 7.248 7.19 7.185 7.215 7.245 7.272 7.292 7.305 7.312 7.318 7.335 7.37 7.407 7.442 7.455 7.445 7.43 7.412 7.39 7.365 7.347 7.33 7.3 7.26 7.223 7.195 7.215 7.275 7.335 7.395 7.452 7.505 7.613 7.88 8.272 8.55 8.552 8.35 8.058 7.778 7.658 7.682 7.725 7.765 7.807 7.85 7.89 7.93 7.952 7.952 7.932 7.89 7.842 7.805 7.795 7.805 7.815 7.825 7.835 7.845 7.86 7.872 7.877 7.88 7.88 7.88 7.888 7.905 7.928 7.945 7.952 7.955 7.957 7.955 7.92 7.857 7.792 7.743 7.768 7.853 7.937 8.005 8.047 8.08 8.107 8.137 8.167 8.19 8.21 8.227 8.245 8.265 8.285 8.3 8.302 8.297 8.293 8.298 8.34 8.418 8.5 8.58 8.657 8.732 8.81 8.887 8.905 8.855 8.792 8.728 8.67 8.633 8.615 8.605 8.582 8.52 8.43 8.343 8.27 8.208 8.143 8.088 8.04 7.99 7.935 7.878 7.84 7.815 7.79 7.76 7.707 7.64 7.603 7.668 7.802 7.94 8.077 8.212 8.257 7.843 7.638 7.79 7.72 7.645 7.575 7.528 7.49 7.45 7.41 7.365 6.698 6.648 7.552 7.995 8.255 8.513 8.765 8.98 8.977 8.79 8.6 8.478 8.468 8.502 8.53 8.532 8.52 8.51 8.497 8.482 8.47 8.46 8.468 8.525 8.61 8.693
7.46 7.483 7.505 7.53 7.573 7.63 7.625 7.527 7.4 7.275 7.15 7.033 6.96 6.92 6.92 6.975 7.04 7.1 7.162 7.227 7.295 7.36 7.367 7.32 7.262 7.195 7.17 7.195 7.222 7.247 7.262 7.27 7.278 7.285 7.298 7.323 7.355 7.39 7.405 7.395 7.38 7.36 7.34 7.32 7.302 7.29 7.282 7.26 7.225 7.195 7.185 7.21 7.26 7.32 7.377 7.428 7.488 7.643 7.973 8.38 8.577 8.5 8.252 7.923 7.7 7.663 7.705 7.747 7.792 7.835 7.872 7.902 7.917 7.917 7.902 7.865 7.815 7.778 7.775 7.79 7.805 7.82 7.83 7.84 7.858 7.887 7.905 7.905 7.905 7.905 7.913 7.93 7.947 7.947 7.932 7.925 7.927 7.922 7.885 7.825 7.77 7.763 7.823 7.908 7.995 8.065 8.1 8.12 8.14 8.16 8.18 8.2 8.22 8.24 8.26 8.28 8.3 8.315 8.32 8.317 8.313 8.333 8.395 8.478 8.56 8.617 8.668 8.74 8.82 8.882 8.875 8.815 8.755 8.698 8.658 8.64 8.63 8.62 8.602 8.552 8.47 8.38 8.305 8.24 8.175 8.108 8.043 7.99 7.938 7.875 7.825 7.795 7.77 7.75 7.705 7.638 7.613 7.687 7.825 7.962 8.097 8.232 8.21 7.858 7.705 7.78 7.71 7.638 7.57 7.523 7.485 7.445 7.405 7.37 6.915 6.713 7.438 8.055 8.318 8.578 8.833 9.065 9.005 8.743 8.56 8.453 8.448 8.477 8.49 8.49 8.485 8.475 8.46 8.445 8.435 8.425 8.438 8.52 8.637 8.73
7.505 7.53 7.555 7.575 7.603 7.65 7.642 7.542 7.415 7.287 7.148 6.988 6.855 6.773 6.763 6.832 6.912 6.977 7.04 7.103 7.198 7.285 7.295 7.265 7.227 7.18 7.155 7.168 7.192 7.215 7.23 7.238 7.245 7.257 7.265 7.273 7.295 7.33 7.345 7.335 7.317 7.292 7.27 7.25 7.235 7.228 7.245 7.262 7.245 7.215 7.19 7.18 7.198 7.243 7.3 7.35 7.395 7.488 7.693 8.065 8.462 8.6 8.467 8.155 7.808 7.66 7.678 7.722 7.765 7.8 7.825 7.842 7.855 7.86 7.85 7.822 7.78 7.748 7.748 7.762 7.777 7.79 7.8 7.815 7.848 7.9 7.932 7.935 7.935 7.935 7.945 7.96 7.957 7.935 7.903 7.88 7.875 7.87 7.835 7.775 7.753 7.8 7.885 7.97 8.042 8.09 8.11 8.123 8.14 8.16 8.18 8.2 8.22 8.242 8.262 8.28 8.3 8.315 8.32 8.32 8.34 8.408 8.497 8.577 8.632 8.645 8.67 8.74 8.807 8.845 8.825 8.765 8.713 8.675 8.658 8.65 8.64 8.63 8.612 8.577 8.515 8.43 8.355 8.29 8.22 8.147 8.08 8.022 7.962 7.885 7.82 7.783 7.753 7.73 7.685 7.625 7.595 7.65 7.78 7.92 8.058 8.192 8.182 7.87 7.715 7.765 7.7 7.63 7.565 7.515 7.475 7.435 7.405 7.39 7.065 6.768 7.42 8.217 8.515 8.77 9.007 9.222 9.112 8.725 8.493 8.41 8.4 8.42 8.425 8.43 8.432 8.43 8.42 8.405 8.395 8.385 8.4 8.498 8.645 8.772
7.563 7.582 7.605 7.625 7.645 7.677 7.66 7.557 7.43 7.302 7.162 7.003 6.84 6.7 6.633 6.678 6.775 6.852 6.918 6.998 7.132 7.225 7.215 7.185 7.158 7.145 7.148 7.153 7.163 7.183 7.2 7.208 7.218 7.232 7.237 7.235 7.243 7.27 7.285 7.27 7.245 7.218 7.195 7.178 7.168 7.163 7.183 7.222 7.245 7.232 7.205 7.188 7.178 7.185 7.223 7.27 7.31 7.388 7.515 7.753 8.172 8.545 8.62 8.417 8.038 7.723 7.653 7.695 7.727 7.75 7.765 7.777 7.79 7.795 7.787 7.772 7.745 7.72 7.72 7.733 7.745 7.755 7.773 7.808 7.86 7.92 7.955 7.962 7.965 7.967 7.972 7.967 7.942 7.91 7.878 7.848 7.83 7.82 7.785 7.753 7.788 7.865 7.947 8.017 8.062 8.095 8.115 8.125 8.14 8.158 8.178 8.2 8.22 8.245 8.265 8.28 8.3 8.317 8.323 8.345 8.418 8.512 8.595 8.645 8.657 8.65 8.675 8.73 8.767 8.792 8.775 8.725 8.693 8.67 8.66 8.657 8.65 8.64 8.62 8.587 8.545 8.48 8.407 8.337 8.26 8.183 8.115 8.05 7.972 7.888 7.823 7.778 7.74 7.712 7.668 7.62 7.593 7.615 7.72 7.878 8.027 8.155 8.175 7.888 7.705 7.74 7.685 7.62 7.555 7.505 7.47 7.443 7.425 7.415 7.102 6.785 7.435 8.307 8.63 8.845 9.045 9.22 9.052 8.645 8.445 8.373 8.35 8.357 8.355 8.36 8.365 8.37 8.372 8.365 8.355 8.335 8.353 8.463 8.615 8.767
7.615 7.63 7.65 7.67 7.69 7.712 7.685 7.58 7.45 7.323 7.185 7.033 6.88 6.733 6.623 6.615 6.668 6.725 6.803 6.923 7.082 7.155 7.135 7.125 7.128 7.145 7.167 7.17 7.165 7.178 7.193 7.198 7.203 7.21 7.213 7.21 7.208 7.218 7.22 7.195 7.168 7.143 7.123 7.113 7.105 7.1 7.118 7.158 7.202 7.227 7.22 7.202 7.182 7.163 7.17 7.198 7.23 7.293 7.405 7.56 7.848 8.307 8.615 8.605 8.337 7.92 7.675 7.653 7.673 7.688 7.7 7.71 7.723 7.73 7.725 7.713 7.698 7.69 7.695 7.705 7.718 7.738 7.773 7.825 7.885 7.942 7.975 7.98 7.98 7.98 7.97 7.947 7.917 7.885 7.855 7.825 7.795 7.773 7.758 7.78 7.85 7.93 7.997 8.04 8.07 8.1 8.12 8.13 8.142 8.155 8.175 8.2 8.22 8.245 8.265 8.28 8.3 8.32 8.353 8.423 8.517 8.61 8.662 8.665 8.66 8.655 8.667 8.695 8.715 8.74 8.735 8.708 8.69 8.67 8.66 8.66 8.655 8.647 8.627 8.59 8.555 8.512 8.45 8.377 8.3 8.22 8.145 8.065 7.978 7.893 7.825 7.777 7.735 7.698 7.658 7.623 7.598 7.588 7.673 7.855 8.015 8.142 8.182 7.905 7.695 7.71 7.66 7.605 7.545 7.503 7.478 7.457 7.44 7.42 7.113 6.753 7.36 8.227 8.542 8.75 8.93 9.02 8.775 8.478 8.393 8.328 8.295 8.29 8.285 8.29 8.295 8.3 8.31 8.313 8.31 8.275 8.298 8.433 8.588 8.748
7.642 7.665 7.69 7.71 7.73 7.74 7.702 7.612 7.497 7.37 7.235 7.093 6.958 6.813 6.678 6.66 6.685 6.688 6.75 6.88 7.028 7.095 7.1 7.12 7.15 7.18 7.2 7.2 7.203 7.225 7.24 7.24 7.24 7.225 7.195 7.18 7.177 7.175 7.163 7.135 7.108 7.088 7.078 7.073 7.068 7.063 7.068 7.098 7.14 7.185 7.215 7.21 7.187 7.163 7.155 7.165 7.18 7.21 7.315 7.485 7.66 7.998 8.457 8.672 8.577 8.24 7.838 7.663 7.658 7.67 7.678 7.685 7.698 7.7 7.69 7.678 7.67 7.675 7.685 7.7 7.728 7.768 7.815 7.87 7.927 7.97 7.977 7.962 7.955 7.95 7.932 7.907 7.88 7.85 7.82 7.79 7.763 7.75 7.778 7.843 7.92 7.982 8.017 8.045 8.075 8.105 8.125 8.135 8.145 8.158 8.178 8.2 8.22 8.242 8.262 8.28 8.303 8.333 8.408 8.51 8.6 8.69 8.715 8.675 8.653 8.647 8.648 8.658 8.675 8.697 8.702 8.687 8.672 8.663 8.66 8.66 8.657 8.642 8.612 8.575 8.537 8.5 8.457 8.402 8.33 8.25 8.18 8.1 8.003 7.907 7.825 7.765 7.712 7.688 7.678 7.65 7.622 7.583 7.663 7.865 8.043 8.177 8.205 7.9 7.655 7.667 7.62 7.57 7.535 7.515 7.49 7.463 7.44 7.42 7.197 6.646 7.085 8.04 8.372 8.622 8.805 8.767 8.533 8.39 8.328 8.285 8.258 8.233 8.22 8.228 8.24 8.253 8.265 8.275 8.28 8.275 8.313 8.435 8.595 8.758
7.66 7.695 7.727 7.75 7.767 7.752 7.697 7.625 7.535 7.43 7.305 7.17 7.052 6.892 6.71 6.698 6.772 6.77 6.81 6.933 7.05 7.108 7.125 7.15 7.18 7.21 7.23 7.238 7.263 7.302 7.317 7.315 7.31 7.272 7.208 7.158 7.14 7.135 7.12 7.095 7.073 7.065 7.065 7.063 7.058 7.053 7.048 7.055 7.085 7.128 7.17 7.195 7.19 7.168 7.158 7.165 7.175 7.19 7.298 7.47 7.578 7.753 8.175 8.617 8.727 8.537 8.15 7.81 7.713 7.71 7.718 7.725 7.725 7.71 7.695 7.683 7.673 7.675 7.693 7.725 7.77 7.82 7.872 7.927 7.97 7.987 7.97 7.933 7.91 7.902 7.887 7.86 7.83 7.8 7.78 7.773 7.773 7.788 7.84 7.92 7.982 8.01 8.025 8.048 8.073 8.1 8.12 8.133 8.148 8.165 8.182 8.2 8.22 8.24 8.26 8.283 8.315 8.363 8.443 8.56 8.672 8.765 8.777 8.705 8.65 8.633 8.63 8.635 8.648 8.665 8.67 8.655 8.648 8.658 8.665 8.662 8.65 8.615 8.575 8.54 8.5 8.463 8.435 8.405 8.35 8.275 8.215 8.155 8.047 7.902 7.78 7.7 7.658 7.7 7.737 7.697 7.637 7.563 7.62 7.88 8.12 8.225 8.227 7.865 7.575 7.605 7.56 7.53 7.538 7.542 7.52 7.49 7.463 7.44 7.352 6.7 6.701 7.645 8.185 8.472 8.66 8.58 8.395 8.325 8.263 8.25 8.245 8.215 8.208 8.218 8.235 8.255 8.265 8.267 8.273 8.315 8.37 8.463 8.622 8.785
7.688 7.725 7.762 7.79 7.79 7.747 7.682 7.612 7.535 7.452 7.357 7.262 7.15 6.957 6.743 6.713 6.825 6.872 6.93 7.042 7.132 7.182 7.198 7.208 7.223 7.243 7.265 7.295 7.345 7.385 7.392 7.39 7.367 7.31 7.24 7.17 7.118 7.095 7.08 7.063 7.055 7.055 7.055 7.055 7.05 7.045 7.042 7.038 7.045 7.075 7.113 7.15 7.172 7.167 7.163 7.175 7.198 7.228 7.328 7.455 7.535 7.62 7.888 8.385 8.73 8.727 8.465 8.093 7.843 7.77 7.772 7.775 7.752 7.725 7.715 7.7 7.677 7.678 7.717 7.772 7.825 7.875 7.927 7.97 7.987 7.992 7.972 7.925 7.88 7.858 7.84 7.815 7.803 7.798 7.803 7.82 7.84 7.865 7.917 7.977 8.007 8.02 8.035 8.052 8.07 8.095 8.115 8.13 8.15 8.17 8.187 8.203 8.22 8.24 8.263 8.298 8.345 8.4 8.463 8.575 8.722 8.837 8.842 8.755 8.675 8.628 8.615 8.618 8.625 8.637 8.64 8.635 8.645 8.662 8.67 8.655 8.62 8.575 8.535 8.5 8.463 8.428 8.4 8.38 8.35 8.295 8.24 8.172 8.007 7.818 7.697 7.593 7.56 7.682 7.757 7.692 7.6 7.505 7.51 7.79 8.105 8.217 8.235 7.82 7.485 7.537 7.515 7.525 7.555 7.575 7.567 7.54 7.51 7.485 7.447 7.05 6.486 7.07 8.007 8.312 8.487 8.44 8.33 8.26 8.22 8.238 8.25 8.24 8.245 8.255 8.262 8.267 8.265 8.255 8.27 8.335 8.41 8.503 8.648 8.81
7.722 7.758 7.795 7.817 7.792 7.732 7.667 7.6 7.525 7.445 7.393 7.362 7.24 7.01 6.775 6.728 6.852 6.95 7.032 7.117 7.19 7.255 7.29 7.292 7.287 7.288 7.318 7.375 7.435 7.467 7.467 7.457 7.415 7.343 7.27 7.2 7.13 7.075 7.05 7.045 7.045 7.045 7.045 7.045 7.042 7.038 7.035 7.032 7.028 7.035 7.06 7.095 7.13 7.152 7.172 7.202 7.237 7.272 7.34 7.425 7.495 7.563 7.69 8.05 8.55 8.79 8.697 8.402 8.078 7.888 7.82 7.788 7.735 7.725 7.735 7.707 7.663 7.668 7.73 7.797 7.86 7.915 7.96 7.985 7.99 7.995 7.975 7.925 7.873 7.833 7.818 7.818 7.83 7.852 7.875 7.895 7.915 7.94 7.975 8 8.013 8.027 8.042 8.058 8.075 8.098 8.118 8.135 8.155 8.175 8.192 8.207 8.222 8.24 8.278 8.33 8.383 8.438 8.493 8.58 8.727 8.872 8.887 8.797 8.705 8.63 8.6 8.6 8.605 8.612 8.615 8.625 8.645 8.662 8.662 8.63 8.583 8.538 8.498 8.463 8.43 8.393 8.36 8.34 8.322 8.295 8.215 8.065 7.858 7.683 7.565 7.43 7.385 7.517 7.627 7.607 7.535 7.445 7.385 7.49 7.733 7.975 8.132 7.753 7.415 7.495 7.51 7.54 7.57 7.597 7.607 7.59 7.56 7.53 7.48 7.345 6.72 6.601 7.507 8.162 8.347 8.342 8.265 8.19 8.205 8.265 8.272 8.267 8.267 8.267 8.257 8.247 8.242 8.235 8.268 8.352 8.442 8.535 8.668 8.83
7.75 7.787 7.822 7.825 7.78 7.717 7.652 7.587 7.515 7.443 7.425 7.412 7.292 7.07 6.818 6.75 6.87 6.987 7.067 7.13 7.2 7.267 7.33 7.355 7.345 7.345 7.398 7.472 7.53 7.555 7.545 7.512 7.45 7.377 7.305 7.23 7.152 7.083 7.043 7.035 7.035 7.037 7.037 7.035 7.035 7.03 7.022 7.017 7.012 7.008 7.023 7.06 7.095 7.133 7.167 7.2 7.24 7.277 7.31 7.362 7.442 7.517 7.585 7.793 8.245 8.705 8.842 8.67 8.387 8.12 7.97 7.858 7.725 7.705 7.74 7.68 7.618 7.65 7.715 7.772 7.827 7.892 7.952 7.977 7.982 7.987 7.977 7.942 7.895 7.848 7.828 7.84 7.86 7.885 7.91 7.93 7.952 7.98 8 8.01 8.02 8.033 8.048 8.065 8.085 8.108 8.125 8.138 8.155 8.175 8.192 8.207 8.222 8.238 8.303 8.39 8.448 8.498 8.548 8.595 8.69 8.825 8.865 8.797 8.702 8.615 8.575 8.577 8.582 8.582 8.585 8.6 8.62 8.64 8.642 8.612 8.565 8.518 8.48 8.45 8.42 8.38 8.325 8.283 8.262 8.247 8.16 7.968 7.74 7.53 7.365 7.22 7.163 7.248 7.382 7.447 7.422 7.38 7.313 7.265 7.413 7.763 8 7.675 7.395 7.49 7.52 7.55 7.58 7.612 7.64 7.637 7.61 7.567 7.507 7.445 7.197 6.578 6.965 7.962 8.235 8.295 8.245 8.203 8.278 8.32 8.28 8.265 8.257 8.245 8.195 8.16 8.17 8.185 8.245 8.337 8.42 8.518 8.67 8.847
7.765 7.8 7.825 7.805 7.745 7.685 7.63 7.572 7.503 7.45 7.422 7.365 7.265 7.12 6.9 6.798 6.888 6.992 7.055 7.105 7.168 7.233 7.32 7.382 7.385 7.403 7.483 7.573 7.633 7.653 7.623 7.558 7.48 7.407 7.33 7.247 7.165 7.098 7.055 7.035 7.03 7.032 7.03 7.025 7.022 7.015 7.005 6.995 6.988 6.983 7 7.04 7.078 7.12 7.15 7.168 7.2 7.24 7.26 7.275 7.338 7.435 7.532 7.643 7.938 8.447 8.84 8.877 8.662 8.415 8.212 8.002 7.775 7.668 7.66 7.598 7.565 7.612 7.662 7.702 7.75 7.835 7.925 7.962 7.967 7.97 7.97 7.96 7.927 7.88 7.85 7.848 7.86 7.883 7.907 7.93 7.958 7.99 8.01 8.02 8.03 8.04 8.055 8.075 8.1 8.13 8.142 8.14 8.15 8.17 8.187 8.202 8.217 8.23 8.31 8.445 8.537 8.592 8.637 8.612 8.615 8.717 8.77 8.747 8.677 8.588 8.548 8.552 8.552 8.545 8.545 8.56 8.58 8.6 8.61 8.597 8.562 8.515 8.48 8.457 8.43 8.39 8.318 8.235 8.185 8.16 8.092 7.952 7.725 7.435 7.188 7.01 6.938 6.975 7.098 7.22 7.293 7.347 7.32 7.293 7.455 7.8 7.945 7.603 7.398 7.495 7.527 7.56 7.59 7.625 7.66 7.672 7.652 7.6 7.535 7.472 7.407 6.975 6.598 7.325 8.097 8.2 8.245 8.31 8.43 8.452 8.345 8.26 8.232 8.172 8.058 8.005 8.027 8.06 8.152 8.272 8.358 8.468 8.645 8.845
7.77 7.795 7.802 7.765 7.7 7.638 7.582 7.532 7.478 7.425 7.355 7.265 7.175 7.085 6.95 6.858 6.903 6.99 7.05 7.093 7.14 7.2 7.292 7.39 7.425 7.46 7.56 7.798 8.075 8.172 8.112 7.875 7.58 7.425 7.34 7.255 7.175 7.113 7.075 7.05 7.033 7.025 7.02 7.012 7.005 6.995 6.985 6.975 6.965 6.96 6.98 7.02 7.063 7.107 7.137 7.15 7.17 7.205 7.222 7.21 7.218 7.293 7.412 7.523 7.695 8.098 8.637 8.927 8.862 8.657 8.415 8.155 7.893 7.678 7.56 7.52 7.513 7.53 7.57 7.61 7.68 7.79 7.895 7.945 7.95 7.953 7.955 7.955 7.945 7.91 7.88 7.87 7.868 7.88 7.903 7.93 7.963 7.995 8.017 8.03 8.04 8.05 8.065 8.09 8.122 8.155 8.165 8.158 8.158 8.168 8.182 8.197 8.21 8.22 8.3 8.455 8.592 8.685 8.702 8.59 8.528 8.607 8.655 8.652 8.627 8.563 8.523 8.522 8.515 8.503 8.503 8.52 8.543 8.565 8.572 8.567 8.552 8.515 8.48 8.462 8.44 8.397 8.327 8.235 8.145 8.08 8 7.87 7.697 7.427 7.108 6.848 6.731 6.873 7.086 7.178 7.255 7.347 7.345 7.375 7.575 7.88 7.875 7.498 7.393 7.495 7.528 7.563 7.595 7.633 7.675 7.71 7.697 7.635 7.568 7.5 7.435 7.3 6.651 6.856 7.835 8.13 8.273 8.427 8.575 8.647 8.535 8.307 8.147 8.005 7.868 7.838 7.862 7.888 7.99 8.155 8.28 8.415 8.605 8.815
7.765 7.785 7.777 7.725 7.658 7.593 7.53 7.495 7.503 7.47 7.378 7.285 7.193 7.098 7.005 6.905 6.89 6.977 7.047 7.09 7.13 7.178 7.26 7.375 7.45 7.53 7.885 8.307 8.502 8.56 8.53 8.372 8.052 7.71 7.458 7.293 7.185 7.128 7.095 7.07 7.045 7.03 7.018 7 6.99 6.98 6.968 6.955 6.945 6.94 6.963 7.005 7.05 7.095 7.125 7.14 7.155 7.178 7.185 7.17 7.153 7.165 7.263 7.42 7.56 7.818 8.3 8.795 8.98 8.85 8.615 8.355 8.09 7.823 7.603 7.49 7.45 7.443 7.47 7.53 7.63 7.748 7.86 7.922 7.933 7.938 7.94 7.94 7.94 7.927 7.91 7.9 7.89 7.89 7.905 7.935 7.97 8 8.022 8.037 8.05 8.06 8.078 8.107 8.142 8.175 8.185 8.177 8.17 8.165 8.17 8.18 8.19 8.203 8.27 8.412 8.575 8.72 8.7 8.52 8.45 8.507 8.54 8.538 8.535 8.515 8.493 8.485 8.472 8.458 8.46 8.483 8.507 8.53 8.537 8.532 8.525 8.505 8.48 8.462 8.445 8.405 8.335 8.25 8.12 7.923 7.795 7.758 7.672 7.397 6.98 7.036 7.551 8.183 8.61 8.32 7.673 7.375 7.37 7.473 7.712 7.965 7.865 7.463 7.385 7.5 7.538 7.578 7.618 7.66 7.71 7.75 7.742 7.69 7.625 7.555 7.488 7.422 7.135 6.808 7.37 8.112 8.325 8.515 8.68 8.815 8.627 8.153 7.865 7.748 7.673 7.673 7.695 7.718 7.815 7.998 8.183 8.368 8.57 8.78
7.755 7.77 7.745 7.683 7.615 7.56 7.518 7.515 7.585 7.605 7.525 7.43 7.335 7.235 7.125 6.973 6.878 6.93 7.01 7.055 7.095 7.165 7.288 7.423 7.533 7.865 8.385 8.57 8.47 8.4 8.405 8.467 8.445 8.282 7.967 7.59 7.343 7.2 7.125 7.1 7.083 7.098 7.078 7.023 7.005 6.993 6.978 6.965 6.953 6.943 6.965 7.01 7.055 7.1 7.13 7.145 7.16 7.175 7.175 7.16 7.145 7.13 7.21 7.387 7.515 7.638 7.968 8.505 8.952 9.022 8.82 8.575 8.312 8.047 7.783 7.563 7.443 7.383 7.385 7.475 7.598 7.718 7.83 7.905 7.927 7.93 7.93 7.93 7.93 7.93 7.93 7.927 7.92 7.913 7.918 7.943 7.977 8.01 8.03 8.043 8.055 8.063 8.08 8.112 8.147 8.172 8.177 8.17 8.16 8.137 8.117 8.117 8.127 8.142 8.165 8.213 8.28 8.377 8.432 8.395 8.38 8.415 8.445 8.458 8.46 8.46 8.455 8.445 8.433 8.423 8.425 8.443 8.465 8.487 8.497 8.49 8.48 8.48 8.475 8.457 8.442 8.405 8.335 8.247 8.097 7.813 7.668 7.72 7.662 7.358 7.298 8.241 9.68 10.797 10.861 9.589 8.08 7.43 7.425 7.565 7.79 8 7.98 7.548 7.36 7.51 7.557 7.605 7.65 7.692 7.732 7.747 7.737 7.715 7.672 7.615 7.557 7.495 7.392 6.706 7.021 8.055 8.262 8.455 8.62 8.767 8.477 7.903 7.663 7.613 7.58 7.583 7.598 7.615 7.71 7.903 8.118 8.328 8.535 8.745
7.745 7.747 7.705 7.645 7.598 7.563 7.538 7.565 7.662 7.717 7.67 7.58 7.485 7.38 7.242 7.068 6.908 6.875 6.937 6.985 7.053 7.185 7.36 7.528 7.878 8.372 8.562 8.485 8.39 8.3 8.265 8.285 8.345 8.455 8.415 8.175 7.86 7.51 7.28 7.183 7.173 7.242 7.217 7.105 7.05 7.03 7.015 7.002 6.985 6.97 6.99 7.035 7.08 7.125 7.155 7.17 7.182 7.195 7.195 7.18 7.165 7.15 7.23 7.38 7.465 7.535 7.705 8.12 8.702 9.052 9.005 8.777 8.527 8.27 8.007 7.75 7.545 7.41 7.373 7.455 7.583 7.707 7.81 7.88 7.92 7.93 7.93 7.93 7.93 7.93 7.935 7.942 7.942 7.935 7.935 7.953 7.985 8.02 8.04 8.05 8.057 8.058 8.07 8.105 8.135 8.145 8.142 8.135 8.115 8.07 8.035 8.028 8.033 8.045 8.035 8 7.965 7.948 7.998 8.165 8.287 8.315 8.362 8.405 8.42 8.422 8.42 8.408 8.4 8.4 8.4 8.403 8.415 8.44 8.45 8.443 8.443 8.46 8.465 8.447 8.43 8.392 8.325 8.217 8.055 7.825 7.695 7.685 7.603 7.685 8.573 10.185 11.912 12.986 12.144 9.875 8.076 7.488 7.533 7.655 7.828 8.008 8.13 7.653 7.323 7.525 7.572 7.617 7.657 7.69 7.715 7.71 7.685 7.675 7.665 7.632 7.587 7.537 7.48 6.78 7.028 7.98 8.1 8.265 8.405 8.515 8.235 7.813 7.698 7.65 7.605 7.588 7.593 7.6 7.688 7.878 8.087 8.293 8.5 8.71
7.745 7.725 7.68 7.64 7.613 7.588 7.57 7.62 7.735 7.822 7.81 7.727 7.635 7.51 7.345 7.162 6.978 6.86 6.865 6.94 7.068 7.237 7.41 7.823 8.352 8.512 8.455 8.41 8.347 8.267 8.2 8.173 8.173 8.23 8.345 8.412 8.33 8.095 7.773 7.46 7.308 7.355 7.36 7.24 7.133 7.075 7.053 7.033 7.01 6.998 7.018 7.063 7.108 7.152 7.182 7.195 7.205 7.215 7.215 7.2 7.185 7.173 7.238 7.342 7.403 7.475 7.565 7.803 8.298 8.855 9.095 8.97 8.737 8.485 8.225 7.965 7.72 7.533 7.45 7.478 7.578 7.695 7.78 7.84 7.897 7.93 7.932 7.93 7.93 7.93 7.935 7.945 7.952 7.953 7.958 7.975 7.998 8.025 8.045 8.052 8.055 8.053 8.065 8.092 8.107 8.112 8.11 8.09 8.047 7.993 7.958 7.945 7.94 7.945 7.935 7.902 7.867 7.808 7.738 7.808 8.047 8.207 8.26 8.325 8.37 8.387 8.385 8.375 8.375 8.38 8.38 8.375 8.375 8.393 8.403 8.408 8.425 8.45 8.455 8.435 8.412 8.377 8.305 8.162 7.975 7.79 7.645 7.575 7.548 8.258 9.867 11.635 13.334 13.761 12.209 9.795 8.046 7.598 7.688 7.788 7.92 8.075 8.232 7.685 7.288 7.537 7.58 7.615 7.642 7.667 7.69 7.672 7.628 7.615 7.622 7.615 7.582 7.537 7.492 6.868 7.095 7.927 7.973 8.06 8.153 8.247 8.06 7.8 7.75 7.697 7.645 7.615 7.613 7.618 7.678 7.843 8.052 8.26 8.467 8.675
7.785 7.743 7.7 7.665 7.638 7.613 7.615 7.687 7.78 7.837 7.845 7.817 7.755 7.615 7.435 7.252 7.067 6.895 6.843 6.945 7.107 7.278 7.618 8.212 8.477 8.365 8.31 8.277 8.245 8.203 8.16 8.128 8.095 8.09 8.133 8.188 8.255 8.312 8.277 8.072 7.73 7.488 7.42 7.35 7.25 7.173 7.115 7.07 7.033 7.023 7.045 7.09 7.135 7.177 7.205 7.215 7.225 7.235 7.232 7.218 7.208 7.2 7.228 7.285 7.34 7.415 7.505 7.625 7.94 8.5 9.03 9.145 8.937 8.695 8.438 8.182 7.925 7.69 7.565 7.553 7.598 7.673 7.74 7.8 7.865 7.92 7.937 7.935 7.933 7.93 7.935 7.945 7.955 7.968 7.985 8.003 8.018 8.038 8.05 8.05 8.048 8.045 8.055 8.068 8.073 8.08 8.07 8.028 7.97 7.915 7.883 7.87 7.86 7.858 7.84 7.803 7.767 7.71 7.63 7.62 7.82 8.052 8.15 8.22 8.288 8.337 8.353 8.35 8.353 8.358 8.358 8.353 8.35 8.358 8.37 8.39 8.415 8.44 8.442 8.42 8.395 8.362 8.277 8.123 7.953 7.783 7.618 7.498 7.651 8.845 10.762 12.562 13.659 13.064 11.297 9.233 7.898 7.728 7.84 7.945 8.06 8.192 8.285 7.635 7.24 7.537 7.57 7.597 7.62 7.643 7.667 7.64 7.573 7.55 7.562 7.572 7.565 7.53 7.485 6.793 7.003 7.907 7.943 7.958 7.983 8.025 7.96 7.848 7.795 7.742 7.69 7.648 7.635 7.64 7.673 7.798 7.997 8.212 8.425 8.637
7.873 7.83 7.785 7.74 7.703 7.668 7.63 7.62 7.635 7.642 7.652 7.685 7.712 7.622 7.44 7.255 7.07 6.91 6.865 6.97 7.135 7.42 8.012 8.395 8.322 8.22 8.165 8.143 8.138 8.143 8.143 8.125 8.095 8.065 8.053 8.058 8.075 8.143 8.282 8.365 8.287 8.05 7.745 7.535 7.525 7.433 7.25 7.188 7.128 7.083 7.075 7.108 7.15 7.192 7.22 7.23 7.237 7.247 7.257 7.255 7.248 7.24 7.235 7.243 7.28 7.353 7.44 7.533 7.693 8.115 8.782 9.185 9.125 8.897 8.65 8.395 8.138 7.883 7.698 7.64 7.648 7.683 7.74 7.8 7.862 7.89 7.905 7.935 7.942 7.94 7.943 7.95 7.963 7.988 8.015 8.033 8.05 8.085 8.105 8.098 8.09 8.083 8.068 8.058 8.063 8.067 8.04 7.98 7.92 7.863 7.833 7.828 7.823 7.815 7.785 7.73 7.675 7.62 7.613 7.7 7.825 7.965 8.08 8.155 8.233 8.305 8.34 8.34 8.34 8.353 8.363 8.36 8.363 8.368 8.383 8.41 8.435 8.45 8.427 8.388 8.362 8.337 8.277 8.157 8.005 7.835 7.66 7.495 7.893 9.443 11.517 13.136 13.187 11.817 10.128 8.49 7.74 7.803 7.932 8.06 8.182 8.27 8.197 7.53 7.245 7.535 7.55 7.573 7.597 7.62 7.642 7.605 7.518 7.485 7.497 7.51 7.517 7.507 7.395 6.835 7.12 7.89 7.937 7.96 7.955 7.945 7.908 7.862 7.832 7.787 7.735 7.685 7.66 7.663 7.69 7.763 7.92 8.14 8.36 8.58
7.985 7.95 7.905 7.858 7.813 7.767 7.673 7.543 7.448 7.373 7.34 7.4 7.522 7.52 7.36 7.178 7.015 6.915 6.898 6.993 7.24 7.84 8.35 8.332 8.18 8.095 8.07 8.08 8.108 8.142 8.157 8.14 8.11 8.085 8.078 8.083 8.098 8.128 8.153 8.22 8.39 8.47 8.342 8.118 8.067 7.815 7.443 7.365 7.285 7.195 7.138 7.13 7.155 7.197 7.225 7.235 7.245 7.26 7.285 7.302 7.3 7.29 7.275 7.253 7.25 7.298 7.383 7.478 7.568 7.823 8.405 9.047 9.26 9.09 8.857 8.605 8.35 8.095 7.878 7.753 7.71 7.725 7.775 7.827 7.822 7.78 7.808 7.882 7.935 7.955 7.955 7.96 7.978 8.015 8.047 8.065 8.103 8.17 8.205 8.193 8.18 8.17 8.135 8.093 8.08 8.08 8.042 7.973 7.91 7.85 7.82 7.82 7.815 7.797 7.767 7.71 7.648 7.613 7.66 7.777 7.887 7.99 8.075 8.15 8.23 8.305 8.34 8.34 8.353 8.388 8.41 8.408 8.41 8.415 8.43 8.457 8.472 8.467 8.422 8.358 8.318 8.295 8.275 8.2 8.032 7.835 7.647 7.455 7.99 9.717 11.884 12.894 12.067 10.525 8.953 7.923 7.725 7.833 7.968 8.12 8.25 8.282 7.937 7.408 7.388 7.54 7.528 7.55 7.573 7.595 7.617 7.567 7.46 7.42 7.432 7.445 7.455 7.462 7.178 7.108 7.587 7.86 7.9 7.947 7.965 7.96 7.903 7.835 7.817 7.802 7.772 7.727 7.69 7.688 7.72 7.765 7.868 8.06 8.28 8.505
8.102 8.07 8.025 7.975 7.927 7.877 7.772 7.618 7.463 7.318 7.238 7.235 7.313 7.377 7.282 7.123 7.018 6.965 6.95 7.073 7.69 8.359 8.372 8.158 8.075 8.043 8.055 8.088 8.122 8.157 8.167 8.15 8.125 8.105 8.103 8.118 8.15 8.19 8.2 8.198 8.253 8.375 8.54 8.582 8.547 8.155 7.66 7.523 7.425 7.325 7.25 7.205 7.183 7.2 7.225 7.24 7.26 7.28 7.303 7.327 7.345 7.345 7.327 7.3 7.273 7.283 7.353 7.437 7.513 7.675 8.093 8.752 9.232 9.257 9.057 8.815 8.56 8.305 8.093 7.94 7.825 7.78 7.79 7.765 7.658 7.613 7.685 7.772 7.857 7.922 7.957 7.975 7.998 8.045 8.083 8.115 8.185 8.272 8.307 8.29 8.275 8.262 8.225 8.163 8.115 8.097 8.057 7.983 7.91 7.848 7.82 7.815 7.797 7.773 7.75 7.72 7.715 7.722 7.748 7.82 7.91 8.01 8.095 8.163 8.233 8.302 8.337 8.353 8.393 8.447 8.472 8.465 8.46 8.463 8.477 8.492 8.487 8.472 8.43 8.355 8.288 8.25 8.235 8.192 8.052 7.838 7.613 7.385 7.843 9.452 11.361 11.706 10.517 9.113 8.041 7.73 7.77 7.86 8.023 8.182 8.267 8.27 7.703 7.33 7.562 7.597 7.548 7.525 7.548 7.57 7.587 7.525 7.403 7.355 7.367 7.38 7.39 7.42 6.908 7.123 7.855 7.833 7.858 7.91 7.95 7.965 7.91 7.798 7.745 7.755 7.757 7.742 7.717 7.715 7.748 7.793 7.855 7.993 8.205 8.445
8.217 8.187 8.145 8.095 8.045 7.982 7.873 7.733 7.598 7.483 7.41 7.343 7.295 7.28 7.213 7.123 7.065 7.028 7.08 7.508 8.257 8.45 8.178 8.075 8.05 8.055 8.075 8.105 8.137 8.167 8.172 8.158 8.138 8.128 8.143 8.175 8.215 8.255 8.27 8.25 8.24 8.303 8.445 8.612 8.707 8.34 7.838 7.663 7.56 7.46 7.38 7.323 7.268 7.238 7.243 7.263 7.285 7.305 7.325 7.35 7.377 7.392 7.38 7.347 7.315 7.298 7.328 7.388 7.465 7.635 7.92 8.408 9.032 9.34 9.242 9.017 8.77 8.515 8.308 8.16 8.015 7.885 7.75 7.58 7.46 7.475 7.563 7.648 7.738 7.833 7.918 7.98 8.028 8.078 8.13 8.198 8.285 8.367 8.397 8.38 8.362 8.342 8.3 8.237 8.175 8.122 8.065 7.992 7.915 7.848 7.815 7.803 7.783 7.763 7.745 7.74 7.767 7.79 7.815 7.875 7.952 8.04 8.118 8.18 8.243 8.305 8.353 8.395 8.45 8.507 8.53 8.522 8.515 8.51 8.512 8.507 8.493 8.477 8.437 8.365 8.288 8.225 8.183 8.152 8.087 7.91 7.662 7.375 7.593 8.835 10.059 9.882 8.833 7.991 7.72 7.813 7.865 7.963 8.12 8.225 8.257 8.13 7.565 7.395 7.657 7.675 7.62 7.533 7.523 7.547 7.552 7.475 7.345 7.29 7.303 7.315 7.343 7.395 6.796 7.016 7.845 7.81 7.818 7.865 7.915 7.955 7.917 7.785 7.685 7.673 7.69 7.708 7.717 7.733 7.768 7.815 7.865 7.955 8.15 8.413
8.327 8.305 8.265 8.22 8.178 8.118 8.02 7.9 7.788 7.705 7.655 7.612 7.53 7.41 7.313 7.248 7.19 7.295 7.628 8.175 8.462 8.25 8.085 8.07 8.07 8.075 8.095 8.125 8.155 8.18 8.185 8.17 8.148 8.145 8.175 8.212 8.247 8.285 8.31 8.315 8.303 8.315 8.435 8.587 8.67 8.387 7.963 7.795 7.695 7.603 7.525 7.463 7.408 7.355 7.335 7.35 7.37 7.373 7.37 7.39 7.417 7.427 7.41 7.377 7.345 7.318 7.315 7.348 7.438 7.623 7.858 8.203 8.755 9.262 9.38 9.207 8.977 8.725 8.523 8.38 8.22 8.02 7.763 7.495 7.373 7.418 7.513 7.608 7.705 7.805 7.905 7.995 8.067 8.125 8.19 8.272 8.355 8.402 8.417 8.417 8.4 8.375 8.33 8.27 8.202 8.11 8.017 7.945 7.878 7.845 7.835 7.82 7.805 7.79 7.775 7.748 7.723 7.733 7.79 7.878 7.98 8.09 8.175 8.235 8.295 8.345 8.385 8.43 8.485 8.54 8.56 8.552 8.547 8.545 8.535 8.518 8.503 8.487 8.452 8.385 8.308 8.233 8.165 8.115 8.072 7.965 7.735 7.42 7.323 7.873 8.383 8.188 7.791 7.66 7.785 7.95 8.088 8.15 8.185 8.225 8.245 7.84 7.468 7.61 7.715 7.727 7.715 7.613 7.52 7.523 7.515 7.425 7.288 7.225 7.238 7.268 7.345 7.262 7.095 7.457 7.832 7.795 7.795 7.84 7.89 7.915 7.85 7.707 7.603 7.603 7.65 7.682 7.708 7.738 7.778 7.825 7.875 7.945 8.133 8.418
8.38 8.375 8.367 8.357 8.332 8.29 8.212 8.103 8.005 7.945 7.905 7.87 7.812 7.707 7.593 7.5 7.425 7.69 8.25 8.585 8.512 8.248 8.115 8.095 8.09 8.095 8.115 8.145 8.178 8.205 8.21 8.19 8.155 8.145 8.172 8.207 8.243 8.28 8.315 8.345 8.357 8.365 8.44 8.532 8.582 8.402 8.088 7.925 7.833 7.765 7.705 7.635 7.57 7.515 7.485 7.487 7.49 7.46 7.433 7.445 7.462 7.45 7.42 7.39 7.363 7.34 7.328 7.34 7.423 7.608 7.843 8.108 8.518 9.065 9.397 9.367 9.177 8.938 8.74 8.577 8.372 8.137 7.872 7.603 7.458 7.47 7.553 7.655 7.758 7.857 7.95 8.032 8.11 8.18 8.248 8.322 8.367 8.365 8.373 8.397 8.397 8.377 8.335 8.267 8.167 8.033 7.923 7.858 7.833 7.865 7.885 7.87 7.855 7.84 7.825 7.767 7.67 7.67 7.775 7.893 8.028 8.17 8.27 8.33 8.382 8.415 8.43 8.45 8.493 8.545 8.565 8.558 8.56 8.57 8.56 8.535 8.518 8.502 8.47 8.41 8.335 8.26 8.19 8.123 8.06 7.992 7.865 7.66 7.405 7.373 7.493 7.69 7.913 7.948 8.028 8.245 8.467 8.367 8.193 8.218 8.205 7.658 7.445 7.762 7.775 7.785 7.797 7.725 7.575 7.508 7.48 7.38 7.24 7.168 7.188 7.265 7.387 7.013 7.225 7.859 7.825 7.79 7.788 7.83 7.857 7.815 7.69 7.563 7.503 7.508 7.572 7.66 7.71 7.74 7.782 7.828 7.875 7.945 8.135 8.43
8.385 8.398 8.425 8.452 8.462 8.455 8.402 8.313 8.24 8.195 8.155 8.12 8.08 7.997 7.89 7.793 7.708 7.983 8.435 8.595 8.555 8.365 8.203 8.15 8.12 8.115 8.135 8.168 8.205 8.237 8.237 8.2 8.15 8.135 8.163 8.2 8.24 8.28 8.315 8.342 8.367 8.39 8.42 8.458 8.495 8.417 8.215 8.068 8 7.958 7.905 7.83 7.753 7.685 7.635 7.605 7.575 7.53 7.498 7.495 7.487 7.46 7.43 7.403 7.383 7.365 7.348 7.343 7.41 7.595 7.83 8.065 8.373 8.845 9.32 9.48 9.355 9.145 8.935 8.722 8.482 8.24 7.983 7.758 7.64 7.598 7.623 7.71 7.812 7.907 7.988 8.065 8.145 8.223 8.303 8.345 8.325 8.303 8.318 8.352 8.377 8.377 8.332 8.232 8.092 7.94 7.838 7.815 7.85 7.91 7.932 7.92 7.905 7.887 7.872 7.812 7.705 7.7 7.828 7.985 8.135 8.272 8.367 8.417 8.455 8.482 8.495 8.498 8.513 8.548 8.567 8.57 8.585 8.6 8.59 8.56 8.535 8.515 8.48 8.425 8.36 8.29 8.22 8.153 8.095 8.043 8.01 7.97 7.867 7.787 7.775 8.02 8.315 8.37 8.43 8.492 8.542 8.375 8.195 8.265 8.1 7.613 7.628 7.893 7.85 7.845 7.855 7.838 7.705 7.541 7.445 7.335 7.195 7.13 7.198 7.338 7.47 6.766 6.936 7.852 7.825 7.79 7.785 7.8 7.765 7.66 7.533 7.458 7.425 7.398 7.43 7.54 7.642 7.72 7.785 7.83 7.875 7.945 8.135 8.43
8.405 8.425 8.453 8.487 8.525 8.555 8.555 8.517 8.472 8.437 8.402 8.37 8.335 8.277 8.19 8.09 8.008 8.145 8.34 8.39 8.437 8.405 8.31 8.24 8.185 8.148 8.153 8.19 8.23 8.262 8.25 8.198 8.143 8.125 8.155 8.195 8.235 8.277 8.315 8.34 8.365 8.385 8.395 8.408 8.428 8.422 8.335 8.24 8.197 8.16 8.105 8.025 7.935 7.85 7.78 7.728 7.678 7.62 7.565 7.53 7.505 7.475 7.445 7.42 7.402 7.387 7.37 7.355 7.408 7.585 7.823 8.06 8.318 8.748 9.302 9.552 9.487 9.33 9.1 8.848 8.593 8.343 8.09 7.913 7.835 7.77 7.733 7.773 7.86 7.95 8.045 8.145 8.248 8.345 8.4 8.367 8.293 8.253 8.265 8.303 8.337 8.355 8.295 8.155 7.998 7.855 7.793 7.823 7.88 7.937 7.965 7.96 7.947 7.932 7.917 7.872 7.81 7.788 7.875 8.047 8.215 8.362 8.45 8.485 8.515 8.545 8.56 8.557 8.555 8.565 8.58 8.595 8.615 8.63 8.62 8.59 8.557 8.525 8.485 8.432 8.375 8.312 8.253 8.2 8.152 8.107 8.075 8.087 8.115 8.097 8.052 8.13 8.287 8.345 8.372 8.36 8.338 8.328 8.345 8.395 7.935 7.61 8.085 8.415 8.365 8.288 8.223 8.148 8.32 8.542 8.395 8.188 7.925 7.478 7.328 7.495 7.425 7.035 7.305 7.807 7.792 7.775 7.755 7.707 7.617 7.503 7.415 7.375 7.345 7.315 7.303 7.36 7.49 7.645 7.77 7.835 7.88 7.948 8.133 8.42
8.435 8.455 8.48 8.515 8.555 8.595 8.63 8.632 8.602 8.57 8.54 8.51 8.477 8.44 8.375 8.28 8.205 8.21 8.265 8.315 8.365 8.4 8.377 8.312 8.25 8.19 8.17 8.2 8.237 8.27 8.255 8.198 8.15 8.135 8.155 8.19 8.23 8.273 8.312 8.34 8.36 8.37 8.375 8.385 8.395 8.405 8.4 8.382 8.357 8.322 8.265 8.175 8.075 7.988 7.923 7.88 7.83 7.763 7.683 7.598 7.545 7.515 7.473 7.428 7.402 7.387 7.372 7.358 7.41 7.59 7.83 8.088 8.39 8.828 9.367 9.615 9.575 9.477 9.27 9.007 8.742 8.473 8.225 8.085 8.025 7.962 7.898 7.9 7.985 8.093 8.213 8.338 8.452 8.522 8.502 8.418 8.335 8.283 8.265 8.283 8.297 8.287 8.202 8.045 7.908 7.813 7.788 7.828 7.882 7.937 7.97 7.972 7.965 7.952 7.937 7.915 7.88 7.845 7.91 8.075 8.25 8.412 8.49 8.51 8.54 8.57 8.582 8.577 8.572 8.567 8.575 8.595 8.617 8.627 8.61 8.577 8.54 8.505 8.465 8.415 8.362 8.32 8.28 8.232 8.187 8.142 8.105 8.11 8.145 8.147 8.128 8.143 8.175 8.14 8.108 8.18 8.305 8.437 8.527 8.492 7.78 7.641 8.545 9.162 9.315 9.155 8.987 8.955 9.3 9.647 9.527 9.287 8.962 8.28 7.738 7.67 7.175 7.233 7.784 7.723 7.71 7.697 7.647 7.56 7.458 7.373 7.325 7.295 7.265 7.235 7.203 7.22 7.348 7.542 7.72 7.83 7.89 7.955 8.133 8.41
8.47 8.485 8.51 8.545 8.585 8.625 8.657 8.66 8.635 8.605 8.575 8.545 8.515 8.485 8.432 8.348 8.288 8.295 8.34 8.39 8.425 8.43 8.405 8.355 8.292 8.23 8.2 8.21 8.235 8.27 8.26 8.208 8.178 8.17 8.178 8.198 8.23 8.27 8.307 8.337 8.35 8.35 8.355 8.365 8.372 8.375 8.392 8.42 8.432 8.422 8.37 8.283 8.193 8.12 8.068 8.032 7.995 7.937 7.845 7.715 7.615 7.567 7.51 7.438 7.393 7.37 7.355 7.345 7.415 7.61 7.875 8.19 8.55 8.96 9.442 9.685 9.645 9.587 9.425 9.16 8.88 8.59 8.375 8.278 8.215 8.155 8.105 8.125 8.223 8.343 8.467 8.58 8.642 8.635 8.567 8.485 8.428 8.385 8.34 8.295 8.238 8.18 8.088 7.96 7.875 7.828 7.81 7.825 7.865 7.917 7.952 7.962 7.96 7.948 7.935 7.92 7.892 7.873 7.945 8.1 8.268 8.435 8.51 8.51 8.53 8.557 8.567 8.565 8.557 8.543 8.545 8.565 8.58 8.577 8.552 8.518 8.485 8.46 8.425 8.375 8.34 8.33 8.297 8.238 8.188 8.143 8.115 8.128 8.165 8.177 8.175 8.187 8.185 8.128 8.1 8.193 8.342 8.5 8.582 8.432 7.773 7.87 8.815 9.52 9.85 9.747 9.615 9.635 9.745 9.762 9.682 9.505 9.245 8.79 8.135 7.742 7.18 7.208 7.712 7.643 7.608 7.56 7.485 7.4 7.315 7.255 7.217 7.182 7.147 7.112 7.075 7.098 7.243 7.45 7.64 7.79 7.89 7.963 8.138 8.412
8.518 8.52 8.54 8.575 8.615 8.657 8.687 8.685 8.665 8.64 8.61 8.58 8.552 8.525 8.48 8.418 8.383 8.395 8.43 8.46 8.465 8.455 8.432 8.392 8.335 8.27 8.238 8.235 8.245 8.272 8.265 8.23 8.215 8.21 8.215 8.225 8.243 8.273 8.305 8.33 8.335 8.33 8.335 8.342 8.345 8.345 8.36 8.395 8.435 8.46 8.45 8.397 8.327 8.262 8.213 8.18 8.152 8.11 8.007 7.855 7.713 7.62 7.55 7.47 7.4 7.358 7.34 7.34 7.428 7.663 7.993 8.358 8.735 9.115 9.54 9.755 9.705 9.627 9.492 9.257 8.963 8.693 8.538 8.472 8.408 8.345 8.33 8.393 8.49 8.6 8.707 8.765 8.76 8.71 8.638 8.578 8.53 8.48 8.417 8.325 8.213 8.12 8.033 7.95 7.9 7.863 7.845 7.845 7.86 7.898 7.927 7.942 7.95 7.945 7.935 7.92 7.898 7.898 7.985 8.135 8.29 8.455 8.537 8.53 8.528 8.543 8.555 8.55 8.535 8.518 8.518 8.527 8.525 8.512 8.488 8.458 8.438 8.42 8.385 8.35 8.345 8.35 8.315 8.25 8.19 8.14 8.125 8.145 8.18 8.202 8.21 8.2 8.165 8.11 8.108 8.215 8.365 8.517 8.602 8.222 7.773 8.248 9.052 9.602 9.887 9.867 9.807 9.74 9.71 9.71 9.657 9.487 9.227 8.89 8.305 7.578 7.347 7.567 7.637 7.573 7.523 7.443 7.345 7.258 7.183 7.125 7.08 7.038 6.993 6.95 6.91 6.965 7.148 7.36 7.55 7.715 7.857 7.963 8.143 8.405
8.57 8.565 8.573 8.603 8.647 8.692 8.717 8.71 8.687 8.662 8.64 8.615 8.588 8.562 8.53 8.5 8.487 8.49 8.5 8.5 8.49 8.48 8.457 8.422 8.372 8.31 8.275 8.27 8.273 8.283 8.28 8.265 8.255 8.25 8.255 8.265 8.272 8.285 8.305 8.317 8.318 8.313 8.313 8.315 8.315 8.315 8.328 8.36 8.4 8.45 8.495 8.49 8.445 8.392 8.35 8.32 8.292 8.255 8.147 7.98 7.815 7.695 7.613 7.528 7.443 7.37 7.34 7.35 7.468 7.77 8.16 8.542 8.92 9.297 9.665 9.805 9.707 9.582 9.47 9.305 9.038 8.825 8.728 8.665 8.603 8.553 8.575 8.665 8.76 8.842 8.887 8.88 8.845 8.787 8.723 8.67 8.612 8.547 8.467 8.365 8.253 8.145 8.055 7.978 7.927 7.897 7.88 7.877 7.877 7.89 7.905 7.918 7.932 7.94 7.932 7.917 7.9 7.92 8.025 8.175 8.325 8.48 8.562 8.56 8.545 8.54 8.542 8.533 8.515 8.5 8.493 8.483 8.468 8.453 8.433 8.41 8.395 8.38 8.36 8.355 8.365 8.37 8.337 8.273 8.205 8.145 8.133 8.16 8.192 8.217 8.215 8.18 8.135 8.09 8.113 8.235 8.387 8.532 8.61 7.983 7.693 8.552 9.315 9.722 9.87 9.848 9.8 9.71 9.648 9.645 9.625 9.455 9.142 8.805 8.337 7.186 7.085 7.72 7.568 7.52 7.48 7.395 7.28 7.173 7.07 7 6.96 6.92 6.878 6.835 6.803 6.875 7.06 7.265 7.46 7.63 7.79 7.938 8.13 8.37
8.625 8.62 8.618 8.633 8.675 8.72 8.737 8.722 8.697 8.675 8.662 8.65 8.625 8.6 8.578 8.562 8.557 8.547 8.535 8.525 8.515 8.505 8.482 8.447 8.405 8.35 8.315 8.31 8.31 8.313 8.313 8.307 8.3 8.29 8.285 8.287 8.292 8.3 8.307 8.308 8.305 8.3 8.295 8.293 8.288 8.285 8.295 8.33 8.385 8.455 8.515 8.53 8.51 8.475 8.44 8.41 8.375 8.33 8.217 8.043 7.895 7.798 7.715 7.625 7.535 7.438 7.388 7.45 7.643 7.903 8.213 8.587 8.977 9.372 9.672 9.7 9.57 9.495 9.44 9.327 9.135 8.988 8.925 8.868 8.818 8.795 8.838 8.927 8.985 8.987 8.975 8.96 8.925 8.867 8.805 8.742 8.675 8.605 8.515 8.405 8.298 8.205 8.12 8.005 7.92 7.892 7.88 7.877 7.877 7.882 7.89 7.9 7.913 7.927 7.925 7.908 7.903 7.96 8.088 8.235 8.385 8.507 8.56 8.557 8.54 8.522 8.527 8.535 8.523 8.51 8.49 8.463 8.44 8.423 8.408 8.39 8.375 8.36 8.355 8.365 8.375 8.38 8.355 8.297 8.23 8.165 8.135 8.145 8.172 8.2 8.19 8.145 8.103 8.068 8.1 8.225 8.38 8.522 8.602 7.838 7.688 8.86 9.59 9.83 9.882 9.872 9.827 9.695 9.565 9.547 9.47 9.195 8.81 8.458 8.02 7.145 7.158 7.667 7.535 7.483 7.452 7.38 7.265 7.145 7.02 6.948 6.923 6.89 6.855 6.818 6.8 6.875 7.038 7.22 7.4 7.568 7.735 7.908 8.108 8.33
8.688 8.682 8.675 8.675 8.7 8.74 8.755 8.733 8.703 8.68 8.673 8.675 8.662 8.64 8.62 8.605 8.592 8.575 8.56 8.55 8.54 8.527 8.505 8.472 8.435 8.388 8.355 8.35 8.35 8.355 8.357 8.352 8.345 8.33 8.31 8.298 8.3 8.31 8.312 8.305 8.298 8.29 8.285 8.28 8.27 8.263 8.28 8.333 8.405 8.485 8.537 8.547 8.537 8.517 8.487 8.452 8.41 8.36 8.245 8.088 7.985 7.915 7.835 7.745 7.647 7.535 7.493 7.653 7.95 8.16 8.32 8.558 8.893 9.3 9.51 9.468 9.415 9.435 9.435 9.348 9.255 9.195 9.14 9.093 9.068 9.07 9.1 9.127 9.097 9.033 9 8.967 8.952 8.937 8.872 8.805 8.735 8.66 8.56 8.45 8.365 8.305 8.21 8.045 7.893 7.84 7.848 7.853 7.86 7.87 7.88 7.89 7.9 7.912 7.912 7.898 7.93 8.038 8.178 8.325 8.445 8.492 8.502 8.51 8.5 8.48 8.5 8.54 8.545 8.535 8.51 8.473 8.443 8.42 8.405 8.39 8.373 8.358 8.355 8.365 8.375 8.38 8.362 8.317 8.257 8.195 8.15 8.13 8.135 8.157 8.15 8.11 8.08 8.063 8.09 8.193 8.337 8.48 8.565 7.858 7.821 8.955 9.605 9.83 9.882 9.917 9.852 9.655 9.467 9.335 9.067 8.698 8.398 8.197 7.495 7.228 7.637 7.657 7.573 7.478 7.42 7.36 7.255 7.127 7.005 6.948 6.937 6.917 6.887 6.853 6.85 6.935 7.085 7.25 7.405 7.55 7.713 7.893 8.093 8.308
8.755 8.745 8.738 8.733 8.738 8.763 8.775 8.75 8.713 8.683 8.675 8.685 8.687 8.677 8.66 8.642 8.622 8.6 8.585 8.575 8.565 8.552 8.53 8.497 8.46 8.42 8.393 8.388 8.393 8.4 8.405 8.4 8.39 8.372 8.345 8.32 8.313 8.317 8.315 8.305 8.295 8.285 8.278 8.27 8.27 8.3 8.348 8.395 8.448 8.515 8.562 8.565 8.555 8.542 8.517 8.48 8.435 8.387 8.287 8.17 8.1 8.035 7.955 7.857 7.745 7.625 7.65 7.91 8.26 8.52 8.655 8.76 8.94 9.205 9.335 9.335 9.37 9.417 9.437 9.375 9.36 9.4 9.372 9.342 9.335 9.325 9.302 9.245 9.158 9.057 8.95 8.855 8.9 8.98 8.935 8.865 8.795 8.707 8.605 8.525 8.48 8.422 8.287 8.1 7.938 7.878 7.86 7.84 7.85 7.86 7.87 7.88 7.89 7.9 7.9 7.918 8.005 8.135 8.272 8.387 8.43 8.417 8.415 8.435 8.445 8.438 8.458 8.512 8.55 8.557 8.535 8.493 8.453 8.423 8.405 8.39 8.37 8.353 8.353 8.365 8.375 8.38 8.362 8.325 8.28 8.225 8.18 8.15 8.128 8.125 8.115 8.09 8.075 8.065 8.09 8.17 8.293 8.43 8.425 7.9 8.04 8.917 9.445 9.74 9.84 9.877 9.762 9.54 9.295 8.953 8.608 8.385 8.25 8.095 7.091 7.021 7.77 7.698 7.65 7.535 7.423 7.343 7.24 7.098 6.983 6.943 6.94 6.932 6.915 6.885 6.898 7 7.143 7.297 7.445 7.573 7.71 7.88 8.08 8.292
8.825 8.808 8.8 8.797 8.792 8.797 8.795 8.767 8.73 8.693 8.68 8.69 8.7 8.705 8.695 8.672 8.647 8.623 8.605 8.595 8.585 8.575 8.555 8.523 8.485 8.45 8.43 8.43 8.438 8.445 8.45 8.445 8.435 8.415 8.385 8.355 8.335 8.327 8.317 8.305 8.295 8.285 8.275 8.278 8.323 8.402 8.46 8.487 8.512 8.552 8.582 8.577 8.565 8.55 8.522 8.487 8.447 8.405 8.342 8.27 8.21 8.147 8.067 7.96 7.84 7.73 7.843 8.185 8.547 8.862 9.045 9.112 9.142 9.183 9.24 9.3 9.355 9.402 9.44 9.42 9.452 9.552 9.577 9.56 9.532 9.487 9.425 9.34 9.24 9.08 8.855 8.708 8.795 8.972 8.995 8.925 8.85 8.763 8.69 8.653 8.617 8.515 8.343 8.208 8.16 8.125 8.003 7.873 7.84 7.85 7.86 7.87 7.88 7.89 7.91 7.983 8.105 8.232 8.332 8.367 8.35 8.328 8.333 8.355 8.375 8.39 8.423 8.478 8.53 8.567 8.56 8.517 8.473 8.433 8.408 8.39 8.37 8.35 8.348 8.362 8.375 8.38 8.36 8.325 8.29 8.245 8.205 8.172 8.14 8.113 8.093 8.08 8.07 8.063 8.095 8.17 8.27 8.4 8.207 7.905 8.323 9.012 9.395 9.632 9.71 9.627 9.45 9.24 8.96 8.618 8.41 8.33 8.25 7.767 7.058 7.298 7.79 7.77 7.727 7.62 7.477 7.347 7.215 7.058 6.955 6.935 6.935 6.932 6.925 6.91 6.948 7.065 7.205 7.347 7.482 7.605 7.725 7.873 8.065 8.275
8.905 8.867 8.84 8.84 8.837 8.835 8.82 8.788 8.75 8.705 8.693 8.712 8.725 8.732 8.712 8.682 8.667 8.647 8.628 8.618 8.61 8.6 8.582 8.555 8.52 8.485 8.47 8.475 8.482 8.488 8.492 8.49 8.477 8.455 8.425 8.397 8.37 8.34 8.317 8.305 8.292 8.28 8.27 8.293 8.375 8.452 8.487 8.51 8.532 8.565 8.587 8.58 8.565 8.55 8.52 8.483 8.445 8.405 8.372 8.337 8.285 8.225 8.155 8.06 7.945 7.878 8.058 8.432 8.8 9.1 9.247 9.255 9.207 9.16 9.175 9.245 9.31 9.37 9.427 9.445 9.437 9.532 9.67 9.697 9.652 9.592 9.525 9.44 9.302 9.075 8.83 8.735 8.863 9.093 9.155 9.038 8.928 8.863 8.83 8.81 8.737 8.603 8.5 8.472 8.47 8.415 8.255 8.043 7.888 7.84 7.85 7.86 7.87 7.895 7.94 8.023 8.145 8.272 8.33 8.313 8.29 8.28 8.293 8.315 8.338 8.37 8.42 8.475 8.525 8.565 8.567 8.535 8.492 8.448 8.415 8.395 8.375 8.353 8.343 8.352 8.365 8.372 8.355 8.32 8.285 8.242 8.202 8.167 8.132 8.098 8.075 8.065 8.06 8.073 8.123 8.2 8.285 8.402 7.993 7.918 8.615 9.06 9.348 9.59 9.612 9.41 9.183 8.958 8.738 8.558 8.428 8.33 8.249 7.265 7.018 7.78 7.842 7.83 7.775 7.652 7.495 7.335 7.175 7.018 6.935 6.928 6.925 6.925 6.922 6.918 6.973 7.1 7.237 7.37 7.495 7.612 7.728 7.865 8.048 8.255
8.977 8.903 8.86 8.862 8.865 8.865 8.85 8.812 8.765 8.713 8.705 8.74 8.76 8.765 8.725 8.675 8.66 8.65 8.645 8.645 8.64 8.63 8.615 8.59 8.557 8.525 8.513 8.518 8.525 8.532 8.537 8.535 8.52 8.495 8.462 8.427 8.387 8.338 8.308 8.3 8.285 8.27 8.26 8.298 8.375 8.425 8.45 8.473 8.503 8.547 8.587 8.587 8.568 8.55 8.52 8.477 8.433 8.395 8.375 8.36 8.327 8.275 8.215 8.142 8.048 8.05 8.277 8.59 8.857 9.067 9.167 9.175 9.135 9.083 9.095 9.165 9.235 9.305 9.352 9.3 9.258 9.415 9.652 9.775 9.762 9.697 9.627 9.515 9.328 9.115 8.948 8.96 9.158 9.392 9.46 9.3 9.078 8.98 8.985 8.942 8.867 8.777 8.72 8.687 8.637 8.575 8.45 8.252 8.045 7.893 7.843 7.858 7.89 7.945 7.993 8.035 8.123 8.242 8.292 8.273 8.265 8.273 8.29 8.313 8.345 8.39 8.443 8.495 8.535 8.552 8.55 8.532 8.502 8.462 8.428 8.405 8.385 8.363 8.345 8.34 8.345 8.355 8.342 8.31 8.27 8.217 8.173 8.14 8.107 8.073 8.05 8.048 8.068 8.11 8.17 8.242 8.315 8.42 7.8 7.846 8.765 9.083 9.358 9.62 9.625 9.385 9.138 8.89 8.73 8.652 8.49 8.33 8.017 7.011 7.096 7.905 7.885 7.862 7.787 7.64 7.468 7.298 7.133 6.988 6.925 6.922 6.918 6.915 6.915 6.913 6.97 7.098 7.232 7.362 7.485 7.6 7.715 7.855 8.033 8.235
9.012 8.915 8.878 8.882 8.887 8.89 8.872 8.827 8.773 8.72 8.715 8.755 8.787 8.797 8.75 8.67 8.63 8.63 8.647 8.667 8.67 8.66 8.645 8.62 8.59 8.565 8.558 8.563 8.57 8.577 8.582 8.577 8.557 8.525 8.48 8.43 8.377 8.323 8.293 8.285 8.273 8.26 8.253 8.295 8.357 8.387 8.413 8.443 8.483 8.535 8.59 8.6 8.573 8.55 8.517 8.467 8.415 8.383 8.37 8.36 8.345 8.317 8.267 8.202 8.13 8.148 8.327 8.54 8.715 8.875 8.98 9.03 9.042 9.008 9.013 9.082 9.14 9.17 9.167 9.113 9.18 9.402 9.622 9.785 9.837 9.802 9.715 9.583 9.423 9.28 9.183 9.255 9.485 9.667 9.715 9.607 9.283 9.058 9.087 9.06 8.985 8.91 8.817 8.748 8.705 8.667 8.565 8.395 8.215 8.023 7.89 7.89 7.955 8.022 8.065 8.085 8.125 8.208 8.255 8.25 8.255 8.268 8.288 8.32 8.365 8.415 8.465 8.505 8.525 8.53 8.525 8.515 8.5 8.472 8.44 8.415 8.395 8.375 8.358 8.343 8.335 8.337 8.327 8.295 8.245 8.185 8.14 8.11 8.08 8.047 8.035 8.057 8.102 8.157 8.217 8.282 8.345 8.44 7.913 8.013 8.862 9.16 9.42 9.65 9.635 9.385 9.135 8.885 8.74 8.737 8.58 8.347 7.54 7.058 7.627 7.92 7.9 7.877 7.79 7.63 7.455 7.28 7.113 6.975 6.918 6.915 6.912 6.908 6.905 6.905 6.965 7.093 7.227 7.355 7.472 7.588 7.705 7.845 8.02 8.218
