ncols         200
nrows         71
xllcorner     547000
yllcorner     254035
cellsize      5
NODATA_value  -9999.0
18.373 18.24 18.155 18.123 18.098 18.075 17.995 17.868 17.78 17.743 17.75 17.78 17.81 17.838 17.86 17.885 17.915 17.945 17.95 17.927 17.897 17.852 17.79 17.72 17.65 17.585 17.533 17.48 17.425 17.375 17.375 17.43 17.493 17.56 17.64 17.73 17.812 17.87 17.87 17.83 17.79 17.768 17.8 17.883 17.977 18.047 18.085 18.127 18.185 18.242 18.257 18.227 18.2 18.19 18.185 18.177 18.172 18.177 18.202 18.235 18.26 18.27 18.265 18.255 18.25 18.265 18.287 18.305 18.32 18.322 18.32 18.315 18.305 18.3 18.285 18.255 18.227 18.21 18.205 18.215 18.235 18.257 18.262 18.247 18.227 18.207 18.197 18.175 18.138 18.108 18.105 18.125 18.143 18.16 18.188 18.22 18.255 18.295 18.345 18.405 18.462 18.525 18.605 18.695 18.788 18.89 18.987 19.065 19.137 19.205 19.278 19.365 19.455 19.54 19.597 19.63 19.655 19.67 19.63 19.55 19.483 19.418 19.36 19.353 19.398 19.45 19.512 19.59 19.67 19.755 19.853 19.952 20.03 20.092 20.147 20.195 20.245 20.303 20.373 20.45 20.527 20.572 20.537 20.455 20.378 20.308 20.238 20.205 20.323 20.54 20.745 20.932 21.05 21.085 21.095 21.11 21.145 21.183 21.21 21.24 21.273 21.3 21.325 21.367 21.422 21.427 21.362 21.275 21.182 21.092 21.008 20.918 20.82 20.723 20.733 20.88 21.04 21.18 21.312 21.395 21.467 21.57 21.667 21.75 21.702 21.545 21.45 21.41 21.37 21.333 21.343 21.368 21.365 21.368 21.445 21.618 21.813 22.01 22.128 22.165
18.54 18.41 18.328 18.3 18.28 18.26 18.172 18.013 17.873 17.805 17.818 17.865 17.905 17.928 17.948 17.97 17.995 18.025 18.027 18 17.965 17.92 17.86 17.79 17.73 17.69 17.652 17.602 17.55 17.5 17.5 17.565 17.637 17.708 17.79 17.867 17.915 17.935 17.922 17.885 17.86 17.868 17.923 18.012 18.08 18.097 18.1 18.133 18.19 18.252 18.26 18.228 18.22 18.23 18.237 18.232 18.227 18.225 18.24 18.265 18.277 18.277 18.27 18.26 18.273 18.318 18.355 18.37 18.362 18.335 18.325 18.33 18.325 18.32 18.305 18.278 18.26 18.255 18.25 18.243 18.25 18.272 18.275 18.253 18.23 18.215 18.22 18.227 18.21 18.18 18.175 18.192 18.202 18.21 18.235 18.27 18.303 18.34 18.39 18.447 18.495 18.543 18.615 18.705 18.808 18.932 19.042 19.122 19.19 19.245 19.313 19.4 19.492 19.58 19.647 19.695 19.725 19.73 19.675 19.58 19.495 19.42 19.353 19.335 19.375 19.42 19.465 19.533 19.628 19.738 19.86 19.987 20.095 20.17 20.225 20.275 20.328 20.383 20.45 20.53 20.58 20.575 20.527 20.435 20.33 20.248 20.183 20.22 20.377 20.56 20.74 20.917 21.045 21.097 21.115 21.14 21.187 21.227 21.248 21.27 21.3 21.317 21.323 21.34 21.38 21.407 21.377 21.305 21.217 21.133 21.062 20.987 20.895 20.798 20.858 21.077 21.282 21.422 21.49 21.507 21.53 21.592 21.667 21.73 21.737 21.632 21.525 21.485 21.45 21.428 21.473 21.552 21.58 21.588 21.658 21.798 21.973 22.17 22.265 22.235
18.677 18.607 18.535 18.5 18.47 18.445 18.362 18.21 18.055 17.955 17.96 18.015 18.047 18.058 18.068 18.08 18.095 18.118 18.108 18.068 18.033 17.99 17.933 17.875 17.838 17.815 17.777 17.725 17.675 17.625 17.618 17.688 17.777 17.855 17.92 17.957 17.972 17.978 17.965 17.95 17.963 17.995 18.055 18.115 18.127 18.113 18.11 18.133 18.17 18.213 18.228 18.23 18.253 18.272 18.28 18.275 18.265 18.26 18.27 18.28 18.28 18.28 18.275 18.283 18.325 18.385 18.417 18.41 18.377 18.338 18.325 18.335 18.34 18.34 18.325 18.308 18.305 18.305 18.3 18.285 18.278 18.29 18.287 18.26 18.233 18.215 18.22 18.247 18.265 18.252 18.245 18.252 18.253 18.258 18.283 18.317 18.35 18.385 18.43 18.475 18.51 18.548 18.62 18.728 18.853 18.99 19.1 19.175 19.235 19.285 19.35 19.435 19.53 19.617 19.687 19.747 19.79 19.792 19.727 19.625 19.533 19.453 19.388 19.378 19.413 19.442 19.46 19.515 19.63 19.76 19.89 20.015 20.135 20.237 20.305 20.355 20.41 20.465 20.53 20.585 20.585 20.555 20.52 20.432 20.313 20.225 20.198 20.258 20.383 20.543 20.72 20.9 21.032 21.1 21.135 21.17 21.225 21.275 21.295 21.303 21.322 21.335 21.335 21.335 21.348 21.372 21.362 21.312 21.245 21.173 21.11 21.045 20.965 20.893 20.988 21.23 21.455 21.582 21.597 21.582 21.573 21.593 21.65 21.705 21.745 21.69 21.595 21.56 21.538 21.525 21.578 21.695 21.777 21.813 21.89 22.015 22.155 22.327 22.4 22.355
18.755 18.767 18.73 18.702 18.672 18.64 18.562 18.427 18.292 18.18 18.15 18.177 18.188 18.193 18.205 18.225 18.245 18.26 18.233 18.175 18.125 18.07 18.02 17.987 17.965 17.942 17.902 17.85 17.8 17.75 17.735 17.8 17.902 17.977 18.01 18.018 18.025 18.033 18.03 18.043 18.077 18.115 18.152 18.16 18.143 18.125 18.12 18.14 18.18 18.228 18.258 18.275 18.298 18.317 18.323 18.318 18.31 18.305 18.305 18.303 18.3 18.3 18.295 18.32 18.38 18.44 18.457 18.422 18.38 18.34 18.325 18.335 18.345 18.352 18.35 18.35 18.355 18.355 18.35 18.335 18.32 18.317 18.305 18.275 18.245 18.22 18.223 18.253 18.287 18.305 18.305 18.305 18.3 18.305 18.33 18.362 18.395 18.425 18.462 18.497 18.523 18.558 18.643 18.773 18.91 19.047 19.155 19.222 19.275 19.325 19.388 19.473 19.572 19.657 19.722 19.787 19.845 19.852 19.78 19.675 19.578 19.488 19.443 19.447 19.462 19.47 19.473 19.535 19.66 19.79 19.92 20.045 20.165 20.282 20.372 20.432 20.487 20.54 20.585 20.592 20.565 20.535 20.505 20.427 20.3 20.24 20.28 20.35 20.433 20.548 20.703 20.88 21.017 21.095 21.15 21.202 21.26 21.317 21.345 21.342 21.342 21.347 21.35 21.348 21.345 21.353 21.34 21.303 21.26 21.207 21.15 21.092 21.03 21.005 21.125 21.337 21.517 21.612 21.632 21.632 21.62 21.615 21.64 21.68 21.722 21.717 21.673 21.648 21.635 21.625 21.683 21.808 21.925 22.018 22.12 22.248 22.375 22.49 22.517 22.472
18.76 18.802 18.795 18.775 18.75 18.745 18.705 18.59 18.467 18.365 18.33 18.343 18.348 18.353 18.37 18.4 18.43 18.442 18.405 18.337 18.255 18.16 18.105 18.085 18.067 18.047 18.012 17.97 17.927 17.88 17.855 17.908 18.01 18.077 18.1 18.108 18.113 18.118 18.12 18.13 18.16 18.197 18.222 18.222 18.195 18.153 18.135 18.163 18.215 18.275 18.312 18.33 18.347 18.365 18.385 18.393 18.388 18.385 18.378 18.368 18.365 18.365 18.358 18.365 18.408 18.465 18.477 18.438 18.393 18.353 18.338 18.348 18.36 18.37 18.377 18.385 18.39 18.39 18.385 18.37 18.355 18.347 18.335 18.31 18.28 18.253 18.248 18.27 18.305 18.337 18.347 18.345 18.342 18.348 18.37 18.4 18.43 18.448 18.478 18.525 18.555 18.588 18.68 18.817 18.955 19.082 19.175 19.235 19.287 19.34 19.408 19.502 19.595 19.665 19.722 19.782 19.845 19.882 19.837 19.735 19.635 19.518 19.462 19.47 19.465 19.46 19.475 19.56 19.693 19.84 19.988 20.11 20.225 20.345 20.435 20.485 20.532 20.585 20.6 20.57 20.535 20.505 20.472 20.385 20.293 20.313 20.39 20.46 20.53 20.605 20.71 20.863 21.005 21.09 21.155 21.22 21.282 21.342 21.37 21.362 21.35 21.35 21.36 21.362 21.36 21.357 21.338 21.303 21.273 21.237 21.187 21.132 21.078 21.085 21.215 21.395 21.532 21.605 21.637 21.65 21.645 21.643 21.658 21.688 21.723 21.742 21.742 21.737 21.73 21.725 21.803 21.948 22.085 22.223 22.355 22.485 22.582 22.61 22.597 22.57
18.71 18.745 18.745 18.725 18.73 18.792 18.787 18.68 18.585 18.518 18.5 18.52 18.532 18.54 18.56 18.59 18.622 18.63 18.585 18.495 18.365 18.238 18.175 18.158 18.142 18.125 18.097 18.062 18.027 17.988 17.968 18.015 18.107 18.182 18.215 18.222 18.222 18.22 18.215 18.208 18.22 18.253 18.287 18.31 18.3 18.25 18.215 18.23 18.27 18.325 18.365 18.382 18.397 18.413 18.445 18.48 18.492 18.492 18.482 18.468 18.458 18.455 18.445 18.428 18.435 18.48 18.497 18.462 18.42 18.385 18.37 18.375 18.385 18.395 18.402 18.407 18.41 18.41 18.402 18.388 18.378 18.375 18.372 18.357 18.33 18.305 18.298 18.31 18.335 18.367 18.38 18.375 18.375 18.38 18.4 18.43 18.452 18.458 18.483 18.54 18.59 18.628 18.715 18.845 18.965 19.075 19.157 19.217 19.273 19.335 19.415 19.497 19.557 19.61 19.665 19.717 19.78 19.852 19.875 19.807 19.69 19.515 19.425 19.45 19.455 19.45 19.488 19.595 19.75 19.945 20.115 20.223 20.32 20.435 20.51 20.528 20.555 20.605 20.607 20.553 20.503 20.47 20.42 20.338 20.328 20.412 20.497 20.57 20.64 20.705 20.775 20.875 20.995 21.09 21.16 21.225 21.287 21.345 21.37 21.36 21.345 21.338 21.35 21.37 21.375 21.37 21.35 21.318 21.29 21.262 21.22 21.168 21.13 21.145 21.258 21.43 21.545 21.595 21.637 21.665 21.665 21.668 21.69 21.717 21.737 21.757 21.787 21.805 21.8 21.798 21.903 22.115 22.302 22.455 22.595 22.69 22.7 22.66 22.647 22.642
18.65 18.687 18.695 18.705 18.775 18.875 18.88 18.8 18.738 18.683 18.663 18.685 18.71 18.727 18.75 18.782 18.817 18.815 18.737 18.6 18.435 18.303 18.248 18.232 18.215 18.197 18.173 18.138 18.113 18.095 18.095 18.143 18.218 18.29 18.327 18.33 18.325 18.32 18.315 18.3 18.293 18.31 18.34 18.372 18.397 18.39 18.372 18.367 18.372 18.395 18.417 18.43 18.442 18.458 18.49 18.537 18.575 18.592 18.587 18.572 18.557 18.547 18.535 18.51 18.493 18.508 18.517 18.49 18.455 18.425 18.41 18.41 18.413 18.42 18.427 18.43 18.427 18.425 18.417 18.408 18.405 18.407 18.407 18.397 18.38 18.358 18.35 18.36 18.375 18.4 18.412 18.41 18.41 18.413 18.432 18.455 18.46 18.46 18.485 18.54 18.6 18.658 18.74 18.847 18.95 19.05 19.135 19.2 19.26 19.325 19.39 19.44 19.48 19.528 19.583 19.64 19.708 19.785 19.855 19.857 19.7 19.453 19.36 19.405 19.432 19.443 19.513 19.668 19.868 20.092 20.265 20.357 20.43 20.527 20.592 20.593 20.59 20.622 20.62 20.553 20.485 20.438 20.39 20.373 20.423 20.51 20.602 20.68 20.75 20.817 20.882 20.948 21.018 21.095 21.17 21.232 21.287 21.34 21.367 21.362 21.347 21.33 21.33 21.355 21.377 21.382 21.365 21.337 21.315 21.29 21.253 21.22 21.215 21.228 21.308 21.452 21.545 21.585 21.63 21.67 21.682 21.693 21.715 21.73 21.735 21.76 21.812 21.847 21.85 21.845 21.94 22.182 22.442 22.662 22.797 22.805 22.745 22.693 22.69 22.702
18.598 18.645 18.68 18.74 18.842 18.945 18.972 18.932 18.892 18.845 18.825 18.845 18.872 18.895 18.922 18.96 18.997 18.962 18.827 18.66 18.49 18.368 18.323 18.305 18.288 18.273 18.255 18.238 18.23 18.23 18.245 18.29 18.342 18.39 18.417 18.42 18.417 18.415 18.41 18.395 18.38 18.375 18.388 18.417 18.447 18.47 18.477 18.467 18.455 18.455 18.465 18.475 18.487 18.5 18.528 18.57 18.612 18.65 18.657 18.647 18.637 18.632 18.622 18.597 18.573 18.558 18.545 18.52 18.49 18.463 18.45 18.45 18.45 18.452 18.452 18.45 18.445 18.438 18.435 18.435 18.437 18.442 18.44 18.43 18.422 18.407 18.403 18.412 18.423 18.437 18.445 18.445 18.448 18.45 18.46 18.468 18.463 18.46 18.485 18.548 18.623 18.703 18.78 18.853 18.935 19.03 19.112 19.175 19.235 19.282 19.32 19.36 19.4 19.445 19.5 19.568 19.643 19.72 19.805 19.85 19.65 19.358 19.29 19.34 19.388 19.445 19.573 19.772 19.987 20.202 20.375 20.475 20.545 20.627 20.675 20.665 20.645 20.65 20.63 20.557 20.48 20.428 20.44 20.505 20.568 20.625 20.705 20.787 20.86 20.93 20.987 21.025 21.06 21.113 21.175 21.232 21.285 21.335 21.362 21.362 21.352 21.333 21.318 21.33 21.36 21.382 21.375 21.352 21.335 21.312 21.3 21.305 21.315 21.325 21.375 21.467 21.535 21.577 21.622 21.665 21.692 21.707 21.72 21.725 21.73 21.765 21.825 21.877 21.9 21.898 21.955 22.16 22.452 22.73 22.887 22.875 22.79 22.72 22.708 22.737
18.635 18.69 18.748 18.81 18.895 18.997 19.04 19.017 18.992 18.96 18.95 18.972 18.992 19.01 19.042 19.085 19.11 19.04 18.88 18.71 18.555 18.46 18.428 18.41 18.392 18.358 18.345 18.365 18.37 18.37 18.373 18.395 18.432 18.465 18.485 18.492 18.495 18.492 18.485 18.472 18.46 18.45 18.44 18.448 18.47 18.495 18.505 18.49 18.48 18.49 18.505 18.515 18.527 18.538 18.55 18.58 18.62 18.66 18.675 18.67 18.67 18.687 18.692 18.67 18.645 18.62 18.593 18.56 18.53 18.503 18.488 18.485 18.485 18.485 18.48 18.475 18.47 18.46 18.458 18.462 18.467 18.465 18.455 18.445 18.44 18.44 18.447 18.457 18.465 18.472 18.477 18.48 18.482 18.485 18.495 18.508 18.505 18.498 18.523 18.595 18.685 18.775 18.85 18.908 18.968 19.035 19.095 19.15 19.207 19.245 19.273 19.305 19.338 19.373 19.43 19.515 19.608 19.7 19.795 19.815 19.587 19.315 19.268 19.323 19.393 19.495 19.645 19.835 20.037 20.245 20.415 20.53 20.622 20.702 20.732 20.717 20.697 20.677 20.632 20.555 20.475 20.468 20.565 20.67 20.73 20.77 20.823 20.895 20.97 21.025 21.045 21.058 21.095 21.145 21.185 21.23 21.285 21.332 21.355 21.357 21.355 21.337 21.318 21.31 21.335 21.38 21.375 21.338 21.315 21.297 21.307 21.335 21.357 21.382 21.422 21.475 21.517 21.555 21.592 21.63 21.667 21.695 21.71 21.715 21.73 21.775 21.835 21.895 21.94 21.95 21.99 22.158 22.427 22.677 22.852 22.925 22.875 22.785 22.733 22.72
18.755 18.81 18.862 18.908 18.968 19.048 19.087 19.072 19.048 19.023 19.025 19.055 19.077 19.095 19.13 19.16 19.152 19.077 18.93 18.77 18.653 18.59 18.565 18.545 18.502 18.438 18.43 18.48 18.505 18.51 18.493 18.473 18.488 18.52 18.54 18.552 18.562 18.56 18.55 18.54 18.533 18.53 18.513 18.49 18.493 18.515 18.525 18.515 18.518 18.532 18.545 18.555 18.565 18.573 18.578 18.59 18.62 18.66 18.675 18.673 18.69 18.73 18.747 18.727 18.702 18.68 18.65 18.613 18.58 18.55 18.528 18.518 18.515 18.515 18.51 18.505 18.497 18.485 18.483 18.487 18.485 18.465 18.445 18.438 18.44 18.455 18.475 18.49 18.5 18.507 18.512 18.515 18.515 18.518 18.54 18.572 18.585 18.58 18.605 18.678 18.765 18.855 18.932 18.992 19.042 19.083 19.113 19.143 19.19 19.235 19.263 19.288 19.318 19.353 19.418 19.515 19.618 19.72 19.805 19.765 19.542 19.333 19.303 19.38 19.48 19.595 19.728 19.885 20.063 20.26 20.425 20.542 20.652 20.74 20.762 20.737 20.707 20.672 20.617 20.54 20.493 20.563 20.715 20.83 20.89 20.932 20.975 21.022 21.07 21.09 21.078 21.088 21.135 21.185 21.213 21.238 21.285 21.327 21.347 21.352 21.355 21.345 21.325 21.313 21.338 21.39 21.38 21.32 21.275 21.25 21.26 21.29 21.33 21.38 21.432 21.475 21.505 21.535 21.563 21.6 21.64 21.668 21.688 21.7 21.73 21.785 21.845 21.905 21.962 21.993 22.04 22.17 22.382 22.592 22.755 22.897 22.947 22.895 22.818 22.748
18.898 18.93 18.98 19.025 19.075 19.13 19.15 19.13 19.105 19.078 19.083 19.122 19.16 19.187 19.21 19.207 19.18 19.112 18.983 18.858 18.783 18.732 18.692 18.645 18.57 18.503 18.51 18.567 18.615 18.64 18.625 18.583 18.558 18.57 18.592 18.608 18.622 18.627 18.62 18.613 18.613 18.612 18.595 18.56 18.535 18.538 18.543 18.545 18.56 18.575 18.585 18.595 18.602 18.608 18.612 18.615 18.628 18.66 18.678 18.69 18.73 18.782 18.802 18.782 18.76 18.737 18.705 18.665 18.628 18.598 18.575 18.558 18.548 18.545 18.54 18.532 18.52 18.505 18.505 18.502 18.482 18.453 18.43 18.43 18.448 18.47 18.493 18.515 18.53 18.54 18.545 18.548 18.55 18.555 18.58 18.62 18.652 18.665 18.698 18.768 18.848 18.935 19.015 19.072 19.112 19.145 19.165 19.173 19.19 19.225 19.258 19.29 19.33 19.378 19.45 19.543 19.64 19.74 19.78 19.68 19.485 19.353 19.37 19.475 19.59 19.705 19.835 19.978 20.128 20.293 20.435 20.545 20.657 20.75 20.765 20.727 20.69 20.65 20.595 20.555 20.6 20.73 20.875 20.972 21.02 21.052 21.085 21.112 21.15 21.182 21.183 21.173 21.185 21.225 21.25 21.26 21.29 21.325 21.342 21.347 21.352 21.347 21.337 21.343 21.365 21.402 21.392 21.327 21.265 21.215 21.213 21.253 21.308 21.37 21.427 21.472 21.505 21.535 21.565 21.615 21.673 21.7 21.713 21.735 21.775 21.828 21.88 21.93 21.983 22.028 22.088 22.185 22.338 22.515 22.673 22.83 22.96 22.985 22.922 22.845
19.09 19.07 19.1 19.15 19.198 19.245 19.25 19.21 19.17 19.135 19.14 19.185 19.232 19.265 19.265 19.24 19.21 19.152 19.06 18.978 18.915 18.855 18.787 18.707 18.62 18.565 18.585 18.64 18.695 18.74 18.737 18.697 18.655 18.635 18.645 18.663 18.678 18.69 18.692 18.69 18.695 18.695 18.675 18.642 18.608 18.583 18.575 18.585 18.603 18.615 18.625 18.633 18.638 18.643 18.648 18.65 18.653 18.668 18.693 18.73 18.777 18.827 18.847 18.83 18.81 18.787 18.757 18.72 18.68 18.648 18.625 18.605 18.59 18.58 18.57 18.558 18.543 18.53 18.52 18.498 18.465 18.438 18.428 18.44 18.465 18.49 18.51 18.532 18.555 18.57 18.577 18.582 18.585 18.593 18.62 18.66 18.702 18.738 18.785 18.857 18.935 19.017 19.092 19.142 19.175 19.207 19.227 19.232 19.235 19.243 19.27 19.313 19.358 19.408 19.483 19.575 19.668 19.762 19.757 19.623 19.458 19.385 19.453 19.57 19.687 19.808 19.938 20.075 20.215 20.352 20.45 20.535 20.645 20.735 20.745 20.703 20.667 20.63 20.61 20.648 20.742 20.86 20.967 21.042 21.082 21.105 21.125 21.15 21.21 21.287 21.33 21.317 21.288 21.285 21.293 21.298 21.31 21.328 21.335 21.34 21.345 21.34 21.337 21.357 21.39 21.422 21.402 21.32 21.232 21.178 21.188 21.24 21.305 21.37 21.425 21.47 21.505 21.535 21.58 21.653 21.732 21.785 21.812 21.845 21.885 21.927 21.972 22.012 22.04 22.063 22.113 22.213 22.368 22.54 22.695 22.85 22.99 23.022 22.957 22.887
19.25 19.2 19.213 19.272 19.322 19.37 19.372 19.318 19.258 19.208 19.203 19.248 19.3 19.332 19.323 19.29 19.26 19.215 19.15 19.08 19.01 18.937 18.857 18.77 18.693 18.655 18.663 18.703 18.757 18.807 18.812 18.777 18.743 18.733 18.73 18.728 18.74 18.755 18.765 18.765 18.767 18.76 18.742 18.722 18.69 18.655 18.64 18.648 18.663 18.678 18.688 18.69 18.695 18.695 18.69 18.69 18.69 18.693 18.71 18.75 18.795 18.84 18.862 18.85 18.83 18.81 18.8 18.785 18.75 18.713 18.688 18.67 18.653 18.633 18.608 18.588 18.573 18.56 18.55 18.528 18.495 18.47 18.465 18.48 18.505 18.528 18.53 18.535 18.557 18.58 18.592 18.595 18.595 18.615 18.663 18.712 18.758 18.8 18.858 18.932 19.01 19.09 19.16 19.205 19.237 19.272 19.29 19.292 19.292 19.288 19.308 19.353 19.4 19.45 19.523 19.615 19.705 19.782 19.765 19.645 19.5 19.438 19.51 19.63 19.763 19.913 20.038 20.153 20.287 20.417 20.487 20.533 20.625 20.717 20.73 20.685 20.648 20.62 20.643 20.72 20.807 20.895 20.982 21.052 21.1 21.13 21.15 21.188 21.26 21.35 21.427 21.45 21.412 21.365 21.343 21.34 21.345 21.345 21.333 21.328 21.33 21.327 21.308 21.303 21.335 21.367 21.33 21.233 21.163 21.148 21.183 21.243 21.308 21.37 21.425 21.467 21.503 21.56 21.633 21.71 21.795 21.86 21.897 21.93 21.972 22.017 22.057 22.08 22.082 22.08 22.115 22.245 22.445 22.635 22.795 22.95 23.047 23.02 22.935 22.865
19.345 19.298 19.315 19.382 19.442 19.495 19.492 19.433 19.373 19.32 19.298 19.323 19.37 19.407 19.4 19.365 19.333 19.295 19.232 19.15 19.075 19.002 18.923 18.845 18.803 18.793 18.778 18.775 18.81 18.862 18.87 18.838 18.833 18.87 18.87 18.825 18.813 18.825 18.835 18.832 18.822 18.803 18.79 18.785 18.765 18.733 18.715 18.723 18.74 18.76 18.77 18.77 18.77 18.76 18.745 18.735 18.733 18.735 18.735 18.748 18.783 18.827 18.85 18.845 18.83 18.813 18.82 18.837 18.825 18.79 18.763 18.747 18.725 18.695 18.66 18.628 18.608 18.595 18.597 18.597 18.577 18.553 18.54 18.545 18.565 18.582 18.565 18.543 18.548 18.567 18.58 18.58 18.595 18.64 18.705 18.77 18.822 18.865 18.925 19 19.073 19.15 19.22 19.265 19.3 19.342 19.357 19.345 19.338 19.335 19.355 19.4 19.447 19.495 19.565 19.655 19.732 19.787 19.772 19.685 19.565 19.493 19.55 19.688 19.86 20.042 20.16 20.238 20.355 20.485 20.55 20.565 20.618 20.702 20.72 20.673 20.633 20.628 20.665 20.733 20.82 20.91 20.995 21.06 21.11 21.15 21.175 21.225 21.307 21.392 21.47 21.515 21.495 21.44 21.405 21.39 21.388 21.382 21.355 21.323 21.313 21.312 21.278 21.23 21.223 21.232 21.193 21.135 21.128 21.143 21.18 21.245 21.31 21.37 21.425 21.465 21.528 21.65 21.735 21.788 21.87 21.935 21.962 21.978 22.005 22.045 22.082 22.09 22.083 22.078 22.128 22.29 22.51 22.72 22.895 23.04 23.082 23.01 22.918 22.83
19.45 19.393 19.41 19.482 19.552 19.612 19.612 19.56 19.513 19.47 19.44 19.433 19.45 19.482 19.48 19.445 19.41 19.375 19.32 19.233 19.145 19.07 18.998 18.95 18.945 18.95 18.93 18.895 18.885 18.918 18.93 18.928 18.97 19.03 19.03 18.968 18.918 18.903 18.9 18.887 18.865 18.84 18.828 18.825 18.82 18.802 18.79 18.8 18.82 18.84 18.85 18.845 18.835 18.82 18.805 18.79 18.78 18.78 18.777 18.773 18.783 18.815 18.835 18.835 18.83 18.818 18.825 18.857 18.877 18.865 18.84 18.82 18.79 18.755 18.72 18.68 18.65 18.635 18.64 18.652 18.652 18.635 18.62 18.618 18.628 18.637 18.615 18.58 18.558 18.558 18.565 18.578 18.62 18.677 18.74 18.812 18.88 18.932 18.993 19.067 19.14 19.212 19.28 19.33 19.375 19.427 19.44 19.41 19.39 19.383 19.403 19.448 19.493 19.54 19.605 19.68 19.737 19.782 19.767 19.692 19.605 19.543 19.61 19.793 20 20.19 20.305 20.365 20.443 20.55 20.615 20.623 20.64 20.695 20.707 20.658 20.633 20.655 20.7 20.755 20.835 20.923 21.005 21.07 21.12 21.167 21.208 21.265 21.345 21.422 21.487 21.532 21.545 21.515 21.478 21.453 21.435 21.427 21.397 21.345 21.31 21.298 21.262 21.2 21.153 21.128 21.11 21.108 21.123 21.14 21.18 21.243 21.307 21.37 21.423 21.493 21.62 21.782 21.867 21.89 21.953 22.015 22.037 22.045 22.055 22.075 22.1 22.102 22.09 22.078 22.158 22.355 22.575 22.795 22.99 23.105 23.09 23 22.913 22.828
19.588 19.498 19.505 19.58 19.658 19.73 19.745 19.705 19.667 19.63 19.6 19.58 19.568 19.57 19.558 19.525 19.49 19.455 19.407 19.325 19.23 19.15 19.1 19.09 19.1 19.107 19.09 19.05 19.015 19.003 19.018 19.063 19.127 19.19 19.19 19.122 19.045 18.993 18.968 18.943 18.913 18.883 18.868 18.868 18.87 18.87 18.875 18.89 18.91 18.93 18.933 18.915 18.895 18.878 18.862 18.847 18.833 18.823 18.82 18.815 18.81 18.818 18.825 18.825 18.823 18.818 18.83 18.862 18.895 18.912 18.907 18.885 18.85 18.815 18.78 18.74 18.703 18.68 18.683 18.695 18.707 18.71 18.702 18.697 18.697 18.692 18.665 18.63 18.595 18.57 18.57 18.603 18.657 18.712 18.775 18.848 18.922 18.992 19.06 19.132 19.207 19.28 19.347 19.407 19.465 19.517 19.525 19.49 19.458 19.435 19.448 19.493 19.54 19.587 19.64 19.693 19.738 19.78 19.767 19.7 19.633 19.598 19.708 19.932 20.15 20.337 20.45 20.51 20.567 20.635 20.68 20.69 20.695 20.715 20.718 20.685 20.675 20.698 20.738 20.785 20.853 20.937 21.017 21.08 21.13 21.183 21.243 21.308 21.375 21.445 21.503 21.543 21.575 21.58 21.555 21.525 21.498 21.48 21.445 21.39 21.34 21.3 21.258 21.203 21.15 21.11 21.095 21.103 21.12 21.14 21.18 21.24 21.305 21.373 21.458 21.59 21.753 21.915 22.01 22.023 22.05 22.095 22.115 22.125 22.13 22.127 22.122 22.112 22.098 22.088 22.175 22.38 22.61 22.84 23.057 23.15 23.097 23.015 22.938 22.863
19.75 19.64 19.628 19.69 19.77 19.85 19.88 19.85 19.815 19.815 19.778 19.715 19.692 19.673 19.653 19.623 19.588 19.553 19.515 19.455 19.375 19.3 19.265 19.268 19.273 19.27 19.245 19.205 19.167 19.133 19.148 19.212 19.28 19.322 19.29 19.205 19.122 19.075 19.053 19.025 18.99 18.958 18.943 18.943 18.948 18.953 18.97 18.998 19.02 19.04 19.037 19.013 18.983 18.948 18.915 18.895 18.88 18.865 18.86 18.857 18.853 18.848 18.843 18.84 18.838 18.833 18.833 18.853 18.885 18.915 18.95 18.955 18.92 18.885 18.85 18.81 18.77 18.743 18.743 18.755 18.767 18.765 18.752 18.747 18.742 18.73 18.702 18.667 18.632 18.603 18.595 18.625 18.677 18.735 18.805 18.882 18.96 19.04 19.12 19.195 19.267 19.342 19.415 19.48 19.542 19.587 19.59 19.56 19.525 19.495 19.498 19.54 19.587 19.632 19.678 19.723 19.762 19.792 19.792 19.75 19.69 19.668 19.798 20.037 20.27 20.46 20.557 20.602 20.645 20.69 20.737 20.765 20.772 20.778 20.775 20.76 20.748 20.755 20.783 20.82 20.873 20.95 21.03 21.09 21.143 21.205 21.283 21.357 21.42 21.483 21.533 21.57 21.618 21.657 21.655 21.625 21.595 21.563 21.518 21.468 21.42 21.368 21.303 21.24 21.195 21.155 21.12 21.108 21.12 21.14 21.18 21.24 21.31 21.405 21.57 21.75 21.895 22.05 22.152 22.17 22.17 22.177 22.177 22.172 22.165 22.15 22.13 22.115 22.108 22.113 22.178 22.355 22.595 22.835 23.035 23.09 23.05 23.025 23.002 22.962
19.943 19.853 19.82 19.835 19.89 19.97 20.007 19.988 19.985 20.062 20.032 19.875 19.798 19.778 19.762 19.74 19.71 19.675 19.648 19.625 19.577 19.51 19.475 19.475 19.462 19.432 19.395 19.355 19.315 19.28 19.295 19.36 19.402 19.387 19.317 19.228 19.17 19.158 19.15 19.125 19.093 19.065 19.05 19.045 19.048 19.05 19.073 19.112 19.142 19.162 19.16 19.13 19.082 19.025 18.973 18.938 18.918 18.903 18.898 18.9 18.897 18.892 18.888 18.882 18.877 18.867 18.848 18.84 18.863 18.895 18.955 19.01 19 18.965 18.93 18.89 18.85 18.82 18.82 18.83 18.822 18.79 18.765 18.762 18.76 18.752 18.727 18.693 18.663 18.64 18.633 18.648 18.688 18.745 18.823 18.912 18.995 19.075 19.162 19.25 19.325 19.398 19.47 19.537 19.587 19.61 19.617 19.61 19.585 19.555 19.555 19.59 19.633 19.677 19.722 19.765 19.795 19.81 19.82 19.812 19.767 19.738 19.86 20.102 20.322 20.485 20.577 20.62 20.648 20.693 20.765 20.827 20.855 20.862 20.857 20.84 20.825 20.828 20.845 20.87 20.905 20.968 21.04 21.1 21.168 21.245 21.33 21.41 21.475 21.532 21.578 21.623 21.695 21.765 21.775 21.745 21.71 21.667 21.62 21.575 21.53 21.48 21.408 21.315 21.248 21.205 21.165 21.135 21.128 21.14 21.18 21.25 21.353 21.49 21.67 21.892 22.075 22.21 22.295 22.292 22.257 22.227 22.202 22.183 22.167 22.15 22.13 22.12 22.128 22.145 22.18 22.323 22.56 22.787 22.93 22.927 22.888 22.9 22.93 22.947
20.17 20.103 20.065 20.045 20.05 20.098 20.135 20.153 20.225 20.36 20.352 20.138 19.948 19.88 19.868 19.857 19.837 19.808 19.785 19.78 19.762 19.717 19.685 19.667 19.63 19.583 19.54 19.5 19.463 19.428 19.442 19.482 19.462 19.405 19.333 19.268 19.248 19.252 19.245 19.222 19.195 19.173 19.16 19.155 19.153 19.153 19.178 19.22 19.257 19.285 19.275 19.225 19.16 19.095 19.04 18.995 18.96 18.938 18.933 18.938 18.94 18.938 18.932 18.925 18.915 18.902 18.882 18.858 18.85 18.873 18.935 19.02 19.06 19.042 19.007 18.97 18.93 18.9 18.892 18.882 18.847 18.803 18.778 18.775 18.777 18.775 18.75 18.72 18.7 18.683 18.678 18.685 18.705 18.75 18.833 18.932 19.025 19.11 19.198 19.29 19.377 19.455 19.522 19.575 19.597 19.605 19.617 19.63 19.63 19.61 19.613 19.645 19.683 19.725 19.765 19.792 19.805 19.815 19.827 19.84 19.827 19.805 19.92 20.137 20.3 20.425 20.53 20.6 20.643 20.698 20.775 20.855 20.917 20.945 20.94 20.92 20.903 20.9 20.915 20.935 20.958 20.998 21.055 21.125 21.207 21.29 21.37 21.45 21.522 21.58 21.63 21.698 21.79 21.875 21.895 21.86 21.817 21.767 21.715 21.677 21.64 21.592 21.532 21.433 21.325 21.258 21.215 21.18 21.153 21.143 21.19 21.3 21.443 21.597 21.75 21.995 22.247 22.352 22.37 22.342 22.29 22.243 22.213 22.19 22.17 22.15 22.138 22.143 22.16 22.18 22.2 22.308 22.517 22.712 22.805 22.772 22.7 22.678 22.7 22.75
20.402 20.347 20.315 20.295 20.275 20.275 20.3 20.375 20.512 20.665 20.667 20.445 20.165 20.005 19.975 19.97 19.958 19.94 19.925 19.92 19.915 19.897 19.872 19.835 19.785 19.735 19.69 19.65 19.613 19.575 19.56 19.54 19.483 19.42 19.365 19.34 19.342 19.345 19.335 19.317 19.295 19.278 19.27 19.262 19.255 19.25 19.27 19.312 19.357 19.39 19.37 19.305 19.235 19.168 19.11 19.065 19.02 18.985 18.973 18.975 18.98 18.983 18.977 18.963 18.95 18.938 18.917 18.893 18.868 18.863 18.915 19.007 19.087 19.105 19.075 19.042 19.005 18.97 18.94 18.905 18.86 18.815 18.793 18.79 18.793 18.795 18.78 18.758 18.743 18.728 18.723 18.73 18.74 18.765 18.84 18.945 19.048 19.145 19.235 19.325 19.42 19.507 19.56 19.58 19.59 19.6 19.613 19.63 19.645 19.65 19.667 19.7 19.735 19.772 19.8 19.81 19.815 19.823 19.835 19.85 19.858 19.86 19.953 20.11 20.238 20.36 20.468 20.558 20.632 20.705 20.782 20.86 20.94 21.002 21.017 21 20.98 20.975 20.988 21.005 21.025 21.048 21.07 21.12 21.197 21.275 21.35 21.437 21.537 21.622 21.7 21.79 21.89 21.982 22.007 21.96 21.902 21.84 21.775 21.735 21.71 21.682 21.647 21.562 21.435 21.325 21.26 21.222 21.185 21.168 21.23 21.37 21.525 21.68 21.837 22.032 22.272 22.38 22.352 22.327 22.292 22.255 22.227 22.2 22.175 22.158 22.158 22.175 22.195 22.215 22.235 22.308 22.458 22.617 22.68 22.627 22.54 22.475 22.48 22.55
20.575 20.555 20.545 20.525 20.505 20.48 20.463 20.517 20.655 20.812 20.802 20.56 20.29 20.143 20.108 20.1 20.088 20.073 20.06 20.055 20.045 20.015 20.012 20.007 19.96 19.91 19.865 19.825 19.785 19.745 19.698 19.64 19.58 19.503 19.443 19.433 19.435 19.435 19.427 19.412 19.392 19.377 19.37 19.36 19.35 19.338 19.35 19.395 19.442 19.465 19.437 19.377 19.31 19.24 19.183 19.14 19.103 19.073 19.045 19.03 19.03 19.035 19.03 19.013 18.998 18.98 18.958 18.933 18.908 18.898 18.928 19.003 19.097 19.135 19.11 19.077 19.042 19.005 18.96 18.913 18.87 18.843 18.838 18.84 18.84 18.843 18.838 18.82 18.803 18.785 18.798 18.823 18.83 18.845 18.895 18.988 19.095 19.2 19.298 19.39 19.477 19.54 19.562 19.57 19.58 19.6 19.618 19.63 19.648 19.668 19.705 19.745 19.777 19.812 19.832 19.838 19.845 19.86 19.875 19.885 19.895 19.913 19.983 20.093 20.203 20.318 20.433 20.537 20.602 20.66 20.737 20.815 20.9 21.002 21.06 21.06 21.055 21.052 21.063 21.08 21.098 21.115 21.103 21.088 21.13 21.203 21.283 21.385 21.513 21.637 21.742 21.84 21.942 22.042 22.077 22.03 21.96 21.89 21.82 21.76 21.73 21.72 21.7 21.627 21.502 21.37 21.285 21.245 21.218 21.23 21.295 21.413 21.562 21.717 21.875 22.013 22.19 22.312 22.302 22.28 22.265 22.252 22.23 22.2 22.172 22.158 22.177 22.222 22.26 22.282 22.3 22.34 22.425 22.535 22.557 22.483 22.395 22.32 22.325 22.405
20.71 20.743 20.755 20.735 20.705 20.657 20.603 20.583 20.658 20.805 20.765 20.52 20.345 20.28 20.263 20.252 20.232 20.208 20.19 20.182 20.155 20.093 20.103 20.16 20.145 20.097 20.052 20.01 19.97 19.93 19.882 19.817 19.73 19.615 19.54 19.53 19.53 19.527 19.517 19.502 19.485 19.47 19.46 19.45 19.437 19.423 19.435 19.477 19.512 19.522 19.492 19.435 19.372 19.308 19.26 19.23 19.205 19.185 19.15 19.11 19.093 19.095 19.09 19.075 19.057 19.03 19.005 18.983 18.97 18.978 18.985 19.02 19.102 19.142 19.12 19.085 19.048 19.012 18.97 18.925 18.9 18.9 18.907 18.912 18.917 18.92 18.912 18.895 18.875 18.855 18.895 18.955 18.97 18.988 19.025 19.09 19.18 19.283 19.382 19.467 19.522 19.542 19.55 19.56 19.583 19.627 19.647 19.643 19.655 19.675 19.718 19.772 19.812 19.847 19.867 19.875 19.893 19.925 19.947 19.953 19.96 19.98 20.045 20.143 20.24 20.343 20.465 20.55 20.55 20.57 20.643 20.728 20.845 20.985 21.062 21.077 21.092 21.11 21.132 21.155 21.173 21.19 21.172 21.115 21.088 21.13 21.23 21.358 21.5 21.64 21.75 21.843 21.94 22.03 22.072 22.06 22.01 21.94 21.87 21.798 21.748 21.73 21.7 21.625 21.512 21.385 21.3 21.268 21.273 21.32 21.378 21.453 21.578 21.732 21.887 22.002 22.105 22.215 22.247 22.23 22.238 22.245 22.222 22.19 22.158 22.143 22.178 22.245 22.305 22.35 22.392 22.43 22.457 22.472 22.432 22.348 22.263 22.218 22.25 22.325
20.885 20.947 20.965 20.935 20.882 20.817 20.758 20.708 20.703 20.795 20.742 20.558 20.475 20.435 20.417 20.402 20.375 20.343 20.322 20.3 20.245 20.17 20.168 20.255 20.305 20.282 20.238 20.195 20.155 20.115 20.052 19.955 19.832 19.7 19.633 19.63 19.627 19.617 19.603 19.59 19.577 19.563 19.55 19.54 19.525 19.51 19.523 19.552 19.57 19.575 19.545 19.485 19.438 19.403 19.37 19.343 19.32 19.3 19.265 19.215 19.175 19.16 19.15 19.132 19.11 19.08 19.055 19.048 19.06 19.072 19.068 19.068 19.115 19.152 19.132 19.095 19.055 19.02 18.988 18.963 18.96 18.97 18.975 18.98 18.99 18.995 18.985 18.965 18.945 18.928 18.98 19.075 19.115 19.14 19.185 19.235 19.293 19.373 19.455 19.507 19.525 19.53 19.543 19.568 19.615 19.675 19.695 19.678 19.673 19.683 19.72 19.78 19.835 19.88 19.905 19.923 19.955 19.997 20.022 20.028 20.033 20.05 20.115 20.215 20.315 20.417 20.507 20.527 20.493 20.493 20.553 20.668 20.83 20.985 21.057 21.078 21.108 21.145 21.182 21.217 21.247 21.27 21.255 21.19 21.118 21.12 21.228 21.375 21.523 21.665 21.78 21.873 21.965 22.022 22.04 22.045 22.032 21.987 21.92 21.845 21.778 21.742 21.697 21.61 21.51 21.398 21.323 21.32 21.36 21.42 21.475 21.53 21.613 21.745 21.892 21.99 22.05 22.14 22.195 22.198 22.225 22.242 22.22 22.185 22.15 22.13 22.163 22.233 22.303 22.37 22.44 22.5 22.47 22.383 22.31 22.225 22.145 22.135 22.198 22.27
21.082 21.145 21.157 21.107 21.04 20.97 20.91 20.863 20.818 20.82 20.773 20.68 20.635 20.593 20.567 20.545 20.513 20.478 20.445 20.395 20.325 20.25 20.233 20.315 20.415 20.45 20.425 20.382 20.337 20.287 20.195 20.06 19.923 19.793 19.73 19.725 19.715 19.702 19.69 19.68 19.67 19.655 19.64 19.627 19.612 19.598 19.597 19.61 19.62 19.625 19.605 19.57 19.55 19.54 19.515 19.477 19.445 19.417 19.38 19.33 19.28 19.24 19.213 19.188 19.163 19.135 19.12 19.133 19.155 19.167 19.162 19.145 19.15 19.165 19.145 19.108 19.073 19.04 19.018 19.012 19.02 19.03 19.042 19.055 19.065 19.072 19.065 19.043 19.02 19.005 19.06 19.175 19.25 19.292 19.337 19.38 19.417 19.467 19.515 19.533 19.535 19.538 19.56 19.61 19.67 19.725 19.745 19.73 19.713 19.703 19.728 19.785 19.848 19.907 19.95 19.987 20.03 20.072 20.097 20.102 20.107 20.123 20.183 20.28 20.377 20.467 20.502 20.478 20.443 20.423 20.49 20.65 20.83 20.985 21.06 21.09 21.13 21.172 21.217 21.262 21.305 21.34 21.332 21.278 21.218 21.21 21.295 21.435 21.58 21.725 21.847 21.942 22.015 22.035 22.03 22.028 22.027 22.012 21.96 21.887 21.815 21.757 21.687 21.593 21.5 21.403 21.36 21.4 21.46 21.517 21.572 21.63 21.688 21.778 21.892 21.975 22.035 22.102 22.152 22.182 22.217 22.237 22.22 22.183 22.148 22.135 22.175 22.248 22.32 22.393 22.465 22.532 22.507 22.373 22.228 22.118 22.053 22.065 22.135 22.205
21.265 21.325 21.325 21.26 21.19 21.12 21.07 21.035 20.993 20.948 20.9 20.853 20.805 20.755 20.715 20.685 20.653 20.62 20.585 20.538 20.47 20.388 20.363 20.443 20.55 20.602 20.595 20.555 20.505 20.437 20.325 20.18 20.035 19.903 19.83 19.813 19.8 19.788 19.775 19.765 19.755 19.74 19.722 19.705 19.687 19.672 19.653 19.64 19.645 19.652 19.647 19.637 19.63 19.63 19.62 19.587 19.55 19.515 19.482 19.44 19.39 19.34 19.3 19.27 19.245 19.223 19.22 19.238 19.255 19.26 19.247 19.23 19.213 19.195 19.168 19.135 19.105 19.075 19.053 19.048 19.055 19.07 19.107 19.14 19.15 19.16 19.152 19.128 19.105 19.083 19.13 19.25 19.345 19.397 19.432 19.465 19.5 19.55 19.582 19.585 19.585 19.585 19.615 19.675 19.732 19.77 19.792 19.797 19.78 19.763 19.77 19.815 19.878 19.943 20 20.05 20.097 20.14 20.16 20.155 20.15 20.16 20.215 20.31 20.402 20.467 20.472 20.438 20.403 20.395 20.49 20.665 20.84 20.977 21.045 21.08 21.12 21.162 21.225 21.29 21.34 21.387 21.412 21.392 21.348 21.338 21.405 21.525 21.663 21.807 21.93 22.01 22.04 22.035 22.03 22.03 22.027 22.02 21.98 21.91 21.84 21.772 21.693 21.598 21.505 21.425 21.385 21.415 21.482 21.545 21.607 21.672 21.735 21.805 21.887 21.96 22.015 22.052 22.095 22.155 22.207 22.235 22.22 22.183 22.148 22.153 22.21 22.282 22.355 22.427 22.5 22.565 22.595 22.495 22.3 22.057 21.913 21.952 22.022 22.09
21.435 21.495 21.487 21.413 21.34 21.275 21.238 21.215 21.182 21.14 21.09 21.04 20.985 20.92 20.868 20.833 20.8 20.77 20.745 20.72 20.677 20.608 20.598 20.665 20.717 20.735 20.727 20.705 20.665 20.582 20.455 20.313 20.17 20.035 19.945 19.905 19.885 19.872 19.858 19.845 19.835 19.82 19.798 19.773 19.753 19.737 19.702 19.658 19.645 19.652 19.65 19.643 19.645 19.667 19.677 19.652 19.62 19.59 19.567 19.542 19.5 19.45 19.41 19.383 19.358 19.335 19.335 19.352 19.355 19.335 19.315 19.3 19.277 19.247 19.213 19.18 19.15 19.12 19.095 19.078 19.078 19.1 19.157 19.217 19.24 19.25 19.24 19.215 19.192 19.16 19.195 19.305 19.392 19.44 19.47 19.508 19.56 19.625 19.66 19.66 19.66 19.66 19.69 19.745 19.782 19.797 19.82 19.852 19.857 19.848 19.85 19.875 19.925 19.987 20.045 20.095 20.14 20.172 20.18 20.167 20.158 20.163 20.218 20.31 20.387 20.437 20.437 20.403 20.39 20.425 20.528 20.69 20.845 20.95 21.005 21.04 21.077 21.115 21.19 21.287 21.36 21.415 21.467 21.5 21.482 21.465 21.525 21.635 21.755 21.89 21.997 22.042 22.045 22.038 22.033 22.03 22.03 22.027 21.99 21.92 21.853 21.79 21.715 21.623 21.538 21.473 21.413 21.385 21.425 21.495 21.565 21.635 21.705 21.78 21.86 21.93 21.97 21.98 22.015 22.09 22.167 22.222 22.225 22.192 22.158 22.173 22.243 22.317 22.39 22.462 22.535 22.595 22.642 22.557 22.262 21.893 21.73 21.788 21.862 21.935
21.613 21.662 21.65 21.568 21.49 21.435 21.405 21.385 21.362 21.33 21.282 21.225 21.157 21.083 21.025 20.987 20.953 20.92 20.895 20.875 20.855 20.825 20.82 20.837 20.84 20.84 20.835 20.825 20.807 20.727 20.59 20.448 20.305 20.173 20.08 20.02 19.975 19.955 19.942 19.927 19.913 19.897 19.875 19.845 19.82 19.802 19.762 19.7 19.658 19.645 19.645 19.655 19.68 19.715 19.732 19.712 19.685 19.663 19.642 19.625 19.597 19.557 19.52 19.495 19.472 19.45 19.447 19.452 19.43 19.398 19.375 19.355 19.33 19.3 19.267 19.233 19.2 19.17 19.145 19.12 19.108 19.128 19.19 19.27 19.32 19.337 19.327 19.302 19.275 19.24 19.265 19.35 19.42 19.47 19.513 19.568 19.635 19.702 19.735 19.735 19.735 19.735 19.762 19.8 19.81 19.813 19.83 19.875 19.917 19.932 19.942 19.958 19.985 20.035 20.09 20.13 20.155 20.17 20.172 20.165 20.163 20.17 20.223 20.3 20.355 20.4 20.403 20.388 20.418 20.475 20.563 20.695 20.817 20.907 20.965 20.998 21.033 21.07 21.145 21.252 21.35 21.43 21.495 21.555 21.592 21.598 21.65 21.76 21.87 21.977 22.042 22.052 22.045 22.04 22.038 22.035 22.035 22.032 21.997 21.933 21.873 21.815 21.74 21.658 21.59 21.53 21.47 21.41 21.39 21.435 21.505 21.578 21.653 21.733 21.815 21.885 21.915 21.918 21.96 22.04 22.125 22.192 22.217 22.2 22.173 22.203 22.277 22.35 22.423 22.497 22.57 22.625 22.645 22.425 21.925 21.6 21.573 21.625 21.698 21.772
21.803 21.835 21.81 21.728 21.645 21.59 21.565 21.545 21.522 21.497 21.452 21.385 21.312 21.237 21.18 21.142 21.107 21.073 21.045 21.03 21.02 21.012 20.993 20.968 20.953 20.945 20.94 20.938 20.932 20.88 20.782 20.635 20.455 20.31 20.218 20.153 20.093 20.048 20.023 20.007 19.99 19.975 19.955 19.925 19.895 19.87 19.825 19.76 19.698 19.66 19.668 19.698 19.73 19.765 19.787 19.777 19.755 19.735 19.715 19.695 19.675 19.652 19.627 19.605 19.585 19.565 19.55 19.527 19.493 19.46 19.433 19.408 19.38 19.35 19.32 19.285 19.25 19.22 19.193 19.168 19.148 19.158 19.22 19.308 19.382 19.42 19.412 19.385 19.352 19.318 19.328 19.388 19.453 19.515 19.578 19.645 19.715 19.777 19.805 19.805 19.805 19.805 19.818 19.83 19.83 19.83 19.84 19.885 19.957 20.002 20.02 20.037 20.057 20.09 20.125 20.145 20.155 20.163 20.168 20.17 20.173 20.18 20.218 20.27 20.315 20.36 20.385 20.413 20.465 20.522 20.588 20.678 20.775 20.862 20.922 20.955 20.988 21.025 21.1 21.207 21.315 21.425 21.512 21.577 21.642 21.692 21.757 21.852 21.947 22.032 22.067 22.06 22.05 22.045 22.043 22.04 22.04 22.037 22.007 21.95 21.895 21.84 21.775 21.71 21.65 21.59 21.528 21.463 21.405 21.395 21.448 21.525 21.605 21.688 21.77 21.84 21.867 21.88 21.938 22.022 22.105 22.157 22.185 22.18 22.18 22.238 22.31 22.383 22.458 22.53 22.597 22.627 22.58 22.187 21.603 21.383 21.415 21.463 21.533 21.608
22 22.022 21.985 21.902 21.803 21.725 21.695 21.675 21.65 21.622 21.577 21.507 21.435 21.362 21.315 21.287 21.255 21.22 21.2 21.203 21.205 21.197 21.172 21.138 21.103 21.073 21.063 21.067 21.052 21.015 20.967 20.872 20.71 20.538 20.43 20.375 20.3 20.2 20.12 20.085 20.07 20.052 20.032 20.005 19.975 19.942 19.892 19.83 19.77 19.735 19.75 19.785 19.815 19.842 19.855 19.845 19.825 19.805 19.785 19.767 19.75 19.738 19.725 19.705 19.685 19.667 19.645 19.61 19.575 19.54 19.505 19.475 19.443 19.408 19.375 19.343 19.31 19.288 19.268 19.245 19.223 19.223 19.275 19.358 19.437 19.492 19.495 19.462 19.425 19.388 19.39 19.445 19.515 19.585 19.658 19.73 19.795 19.84 19.855 19.855 19.855 19.858 19.877 19.895 19.895 19.893 19.893 19.933 20.015 20.065 20.075 20.09 20.112 20.137 20.152 20.16 20.168 20.173 20.183 20.198 20.205 20.21 20.235 20.275 20.318 20.365 20.408 20.453 20.507 20.562 20.61 20.66 20.733 20.815 20.875 20.91 20.94 20.975 21.05 21.16 21.275 21.407 21.515 21.582 21.647 21.712 21.797 21.89 21.97 22.05 22.085 22.075 22.065 22.063 22.06 22.053 22.05 22.05 22.025 21.973 21.918 21.87 21.823 21.765 21.705 21.65 21.59 21.525 21.46 21.41 21.418 21.48 21.56 21.645 21.73 21.797 21.825 21.853 21.92 22.005 22.077 22.12 22.145 22.158 22.2 22.278 22.35 22.423 22.495 22.565 22.602 22.56 22.43 21.97 21.425 21.27 21.303 21.345 21.393 21.443
22.2 22.217 22.172 22.075 21.95 21.848 21.805 21.782 21.755 21.727 21.682 21.612 21.54 21.468 21.425 21.415 21.395 21.363 21.355 21.38 21.392 21.382 21.357 21.32 21.275 21.223 21.203 21.197 21.165 21.125 21.085 21.045 20.97 20.842 20.732 20.645 20.52 20.378 20.26 20.183 20.148 20.13 20.107 20.08 20.05 20.017 19.97 19.913 19.87 19.853 19.87 19.905 19.925 19.93 19.925 19.912 19.897 19.88 19.86 19.843 19.83 19.823 19.812 19.795 19.778 19.765 19.745 19.71 19.675 19.64 19.6 19.565 19.525 19.478 19.44 19.41 19.388 19.383 19.375 19.352 19.325 19.315 19.358 19.433 19.502 19.555 19.56 19.527 19.49 19.45 19.46 19.528 19.6 19.67 19.743 19.815 19.865 19.885 19.89 19.89 19.89 19.895 19.932 19.982 20.005 20.005 20 20.023 20.092 20.137 20.133 20.135 20.15 20.172 20.185 20.19 20.195 20.2 20.215 20.237 20.255 20.263 20.285 20.325 20.37 20.425 20.465 20.495 20.543 20.597 20.637 20.655 20.695 20.767 20.825 20.86 20.893 20.93 21.003 21.115 21.248 21.4 21.512 21.577 21.64 21.695 21.785 21.9 21.99 22.07 22.105 22.095 22.09 22.093 22.09 22.08 22.073 22.07 22.047 22 21.953 21.918 21.877 21.82 21.763 21.715 21.662 21.597 21.533 21.473 21.45 21.478 21.53 21.603 21.687 21.752 21.788 21.833 21.903 21.982 22.045 22.092 22.125 22.163 22.238 22.322 22.4 22.47 22.54 22.605 22.582 22.455 22.255 21.813 21.34 21.2 21.235 21.275 21.305 21.318
22.418 22.41 22.345 22.222 22.085 21.97 21.915 21.89 21.86 21.832 21.785 21.715 21.645 21.573 21.525 21.522 21.525 21.505 21.5 21.535 21.567 21.567 21.54 21.492 21.432 21.37 21.338 21.315 21.275 21.235 21.198 21.163 21.127 21.075 20.977 20.835 20.678 20.538 20.425 20.325 20.248 20.21 20.185 20.155 20.125 20.095 20.053 20.01 19.988 19.975 19.987 20.01 20.01 20 19.99 19.98 19.97 19.955 19.935 19.92 19.913 19.907 19.9 19.885 19.873 19.865 19.845 19.81 19.772 19.737 19.7 19.66 19.61 19.553 19.51 19.49 19.485 19.49 19.485 19.457 19.423 19.405 19.445 19.515 19.567 19.605 19.607 19.58 19.547 19.513 19.533 19.61 19.687 19.76 19.83 19.885 19.91 19.92 19.925 19.927 19.93 19.935 19.968 20.03 20.087 20.115 20.12 20.128 20.175 20.21 20.2 20.193 20.195 20.208 20.217 20.222 20.225 20.23 20.248 20.275 20.3 20.315 20.338 20.38 20.435 20.495 20.535 20.555 20.585 20.632 20.665 20.668 20.678 20.723 20.773 20.808 20.845 20.885 20.96 21.088 21.243 21.4 21.507 21.572 21.627 21.675 21.763 21.887 22 22.087 22.122 22.118 22.12 22.127 22.122 22.11 22.1 22.092 22.072 22.035 22 21.972 21.932 21.88 21.833 21.787 21.735 21.67 21.605 21.545 21.52 21.53 21.548 21.585 21.648 21.71 21.76 21.82 21.89 21.958 22.018 22.073 22.123 22.188 22.275 22.365 22.447 22.517 22.585 22.63 22.56 22.39 22.142 21.725 21.29 21.133 21.17 21.2 21.215 21.21
22.655 22.6 22.492 22.355 22.218 22.093 22.023 21.995 21.965 21.935 21.888 21.82 21.748 21.675 21.625 21.62 21.635 21.635 21.642 21.68 21.727 21.74 21.702 21.64 21.57 21.507 21.468 21.438 21.403 21.368 21.335 21.305 21.275 21.235 21.135 20.985 20.833 20.7 20.592 20.49 20.39 20.32 20.285 20.255 20.225 20.188 20.148 20.123 20.107 20.093 20.09 20.087 20.075 20.065 20.055 20.045 20.035 20.022 20.007 20 19.995 19.987 19.982 19.975 19.97 19.965 19.942 19.905 19.867 19.832 19.792 19.742 19.685 19.628 19.593 19.59 19.595 19.597 19.59 19.56 19.52 19.498 19.528 19.58 19.615 19.645 19.652 19.63 19.603 19.58 19.61 19.69 19.77 19.847 19.905 19.93 19.94 19.95 19.958 19.963 19.968 19.975 20.005 20.065 20.135 20.195 20.227 20.24 20.267 20.285 20.275 20.265 20.258 20.253 20.253 20.255 20.258 20.265 20.285 20.313 20.338 20.363 20.395 20.445 20.505 20.565 20.605 20.628 20.65 20.678 20.695 20.695 20.693 20.708 20.74 20.77 20.803 20.84 20.93 21.083 21.247 21.4 21.505 21.565 21.607 21.65 21.738 21.862 21.987 22.092 22.14 22.147 22.152 22.16 22.157 22.142 22.127 22.112 22.1 22.08 22.053 22.027 21.99 21.945 21.905 21.86 21.802 21.74 21.68 21.617 21.59 21.6 21.607 21.617 21.643 21.69 21.75 21.815 21.883 21.943 22.005 22.07 22.14 22.225 22.315 22.405 22.49 22.562 22.63 22.642 22.537 22.347 22.057 21.645 21.233 21.065 21.087 21.09 21.08 21.068
22.862 22.765 22.632 22.495 22.358 22.253 22.183 22.13 22.095 22.065 22.015 21.943 21.865 21.785 21.728 21.72 21.738 21.752 21.762 21.785 21.825 21.837 21.795 21.725 21.657 21.615 21.595 21.577 21.555 21.525 21.495 21.465 21.435 21.385 21.277 21.132 20.985 20.858 20.752 20.648 20.55 20.478 20.435 20.405 20.367 20.31 20.26 20.233 20.215 20.2 20.185 20.17 20.155 20.14 20.118 20.1 20.09 20.08 20.067 20.06 20.055 20.045 20.037 20.032 20.032 20.03 20.005 19.967 19.932 19.897 19.86 19.812 19.755 19.7 19.675 19.68 19.687 19.685 19.667 19.637 19.602 19.58 19.595 19.632 19.665 19.695 19.705 19.685 19.66 19.653 19.695 19.775 19.855 19.93 19.977 19.995 20.005 20.015 20.028 20.04 20.053 20.055 20.065 20.113 20.18 20.252 20.302 20.322 20.357 20.385 20.38 20.37 20.35 20.313 20.29 20.293 20.298 20.308 20.33 20.355 20.38 20.418 20.465 20.518 20.575 20.635 20.68 20.707 20.73 20.745 20.743 20.733 20.73 20.735 20.755 20.78 20.803 20.83 20.925 21.088 21.252 21.402 21.5 21.55 21.585 21.625 21.713 21.837 21.96 22.055 22.102 22.12 22.13 22.152 22.162 22.145 22.125 22.113 22.117 22.122 22.11 22.085 22.05 22.01 21.97 21.912 21.827 21.742 21.675 21.622 21.605 21.615 21.622 21.63 21.638 21.685 21.775 21.855 21.92 21.98 22.033 22.085 22.165 22.262 22.355 22.445 22.53 22.607 22.68 22.657 22.5 22.277 21.952 21.533 21.15 20.988 20.985 20.973 20.96 20.948
23.025 22.907 22.777 22.64 22.523 22.47 22.417 22.333 22.268 22.225 22.17 22.09 22.005 21.91 21.845 21.835 21.85 21.87 21.862 21.845 21.86 21.872 21.835 21.765 21.718 21.71 21.712 21.707 21.695 21.677 21.655 21.625 21.595 21.537 21.422 21.278 21.138 21.013 20.905 20.805 20.718 20.655 20.615 20.58 20.52 20.443 20.383 20.343 20.318 20.3 20.285 20.27 20.25 20.222 20.185 20.155 20.138 20.125 20.113 20.103 20.095 20.085 20.075 20.065 20.06 20.057 20.035 20 19.968 19.938 19.91 19.872 19.822 19.768 19.743 19.75 19.752 19.737 19.71 19.68 19.655 19.645 19.66 19.693 19.725 19.757 19.767 19.748 19.73 19.735 19.785 19.865 19.935 19.995 20.055 20.11 20.14 20.15 20.165 20.182 20.182 20.157 20.148 20.178 20.235 20.307 20.355 20.385 20.448 20.502 20.51 20.49 20.44 20.368 20.33 20.335 20.343 20.355 20.38 20.405 20.438 20.493 20.55 20.598 20.648 20.705 20.755 20.787 20.81 20.822 20.81 20.785 20.775 20.778 20.795 20.817 20.82 20.835 20.935 21.095 21.257 21.402 21.487 21.527 21.563 21.605 21.69 21.812 21.912 21.97 22.005 22.027 22.05 22.097 22.127 22.115 22.1 22.105 22.125 22.147 22.16 22.145 22.11 22.07 22.015 21.927 21.818 21.705 21.605 21.558 21.563 21.575 21.585 21.595 21.603 21.665 21.81 21.932 22 22.052 22.075 22.083 22.15 22.265 22.372 22.475 22.567 22.652 22.715 22.645 22.435 22.185 21.84 21.41 21.068 20.93 20.915 20.905 20.895 20.885
23.17 23.05 22.92 22.793 22.723 22.712 22.672 22.58 22.483 22.403 22.325 22.232 22.135 22.03 21.97 21.968 21.978 21.992 21.972 21.923 21.9 21.905 21.875 21.82 21.805 21.815 21.822 21.82 21.812 21.807 21.795 21.777 21.755 21.69 21.57 21.43 21.295 21.168 21.055 20.968 20.898 20.838 20.792 20.737 20.65 20.565 20.508 20.465 20.428 20.4 20.385 20.367 20.337 20.3 20.26 20.223 20.19 20.17 20.16 20.147 20.135 20.125 20.115 20.105 20.095 20.087 20.067 20.035 20.008 19.983 19.955 19.922 19.882 19.833 19.81 19.81 19.792 19.765 19.735 19.713 19.705 19.71 19.73 19.76 19.79 19.822 19.832 19.82 19.815 19.825 19.873 19.942 19.995 20.043 20.113 20.2 20.27 20.31 20.327 20.32 20.287 20.243 20.23 20.258 20.303 20.363 20.413 20.465 20.545 20.617 20.63 20.58 20.5 20.413 20.37 20.378 20.393 20.408 20.43 20.465 20.518 20.585 20.642 20.685 20.728 20.78 20.83 20.865 20.892 20.902 20.882 20.85 20.828 20.82 20.83 20.832 20.805 20.828 20.948 21.105 21.265 21.397 21.47 21.505 21.54 21.583 21.665 21.765 21.827 21.87 21.905 21.933 21.973 22.035 22.082 22.09 22.09 22.11 22.135 22.16 22.187 22.195 22.172 22.12 22.032 21.925 21.813 21.708 21.625 21.593 21.583 21.558 21.548 21.558 21.568 21.63 21.8 21.98 22.077 22.108 22.1 22.083 22.12 22.225 22.345 22.463 22.573 22.678 22.715 22.588 22.353 22.083 21.72 21.295 21.003 20.905 20.88 20.863 20.85 20.843
23.31 23.19 23.063 22.975 22.955 22.957 22.92 22.822 22.707 22.592 22.48 22.368 22.258 22.158 22.11 22.113 22.12 22.122 22.09 22.03 21.978 21.953 21.928 21.905 21.91 21.917 21.922 21.92 21.912 21.905 21.897 21.892 21.88 21.827 21.72 21.587 21.455 21.325 21.218 21.143 21.08 21.018 20.953 20.87 20.77 20.688 20.635 20.593 20.548 20.51 20.483 20.452 20.415 20.375 20.335 20.298 20.26 20.228 20.208 20.193 20.18 20.17 20.158 20.145 20.135 20.125 20.108 20.08 20.055 20.03 19.997 19.965 19.93 19.892 19.87 19.85 19.82 19.79 19.768 19.763 19.77 19.78 19.798 19.827 19.86 19.89 19.902 19.902 19.905 19.915 19.953 20 20.043 20.09 20.158 20.242 20.327 20.402 20.43 20.402 20.36 20.32 20.315 20.35 20.39 20.435 20.485 20.55 20.632 20.712 20.717 20.64 20.55 20.458 20.415 20.428 20.445 20.463 20.49 20.543 20.61 20.68 20.735 20.775 20.815 20.862 20.907 20.94 20.97 20.98 20.955 20.92 20.89 20.868 20.85 20.82 20.78 20.823 20.97 21.143 21.302 21.407 21.457 21.49 21.523 21.56 21.62 21.68 21.723 21.768 21.805 21.845 21.905 21.975 22.043 22.08 22.095 22.12 22.145 22.17 22.2 22.23 22.227 22.153 22.038 21.923 21.83 21.773 21.743 21.732 21.713 21.663 21.615 21.588 21.56 21.6 21.778 22.018 22.167 22.198 22.193 22.188 22.208 22.293 22.418 22.543 22.668 22.793 22.865 22.753 22.458 22.06 21.623 21.195 20.94 20.885 20.855 20.828 20.808 20.798
23.483 23.35 23.233 23.178 23.172 23.167 23.122 23.017 22.892 22.765 22.64 22.523 22.413 22.33 22.3 22.303 22.305 22.28 22.225 22.163 22.1 22.048 22.003 21.985 21.992 21.995 21.995 21.987 21.975 21.967 21.962 21.955 21.95 21.935 21.855 21.725 21.597 21.478 21.388 21.322 21.258 21.213 21.15 21.048 20.94 20.848 20.79 20.748 20.702 20.645 20.588 20.54 20.493 20.45 20.413 20.383 20.358 20.318 20.273 20.25 20.24 20.228 20.213 20.2 20.19 20.178 20.16 20.135 20.11 20.075 20.03 19.995 19.963 19.94 19.92 19.89 19.86 19.838 19.833 19.838 19.848 19.86 19.873 19.895 19.927 19.957 19.972 19.978 19.985 20.008 20.045 20.08 20.118 20.155 20.198 20.265 20.345 20.422 20.46 20.44 20.4 20.393 20.428 20.47 20.51 20.545 20.573 20.615 20.685 20.765 20.767 20.685 20.595 20.508 20.473 20.485 20.5 20.52 20.558 20.62 20.692 20.76 20.817 20.865 20.905 20.947 20.98 21.005 21.035 21.045 21.022 20.99 20.957 20.922 20.88 20.833 20.8 20.868 21.04 21.225 21.357 21.42 21.455 21.485 21.515 21.55 21.583 21.613 21.65 21.693 21.74 21.805 21.885 21.965 22.048 22.115 22.145 22.16 22.193 22.235 22.275 22.318 22.32 22.235 22.11 22.003 21.935 21.905 21.89 21.878 21.87 21.852 21.802 21.738 21.673 21.723 21.943 22.198 22.35 22.398 22.415 22.425 22.448 22.513 22.625 22.758 22.89 22.982 23.08 23.13 22.78 22.15 21.635 21.228 20.993 20.928 20.88 20.83 20.785 20.778
23.705 23.555 23.433 23.368 23.345 23.332 23.282 23.18 23.055 22.925 22.8 22.688 22.6 22.543 22.523 22.527 22.507 22.445 22.375 22.313 22.25 22.193 22.128 22.073 22.05 22.045 22.045 22.035 22.02 22.013 22.005 21.998 22 22.007 21.962 21.85 21.725 21.628 21.558 21.495 21.45 21.445 21.405 21.295 21.168 21.05 20.98 20.93 20.865 20.78 20.705 20.65 20.598 20.558 20.528 20.505 20.475 20.42 20.363 20.328 20.308 20.293 20.28 20.27 20.257 20.24 20.22 20.197 20.162 20.105 20.053 20.02 19.995 19.985 19.97 19.94 19.918 19.913 19.92 19.925 19.933 19.945 19.955 19.97 19.995 20.022 20.04 20.048 20.068 20.11 20.155 20.19 20.217 20.235 20.253 20.293 20.355 20.427 20.47 20.455 20.443 20.493 20.562 20.607 20.645 20.675 20.683 20.688 20.725 20.795 20.802 20.725 20.638 20.565 20.54 20.55 20.563 20.58 20.623 20.69 20.755 20.807 20.872 20.945 20.995 21.035 21.06 21.073 21.095 21.107 21.087 21.055 21.02 20.977 20.93 20.885 20.883 20.978 21.15 21.3 21.377 21.42 21.455 21.485 21.518 21.555 21.58 21.595 21.625 21.663 21.723 21.82 21.918 22.005 22.09 22.17 22.227 22.248 22.288 22.357 22.415 22.462 22.462 22.375 22.263 22.185 22.125 22.073 22.04 22.023 22.013 22.012 21.995 21.943 21.905 22.02 22.277 22.49 22.595 22.652 22.692 22.71 22.733 22.78 22.86 22.98 23.085 23.095 23.135 23.285 22.945 22.235 21.758 21.405 21.168 21.058 20.99 20.923 20.865 20.865
23.937 23.783 23.65 23.558 23.508 23.487 23.437 23.335 23.212 23.085 22.963 22.87 22.813 22.768 22.747 22.735 22.68 22.6 22.528 22.465 22.41 22.357 22.29 22.21 22.145 22.108 22.098 22.09 22.073 22.058 22.048 22.048 22.053 22.06 22.05 21.972 21.863 21.79 21.73 21.685 21.682 21.7 21.662 21.542 21.392 21.255 21.162 21.085 20.993 20.898 20.825 20.778 20.735 20.7 20.675 20.642 20.582 20.51 20.455 20.415 20.38 20.36 20.348 20.335 20.32 20.3 20.28 20.25 20.195 20.128 20.08 20.055 20.043 20.037 20.02 20 19.998 20.003 20.01 20.015 20.02 20.028 20.038 20.052 20.068 20.09 20.11 20.13 20.17 20.22 20.262 20.29 20.305 20.315 20.33 20.355 20.39 20.44 20.48 20.49 20.533 20.62 20.695 20.742 20.775 20.802 20.81 20.798 20.798 20.835 20.837 20.767 20.688 20.63 20.613 20.62 20.628 20.64 20.688 20.75 20.792 20.828 20.898 20.997 21.072 21.12 21.145 21.15 21.163 21.172 21.15 21.112 21.075 21.032 20.985 20.965 21.005 21.103 21.235 21.327 21.375 21.42 21.455 21.488 21.528 21.57 21.595 21.603 21.618 21.648 21.723 21.85 21.962 22.048 22.13 22.21 22.287 22.34 22.39 22.467 22.545 22.605 22.602 22.525 22.443 22.385 22.33 22.268 22.213 22.175 22.155 22.155 22.157 22.135 22.173 22.355 22.597 22.757 22.83 22.892 22.95 22.99 23.02 23.065 23.127 23.205 23.235 23.18 23.15 23.235 22.917 22.305 21.925 21.61 21.365 21.225 21.143 21.098 21.088 21.11
24.16 24.005 23.875 23.773 23.693 23.65 23.592 23.485 23.368 23.248 23.143 23.08 23.037 22.993 22.957 22.91 22.835 22.755 22.683 22.623 22.575 22.522 22.45 22.37 22.29 22.22 22.173 22.145 22.128 22.113 22.1 22.1 22.107 22.113 22.117 22.082 22.012 21.952 21.9 21.88 21.892 21.905 21.857 21.722 21.557 21.42 21.317 21.22 21.123 21.028 20.958 20.92 20.885 20.85 20.81 20.75 20.677 20.605 20.55 20.51 20.47 20.438 20.418 20.403 20.388 20.37 20.337 20.285 20.22 20.153 20.113 20.1 20.095 20.09 20.078 20.075 20.085 20.092 20.097 20.102 20.107 20.11 20.12 20.135 20.148 20.165 20.19 20.23 20.28 20.33 20.367 20.383 20.39 20.398 20.413 20.438 20.46 20.488 20.52 20.57 20.655 20.75 20.827 20.875 20.902 20.927 20.935 20.922 20.907 20.905 20.885 20.82 20.745 20.698 20.685 20.69 20.695 20.705 20.742 20.785 20.815 20.85 20.92 21.022 21.12 21.195 21.227 21.232 21.24 21.237 21.21 21.167 21.125 21.085 21.058 21.08 21.14 21.21 21.282 21.335 21.378 21.42 21.458 21.498 21.543 21.587 21.615 21.62 21.625 21.643 21.725 21.872 22 22.09 22.17 22.25 22.332 22.41 22.48 22.56 22.65 22.73 22.747 22.7 22.643 22.59 22.535 22.475 22.413 22.353 22.31 22.298 22.303 22.313 22.428 22.665 22.87 22.98 23.047 23.112 23.177 23.24 23.29 23.33 23.372 23.41 23.387 23.3 23.215 23.197 22.92 22.455 22.13 21.82 21.573 21.405 21.325 21.332 21.37 21.417
24.385 24.233 24.105 24.003 23.908 23.83 23.753 23.653 23.553 23.443 23.348 23.295 23.255 23.212 23.155 23.078 22.99 22.905 22.838 22.788 22.742 22.685 22.61 22.533 22.46 22.39 22.318 22.26 22.233 22.22 22.185 22.158 22.163 22.167 22.172 22.165 22.125 22.065 22.02 22.002 22.002 22.005 21.957 21.827 21.675 21.558 21.462 21.368 21.272 21.175 21.108 21.073 21.037 20.995 20.927 20.848 20.773 20.7 20.645 20.608 20.575 20.545 20.525 20.51 20.493 20.46 20.4 20.33 20.26 20.193 20.158 20.153 20.147 20.138 20.13 20.135 20.145 20.155 20.17 20.185 20.19 20.19 20.2 20.215 20.23 20.26 20.305 20.355 20.405 20.45 20.48 20.493 20.5 20.508 20.523 20.545 20.568 20.588 20.603 20.655 20.75 20.847 20.927 20.972 20.997 21.022 21.027 21.012 20.997 20.977 20.94 20.877 20.803 20.753 20.74 20.745 20.75 20.763 20.79 20.82 20.853 20.915 20.98 21.053 21.157 21.245 21.272 21.265 21.265 21.257 21.23 21.19 21.15 21.125 21.133 21.175 21.232 21.285 21.33 21.368 21.405 21.435 21.47 21.52 21.565 21.61 21.637 21.643 21.65 21.665 21.748 21.895 22.03 22.127 22.2 22.272 22.347 22.425 22.507 22.597 22.69 22.777 22.845 22.867 22.842 22.795 22.742 22.682 22.618 22.555 22.498 22.468 22.475 22.503 22.65 22.89 23.032 23.112 23.197 23.27 23.34 23.41 23.472 23.515 23.547 23.575 23.557 23.473 23.363 23.268 23.045 22.705 22.385 22.03 21.738 21.563 21.503 21.537 21.58 21.627
24.62 24.49 24.373 24.263 24.16 24.063 23.97 23.88 23.782 23.665 23.565 23.508 23.465 23.425 23.36 23.267 23.17 23.07 22.998 22.952 22.907 22.855 22.79 22.72 22.653 22.585 22.515 22.445 22.395 22.372 22.313 22.238 22.218 22.222 22.225 22.22 22.192 22.14 22.095 22.075 22.065 22.057 22.025 21.925 21.803 21.7 21.605 21.517 21.425 21.328 21.263 21.225 21.182 21.122 21.042 20.958 20.873 20.795 20.745 20.72 20.7 20.68 20.665 20.647 20.61 20.545 20.467 20.39 20.315 20.25 20.215 20.208 20.2 20.185 20.175 20.178 20.185 20.195 20.22 20.252 20.267 20.27 20.278 20.293 20.323 20.38 20.44 20.49 20.537 20.572 20.597 20.617 20.63 20.64 20.655 20.677 20.695 20.695 20.695 20.733 20.815 20.915 20.99 21.03 21.057 21.082 21.085 21.067 21.05 21.027 20.987 20.927 20.858 20.8 20.78 20.785 20.795 20.813 20.84 20.873 20.933 21.04 21.095 21.118 21.203 21.28 21.285 21.253 21.24 21.235 21.21 21.173 21.155 21.173 21.208 21.245 21.29 21.342 21.387 21.417 21.44 21.453 21.485 21.542 21.592 21.637 21.662 21.67 21.685 21.71 21.795 21.932 22.045 22.125 22.19 22.255 22.325 22.403 22.49 22.582 22.672 22.75 22.84 22.947 23 22.98 22.94 22.892 22.835 22.775 22.72 22.685 22.685 22.713 22.865 23.05 23.108 23.173 23.282 23.375 23.45 23.52 23.582 23.632 23.675 23.712 23.73 23.677 23.58 23.487 23.297 22.987 22.597 22.173 21.865 21.698 21.65 21.68 21.715 21.755
24.888 24.78 24.67 24.555 24.445 24.34 24.24 24.135 24.015 23.885 23.785 23.725 23.678 23.632 23.565 23.462 23.347 23.238 23.163 23.117 23.072 23.025 22.975 22.92 22.857 22.79 22.717 22.64 22.573 22.532 22.462 22.355 22.29 22.278 22.277 22.267 22.25 22.212 22.173 22.155 22.14 22.125 22.105 22.04 21.94 21.84 21.748 21.662 21.575 21.483 21.415 21.367 21.307 21.237 21.157 21.073 20.993 20.928 20.885 20.86 20.84 20.82 20.8 20.762 20.695 20.615 20.535 20.455 20.378 20.308 20.273 20.262 20.247 20.23 20.22 20.223 20.228 20.235 20.26 20.3 20.332 20.347 20.355 20.383 20.44 20.51 20.572 20.622 20.662 20.69 20.713 20.737 20.757 20.77 20.785 20.802 20.802 20.785 20.785 20.82 20.888 20.98 21.047 21.08 21.11 21.135 21.137 21.12 21.097 21.075 21.032 20.97 20.907 20.848 20.82 20.828 20.845 20.865 20.89 20.948 21.058 21.187 21.235 21.22 21.26 21.315 21.307 21.263 21.23 21.215 21.193 21.178 21.203 21.25 21.292 21.327 21.363 21.402 21.435 21.45 21.455 21.46 21.495 21.555 21.615 21.665 21.69 21.705 21.73 21.76 21.843 21.955 22.027 22.088 22.153 22.223 22.3 22.385 22.475 22.562 22.64 22.708 22.79 22.925 23.065 23.125 23.117 23.09 23.052 23.005 22.963 22.928 22.905 22.925 23.055 23.167 23.178 23.228 23.337 23.452 23.55 23.63 23.69 23.74 23.785 23.822 23.847 23.837 23.815 23.775 23.567 23.165 22.66 22.245 21.995 21.835 21.8 21.83 21.86 21.89
25.17 25.07 24.957 24.835 24.715 24.597 24.482 24.362 24.235 24.105 24.005 23.945 23.892 23.835 23.75 23.627 23.493 23.388 23.325 23.278 23.233 23.188 23.143 23.098 23.053 22.995 22.92 22.843 22.768 22.702 22.615 22.5 22.398 22.343 22.328 22.313 22.298 22.275 22.247 22.227 22.21 22.19 22.172 22.137 22.07 21.982 21.892 21.805 21.72 21.632 21.557 21.495 21.425 21.355 21.278 21.203 21.143 21.095 21.055 21.02 20.99 20.962 20.917 20.845 20.763 20.68 20.6 20.52 20.443 20.368 20.328 20.315 20.295 20.275 20.268 20.273 20.278 20.288 20.313 20.348 20.385 20.418 20.448 20.5 20.57 20.64 20.705 20.752 20.782 20.805 20.827 20.852 20.877 20.897 20.907 20.905 20.89 20.873 20.875 20.91 20.965 21.04 21.1 21.13 21.16 21.187 21.192 21.17 21.145 21.122 21.077 21.015 20.953 20.89 20.863 20.875 20.895 20.915 20.96 21.06 21.195 21.325 21.372 21.35 21.345 21.35 21.33 21.288 21.245 21.213 21.205 21.235 21.287 21.34 21.377 21.405 21.432 21.457 21.47 21.47 21.468 21.47 21.505 21.565 21.63 21.69 21.725 21.75 21.78 21.81 21.87 21.94 21.995 22.055 22.123 22.2 22.28 22.365 22.452 22.53 22.597 22.665 22.74 22.865 23.04 23.185 23.255 23.26 23.24 23.225 23.205 23.173 23.14 23.148 23.207 23.248 23.253 23.288 23.38 23.5 23.617 23.722 23.787 23.817 23.84 23.855 23.86 23.877 23.915 23.917 23.685 23.185 22.68 22.348 22.125 21.97 21.915 21.915 21.943 21.993
25.405 25.305 25.185 25.055 24.93 24.805 24.68 24.56 24.44 24.317 24.21 24.132 24.067 23.997 23.912 23.792 23.653 23.57 23.533 23.49 23.45 23.41 23.368 23.323 23.278 23.207 23.12 23.045 22.967 22.877 22.77 22.655 22.55 22.488 22.468 22.455 22.432 22.372 22.313 22.285 22.265 22.24 22.22 22.207 22.17 22.105 22.027 21.94 21.852 21.762 21.68 21.61 21.54 21.472 21.405 21.342 21.287 21.237 21.202 21.172 21.137 21.097 21.025 20.928 20.833 20.745 20.665 20.585 20.51 20.438 20.395 20.38 20.36 20.343 20.338 20.34 20.348 20.373 20.405 20.435 20.47 20.503 20.543 20.607 20.68 20.752 20.822 20.872 20.9 20.92 20.937 20.952 20.972 20.995 21 20.985 20.967 20.953 20.963 21.002 21.05 21.105 21.152 21.185 21.215 21.237 21.235 21.212 21.192 21.167 21.12 21.063 21.005 20.948 20.92 20.93 20.95 20.973 21.025 21.127 21.257 21.385 21.437 21.42 21.402 21.39 21.365 21.325 21.285 21.248 21.258 21.31 21.362 21.392 21.422 21.46 21.477 21.495 21.502 21.498 21.49 21.49 21.523 21.58 21.645 21.71 21.76 21.795 21.825 21.855 21.895 21.945 22 22.058 22.125 22.203 22.28 22.36 22.428 22.488 22.555 22.625 22.693 22.808 22.977 23.145 23.307 23.4 23.403 23.412 23.43 23.415 23.385 23.363 23.375 23.385 23.36 23.353 23.42 23.538 23.655 23.772 23.827 23.822 23.82 23.82 23.823 23.842 23.865 23.847 23.602 23.13 22.735 22.478 22.26 22.118 22.045 22.003 22.015 22.088
25.605 25.497 25.37 25.238 25.108 24.983 24.86 24.74 24.62 24.49 24.367 24.275 24.197 24.12 24.057 23.97 23.848 23.79 23.777 23.757 23.73 23.692 23.655 23.61 23.537 23.425 23.323 23.242 23.15 23.045 22.93 22.825 22.758 22.733 22.725 22.685 22.597 22.465 22.368 22.338 22.313 22.288 22.27 22.265 22.242 22.195 22.132 22.055 21.97 21.875 21.79 21.72 21.647 21.577 21.517 21.462 21.405 21.35 21.323 21.305 21.272 21.222 21.137 21.033 20.928 20.828 20.738 20.658 20.583 20.513 20.473 20.458 20.442 20.428 20.42 20.423 20.443 20.483 20.522 20.555 20.582 20.6 20.623 20.68 20.757 20.835 20.91 20.972 21.015 21.04 21.04 21.03 21.04 21.06 21.062 21.047 21.032 21.018 21.035 21.085 21.132 21.177 21.217 21.247 21.267 21.272 21.26 21.242 21.227 21.205 21.17 21.125 21.075 21.023 20.993 20.998 21.015 21.038 21.078 21.148 21.253 21.377 21.432 21.42 21.418 21.42 21.407 21.377 21.34 21.308 21.323 21.375 21.402 21.383 21.403 21.475 21.512 21.53 21.537 21.53 21.525 21.53 21.558 21.608 21.668 21.73 21.785 21.83 21.865 21.895 21.935 21.985 22.038 22.093 22.158 22.233 22.31 22.385 22.425 22.453 22.51 22.58 22.648 22.753 22.905 23.058 23.235 23.452 23.557 23.575 23.622 23.642 23.625 23.575 23.59 23.65 23.628 23.553 23.52 23.575 23.68 23.795 23.835 23.805 23.785 23.78 23.78 23.78 23.767 23.7 23.432 23.075 22.823 22.603 22.408 22.293 22.233 22.19 22.18 22.235
25.807 25.692 25.56 25.425 25.288 25.16 25.04 24.912 24.772 24.62 24.49 24.4 24.32 24.243 24.19 24.135 24.055 24.013 24.007 24.002 23.99 23.97 23.94 23.882 23.78 23.645 23.528 23.425 23.315 23.205 23.103 23.035 23.012 23 22.945 22.827 22.675 22.518 22.423 22.39 22.36 22.335 22.32 22.315 22.307 22.272 22.212 22.147 22.075 21.987 21.903 21.827 21.747 21.673 21.615 21.565 21.512 21.46 21.435 21.427 21.405 21.35 21.255 21.147 21.037 20.923 20.818 20.733 20.658 20.588 20.548 20.535 20.525 20.51 20.503 20.518 20.555 20.6 20.64 20.67 20.685 20.695 20.705 20.745 20.82 20.903 20.98 21.05 21.112 21.155 21.15 21.12 21.11 21.118 21.117 21.103 21.087 21.073 21.093 21.15 21.205 21.252 21.285 21.3 21.302 21.297 21.285 21.265 21.242 21.222 21.21 21.192 21.152 21.098 21.07 21.073 21.083 21.103 21.145 21.2 21.27 21.375 21.43 21.428 21.435 21.44 21.435 21.422 21.395 21.37 21.385 21.407 21.39 21.345 21.358 21.447 21.527 21.565 21.57 21.565 21.568 21.578 21.603 21.643 21.693 21.75 21.805 21.855 21.9 21.935 21.975 22.025 22.075 22.13 22.195 22.27 22.35 22.425 22.457 22.458 22.478 22.53 22.605 22.705 22.833 22.968 23.115 23.38 23.635 23.732 23.787 23.835 23.86 23.87 23.925 24.007 23.982 23.855 23.743 23.7 23.73 23.815 23.852 23.81 23.768 23.745 23.723 23.68 23.642 23.545 23.303 23.078 22.925 22.725 22.56 22.485 22.443 22.415 22.39 22.415
26.02 25.888 25.753 25.615 25.478 25.345 25.213 25.07 24.918 24.763 24.633 24.533 24.445 24.368 24.315 24.285 24.248 24.22 24.215 24.21 24.202 24.197 24.182 24.11 23.98 23.837 23.727 23.63 23.51 23.388 23.28 23.222 23.2 23.167 23.062 22.898 22.733 22.573 22.478 22.445 22.415 22.388 22.373 22.37 22.37 22.34 22.28 22.222 22.162 22.092 22.012 21.927 21.84 21.768 21.715 21.665 21.615 21.568 21.545 21.54 21.53 21.475 21.367 21.255 21.14 21.023 20.913 20.815 20.733 20.663 20.625 20.613 20.6 20.593 20.6 20.63 20.675 20.72 20.755 20.775 20.783 20.79 20.798 20.823 20.885 20.973 21.053 21.12 21.19 21.252 21.265 21.232 21.203 21.185 21.173 21.158 21.143 21.125 21.145 21.205 21.265 21.317 21.34 21.338 21.33 21.323 21.308 21.28 21.25 21.23 21.225 21.227 21.215 21.175 21.15 21.15 21.153 21.17 21.213 21.267 21.323 21.393 21.435 21.44 21.45 21.458 21.455 21.45 21.437 21.42 21.412 21.39 21.35 21.308 21.315 21.4 21.505 21.58 21.605 21.608 21.612 21.623 21.648 21.685 21.725 21.775 21.83 21.878 21.925 21.97 22.015 22.065 22.118 22.173 22.238 22.315 22.395 22.47 22.502 22.498 22.493 22.508 22.573 22.675 22.79 22.91 23.035 23.243 23.542 23.775 23.882 23.965 24.077 24.212 24.317 24.35 24.275 24.15 24.058 23.973 23.908 23.888 23.873 23.835 23.795 23.755 23.695 23.613 23.543 23.438 23.278 23.135 23.01 22.853 22.735 22.698 22.67 22.645 22.615 22.61
26.252 26.09 25.953 25.815 25.678 25.555 25.415 25.255 25.105 24.955 24.828 24.72 24.618 24.528 24.478 24.473 24.463 24.423 24.38 24.36 24.352 24.347 24.335 24.267 24.135 23.985 23.9 23.855 23.755 23.618 23.475 23.355 23.285 23.24 23.135 22.97 22.81 22.668 22.565 22.515 22.485 22.455 22.44 22.44 22.425 22.372 22.307 22.252 22.197 22.157 22.105 22.02 21.933 21.865 21.815 21.765 21.718 21.678 21.658 21.653 21.65 21.595 21.48 21.365 21.255 21.15 21.043 20.93 20.823 20.738 20.703 20.698 20.693 20.695 20.715 20.753 20.797 20.837 20.865 20.88 20.885 20.89 20.9 20.92 20.98 21.075 21.148 21.2 21.265 21.335 21.36 21.33 21.295 21.265 21.24 21.223 21.208 21.195 21.21 21.26 21.32 21.375 21.395 21.385 21.375 21.365 21.345 21.315 21.285 21.263 21.255 21.255 21.255 21.242 21.23 21.227 21.225 21.235 21.273 21.327 21.385 21.453 21.49 21.493 21.498 21.495 21.488 21.483 21.478 21.467 21.443 21.408 21.37 21.33 21.33 21.395 21.493 21.592 21.645 21.65 21.655 21.678 21.715 21.753 21.785 21.82 21.865 21.915 21.965 22.008 22.065 22.13 22.183 22.238 22.305 22.385 22.465 22.542 22.575 22.57 22.565 22.553 22.595 22.7 22.813 22.925 23.038 23.185 23.398 23.62 23.8 23.998 24.265 24.515 24.652 24.655 24.565 24.472 24.397 24.3 24.167 24.03 23.95 23.92 23.88 23.822 23.743 23.645 23.55 23.458 23.35 23.228 23.105 22.998 22.935 22.91 22.885 22.862 22.845 22.82
26.487 26.305 26.158 26.023 25.898 25.8 25.665 25.485 25.325 25.178 25.053 24.945 24.845 24.758 24.715 24.718 24.72 24.67 24.58 24.513 24.475 24.46 24.435 24.372 24.265 24.123 24.045 24.055 24.01 23.875 23.71 23.545 23.413 23.323 23.21 23.063 22.93 22.815 22.7 22.608 22.56 22.533 22.517 22.505 22.457 22.375 22.305 22.25 22.21 22.213 22.19 22.11 22.028 21.965 21.913 21.865 21.828 21.795 21.775 21.77 21.767 21.712 21.603 21.493 21.398 21.31 21.202 21.08 20.958 20.853 20.805 20.805 20.813 20.82 20.84 20.878 20.917 20.945 20.967 20.987 21 21.007 21.015 21.04 21.108 21.205 21.267 21.3 21.35 21.415 21.44 21.412 21.378 21.345 21.32 21.3 21.29 21.293 21.303 21.328 21.375 21.432 21.455 21.445 21.438 21.43 21.41 21.378 21.345 21.318 21.305 21.303 21.3 21.3 21.3 21.295 21.293 21.298 21.33 21.388 21.455 21.54 21.585 21.585 21.577 21.555 21.538 21.533 21.528 21.52 21.505 21.48 21.447 21.41 21.41 21.458 21.525 21.617 21.677 21.688 21.71 21.763 21.812 21.845 21.872 21.893 21.925 21.977 22.02 22.043 22.105 22.202 22.27 22.325 22.395 22.475 22.555 22.637 22.675 22.67 22.655 22.628 22.668 22.773 22.878 22.988 23.105 23.238 23.385 23.538 23.715 23.99 24.36 24.705 24.935 24.965 24.865 24.762 24.66 24.527 24.342 24.168 24.08 24.04 23.977 23.905 23.825 23.73 23.643 23.572 23.477 23.353 23.243 23.17 23.128 23.097 23.073 23.063 23.072 23.06
26.71 26.523 26.365 26.24 26.143 26.057 25.922 25.735 25.555 25.4 25.278 25.18 25.1 25.028 24.988 24.98 24.98 24.945 24.855 24.752 24.665 24.6 24.538 24.465 24.38 24.258 24.188 24.222 24.225 24.115 23.942 23.772 23.602 23.45 23.32 23.198 23.085 22.972 22.853 22.735 22.65 22.608 22.587 22.547 22.47 22.38 22.305 22.263 22.263 22.295 22.282 22.207 22.125 22.06 22.013 21.975 21.947 21.92 21.895 21.885 21.882 21.83 21.73 21.638 21.56 21.477 21.367 21.245 21.125 21.013 20.95 20.94 20.943 20.948 20.968 21 21.025 21.04 21.06 21.088 21.112 21.127 21.135 21.173 21.248 21.335 21.392 21.418 21.45 21.5 21.52 21.495 21.462 21.428 21.4 21.385 21.385 21.395 21.405 21.418 21.443 21.487 21.51 21.503 21.5 21.495 21.475 21.44 21.405 21.375 21.358 21.358 21.36 21.36 21.36 21.358 21.36 21.365 21.393 21.458 21.54 21.63 21.675 21.667 21.645 21.615 21.595 21.587 21.58 21.572 21.562 21.545 21.522 21.495 21.503 21.545 21.59 21.653 21.708 21.745 21.798 21.865 21.917 21.947 21.965 21.975 22.002 22.04 22.057 22.065 22.123 22.237 22.342 22.415 22.485 22.565 22.647 22.732 22.772 22.76 22.725 22.695 22.743 22.847 22.95 23.055 23.177 23.322 23.477 23.63 23.785 24.053 24.422 24.775 25.057 25.155 25.08 24.955 24.825 24.657 24.45 24.283 24.198 24.137 24.06 23.985 23.907 23.818 23.743 23.692 23.61 23.503 23.42 23.36 23.315 23.278 23.258 23.265 23.285 23.295
26.93 26.735 26.583 26.482 26.397 26.305 26.162 25.977 25.79 25.63 25.523 25.445 25.372 25.303 25.265 25.247 25.225 25.177 25.085 24.972 24.86 24.758 24.67 24.578 24.485 24.383 24.333 24.355 24.36 24.28 24.115 23.937 23.762 23.603 23.47 23.355 23.242 23.128 23.01 22.888 22.773 22.693 22.638 22.565 22.478 22.393 22.32 22.3 22.325 22.355 22.342 22.28 22.205 22.145 22.11 22.082 22.057 22.032 22.007 21.995 21.995 21.955 21.875 21.8 21.73 21.642 21.53 21.413 21.298 21.188 21.123 21.105 21.095 21.085 21.093 21.118 21.14 21.158 21.178 21.203 21.228 21.248 21.263 21.31 21.39 21.467 21.517 21.542 21.568 21.6 21.605 21.575 21.542 21.507 21.483 21.477 21.485 21.495 21.505 21.517 21.53 21.552 21.565 21.56 21.56 21.552 21.53 21.495 21.46 21.43 21.412 21.412 21.417 21.42 21.422 21.425 21.427 21.43 21.46 21.535 21.627 21.715 21.747 21.725 21.695 21.662 21.64 21.63 21.62 21.612 21.605 21.595 21.582 21.575 21.595 21.635 21.672 21.713 21.765 21.83 21.9 21.97 22.02 22.04 22.047 22.052 22.067 22.083 22.085 22.088 22.14 22.255 22.38 22.485 22.57 22.652 22.737 22.822 22.857 22.827 22.78 22.763 22.818 22.915 23.01 23.105 23.23 23.387 23.552 23.715 23.875 24.112 24.43 24.732 24.985 25.135 25.167 25.095 24.957 24.777 24.563 24.393 24.295 24.22 24.14 24.065 23.99 23.915 23.855 23.807 23.747 23.677 23.612 23.55 23.5 23.458 23.43 23.432 23.447 23.462
27.155 26.95 26.798 26.707 26.62 26.51 26.352 26.167 25.99 25.858 25.775 25.705 25.632 25.56 25.495 25.445 25.402 25.337 25.235 25.112 25 24.91 24.832 24.74 24.633 24.523 24.458 24.445 24.432 24.377 24.242 24.065 23.893 23.75 23.63 23.515 23.4 23.285 23.17 23.05 22.93 22.818 22.723 22.64 22.56 22.488 22.42 22.365 22.355 22.377 22.367 22.312 22.25 22.202 22.172 22.147 22.122 22.1 22.08 22.07 22.07 22.047 22 21.95 21.895 21.81 21.695 21.578 21.468 21.373 21.318 21.298 21.283 21.265 21.26 21.28 21.308 21.325 21.34 21.36 21.38 21.395 21.405 21.443 21.515 21.59 21.635 21.66 21.685 21.707 21.69 21.64 21.602 21.57 21.55 21.55 21.56 21.57 21.577 21.585 21.597 21.612 21.617 21.615 21.61 21.59 21.557 21.522 21.49 21.46 21.447 21.452 21.457 21.462 21.47 21.48 21.487 21.49 21.528 21.61 21.697 21.757 21.76 21.73 21.697 21.662 21.642 21.637 21.63 21.62 21.612 21.605 21.603 21.62 21.662 21.71 21.747 21.785 21.84 21.91 21.985 22.047 22.087 22.105 22.107 22.11 22.122 22.14 22.145 22.145 22.185 22.288 22.41 22.532 22.635 22.72 22.805 22.882 22.905 22.865 22.818 22.808 22.862 22.95 23.037 23.13 23.253 23.41 23.58 23.75 23.915 24.088 24.323 24.607 24.847 25.005 25.117 25.165 25.077 24.88 24.65 24.473 24.387 24.325 24.245 24.168 24.09 24.018 23.96 23.91 23.87 23.84 23.795 23.732 23.677 23.63 23.583 23.56 23.57 23.582
27.38 27.165 27.003 26.905 26.802 26.67 26.505 26.323 26.175 26.085 26.015 25.945 25.875 25.8 25.693 25.588 25.525 25.46 25.36 25.245 25.15 25.07 24.995 24.917 24.822 24.708 24.6 24.525 24.488 24.46 24.36 24.193 24.033 23.905 23.79 23.672 23.553 23.445 23.345 23.23 23.105 22.975 22.87 22.795 22.728 22.673 22.61 22.498 22.403 22.393 22.387 22.337 22.28 22.238 22.21 22.185 22.16 22.14 22.12 22.11 22.105 22.085 22.055 22.025 22 21.952 21.855 21.743 21.645 21.568 21.525 21.505 21.488 21.47 21.465 21.485 21.505 21.513 21.525 21.545 21.557 21.552 21.55 21.575 21.63 21.702 21.75 21.772 21.795 21.81 21.775 21.703 21.653 21.618 21.598 21.603 21.615 21.625 21.63 21.633 21.643 21.655 21.66 21.657 21.64 21.602 21.563 21.53 21.5 21.47 21.46 21.472 21.482 21.488 21.5 21.522 21.54 21.548 21.593 21.67 21.722 21.74 21.725 21.695 21.663 21.63 21.615 21.615 21.612 21.605 21.598 21.595 21.608 21.638 21.695 21.762 21.81 21.85 21.905 21.977 22.037 22.065 22.097 22.14 22.155 22.155 22.173 22.207 22.23 22.235 22.268 22.348 22.455 22.577 22.682 22.767 22.847 22.915 22.927 22.885 22.843 22.83 22.878 22.965 23.058 23.153 23.268 23.423 23.595 23.765 23.925 24.06 24.23 24.485 24.712 24.855 24.97 25.052 25.045 24.92 24.71 24.518 24.448 24.43 24.37 24.29 24.21 24.13 24.058 24.003 23.965 23.955 23.945 23.9 23.845 23.795 23.743 23.7 23.693 23.697
27.595 27.375 27.205 27.092 26.967 26.82 26.658 26.5 26.395 26.325 26.255 26.185 26.115 26.037 25.917 25.773 25.663 25.583 25.49 25.393 25.31 25.233 25.157 25.08 25 24.905 24.793 24.68 24.595 24.54 24.46 24.325 24.183 24.062 23.942 23.818 23.71 23.622 23.525 23.407 23.275 23.138 23.03 22.96 22.908 22.865 22.815 22.697 22.54 22.445 22.405 22.363 22.313 22.275 22.247 22.223 22.2 22.177 22.158 22.147 22.132 22.105 22.075 22.06 22.07 22.072 22.012 21.92 21.84 21.77 21.733 21.715 21.695 21.675 21.668 21.68 21.692 21.7 21.715 21.727 21.72 21.695 21.693 21.72 21.758 21.817 21.865 21.885 21.907 21.912 21.865 21.785 21.715 21.665 21.645 21.655 21.67 21.68 21.685 21.685 21.69 21.7 21.705 21.69 21.652 21.608 21.57 21.54 21.51 21.48 21.47 21.485 21.502 21.513 21.53 21.56 21.585 21.603 21.645 21.692 21.705 21.702 21.687 21.66 21.63 21.598 21.583 21.585 21.588 21.588 21.588 21.6 21.625 21.655 21.713 21.795 21.865 21.915 21.97 22.025 22.045 22.048 22.08 22.14 22.185 22.2 22.218 22.26 22.3 22.32 22.363 22.435 22.518 22.625 22.727 22.807 22.877 22.94 22.95 22.908 22.868 22.85 22.895 22.985 23.08 23.175 23.283 23.435 23.61 23.782 23.935 24.06 24.19 24.383 24.577 24.682 24.74 24.765 24.78 24.775 24.7 24.552 24.47 24.485 24.47 24.41 24.33 24.25 24.17 24.103 24.053 24.04 24.055 24.047 24.01 23.96 23.907 23.855 23.825 23.815
27.805 27.585 27.4 27.26 27.12 26.97 26.825 26.713 26.635 26.565 26.495 26.425 26.352 26.27 26.15 25.998 25.85 25.73 25.635 25.55 25.473 25.397 25.32 25.243 25.17 25.09 24.99 24.88 24.773 24.673 24.578 24.46 24.33 24.207 24.08 23.973 23.895 23.802 23.682 23.56 23.432 23.298 23.198 23.142 23.1 23.06 23.017 22.91 22.74 22.583 22.465 22.395 22.35 22.313 22.283 22.26 22.24 22.215 22.195 22.18 22.155 22.13 22.12 22.133 22.16 22.167 22.132 22.085 22.032 21.972 21.937 21.92 21.9 21.88 21.867 21.87 21.88 21.887 21.892 21.885 21.86 21.833 21.838 21.87 21.9 21.94 21.975 21.998 22.022 22.015 21.955 21.875 21.795 21.725 21.695 21.705 21.72 21.73 21.737 21.74 21.742 21.747 21.742 21.712 21.668 21.625 21.588 21.555 21.525 21.493 21.483 21.5 21.52 21.538 21.563 21.595 21.625 21.647 21.665 21.675 21.673 21.667 21.652 21.625 21.595 21.563 21.55 21.56 21.57 21.578 21.59 21.615 21.645 21.675 21.73 21.812 21.897 21.967 22.012 22.032 22.033 22.033 22.065 22.123 22.18 22.225 22.262 22.307 22.352 22.395 22.455 22.53 22.603 22.688 22.773 22.845 22.91 22.967 22.975 22.935 22.895 22.87 22.913 23.005 23.1 23.198 23.3 23.445 23.622 23.795 23.94 24.057 24.175 24.315 24.432 24.473 24.478 24.48 24.495 24.523 24.545 24.505 24.467 24.49 24.505 24.5 24.45 24.372 24.295 24.217 24.148 24.123 24.14 24.155 24.137 24.092 24.045 23.997 23.957 23.922
27.992 27.775 27.59 27.445 27.3 27.153 27.018 26.913 26.837 26.77 26.697 26.622 26.537 26.45 26.355 26.225 26.073 25.928 25.81 25.72 25.64 25.56 25.483 25.41 25.34 25.267 25.175 25.068 24.962 24.852 24.727 24.595 24.467 24.34 24.233 24.157 24.07 23.95 23.822 23.697 23.573 23.45 23.348 23.287 23.252 23.217 23.182 23.097 22.942 22.765 22.593 22.465 22.398 22.358 22.328 22.305 22.285 22.257 22.233 22.222 22.208 22.188 22.195 22.22 22.237 22.215 22.175 22.157 22.135 22.117 22.115 22.102 22.08 22.057 22.042 22.045 22.055 22.062 22.052 22.025 21.993 21.97 21.983 22.015 22.045 22.073 22.095 22.117 22.132 22.097 22.017 21.935 21.852 21.785 21.758 21.763 21.775 21.788 21.787 21.78 21.78 21.78 21.772 21.747 21.71 21.67 21.63 21.595 21.563 21.525 21.513 21.53 21.55 21.573 21.608 21.645 21.675 21.695 21.675 21.648 21.643 21.64 21.625 21.595 21.565 21.545 21.545 21.558 21.573 21.585 21.605 21.635 21.665 21.7 21.748 21.818 21.902 21.982 22.035 22.053 22.055 22.058 22.083 22.133 22.19 22.248 22.3 22.345 22.395 22.463 22.54 22.615 22.69 22.775 22.855 22.925 22.99 23.025 23.022 22.995 22.955 22.923 22.953 23.038 23.125 23.22 23.318 23.455 23.632 23.8 23.925 24.025 24.14 24.26 24.328 24.335 24.34 24.345 24.363 24.39 24.4 24.39 24.395 24.433 24.483 24.54 24.532 24.46 24.387 24.313 24.258 24.228 24.225 24.235 24.217 24.18 24.14 24.1 24.055 23.985
28.152 27.945 27.775 27.65 27.512 27.37 27.23 27.103 27.003 26.928 26.855 26.767 26.657 26.565 26.525 26.442 26.295 26.153 26.023 25.91 25.818 25.733 25.655 25.583 25.51 25.44 25.355 25.252 25.142 25.015 24.872 24.735 24.603 24.485 24.412 24.335 24.212 24.083 23.958 23.833 23.715 23.605 23.483 23.375 23.32 23.29 23.26 23.212 23.107 22.942 22.76 22.593 22.47 22.41 22.382 22.355 22.322 22.282 22.258 22.27 22.285 22.275 22.278 22.302 22.295 22.235 22.185 22.165 22.155 22.17 22.21 22.242 22.237 22.213 22.2 22.205 22.215 22.225 22.21 22.173 22.145 22.135 22.135 22.15 22.18 22.207 22.23 22.242 22.215 22.135 22.04 21.958 21.89 21.85 21.835 21.833 21.84 21.852 21.84 21.81 21.8 21.8 21.8 21.79 21.765 21.73 21.69 21.652 21.615 21.578 21.565 21.578 21.595 21.62 21.66 21.702 21.737 21.757 21.715 21.645 21.62 21.617 21.6 21.573 21.555 21.555 21.565 21.575 21.59 21.605 21.625 21.655 21.69 21.738 21.78 21.825 21.895 21.975 22.047 22.095 22.11 22.115 22.135 22.175 22.228 22.282 22.333 22.383 22.45 22.538 22.622 22.698 22.78 22.882 22.977 23.047 23.092 23.09 23.077 23.07 23.042 23.008 23.028 23.105 23.183 23.265 23.35 23.47 23.635 23.8 23.907 23.98 24.083 24.202 24.277 24.287 24.29 24.295 24.308 24.335 24.312 24.285 24.323 24.39 24.475 24.562 24.575 24.51 24.448 24.413 24.405 24.353 24.31 24.315 24.292 24.255 24.217 24.18 24.12 24.045
28.292 28.115 27.963 27.847 27.725 27.59 27.45 27.315 27.19 27.085 26.995 26.887 26.755 26.663 26.657 26.635 26.52 26.38 26.25 26.123 26.01 25.918 25.838 25.763 25.688 25.615 25.535 25.43 25.302 25.157 25.01 24.875 24.768 24.677 24.587 24.48 24.347 24.218 24.095 23.98 23.872 23.765 23.635 23.49 23.378 23.32 23.29 23.26 23.21 23.102 22.94 22.76 22.593 22.475 22.418 22.38 22.335 22.285 22.27 22.302 22.34 22.357 22.365 22.367 22.325 22.245 22.193 22.178 22.178 22.188 22.235 22.307 22.352 22.36 22.357 22.365 22.375 22.382 22.365 22.34 22.343 22.35 22.332 22.315 22.32 22.34 22.36 22.335 22.25 22.145 22.055 21.993 21.955 21.93 21.915 21.91 21.913 21.92 21.905 21.863 21.83 21.82 21.82 21.815 21.805 21.782 21.745 21.705 21.663 21.628 21.62 21.63 21.645 21.668 21.705 21.752 21.797 21.817 21.772 21.685 21.618 21.593 21.575 21.56 21.565 21.575 21.585 21.595 21.61 21.625 21.645 21.683 21.73 21.785 21.827 21.853 21.895 21.965 22.04 22.107 22.155 22.175 22.195 22.228 22.268 22.318 22.37 22.438 22.525 22.62 22.705 22.785 22.885 22.997 23.097 23.157 23.162 23.135 23.123 23.125 23.117 23.093 23.113 23.19 23.262 23.327 23.4 23.505 23.645 23.8 23.905 23.96 24.038 24.15 24.232 24.245 24.242 24.242 24.24 24.252 24.223 24.208 24.285 24.387 24.49 24.585 24.612 24.585 24.575 24.595 24.592 24.49 24.408 24.395 24.367 24.33 24.292 24.255 24.198 24.155
28.438 28.295 28.165 28.048 27.93 27.805 27.67 27.532 27.397 27.265 27.13 26.988 26.848 26.76 26.76 26.782 26.73 26.61 26.48 26.35 26.22 26.11 26.025 25.947 25.87 25.792 25.707 25.587 25.44 25.293 25.165 25.048 24.945 24.847 24.73 24.607 24.48 24.357 24.245 24.137 24.03 23.922 23.797 23.65 23.503 23.385 23.323 23.29 23.26 23.212 23.105 22.94 22.765 22.618 22.513 22.433 22.353 22.288 22.285 22.327 22.37 22.41 22.435 22.41 22.34 22.26 22.21 22.208 22.218 22.218 22.245 22.31 22.385 22.442 22.47 22.49 22.507 22.525 22.527 22.525 22.54 22.542 22.52 22.495 22.477 22.475 22.455 22.375 22.268 22.165 22.093 22.06 22.035 22.01 21.995 21.99 21.99 21.99 21.972 21.93 21.885 21.853 21.837 21.83 21.822 21.81 21.78 21.742 21.702 21.675 21.675 21.685 21.697 21.712 21.745 21.795 21.845 21.87 21.827 21.742 21.655 21.59 21.568 21.573 21.585 21.595 21.605 21.615 21.63 21.645 21.673 21.722 21.777 21.832 21.872 21.895 21.92 21.968 22.033 22.1 22.167 22.22 22.255 22.288 22.323 22.363 22.423 22.51 22.605 22.7 22.792 22.887 23 23.115 23.207 23.237 23.212 23.18 23.168 23.17 23.172 23.167 23.19 23.252 23.315 23.373 23.453 23.565 23.687 23.815 23.905 23.955 24.012 24.105 24.135 24.04 23.908 23.748 23.79 24.065 24.187 24.168 24.22 24.335 24.452 24.565 24.647 24.7 24.75 24.802 24.78 24.645 24.525 24.475 24.442 24.405 24.368 24.33 24.298 24.285
28.625 28.503 28.385 28.265 28.142 28.007 27.867 27.73 27.59 27.45 27.293 27.12 26.958 26.868 26.888 26.94 26.9 26.775 26.642 26.507 26.382 26.288 26.205 26.122 26.045 25.965 25.87 25.732 25.573 25.433 25.32 25.207 25.082 24.963 24.845 24.728 24.605 24.485 24.375 24.265 24.157 24.057 23.947 23.812 23.665 23.515 23.395 23.333 23.3 23.27 23.217 23.105 22.962 22.83 22.7 22.572 22.445 22.35 22.323 22.345 22.388 22.432 22.467 22.46 22.4 22.32 22.273 22.275 22.285 22.267 22.263 22.303 22.37 22.445 22.495 22.525 22.555 22.612 22.657 22.662 22.665 22.65 22.615 22.59 22.575 22.557 22.51 22.417 22.313 22.213 22.155 22.132 22.107 22.082 22.062 22.052 22.047 22.04 22.015 21.972 21.927 21.885 21.848 21.825 21.815 21.805 21.78 21.745 21.718 21.708 21.715 21.725 21.732 21.735 21.763 21.815 21.86 21.88 21.847 21.775 21.69 21.605 21.578 21.595 21.605 21.618 21.63 21.64 21.652 21.66 21.687 21.74 21.795 21.855 21.902 21.932 21.955 21.985 22.038 22.103 22.17 22.24 22.307 22.357 22.39 22.428 22.495 22.59 22.685 22.78 22.87 22.965 23.077 23.187 23.272 23.287 23.255 23.225 23.21 23.21 23.212 23.215 23.24 23.292 23.35 23.417 23.51 23.607 23.69 23.782 23.872 23.937 23.885 23.713 23.695 23.855 23.888 23.745 23.795 24.078 24.192 24.145 24.153 24.24 24.368 24.518 24.662 24.765 24.837 24.902 24.88 24.752 24.625 24.553 24.515 24.478 24.442 24.405 24.38 24.375
28.843 28.73 28.612 28.487 28.35 28.19 28.04 27.905 27.767 27.627 27.475 27.3 27.13 27.06 27.11 27.13 27.017 26.865 26.73 26.6 26.513 26.462 26.387 26.293 26.21 26.13 26.027 25.88 25.71 25.565 25.445 25.32 25.195 25.078 24.965 24.855 24.73 24.598 24.48 24.37 24.268 24.175 24.075 23.957 23.822 23.675 23.53 23.415 23.353 23.318 23.282 23.222 23.117 22.985 22.845 22.705 22.578 22.483 22.42 22.393 22.408 22.448 22.48 22.492 22.475 22.415 22.368 22.362 22.35 22.31 22.293 22.313 22.355 22.422 22.477 22.508 22.563 22.672 22.742 22.747 22.742 22.717 22.67 22.625 22.603 22.585 22.545 22.472 22.375 22.275 22.22 22.197 22.17 22.137 22.107 22.085 22.07 22.06 22.032 21.988 21.945 21.91 21.865 21.82 21.798 21.785 21.76 21.73 21.72 21.725 21.735 21.745 21.745 21.735 21.758 21.805 21.832 21.837 21.815 21.765 21.695 21.613 21.588 21.615 21.63 21.642 21.655 21.667 21.67 21.655 21.673 21.725 21.785 21.857 21.915 21.952 21.98 22.008 22.058 22.12 22.185 22.255 22.337 22.415 22.462 22.503 22.573 22.67 22.767 22.865 22.933 22.99 23.082 23.187 23.272 23.307 23.295 23.265 23.25 23.25 23.25 23.25 23.273 23.325 23.385 23.44 23.493 23.545 23.593 23.675 23.795 23.728 23.683 23.67 23.713 24.02 24.207 24.225 24.23 24.247 24.235 24.178 24.123 24.163 24.313 24.497 24.655 24.76 24.845 24.915 24.892 24.785 24.688 24.642 24.612 24.563 24.518 24.475 24.44 24.423
29.07 28.957 28.83 28.685 28.525 28.355 28.205 28.072 27.937 27.8 27.657 27.493 27.37 27.35 27.357 27.275 27.105 26.948 26.815 26.723 26.685 26.655 26.58 26.473 26.378 26.295 26.185 26.027 25.853 25.69 25.555 25.435 25.318 25.205 25.098 24.987 24.855 24.713 24.588 24.48 24.385 24.295 24.195 24.085 23.967 23.835 23.692 23.548 23.433 23.375 23.337 23.29 23.205 23.075 22.935 22.805 22.705 22.628 22.563 22.51 22.478 22.478 22.49 22.5 22.507 22.49 22.457 22.43 22.39 22.34 22.325 22.343 22.363 22.408 22.46 22.513 22.613 22.75 22.825 22.825 22.81 22.78 22.732 22.678 22.638 22.615 22.575 22.51 22.43 22.34 22.285 22.257 22.22 22.177 22.14 22.113 22.09 22.075 22.05 22.008 21.97 21.94 21.895 21.84 21.795 21.768 21.743 21.728 21.735 21.747 21.757 21.76 21.752 21.738 21.748 21.775 21.785 21.785 21.765 21.725 21.677 21.613 21.593 21.625 21.652 21.67 21.68 21.682 21.665 21.635 21.648 21.708 21.78 21.86 21.92 21.962 21.997 22.03 22.08 22.14 22.205 22.273 22.35 22.44 22.517 22.575 22.65 22.75 22.85 22.95 23.005 23.025 23.075 23.165 23.247 23.292 23.312 23.302 23.29 23.287 23.285 23.285 23.308 23.358 23.415 23.46 23.48 23.478 23.475 23.565 23.583 23.548 23.77 24 24.085 24.175 24.237 24.257 24.263 24.28 24.3 24.265 24.175 24.163 24.298 24.492 24.647 24.75 24.84 24.92 24.907 24.818 24.743 24.712 24.715 24.682 24.623 24.568 24.515 24.478
29.285 29.167 29.025 28.86 28.69 28.52 28.37 28.237 28.103 27.97 27.835 27.705 27.632 27.61 27.53 27.372 27.195 27.035 26.933 26.893 26.877 26.847 26.77 26.662 26.56 26.467 26.342 26.173 25.998 25.828 25.68 25.56 25.452 25.345 25.235 25.115 24.975 24.83 24.695 24.59 24.507 24.417 24.315 24.205 24.095 23.98 23.85 23.705 23.56 23.455 23.39 23.335 23.272 23.167 23.035 22.928 22.85 22.775 22.708 22.652 22.597 22.55 22.533 22.54 22.548 22.547 22.52 22.47 22.42 22.373 22.358 22.375 22.393 22.415 22.46 22.553 22.685 22.825 22.9 22.895 22.875 22.842 22.795 22.743 22.69 22.65 22.603 22.538 22.47 22.397 22.342 22.302 22.257 22.213 22.175 22.147 22.12 22.097 22.07 22.032 22 21.97 21.925 21.867 21.81 21.763 21.738 21.74 21.757 21.772 21.775 21.765 21.755 21.74 21.733 21.738 21.738 21.735 21.718 21.683 21.648 21.61 21.605 21.633 21.663 21.69 21.697 21.68 21.648 21.613 21.628 21.7 21.78 21.86 21.92 21.965 22.007 22.05 22.105 22.165 22.228 22.293 22.368 22.455 22.545 22.627 22.717 22.82 22.922 23.027 23.087 23.1 23.118 23.165 23.223 23.26 23.298 23.325 23.327 23.323 23.32 23.32 23.343 23.39 23.442 23.497 23.54 23.55 23.53 23.453 23.468 23.732 23.95 24.01 24.075 24.155 24.237 24.285 24.295 24.31 24.345 24.347 24.285 24.25 24.325 24.488 24.637 24.737 24.83 24.907 24.925 24.877 24.81 24.755 24.775 24.802 24.76 24.698 24.633 24.59
29.472 29.347 29.195 29.025 28.855 28.69 28.543 28.408 28.275 28.145 28.013 27.893 27.815 27.765 27.652 27.473 27.293 27.155 27.098 27.083 27.067 27.007 26.912 26.82 26.72 26.622 26.502 26.345 26.175 26.01 25.85 25.703 25.585 25.482 25.37 25.24 25.098 24.955 24.805 24.685 24.607 24.525 24.425 24.315 24.205 24.092 23.98 23.852 23.705 23.573 23.478 23.408 23.343 23.255 23.153 23.07 23 22.927 22.848 22.773 22.71 22.65 22.623 22.628 22.627 22.602 22.552 22.5 22.45 22.41 22.405 22.428 22.453 22.475 22.515 22.605 22.735 22.875 22.947 22.942 22.93 22.913 22.875 22.828 22.78 22.728 22.65 22.57 22.505 22.44 22.385 22.338 22.292 22.248 22.213 22.185 22.152 22.112 22.072 22.04 22.01 21.98 21.935 21.875 21.815 21.768 21.745 21.75 21.77 21.782 21.777 21.765 21.755 21.74 21.728 21.723 21.715 21.713 21.703 21.675 21.645 21.62 21.625 21.653 21.68 21.71 21.732 21.728 21.695 21.658 21.678 21.755 21.835 21.89 21.925 21.968 22.013 22.065 22.132 22.2 22.263 22.328 22.398 22.478 22.565 22.655 22.755 22.86 22.965 23.08 23.147 23.162 23.175 23.195 23.225 23.26 23.303 23.342 23.362 23.365 23.365 23.365 23.38 23.418 23.468 23.522 23.575 23.647 23.692 23.535 23.633 23.912 23.97 24.03 24.085 24.148 24.225 24.295 24.325 24.34 24.375 24.405 24.392 24.378 24.408 24.505 24.627 24.715 24.79 24.85 24.897 24.917 24.88 24.813 24.813 24.877 24.89 24.84 24.775 24.765
29.637 29.507 29.355 29.185 29.023 28.88 28.74 28.595 28.46 28.333 28.2 28.055 27.938 27.87 27.76 27.58 27.425 27.333 27.288 27.27 27.225 27.1 26.988 26.922 26.837 26.742 26.645 26.532 26.39 26.227 26.058 25.885 25.73 25.613 25.5 25.365 25.225 25.087 24.928 24.778 24.683 24.605 24.515 24.41 24.3 24.188 24.082 23.975 23.842 23.71 23.61 23.527 23.438 23.348 23.282 23.225 23.155 23.082 22.99 22.888 22.81 22.75 22.725 22.725 22.7 22.642 22.578 22.525 22.48 22.465 22.488 22.52 22.55 22.583 22.618 22.668 22.765 22.9 22.967 22.963 22.983 23.022 23.015 22.97 22.922 22.855 22.745 22.628 22.548 22.483 22.425 22.375 22.328 22.283 22.247 22.215 22.167 22.105 22.055 22.025 21.995 21.965 21.92 21.863 21.815 21.785 21.765 21.758 21.77 21.78 21.775 21.765 21.755 21.743 21.733 21.725 21.72 21.728 21.722 21.695 21.665 21.64 21.645 21.675 21.708 21.74 21.78 21.812 21.807 21.778 21.795 21.87 21.922 21.922 21.93 21.973 22.02 22.075 22.152 22.237 22.307 22.37 22.435 22.508 22.588 22.675 22.775 22.88 22.99 23.115 23.185 23.2 23.22 23.245 23.268 23.295 23.335 23.37 23.395 23.407 23.41 23.41 23.423 23.453 23.495 23.545 23.6 23.697 23.695 23.677 23.815 23.93 23.99 24.05 24.105 24.16 24.223 24.292 24.342 24.373 24.41 24.458 24.493 24.507 24.523 24.563 24.613 24.658 24.71 24.76 24.82 24.887 24.917 24.88 24.848 24.907 24.987 24.98 24.928 24.968
29.79 29.662 29.515 29.355 29.218 29.1 28.965 28.805 28.658 28.527 28.39 28.238 28.09 27.985 27.865 27.713 27.613 27.545 27.488 27.447 27.34 27.158 27.04 26.99 26.927 26.847 26.76 26.675 26.572 26.435 26.272 26.095 25.91 25.748 25.622 25.495 25.358 25.222 25.057 24.878 24.758 24.677 24.59 24.497 24.395 24.283 24.178 24.08 23.97 23.85 23.747 23.647 23.53 23.433 23.39 23.367 23.315 23.237 23.14 23.025 22.923 22.853 22.822 22.797 22.737 22.665 22.6 22.55 22.53 22.55 22.59 22.627 22.66 22.695 22.73 22.76 22.813 22.917 22.982 23.005 23.075 23.162 23.187 23.14 23.075 22.995 22.875 22.728 22.608 22.528 22.468 22.415 22.365 22.318 22.272 22.22 22.155 22.083 22.033 22.005 21.977 21.95 21.905 21.858 21.83 21.81 21.79 21.775 21.773 21.777 21.775 21.765 21.755 21.745 21.735 21.73 21.738 21.755 21.75 21.72 21.688 21.663 21.67 21.7 21.735 21.772 21.815 21.865 21.9 21.895 21.915 21.962 21.96 21.93 21.935 21.98 22.033 22.088 22.165 22.26 22.342 22.41 22.475 22.545 22.618 22.698 22.795 22.908 23.028 23.152 23.222 23.245 23.275 23.305 23.325 23.34 23.368 23.4 23.422 23.437 23.447 23.45 23.465 23.495 23.528 23.568 23.628 23.737 23.56 23.598 23.915 23.973 24.028 24.083 24.135 24.19 24.248 24.303 24.355 24.41 24.475 24.553 24.61 24.63 24.64 24.65 24.643 24.635 24.645 24.673 24.73 24.805 24.877 24.912 24.89 24.918 25.027 25.087 25.105 25.195
29.945 29.818 29.683 29.55 29.432 29.32 29.187 29.027 28.87 28.725 28.577 28.42 28.26 28.12 27.995 27.895 27.827 27.757 27.687 27.592 27.42 27.21 27.088 27.04 26.99 26.93 26.852 26.767 26.682 26.587 26.452 26.277 26.085 25.895 25.745 25.62 25.49 25.355 25.185 24.985 24.84 24.75 24.663 24.577 24.485 24.377 24.273 24.175 24.077 23.97 23.855 23.73 23.595 23.5 23.468 23.465 23.445 23.385 23.29 23.175 23.058 22.963 22.898 22.835 22.763 22.688 22.625 22.6 22.618 22.652 22.69 22.73 22.767 22.805 22.84 22.87 22.9 22.958 23.023 23.093 23.185 23.27 23.302 23.267 23.21 23.132 23.01 22.857 22.708 22.588 22.513 22.46 22.413 22.36 22.295 22.223 22.145 22.063 22.01 21.988 21.963 21.938 21.905 21.875 21.855 21.835 21.815 21.798 21.785 21.778 21.773 21.765 21.755 21.745 21.74 21.747 21.765 21.785 21.78 21.747 21.712 21.688 21.695 21.727 21.762 21.802 21.848 21.897 21.95 21.982 22.002 21.997 21.965 21.935 21.943 21.993 22.048 22.103 22.178 22.27 22.36 22.442 22.515 22.585 22.655 22.728 22.825 22.95 23.08 23.195 23.257 23.29 23.327 23.362 23.385 23.395 23.407 23.427 23.448 23.465 23.482 23.493 23.51 23.54 23.57 23.603 23.665 23.795 23.5 23.528 23.97 24.032 24.088 24.14 24.19 24.243 24.295 24.345 24.4 24.475 24.572 24.667 24.725 24.742 24.75 24.747 24.725 24.695 24.665 24.65 24.678 24.738 24.8 24.867 24.907 24.943 25.032 25.137 25.237 25.365
30.128 30 29.863 29.735 29.62 29.502 29.377 29.232 29.077 28.922 28.765 28.608 28.45 28.288 28.143 28.045 27.975 27.902 27.827 27.71 27.52 27.303 27.155 27.093 27.045 26.99 26.92 26.837 26.752 26.67 26.565 26.417 26.235 26.043 25.88 25.748 25.618 25.482 25.315 25.108 24.933 24.82 24.735 24.65 24.56 24.465 24.368 24.275 24.185 24.065 23.925 23.79 23.658 23.58 23.563 23.558 23.547 23.5 23.402 23.287 23.172 23.075 22.993 22.91 22.833 22.753 22.69 22.683 22.713 22.747 22.785 22.825 22.862 22.89 22.917 22.952 22.985 23.02 23.083 23.17 23.255 23.315 23.327 23.305 23.27 23.215 23.115 22.972 22.815 22.668 22.575 22.525 22.472 22.41 22.345 22.275 22.19 22.103 22.038 22.005 21.98 21.955 21.928 21.9 21.88 21.86 21.837 21.815 21.797 21.783 21.773 21.765 21.755 21.743 21.738 21.747 21.765 21.785 21.79 21.765 21.73 21.705 21.71 21.745 21.783 21.83 21.878 21.923 21.975 22.025 22.04 22.01 21.975 21.958 21.98 22.033 22.088 22.143 22.215 22.305 22.398 22.485 22.557 22.622 22.69 22.778 22.895 23.028 23.15 23.232 23.275 23.31 23.35 23.39 23.415 23.422 23.435 23.458 23.48 23.498 23.515 23.535 23.558 23.585 23.615 23.645 23.72 23.877 23.558 23.563 24.022 24.092 24.152 24.205 24.255 24.307 24.36 24.413 24.478 24.565 24.67 24.747 24.797 24.83 24.84 24.83 24.797 24.762 24.73 24.698 24.695 24.735 24.785 24.84 24.9 24.947 25.02 25.148 25.295 25.425
30.338 30.21 30.06 29.908 29.78 29.66 29.54 29.41 29.267 29.117 28.96 28.802 28.64 28.465 28.295 28.155 28.06 27.99 27.91 27.802 27.645 27.438 27.268 27.17 27.105 27.052 26.982 26.9 26.817 26.735 26.64 26.52 26.37 26.188 26.02 25.885 25.75 25.623 25.468 25.268 25.078 24.943 24.85 24.76 24.67 24.578 24.488 24.405 24.3 24.145 23.988 23.85 23.738 23.688 23.68 23.675 23.645 23.577 23.477 23.363 23.265 23.195 23.125 23.042 22.958 22.87 22.81 22.795 22.805 22.833 22.87 22.907 22.932 22.938 22.958 23.002 23.04 23.075 23.138 23.217 23.28 23.315 23.315 23.29 23.26 23.225 23.155 23.04 22.897 22.75 22.655 22.597 22.53 22.46 22.405 22.355 22.282 22.198 22.12 22.065 22.03 22.005 21.97 21.928 21.9 21.88 21.855 21.825 21.803 21.788 21.775 21.765 21.755 21.74 21.725 21.723 21.733 21.75 21.765 21.762 21.74 21.713 21.718 21.758 21.805 21.865 21.915 21.95 21.995 22.045 22.057 22.028 22.008 22.015 22.053 22.105 22.16 22.215 22.283 22.37 22.462 22.54 22.597 22.658 22.735 22.855 22.997 23.122 23.207 23.25 23.28 23.313 23.35 23.387 23.41 23.423 23.453 23.492 23.52 23.535 23.553 23.583 23.61 23.63 23.655 23.685 23.773 23.957 23.635 23.618 24.072 24.147 24.215 24.27 24.32 24.373 24.425 24.488 24.565 24.655 24.747 24.8 24.845 24.895 24.915 24.905 24.867 24.823 24.783 24.75 24.745 24.78 24.83 24.87 24.892 24.913 24.995 25.15 25.323 25.47
30.555 30.425 30.272 30.1 29.948 29.82 29.7 29.575 29.445 29.307 29.152 28.987 28.815 28.638 28.47 28.308 28.168 28.075 27.987 27.875 27.742 27.565 27.403 27.288 27.188 27.118 27.045 26.96 26.88 26.8 26.705 26.592 26.472 26.322 26.163 26.03 25.912 25.807 25.665 25.477 25.29 25.13 25.018 24.922 24.827 24.73 24.635 24.535 24.392 24.215 24.053 23.923 23.845 23.815 23.805 23.782 23.72 23.642 23.55 23.45 23.38 23.325 23.255 23.175 23.09 23.005 22.953 22.93 22.918 22.925 22.952 22.975 22.98 22.975 22.995 23.045 23.087 23.125 23.182 23.242 23.277 23.302 23.302 23.275 23.245 23.21 23.145 23.052 22.945 22.822 22.727 22.655 22.58 22.51 22.455 22.415 22.365 22.292 22.215 22.145 22.088 22.055 22.02 21.97 21.928 21.9 21.875 21.843 21.813 21.793 21.78 21.767 21.752 21.735 21.718 21.708 21.705 21.713 21.725 21.737 21.74 21.72 21.728 21.778 21.838 21.902 21.952 21.985 22.02 22.065 22.077 22.06 22.065 22.088 22.128 22.183 22.24 22.295 22.358 22.44 22.522 22.582 22.63 22.693 22.8 22.952 23.092 23.18 23.227 23.26 23.29 23.32 23.35 23.383 23.41 23.438 23.48 23.527 23.557 23.575 23.603 23.64 23.67 23.685 23.703 23.728 23.818 24.02 23.705 23.673 24.117 24.195 24.27 24.332 24.387 24.44 24.495 24.57 24.655 24.742 24.807 24.838 24.885 24.947 24.985 24.98 24.94 24.89 24.845 24.805 24.793 24.822 24.857 24.875 24.88 24.913 25.043 25.228 25.402 25.537
