ncols         200
nrows         83
xllcorner     547000
yllcorner     261250
cellsize      5
NODATA_value  -9999.0
8.925 8.905 8.895 8.88 8.83 8.913 9.07 9.095 9.037 8.875 8.768 8.8 8.85 8.897 8.927 8.932 8.93 8.925 8.91 8.89 8.87 8.85 8.815 8.762 8.728 8.717 8.665 8.56 8.455 8.358 8.277 8.19 8.057 7.9 7.75 7.625 7.565 7.61 7.705 7.79 7.825 7.792 7.78 7.81 7.84 7.867 7.877 7.82 7.712 7.567 7.427 7.29 7.095 6.913 6.86 6.905 6.942 6.967 6.972 6.96 6.94 6.92 6.89 6.858 6.835 6.815 6.79 6.77 6.763 6.768 6.81 6.867 6.897 6.915 6.965 7.05 7.135 7.212 7.285 7.362 7.422 7.39 7.293 7.218 7.168 7.125 7.085 7.042 6.997 6.953 6.935 6.955 6.995 7.063 7.16 7.165 7.163 7.218 7.235 7.273 7.343 7.432 7.437 7.338 7.23 7.143 7.143 7.225 7.315 7.408 7.53 7.215 6.518 6.22 6.237 6.255 6.278 6.307 6.31 6.29 6.285 6.285 6.29 6.295 6.297 6.3 6.3 6.297 6.287 6.27 6.247 6.218 6.198 6.195 6.138 6.078 6.208 6.847 7.307 7.208 7.13 7.128 7.14 7.12 7.093 7.078 7.083 7.098 7.128 7.157 7.18 7.203 7.228 7.242 7.22 7.167 7.11 7.063 7.045 7.045 7.05 7.055 7.06 7.065 7.068 7.07 7.078 7.092 7.102 7.1 7.092 7.085 7.072 7.057 7.012 6.95 6.91 6.893 6.915 6.965 7.012 7.02 6.95 6.848 6.753 6.71 6.758 6.845 6.915 6.957 6.972 6.96 6.942 6.897 6.813 6.738 6.693 6.665 6.655 6.657
8.94 8.925 8.918 8.91 8.902 8.888 8.865 8.85 8.857 8.795 8.7 8.705 8.755 8.802 8.83 8.84 8.85 8.855 8.852 8.847 8.84 8.825 8.775 8.688 8.61 8.57 8.502 8.39 8.28 8.175 8.093 8.03 7.945 7.812 7.668 7.575 7.593 7.688 7.785 7.837 7.805 7.743 7.733 7.76 7.79 7.82 7.847 7.817 7.675 7.47 7.345 7.272 7.115 6.928 6.868 6.912 6.945 6.96 6.97 6.97 6.957 6.94 6.912 6.878 6.848 6.825 6.8 6.773 6.753 6.755 6.8 6.87 6.927 6.962 7.018 7.1 7.18 7.257 7.323 7.392 7.417 7.35 7.25 7.163 7.103 7.058 7.015 6.977 6.94 6.895 6.883 6.925 6.998 7.088 7.17 7.253 7.422 7.528 7.59 7.635 7.525 7.498 7.512 7.422 7.302 7.178 7.17 7.3 7.425 7.53 7.545 6.913 6.275 6.235 6.25 6.275 6.308 6.34 6.342 6.318 6.3 6.293 6.295 6.303 6.31 6.317 6.315 6.305 6.29 6.27 6.25 6.233 6.238 6.247 6.178 6.138 6.55 7.135 7.305 7.25 7.195 7.143 7.11 7.1 7.093 7.085 7.085 7.088 7.105 7.137 7.17 7.2 7.225 7.227 7.21 7.182 7.142 7.097 7.07 7.06 7.06 7.065 7.07 7.075 7.075 7.075 7.082 7.09 7.085 7.075 7.068 7.06 7.048 7.035 6.992 6.92 6.863 6.843 6.87 6.915 6.957 6.975 6.918 6.828 6.758 6.748 6.81 6.893 6.967 7.007 7.005 6.985 6.967 6.94 6.875 6.813 6.783 6.765 6.755 6.752
8.97 8.96 8.955 8.95 8.942 8.91 8.835 8.753 8.705 8.665 8.61 8.61 8.66 8.705 8.725 8.73 8.74 8.745 8.75 8.76 8.772 8.765 8.705 8.612 8.518 8.448 8.37 8.263 8.158 8.053 7.96 7.878 7.793 7.698 7.598 7.58 7.66 7.765 7.84 7.827 7.753 7.693 7.688 7.715 7.742 7.77 7.8 7.795 7.582 7.343 7.278 7.235 7.12 6.943 6.875 6.917 6.942 6.95 6.957 6.962 6.965 6.957 6.935 6.9 6.865 6.838 6.81 6.78 6.753 6.745 6.788 6.86 6.927 6.99 7.065 7.147 7.222 7.3 7.365 7.417 7.402 7.302 7.2 7.115 7.048 6.995 6.95 6.913 6.875 6.843 6.86 6.935 7.03 7.125 7.193 7.375 7.725 8.027 8.327 8.37 8.015 7.723 7.602 7.495 7.35 7.195 7.168 7.315 7.485 7.64 7.612 6.993 6.356 6.243 6.27 6.305 6.342 6.372 6.375 6.35 6.325 6.305 6.3 6.31 6.317 6.325 6.327 6.315 6.295 6.275 6.26 6.265 6.292 6.302 6.23 6.185 6.795 7.362 7.34 7.315 7.26 7.202 7.152 7.123 7.11 7.103 7.098 7.093 7.095 7.11 7.14 7.182 7.215 7.207 7.183 7.165 7.142 7.115 7.095 7.082 7.075 7.075 7.078 7.08 7.08 7.08 7.078 7.07 7.063 7.055 7.045 7.035 7.025 7.015 6.975 6.902 6.83 6.795 6.82 6.865 6.905 6.938 6.918 6.868 6.835 6.825 6.87 6.95 7.022 7.05 7.035 7.013 6.99 6.97 6.932 6.897 6.88 6.862 6.847 6.835
9.013 9.007 9.002 8.997 8.98 8.925 8.84 8.753 8.665 8.588 8.528 8.53 8.588 8.63 8.635 8.625 8.63 8.635 8.645 8.668 8.687 8.667 8.595 8.505 8.418 8.355 8.3 8.215 8.115 8.015 7.915 7.81 7.705 7.628 7.57 7.588 7.682 7.782 7.845 7.82 7.733 7.648 7.63 7.657 7.68 7.705 7.732 7.642 7.405 7.25 7.213 7.175 7.102 6.958 6.885 6.92 6.935 6.94 6.945 6.95 6.963 6.977 6.972 6.943 6.908 6.87 6.833 6.8 6.77 6.745 6.75 6.8 6.867 6.942 7.035 7.132 7.225 7.285 7.335 7.377 7.342 7.25 7.16 7.085 7.018 6.953 6.895 6.85 6.813 6.813 6.878 6.97 7.065 7.163 7.28 7.565 8 8.46 8.84 8.762 8.345 7.947 7.678 7.52 7.35 7.188 7.145 7.245 7.415 7.625 7.73 7.517 7.048 6.62 6.378 6.33 6.375 6.405 6.405 6.383 6.36 6.338 6.325 6.323 6.323 6.328 6.335 6.332 6.315 6.293 6.285 6.308 6.345 6.35 6.28 6.413 6.997 7.33 7.275 7.275 7.252 7.217 7.17 7.138 7.127 7.122 7.115 7.108 7.105 7.103 7.11 7.145 7.172 7.17 7.157 7.143 7.125 7.11 7.1 7.092 7.087 7.085 7.088 7.093 7.098 7.103 7.095 7.078 7.065 7.053 7.04 7.028 7.013 6.997 6.955 6.882 6.81 6.765 6.778 6.82 6.86 6.948 7 6.97 6.94 6.918 6.935 6.995 7.06 7.085 7.07 7.048 7.025 6.992 6.945 6.905 6.882 6.865 6.845 6.835
9.057 9.052 9.047 9.042 9.007 8.932 8.845 8.757 8.662 8.55 8.46 8.468 8.537 8.592 8.595 8.563 8.543 8.545 8.573 8.607 8.605 8.55 8.472 8.385 8.313 8.273 8.245 8.192 8.105 8.005 7.905 7.8 7.715 7.673 7.63 7.595 7.635 7.73 7.802 7.817 7.77 7.678 7.605 7.583 7.59 7.612 7.635 7.473 7.263 7.2 7.153 7.108 7.06 6.955 6.893 6.917 6.925 6.933 6.945 6.958 6.978 7.012 7.03 7.005 6.962 6.915 6.87 6.833 6.8 6.768 6.73 6.718 6.76 6.835 6.933 7.042 7.145 7.18 7.245 7.315 7.277 7.213 7.138 7.068 7.002 6.93 6.855 6.798 6.77 6.805 6.895 6.998 7.11 7.23 7.445 7.82 8.267 8.677 8.927 8.747 8.313 7.945 7.675 7.505 7.34 7.183 7.145 7.218 7.335 7.52 7.687 7.817 7.765 7.445 7.03 6.645 6.42 6.408 6.44 6.422 6.405 6.385 6.37 6.355 6.343 6.338 6.338 6.342 6.337 6.318 6.318 6.35 6.36 6.312 6.253 6.737 7.325 7.315 7.203 7.183 7.185 7.173 7.15 7.138 7.135 7.135 7.13 7.125 7.12 7.113 7.11 7.12 7.13 7.135 7.135 7.125 7.112 7.098 7.088 7.085 7.088 7.093 7.107 7.125 7.135 7.145 7.142 7.125 7.105 7.085 7.07 7.055 7.035 6.997 6.935 6.863 6.798 6.75 6.745 6.78 6.86 7.03 7.125 7.093 7.063 7.045 7.035 7.04 7.08 7.117 7.115 7.092 7.052 6.985 6.907 6.838 6.793 6.773 6.76 6.77
9.102 9.097 9.092 9.077 9.022 8.937 8.85 8.745 8.607 8.473 8.395 8.413 8.487 8.557 8.58 8.55 8.508 8.495 8.527 8.542 8.497 8.425 8.353 8.278 8.225 8.198 8.175 8.147 8.087 7.995 7.898 7.823 7.79 7.785 7.752 7.67 7.62 7.67 7.737 7.77 7.782 7.737 7.652 7.578 7.523 7.51 7.495 7.375 7.24 7.165 7.105 7.055 7.005 6.933 6.895 6.913 6.925 6.94 6.96 6.983 7.015 7.062 7.06 7 6.94 6.903 6.887 6.862 6.83 6.8 6.757 6.705 6.683 6.728 6.823 6.923 7.015 7.06 7.147 7.24 7.232 7.185 7.115 7.05 6.985 6.913 6.835 6.76 6.758 6.848 6.965 7.088 7.22 7.36 7.608 8.045 8.502 8.79 8.935 8.767 8.3 7.885 7.638 7.482 7.325 7.178 7.143 7.21 7.29 7.42 7.588 7.767 7.922 7.957 7.782 7.425 7.01 6.643 6.44 6.415 6.43 6.42 6.41 6.4 6.385 6.37 6.36 6.355 6.352 6.34 6.347 6.347 6.282 6.18 6.265 6.955 7.462 7.358 7.25 7.183 7.158 7.15 7.145 7.142 7.14 7.14 7.137 7.135 7.13 7.125 7.125 7.118 7.11 7.115 7.115 7.105 7.095 7.083 7.078 7.083 7.09 7.098 7.12 7.155 7.175 7.185 7.185 7.172 7.155 7.135 7.118 7.102 7.067 6.995 6.915 6.85 6.795 6.745 6.723 6.77 6.93 7.155 7.25 7.225 7.21 7.2 7.178 7.148 7.143 7.16 7.152 7.105 7.032 6.945 6.863 6.788 6.723 6.683 6.68 6.71
9.142 9.142 9.137 9.105 9.03 8.942 8.827 8.667 8.508 8.4 8.343 8.355 8.43 8.507 8.557 8.55 8.505 8.47 8.467 8.442 8.375 8.305 8.24 8.188 8.15 8.123 8.1 8.08 8.047 7.99 7.933 7.91 7.91 7.91 7.875 7.79 7.693 7.653 7.675 7.707 7.725 7.69 7.625 7.557 7.48 7.43 7.38 7.3 7.22 7.14 7.073 7.02 6.968 6.92 6.908 6.925 6.945 6.965 6.985 7.015 7.045 7.047 6.985 6.9 6.868 6.883 6.905 6.887 6.85 6.822 6.79 6.743 6.688 6.683 6.745 6.825 6.905 6.965 7.023 7.09 7.132 7.137 7.095 7.03 6.968 6.9 6.828 6.75 6.788 6.952 7.107 7.243 7.38 7.52 7.745 8.192 8.627 8.825 8.935 8.832 8.347 7.853 7.61 7.457 7.305 7.168 7.138 7.205 7.275 7.373 7.53 7.72 7.907 8.035 8.04 7.972 7.77 7.39 6.985 6.613 6.41 6.403 6.412 6.407 6.4 6.39 6.38 6.37 6.365 6.355 6.33 6.262 6.158 6.125 6.588 7.292 7.515 7.43 7.34 7.25 7.183 7.158 7.153 7.148 7.145 7.143 7.14 7.14 7.137 7.135 7.132 7.122 7.107 7.1 7.095 7.088 7.08 7.073 7.078 7.09 7.097 7.103 7.125 7.17 7.207 7.225 7.227 7.217 7.202 7.185 7.165 7.13 7.06 6.978 6.908 6.85 6.8 6.748 6.72 6.82 7.05 7.29 7.39 7.378 7.372 7.36 7.335 7.302 7.27 7.237 7.177 7.083 6.988 6.9 6.818 6.745 6.68 6.64 6.63 6.65
9.167 9.187 9.175 9.122 9.025 8.9 8.73 8.548 8.425 8.35 8.288 8.295 8.37 8.45 8.512 8.515 8.472 8.437 8.413 8.368 8.303 8.238 8.18 8.135 8.1 8.073 8.048 8.025 8.005 7.982 7.967 7.965 7.965 7.965 7.927 7.84 7.74 7.65 7.625 7.652 7.637 7.57 7.498 7.44 7.39 7.357 7.33 7.275 7.2 7.12 7.05 6.995 6.953 6.928 6.93 6.95 6.97 6.99 7.012 7.015 6.982 6.915 6.85 6.83 6.86 6.915 6.942 6.912 6.863 6.835 6.82 6.797 6.755 6.728 6.76 6.828 6.888 6.913 6.928 6.97 7.018 7.057 7.062 7.02 6.96 6.898 6.83 6.765 6.82 7.025 7.237 7.4 7.537 7.675 7.835 8.157 8.542 8.767 8.91 8.892 8.395 7.818 7.578 7.43 7.28 7.145 7.13 7.21 7.28 7.383 7.55 7.743 7.925 8.092 8.15 8.1 8.055 7.985 7.76 7.365 6.953 6.57 6.38 6.383 6.377 6.372 6.367 6.362 6.357 6.35 6.282 6.17 6.083 6.135 6.872 7.53 7.512 7.44 7.35 7.26 7.19 7.165 7.16 7.153 7.15 7.147 7.145 7.145 7.142 7.14 7.132 7.117 7.097 7.085 7.083 7.078 7.073 7.068 7.075 7.092 7.102 7.11 7.135 7.178 7.222 7.257 7.27 7.262 7.247 7.23 7.197 7.137 7.06 6.99 6.93 6.875 6.825 6.773 6.765 6.935 7.212 7.45 7.555 7.548 7.54 7.52 7.487 7.452 7.41 7.332 7.22 7.1 6.985 6.888 6.818 6.765 6.723 6.715 6.7 6.67
9.187 9.232 9.2 9.105 8.96 8.782 8.59 8.445 8.365 8.3 8.235 8.24 8.312 8.385 8.432 8.425 8.395 8.388 8.382 8.345 8.285 8.225 8.17 8.12 8.078 8.048 8.023 8 7.983 7.967 7.953 7.945 7.945 7.937 7.89 7.805 7.71 7.613 7.583 7.587 7.532 7.45 7.373 7.31 7.258 7.27 7.287 7.235 7.17 7.097 7.03 6.985 6.96 6.945 6.95 6.97 6.992 7.002 6.995 6.955 6.89 6.84 6.82 6.845 6.9 6.955 6.98 6.945 6.883 6.845 6.842 6.85 6.83 6.803 6.828 6.885 6.907 6.88 6.873 6.91 6.945 6.975 7 7 6.962 6.905 6.84 6.783 6.828 7.03 7.295 7.525 7.692 7.827 7.915 8.025 8.318 8.622 8.81 8.78 8.23 7.69 7.522 7.392 7.25 7.113 7.113 7.212 7.288 7.408 7.595 7.802 7.995 8.17 8.237 8.208 8.205 8.185 8.125 8.037 7.772 7.333 6.918 6.53 6.338 6.348 6.342 6.338 6.332 6.327 6.24 6.108 6.065 6.355 7.12 7.525 7.428 7.365 7.28 7.205 7.178 7.182 7.177 7.163 7.153 7.15 7.15 7.15 7.147 7.14 7.122 7.098 7.075 7.068 7.072 7.072 7.07 7.065 7.065 7.083 7.105 7.12 7.145 7.185 7.23 7.275 7.295 7.285 7.26 7.232 7.197 7.152 7.097 7.032 6.97 6.915 6.868 6.823 6.848 7.073 7.387 7.63 7.732 7.722 7.702 7.67 7.632 7.595 7.522 7.405 7.28 7.16 7.043 6.95 6.895 6.86 6.85 6.872 6.88 6.825
9.195 9.252 9.182 9.022 8.835 8.64 8.473 8.375 8.315 8.25 8.185 8.188 8.25 8.307 8.335 8.33 8.33 8.345 8.36 8.335 8.275 8.215 8.16 8.11 8.063 8.025 8 7.98 7.965 7.952 7.935 7.918 7.91 7.887 7.825 7.745 7.66 7.568 7.525 7.495 7.415 7.33 7.25 7.183 7.143 7.198 7.237 7.183 7.125 7.068 7.02 6.993 6.978 6.965 6.97 6.99 7.015 7.025 6.995 6.955 6.938 6.935 6.913 6.9 6.94 6.995 7.017 6.98 6.91 6.86 6.855 6.875 6.885 6.873 6.887 6.912 6.885 6.835 6.823 6.852 6.882 6.905 6.925 6.942 6.942 6.91 6.853 6.803 6.833 7.018 7.295 7.567 7.805 7.962 8.02 8.025 8.153 8.425 8.657 8.477 7.898 7.535 7.43 7.32 7.202 7.073 7.075 7.2 7.293 7.43 7.635 7.85 8.057 8.247 8.325 8.315 8.33 8.352 8.36 8.322 8.222 8.092 7.787 7.307 6.878 6.48 6.295 6.313 6.307 6.302 6.212 6.09 6.1 6.745 7.442 7.445 7.33 7.282 7.22 7.18 7.185 7.202 7.202 7.183 7.163 7.155 7.155 7.152 7.147 7.137 7.112 7.078 7.058 7.055 7.058 7.062 7.065 7.062 7.058 7.07 7.1 7.125 7.155 7.19 7.217 7.242 7.25 7.235 7.207 7.175 7.15 7.125 7.09 7.047 7.003 6.958 6.918 6.88 6.933 7.19 7.54 7.807 7.905 7.885 7.852 7.815 7.777 7.715 7.6 7.465 7.34 7.228 7.133 7.058 7.005 6.985 7.003 7.037 7.067 7.027
9.16 9.167 9.062 8.887 8.695 8.518 8.395 8.325 8.265 8.2 8.135 8.128 8.175 8.225 8.255 8.27 8.292 8.315 8.335 8.322 8.267 8.205 8.15 8.1 8.05 8.005 7.978 7.96 7.945 7.935 7.92 7.897 7.877 7.835 7.76 7.68 7.6 7.518 7.45 7.382 7.298 7.213 7.13 7.055 7.05 7.15 7.195 7.15 7.105 7.063 7.035 7.015 6.998 6.985 6.99 7.013 7.037 7.06 7.065 7.062 7.08 7.092 7.055 7 6.995 7.035 7.055 7.015 6.945 6.883 6.865 6.888 6.912 6.922 6.92 6.892 6.84 6.79 6.773 6.793 6.815 6.838 6.86 6.875 6.89 6.892 6.865 6.83 6.84 7.005 7.285 7.55 7.845 8.052 8.13 8.143 8.135 8.278 8.497 8.247 7.698 7.433 7.318 7.212 7.11 7.013 7.035 7.172 7.295 7.458 7.672 7.887 8.102 8.31 8.415 8.432 8.455 8.477 8.502 8.525 8.512 8.45 8.27 8.035 7.73 7.28 6.833 6.448 6.275 6.278 6.207 6.125 6.27 7.015 7.49 7.315 7.235 7.213 7.185 7.178 7.2 7.22 7.227 7.21 7.185 7.17 7.16 7.15 7.14 7.13 7.105 7.065 7.043 7.043 7.045 7.048 7.053 7.055 7.053 7.06 7.088 7.12 7.152 7.177 7.188 7.195 7.193 7.17 7.133 7.095 7.075 7.065 7.058 7.053 7.045 7.133 7.15 7 7.02 7.298 7.66 7.955 8.057 8.027 7.995 7.96 7.9 7.795 7.663 7.528 7.41 7.318 7.24 7.17 7.128 7.137 7.17 7.202 7.237 7.217
9.01 8.92 8.822 8.715 8.56 8.423 8.345 8.295 8.255 8.213 8.158 8.108 8.118 8.17 8.203 8.223 8.252 8.282 8.305 8.305 8.262 8.202 8.147 8.087 8.02 7.973 7.955 7.938 7.918 7.905 7.89 7.87 7.855 7.812 7.735 7.658 7.578 7.488 7.375 7.265 7.18 7.095 7.01 6.94 6.975 7.112 7.18 7.157 7.123 7.088 7.06 7.04 7.023 7.008 7.01 7.035 7.06 7.085 7.112 7.137 7.165 7.18 7.16 7.122 7.09 7.088 7.092 7.05 6.977 6.905 6.883 6.907 6.93 6.945 6.935 6.89 6.835 6.783 6.76 6.775 6.798 6.825 6.85 6.865 6.878 6.885 6.875 6.85 6.843 6.97 7.21 7.485 7.837 8.052 8.165 8.302 8.35 8.333 8.327 8.08 7.625 7.343 7.2 7.098 7.003 6.955 7.018 7.15 7.293 7.48 7.7 7.915 8.13 8.342 8.467 8.502 8.527 8.55 8.575 8.6 8.625 8.655 8.542 8.263 8.09 8.03 7.76 7.285 6.818 6.423 6.208 6.17 6.633 7.31 7.412 7.26 7.223 7.223 7.198 7.168 7.177 7.205 7.227 7.222 7.197 7.17 7.147 7.135 7.125 7.128 7.123 7.093 7.065 7.05 7.043 7.04 7.043 7.045 7.045 7.05 7.073 7.105 7.137 7.162 7.178 7.19 7.197 7.175 7.123 7.043 7.04 7.095 7.105 7.115 7.14 7.4 7.62 7.473 7.335 7.428 7.708 8.002 8.105 8.075 8.052 8.037 7.982 7.868 7.735 7.618 7.53 7.455 7.375 7.298 7.255 7.265 7.292 7.315 7.302 7.257
8.755 8.633 8.578 8.545 8.483 8.42 8.383 8.355 8.335 8.312 8.255 8.158 8.108 8.135 8.162 8.173 8.198 8.232 8.265 8.282 8.252 8.187 8.117 8.04 7.955 7.92 7.937 7.925 7.888 7.865 7.853 7.835 7.835 7.817 7.75 7.67 7.585 7.48 7.325 7.165 7.06 6.975 6.89 6.855 6.93 7.075 7.167 7.175 7.147 7.113 7.085 7.065 7.05 7.035 7.035 7.057 7.08 7.105 7.13 7.155 7.18 7.192 7.187 7.177 7.16 7.147 7.132 7.077 7 6.925 6.905 6.93 6.945 6.947 6.942 6.92 6.872 6.823 6.805 6.818 6.838 6.865 6.887 6.9 6.905 6.9 6.885 6.86 6.848 6.9 7.075 7.503 7.902 8.002 8.063 8.29 8.547 8.617 8.247 7.827 7.57 7.255 7.08 6.985 6.923 6.925 7.01 7.14 7.288 7.488 7.715 7.932 8.147 8.355 8.482 8.52 8.545 8.57 8.593 8.628 8.678 8.735 8.692 8.48 8.265 8.185 8.175 8.102 7.782 7.28 6.785 6.616 7.16 7.575 7.435 7.32 7.295 7.295 7.252 7.18 7.135 7.145 7.18 7.195 7.18 7.148 7.123 7.11 7.113 7.143 7.17 7.157 7.133 7.105 7.068 7.05 7.05 7.048 7.045 7.045 7.06 7.09 7.123 7.155 7.18 7.197 7.212 7.207 7.167 7.04 6.983 7.085 7.177 7.215 7.278 7.61 8.012 8.062 7.905 7.8 7.828 7.98 8.07 8.055 8.053 8.06 8.045 7.955 7.838 7.758 7.692 7.625 7.547 7.462 7.393 7.352 7.31 7.25 7.175 7.115
8.638 8.528 8.495 8.518 8.523 8.515 8.502 8.485 8.465 8.427 8.342 8.23 8.135 8.11 8.127 8.13 8.138 8.163 8.2 8.24 8.217 8.132 8.045 7.96 7.88 7.865 7.915 7.925 7.885 7.845 7.82 7.803 7.815 7.82 7.765 7.677 7.582 7.467 7.3 7.105 6.955 6.855 6.775 6.788 6.9 7.04 7.137 7.17 7.167 7.138 7.11 7.093 7.077 7.063 7.063 7.08 7.1 7.123 7.147 7.17 7.187 7.2 7.195 7.178 7.165 7.165 7.15 7.095 7.02 6.945 6.925 6.945 6.947 6.943 6.94 6.932 6.902 6.873 6.87 6.877 6.888 6.907 6.922 6.925 6.92 6.91 6.895 6.875 6.873 6.943 7.195 7.675 7.965 7.967 7.97 8.105 8.432 8.295 7.613 7.318 7.35 7.17 6.968 6.9 6.88 6.91 7.003 7.128 7.28 7.49 7.725 7.95 8.165 8.365 8.49 8.535 8.563 8.593 8.63 8.685 8.755 8.812 8.775 8.637 8.443 8.313 8.295 8.287 8.262 8.157 7.775 7.497 7.652 7.692 7.535 7.42 7.375 7.367 7.317 7.238 7.158 7.11 7.11 7.133 7.14 7.12 7.098 7.098 7.125 7.168 7.207 7.215 7.205 7.185 7.135 7.093 7.073 7.063 7.06 7.053 7.055 7.08 7.11 7.142 7.172 7.197 7.217 7.23 7.202 7.052 6.865 6.908 7.11 7.257 7.415 7.745 8.15 8.297 8.237 8.15 8.05 8.045 8.075 8.07 8.08 8.09 8.095 8.047 7.97 7.907 7.842 7.78 7.705 7.612 7.517 7.39 7.2 7.04 6.957 6.895
8.603 8.508 8.503 8.56 8.6 8.617 8.617 8.607 8.585 8.522 8.417 8.305 8.193 8.113 8.093 8.095 8.098 8.11 8.165 8.21 8.155 8.055 7.968 7.883 7.815 7.82 7.88 7.92 7.905 7.853 7.805 7.778 7.795 7.817 7.77 7.675 7.575 7.455 7.282 7.075 6.883 6.743 6.685 6.743 6.87 7.007 7.1 7.142 7.172 7.162 7.135 7.12 7.105 7.09 7.09 7.105 7.122 7.14 7.162 7.18 7.193 7.207 7.205 7.185 7.163 7.15 7.135 7.092 7.03 6.965 6.943 6.947 6.942 6.94 6.937 6.932 6.922 6.917 6.922 6.927 6.932 6.95 6.96 6.948 6.933 6.918 6.925 7 7.127 7.312 7.602 7.852 7.93 7.933 7.935 7.97 8.187 7.808 7.176 7.098 7.125 7.03 6.878 6.855 6.855 6.893 6.993 7.115 7.27 7.488 7.73 7.962 8.177 8.372 8.495 8.545 8.588 8.637 8.695 8.757 8.82 8.857 8.817 8.722 8.587 8.46 8.415 8.4 8.377 8.352 8.2 7.99 7.882 7.772 7.645 7.533 7.468 7.44 7.382 7.305 7.225 7.145 7.098 7.093 7.093 7.083 7.083 7.113 7.155 7.195 7.232 7.26 7.27 7.26 7.222 7.17 7.123 7.09 7.075 7.063 7.058 7.075 7.103 7.13 7.16 7.19 7.217 7.24 7.21 7.05 6.805 6.733 6.943 7.235 7.5 7.8 8.157 8.337 8.305 8.26 8.225 8.2 8.17 8.143 8.125 8.12 8.127 8.117 8.072 8.007 7.942 7.867 7.775 7.677 7.582 7.372 7.04 6.808 6.705 6.62
8.545 8.443 8.48 8.537 8.595 8.64 8.652 8.645 8.62 8.552 8.45 8.34 8.227 8.12 8.085 8.105 8.115 8.125 8.187 8.197 8.09 7.98 7.89 7.805 7.758 7.785 7.845 7.902 7.912 7.867 7.815 7.775 7.778 7.805 7.765 7.665 7.567 7.452 7.277 7.065 6.853 6.663 6.618 6.715 6.84 6.972 7.062 7.107 7.152 7.175 7.165 7.15 7.135 7.12 7.118 7.127 7.142 7.157 7.172 7.187 7.2 7.212 7.212 7.192 7.168 7.147 7.12 7.072 7.017 6.965 6.94 6.937 6.932 6.93 6.925 6.92 6.927 6.94 6.945 6.95 6.963 6.992 7.005 6.985 6.965 6.948 6.963 7.1 7.332 7.56 7.805 8.025 8.095 8.07 8.045 8.028 8.01 7.747 7.407 7.222 7.038 6.918 6.888 6.885 6.893 6.94 7.035 7.143 7.283 7.493 7.738 7.977 8.192 8.372 8.492 8.555 8.612 8.675 8.732 8.787 8.83 8.83 8.78 8.707 8.625 8.535 8.487 8.467 8.427 8.382 8.235 8.06 7.957 7.847 7.745 7.65 7.568 7.51 7.45 7.372 7.293 7.218 7.158 7.125 7.105 7.085 7.088 7.122 7.165 7.205 7.243 7.292 7.33 7.327 7.287 7.23 7.177 7.128 7.09 7.068 7.058 7.07 7.097 7.125 7.153 7.18 7.21 7.235 7.18 7.003 6.818 6.753 6.983 7.323 7.583 7.88 8.197 8.375 8.375 8.352 8.335 8.315 8.28 8.232 8.188 8.163 8.158 8.155 8.13 8.07 7.99 7.892 7.787 7.69 7.562 7.277 6.908 6.623 6.438 6.327
8.8 8.585 8.478 8.47 8.52 8.57 8.6 8.6 8.575 8.515 8.427 8.327 8.22 8.118 8.095 8.137 8.167 8.185 8.205 8.155 8.03 7.913 7.813 7.725 7.7 7.75 7.81 7.87 7.905 7.885 7.835 7.793 7.77 7.782 7.752 7.655 7.562 7.455 7.282 7.068 6.86 6.673 6.615 6.693 6.805 6.932 7.02 7.065 7.11 7.152 7.175 7.175 7.16 7.145 7.135 7.14 7.157 7.17 7.18 7.193 7.207 7.22 7.217 7.198 7.175 7.147 7.105 7.05 6.995 6.945 6.918 6.915 6.912 6.908 6.903 6.905 6.925 6.947 6.955 6.968 7 7.045 7.06 7.04 7.02 7.005 7.005 7.08 7.258 7.475 7.758 8.117 8.337 8.372 8.375 8.38 7.98 7.513 7.337 7.113 6.955 6.948 6.98 6.985 7.02 7.085 7.17 7.258 7.36 7.518 7.755 8.007 8.215 8.377 8.485 8.56 8.622 8.677 8.73 8.775 8.785 8.75 8.69 8.62 8.55 8.485 8.462 8.47 8.45 8.407 8.285 8.133 8.022 7.908 7.805 7.725 7.65 7.58 7.515 7.44 7.363 7.29 7.23 7.195 7.17 7.135 7.113 7.125 7.16 7.2 7.245 7.315 7.38 7.39 7.34 7.268 7.21 7.158 7.11 7.078 7.06 7.068 7.093 7.12 7.147 7.175 7.202 7.225 7.21 7.13 7.055 7.038 7.228 7.487 7.703 7.995 8.247 8.38 8.4 8.38 8.362 8.347 8.315 8.27 8.238 8.218 8.203 8.192 8.162 8.085 7.985 7.887 7.79 7.69 7.467 7.12 6.8 6.51 6.245 6.057
9.077 8.922 8.73 8.555 8.468 8.48 8.522 8.542 8.525 8.465 8.385 8.3 8.205 8.11 8.093 8.145 8.192 8.227 8.2 8.098 7.973 7.85 7.74 7.655 7.65 7.71 7.77 7.83 7.885 7.895 7.855 7.815 7.783 7.77 7.735 7.65 7.562 7.457 7.29 7.093 6.918 6.765 6.7 6.725 6.785 6.885 6.97 7.015 7.058 7.102 7.147 7.18 7.182 7.165 7.143 7.148 7.17 7.18 7.19 7.2 7.213 7.227 7.225 7.205 7.177 7.135 7.082 7.028 6.975 6.925 6.89 6.883 6.887 6.885 6.885 6.903 6.93 6.953 6.97 7.005 7.057 7.105 7.115 7.098 7.082 7.07 7.068 7.095 7.2 7.403 7.7 7.985 8.16 8.255 8.33 8.287 7.722 7.25 7.143 6.98 6.965 7.037 7.082 7.118 7.18 7.253 7.335 7.417 7.495 7.59 7.765 8.01 8.227 8.395 8.502 8.567 8.622 8.67 8.72 8.74 8.71 8.66 8.6 8.53 8.463 8.398 8.375 8.407 8.432 8.422 8.33 8.195 8.08 7.965 7.853 7.76 7.695 7.635 7.572 7.507 7.437 7.365 7.302 7.26 7.225 7.185 7.15 7.143 7.165 7.2 7.255 7.337 7.422 7.447 7.395 7.315 7.245 7.185 7.135 7.098 7.07 7.068 7.087 7.115 7.137 7.152 7.162 7.18 7.245 7.31 7.33 7.342 7.447 7.615 7.818 8.055 8.227 8.345 8.385 8.368 8.355 8.348 8.328 8.3 8.283 8.27 8.257 8.242 8.17 8.023 7.895 7.802 7.71 7.585 7.315 6.977 6.682 6.385 6.098 5.77
9.005 9 8.93 8.775 8.613 8.498 8.453 8.485 8.487 8.42 8.34 8.26 8.178 8.103 8.103 8.165 8.225 8.257 8.195 8.063 7.928 7.795 7.673 7.598 7.61 7.67 7.73 7.79 7.85 7.887 7.875 7.837 7.805 7.772 7.722 7.65 7.567 7.467 7.322 7.16 7.01 6.868 6.805 6.815 6.83 6.873 6.928 6.97 7.01 7.053 7.1 7.152 7.19 7.18 7.143 7.15 7.177 7.182 7.19 7.202 7.217 7.232 7.232 7.208 7.165 7.113 7.058 7.005 6.958 6.91 6.868 6.853 6.86 6.865 6.878 6.905 6.938 6.968 7.005 7.06 7.12 7.165 7.17 7.155 7.142 7.127 7.122 7.14 7.19 7.29 7.445 7.56 7.613 7.665 7.737 7.655 7.323 7.093 7.008 6.975 7.042 7.12 7.19 7.265 7.342 7.417 7.495 7.565 7.63 7.695 7.803 8.01 8.23 8.4 8.512 8.572 8.62 8.663 8.692 8.675 8.625 8.573 8.51 8.443 8.377 8.312 8.273 8.287 8.332 8.372 8.332 8.222 8.115 8.007 7.9 7.795 7.717 7.665 7.61 7.547 7.48 7.415 7.35 7.295 7.257 7.222 7.188 7.173 7.183 7.203 7.258 7.355 7.457 7.497 7.45 7.37 7.292 7.22 7.165 7.125 7.088 7.067 7.07 7.08 7.082 7.078 7.07 7.098 7.203 7.31 7.375 7.455 7.59 7.745 7.905 8.058 8.185 8.313 8.377 8.38 8.383 8.393 8.393 8.37 8.34 8.32 8.31 8.28 8.157 7.953 7.775 7.658 7.542 7.342 7.055 6.75 6.483 6.245 6.002 5.38
8.812 8.825 8.82 8.795 8.73 8.612 8.518 8.498 8.477 8.41 8.33 8.25 8.175 8.13 8.155 8.225 8.275 8.272 8.195 8.063 7.92 7.78 7.648 7.575 7.595 7.655 7.715 7.775 7.835 7.875 7.867 7.827 7.787 7.752 7.71 7.65 7.572 7.48 7.357 7.21 7.062 6.923 6.86 6.87 6.88 6.895 6.925 6.965 7.005 7.045 7.083 7.12 7.165 7.187 7.168 7.165 7.18 7.18 7.183 7.193 7.21 7.23 7.247 7.233 7.188 7.133 7.073 7.02 6.975 6.93 6.888 6.87 6.873 6.883 6.905 6.938 6.978 7.03 7.088 7.145 7.195 7.205 7.185 7.167 7.152 7.137 7.132 7.147 7.175 7.188 7.188 7.193 7.198 7.203 7.205 7.17 7.095 7.013 6.97 7.005 7.08 7.155 7.24 7.335 7.425 7.502 7.572 7.647 7.72 7.782 7.873 8.033 8.22 8.39 8.502 8.568 8.63 8.68 8.685 8.645 8.595 8.543 8.458 8.353 8.27 8.2 8.135 8.123 8.178 8.257 8.26 8.172 8.072 7.967 7.865 7.762 7.69 7.652 7.602 7.53 7.462 7.407 7.342 7.287 7.26 7.235 7.213 7.208 7.215 7.22 7.24 7.303 7.412 7.505 7.49 7.41 7.33 7.26 7.21 7.17 7.12 7.048 7.023 7.035 7.025 7.015 6.988 7.033 7.165 7.283 7.38 7.51 7.695 7.867 7.993 8.103 8.22 8.343 8.42 8.44 8.455 8.483 8.502 8.48 8.435 8.403 8.378 8.305 8.133 7.908 7.693 7.513 7.317 7.063 6.81 6.578 6.378 6.212 5.77 5.038
8.585 8.625 8.672 8.69 8.677 8.65 8.595 8.527 8.48 8.425 8.35 8.273 8.218 8.2 8.235 8.292 8.3 8.265 8.195 8.077 7.94 7.798 7.683 7.628 7.633 7.68 7.74 7.8 7.84 7.845 7.82 7.778 7.738 7.71 7.682 7.637 7.572 7.49 7.372 7.225 7.083 6.945 6.875 6.88 6.895 6.923 6.96 6.997 7.035 7.072 7.1 7.123 7.153 7.182 7.187 7.18 7.18 7.18 7.18 7.188 7.205 7.233 7.282 7.302 7.265 7.205 7.138 7.075 7.025 6.98 6.943 6.93 6.933 6.943 6.968 7.005 7.06 7.135 7.2 7.247 7.255 7.2 7.15 7.133 7.12 7.115 7.115 7.12 7.138 7.152 7.143 7.115 7.085 7.055 7.015 7 7.008 7.003 7 7.02 7.08 7.155 7.24 7.335 7.42 7.485 7.545 7.622 7.71 7.797 7.905 8.045 8.205 8.375 8.492 8.565 8.647 8.715 8.72 8.673 8.62 8.57 8.467 8.308 8.17 8.073 7.988 7.963 8.04 8.14 8.145 8.067 7.975 7.87 7.765 7.67 7.605 7.57 7.53 7.465 7.4 7.342 7.275 7.23 7.23 7.248 7.253 7.253 7.26 7.263 7.253 7.248 7.335 7.482 7.505 7.425 7.355 7.308 7.27 7.217 7.127 6.995 6.973 7.02 7.01 6.977 6.938 7.025 7.177 7.288 7.425 7.605 7.805 7.982 8.11 8.213 8.32 8.435 8.51 8.53 8.548 8.58 8.612 8.607 8.568 8.528 8.493 8.44 8.283 8.043 7.775 7.448 7.133 6.915 6.755 6.593 6.427 6.137 5.248 4.958
8.353 8.39 8.472 8.545 8.59 8.605 8.57 8.518 8.48 8.432 8.368 8.31 8.285 8.28 8.31 8.332 8.3 8.255 8.192 8.087 7.955 7.83 7.758 7.725 7.705 7.723 7.775 7.815 7.815 7.792 7.763 7.728 7.698 7.673 7.647 7.61 7.557 7.492 7.387 7.248 7.108 6.973 6.895 6.895 6.923 6.957 6.995 7.03 7.065 7.1 7.125 7.147 7.17 7.182 7.183 7.18 7.18 7.18 7.183 7.198 7.22 7.245 7.307 7.367 7.347 7.282 7.215 7.145 7.083 7.03 6.995 6.99 7 7.01 7.033 7.083 7.158 7.242 7.305 7.312 7.257 7.173 7.118 7.1 7.095 7.098 7.1 7.1 7.108 7.12 7.115 7.09 7.062 7.035 7.015 7.027 7.052 7.057 7.058 7.063 7.093 7.158 7.242 7.325 7.387 7.44 7.495 7.56 7.638 7.753 7.915 8.067 8.205 8.35 8.46 8.557 8.66 8.742 8.757 8.705 8.647 8.59 8.482 8.305 8.12 7.98 7.885 7.86 7.94 8.032 8.025 7.95 7.87 7.777 7.677 7.595 7.52 7.427 7.385 7.325 7.222 7.205 7.19 7.175 7.228 7.297 7.322 7.313 7.313 7.317 7.305 7.278 7.32 7.457 7.51 7.448 7.398 7.365 7.317 7.225 7.09 6.94 6.883 6.952 6.975 6.883 6.88 7.048 7.225 7.358 7.518 7.715 7.912 8.095 8.23 8.328 8.425 8.532 8.602 8.625 8.65 8.682 8.715 8.727 8.702 8.665 8.648 8.677 8.597 8.327 7.9 7.393 7.06 6.923 6.802 6.645 6.412 5.7 4.968 5.298
8.183 8.185 8.27 8.36 8.45 8.525 8.542 8.512 8.477 8.438 8.398 8.375 8.365 8.357 8.36 8.34 8.292 8.247 8.19 8.092 7.968 7.883 7.845 7.815 7.785 7.772 7.785 7.785 7.765 7.743 7.715 7.688 7.662 7.637 7.612 7.58 7.532 7.477 7.397 7.275 7.135 6.998 6.918 6.92 6.952 6.987 7.022 7.055 7.09 7.125 7.15 7.17 7.185 7.19 7.187 7.185 7.182 7.18 7.19 7.212 7.235 7.255 7.323 7.402 7.392 7.33 7.267 7.202 7.14 7.08 7.063 7.088 7.11 7.123 7.118 7.158 7.25 7.34 7.37 7.315 7.233 7.15 7.093 7.073 7.075 7.082 7.085 7.085 7.088 7.093 7.083 7.058 7.035 7.015 7.015 7.043 7.08 7.105 7.113 7.118 7.13 7.17 7.235 7.293 7.34 7.39 7.445 7.508 7.568 7.698 7.917 8.087 8.207 8.327 8.412 8.51 8.627 8.71 8.727 8.685 8.622 8.552 8.44 8.28 8.1 7.93 7.815 7.783 7.85 7.925 7.902 7.827 7.755 7.675 7.565 7.44 7.312 7.158 7.058 7 6.968 7.07 7.15 7.175 7.257 7.347 7.387 7.38 7.372 7.365 7.337 7.325 7.368 7.462 7.517 7.49 7.455 7.425 7.36 7.252 7.12 6.97 6.87 6.92 6.905 6.78 6.85 7.068 7.278 7.46 7.64 7.835 8.03 8.212 8.35 8.448 8.545 8.642 8.7 8.725 8.755 8.785 8.807 8.805 8.792 8.79 8.802 8.822 8.707 8.357 7.82 7.3 7.043 6.955 6.847 6.68 6.17 5.213 5.14 5.697
8.133 8.115 8.19 8.28 8.373 8.468 8.52 8.505 8.47 8.443 8.427 8.42 8.413 8.42 8.372 8.295 8.265 8.235 8.19 8.1 7.98 7.91 7.877 7.847 7.82 7.792 7.77 7.75 7.743 7.738 7.713 7.668 7.628 7.603 7.577 7.55 7.507 7.452 7.387 7.287 7.155 7.015 6.935 6.938 6.965 7 7.035 7.065 7.1 7.135 7.162 7.182 7.192 7.192 7.19 7.187 7.183 7.183 7.198 7.22 7.24 7.26 7.335 7.415 7.402 7.342 7.277 7.212 7.15 7.158 7.243 7.305 7.312 7.265 7.195 7.203 7.29 7.38 7.377 7.295 7.215 7.135 7.075 7.055 7.06 7.068 7.073 7.078 7.088 7.095 7.1 7.1 7.085 7.07 7.078 7.105 7.138 7.163 7.17 7.175 7.185 7.21 7.25 7.285 7.318 7.36 7.418 7.485 7.54 7.65 7.852 8.047 8.182 8.267 8.337 8.425 8.52 8.575 8.592 8.58 8.535 8.465 8.347 8.202 8.045 7.875 7.718 7.645 7.73 7.817 7.78 7.702 7.625 7.545 7.42 7.243 7.06 6.908 6.815 6.8 6.878 7.028 7.132 7.19 7.27 7.35 7.395 7.397 7.392 7.367 7.345 7.37 7.43 7.5 7.545 7.542 7.515 7.485 7.397 7.285 7.19 7.077 6.998 6.99 6.94 6.903 7.015 7.208 7.42 7.62 7.81 8.003 8.195 8.365 8.487 8.585 8.685 8.762 8.8 8.825 8.855 8.87 8.857 8.817 8.788 8.797 8.777 8.692 8.51 8.13 7.668 7.278 7.053 6.972 6.887 6.56 5.54 4.988 5.5 5.79
8.175 8.158 8.208 8.278 8.36 8.455 8.507 8.492 8.465 8.45 8.44 8.433 8.455 8.49 8.402 8.25 8.178 8.152 8.135 8.082 7.988 7.915 7.875 7.84 7.808 7.778 7.758 7.753 7.768 7.777 7.752 7.695 7.638 7.585 7.543 7.517 7.48 7.422 7.352 7.27 7.16 7.025 6.945 6.943 6.965 7 7.035 7.065 7.1 7.135 7.165 7.185 7.192 7.192 7.187 7.183 7.18 7.185 7.2 7.22 7.24 7.26 7.335 7.41 7.39 7.325 7.255 7.185 7.185 7.34 7.525 7.57 7.495 7.36 7.25 7.238 7.298 7.37 7.36 7.28 7.2 7.123 7.068 7.05 7.053 7.06 7.078 7.098 7.113 7.123 7.15 7.187 7.202 7.197 7.2 7.22 7.235 7.237 7.235 7.24 7.26 7.298 7.333 7.358 7.378 7.403 7.458 7.525 7.57 7.64 7.793 7.982 8.072 8.08 8.157 8.267 8.345 8.39 8.415 8.425 8.41 8.355 8.232 8.08 7.932 7.77 7.55 7.42 7.555 7.692 7.65 7.565 7.482 7.397 7.27 7.088 6.94 6.87 6.848 6.858 6.933 7.035 7.102 7.175 7.255 7.312 7.345 7.357 7.36 7.35 7.365 7.415 7.47 7.535 7.582 7.59 7.57 7.54 7.427 7.283 7.2 7.13 7.077 7.048 7.048 7.102 7.227 7.422 7.632 7.827 8.02 8.21 8.392 8.54 8.642 8.735 8.825 8.877 8.902 8.927 8.932 8.905 8.858 8.8 8.75 8.707 8.603 8.448 8.26 7.938 7.593 7.313 7.08 6.965 6.79 6.077 5.058 5.158 5.765 5.775
8.235 8.213 8.25 8.3 8.36 8.442 8.492 8.483 8.468 8.46 8.453 8.45 8.553 8.61 8.47 8.278 8.115 8.025 8.005 8.02 7.985 7.92 7.88 7.84 7.8 7.768 7.765 7.787 7.812 7.822 7.795 7.745 7.692 7.63 7.555 7.493 7.448 7.387 7.31 7.235 7.15 7.033 6.958 6.955 6.97 6.998 7.032 7.065 7.098 7.132 7.165 7.182 7.185 7.185 7.183 7.18 7.18 7.185 7.2 7.22 7.24 7.258 7.327 7.387 7.352 7.285 7.215 7.215 7.365 7.6 7.757 7.727 7.577 7.415 7.308 7.29 7.323 7.365 7.345 7.265 7.185 7.108 7.06 7.05 7.05 7.055 7.105 7.147 7.145 7.15 7.178 7.225 7.27 7.297 7.31 7.317 7.315 7.305 7.303 7.32 7.36 7.41 7.447 7.47 7.482 7.493 7.532 7.58 7.608 7.653 7.78 7.89 7.86 7.798 7.823 7.935 8.08 8.172 8.213 8.247 8.255 8.215 8.102 7.95 7.805 7.617 7.345 7.215 7.4 7.572 7.532 7.433 7.34 7.25 7.13 7.003 6.943 6.93 6.92 6.923 6.975 7.032 7.065 7.127 7.19 7.217 7.24 7.267 7.292 7.33 7.392 7.457 7.512 7.572 7.615 7.625 7.615 7.592 7.475 7.298 7.19 7.138 7.113 7.095 7.133 7.218 7.343 7.558 7.81 8.032 8.227 8.412 8.58 8.71 8.802 8.885 8.947 8.98 9 9.02 9.007 8.95 8.878 8.803 8.722 8.617 8.475 8.315 8.122 7.858 7.585 7.345 7.095 6.932 6.52 5.415 5.043 5.607 5.81 5.752
8.295 8.268 8.298 8.343 8.388 8.445 8.485 8.485 8.477 8.472 8.468 8.523 8.697 8.725 8.537 8.342 8.148 7.978 7.898 7.93 7.955 7.917 7.875 7.832 7.787 7.753 7.765 7.807 7.847 7.865 7.835 7.787 7.742 7.695 7.625 7.542 7.445 7.345 7.267 7.192 7.117 7.025 6.97 6.975 6.985 7 7.03 7.065 7.095 7.13 7.165 7.18 7.18 7.18 7.18 7.18 7.18 7.183 7.193 7.207 7.22 7.24 7.295 7.322 7.288 7.238 7.225 7.327 7.515 7.705 7.792 7.732 7.612 7.47 7.365 7.35 7.365 7.367 7.33 7.255 7.175 7.095 7.053 7.05 7.05 7.05 7.105 7.16 7.165 7.177 7.202 7.242 7.287 7.332 7.355 7.355 7.352 7.352 7.375 7.42 7.47 7.52 7.56 7.577 7.577 7.567 7.587 7.622 7.643 7.67 7.725 7.738 7.683 7.628 7.605 7.695 7.873 7.985 8.02 8.057 8.08 8.062 7.97 7.823 7.677 7.47 7.2 7.1 7.298 7.477 7.44 7.33 7.223 7.125 7.035 6.992 6.992 6.99 6.987 6.975 6.982 7.005 7.023 7.06 7.09 7.095 7.108 7.143 7.19 7.25 7.335 7.425 7.505 7.587 7.64 7.65 7.647 7.64 7.532 7.327 7.195 7.155 7.152 7.16 7.225 7.342 7.49 7.707 7.967 8.215 8.42 8.595 8.755 8.87 8.932 8.985 9.03 9.065 9.087 9.102 9.105 9.055 8.957 8.842 8.702 8.543 8.383 8.23 8.04 7.805 7.567 7.335 7.092 6.77 5.932 5.026 5.288 5.82 5.8 5.722
8.353 8.32 8.345 8.39 8.435 8.472 8.477 8.457 8.445 8.44 8.45 8.59 8.777 8.752 8.577 8.39 8.195 8 7.89 7.903 7.925 7.897 7.855 7.81 7.76 7.725 7.74 7.792 7.842 7.862 7.84 7.8 7.755 7.707 7.66 7.595 7.44 7.285 7.21 7.135 7.06 7 6.98 6.99 7 7.01 7.033 7.068 7.1 7.133 7.165 7.18 7.18 7.18 7.18 7.18 7.18 7.18 7.183 7.188 7.19 7.213 7.252 7.263 7.238 7.203 7.23 7.347 7.492 7.627 7.675 7.627 7.56 7.467 7.39 7.37 7.365 7.342 7.292 7.222 7.15 7.083 7.053 7.055 7.055 7.058 7.083 7.118 7.145 7.175 7.207 7.245 7.282 7.32 7.342 7.35 7.358 7.378 7.432 7.5 7.557 7.612 7.642 7.637 7.62 7.593 7.61 7.665 7.695 7.715 7.718 7.695 7.668 7.635 7.628 7.713 7.837 7.882 7.865 7.868 7.885 7.892 7.83 7.692 7.545 7.345 7.135 7.075 7.23 7.382 7.35 7.24 7.138 7.05 6.965 6.918 6.92 6.93 6.947 6.94 6.922 6.923 6.965 7.045 7.085 7.093 7.093 7.103 7.138 7.185 7.265 7.373 7.48 7.567 7.622 7.655 7.665 7.625 7.475 7.275 7.158 7.14 7.177 7.225 7.3 7.41 7.57 7.797 8.04 8.285 8.525 8.722 8.877 8.967 8.995 9.028 9.075 9.12 9.155 9.182 9.202 9.15 9.02 8.87 8.697 8.502 8.287 8.082 7.88 7.627 7.34 7.082 6.857 6.327 5.276 5.068 5.657 5.825 5.787 5.687
8.41 8.373 8.395 8.44 8.477 8.495 8.472 8.415 8.373 8.358 8.415 8.575 8.717 8.692 8.547 8.387 8.215 8.03 7.933 7.927 7.905 7.865 7.825 7.78 7.733 7.698 7.713 7.762 7.792 7.8 7.79 7.767 7.732 7.687 7.642 7.565 7.395 7.228 7.138 7.063 7.005 6.988 6.993 7 7.01 7.02 7.04 7.073 7.107 7.14 7.167 7.18 7.18 7.18 7.18 7.18 7.18 7.18 7.18 7.18 7.18 7.2 7.227 7.237 7.225 7.195 7.193 7.27 7.405 7.517 7.54 7.492 7.435 7.377 7.34 7.322 7.307 7.285 7.237 7.173 7.123 7.088 7.068 7.065 7.065 7.07 7.083 7.098 7.12 7.155 7.195 7.232 7.268 7.305 7.33 7.338 7.358 7.4 7.465 7.542 7.61 7.67 7.68 7.642 7.61 7.58 7.608 7.685 7.742 7.78 7.792 7.77 7.73 7.685 7.688 7.772 7.825 7.782 7.725 7.693 7.685 7.697 7.655 7.542 7.405 7.215 7.083 7.093 7.188 7.285 7.26 7.16 7.078 7.002 6.905 6.8 6.755 6.77 6.808 6.82 6.8 6.815 6.923 7.077 7.172 7.2 7.187 7.155 7.153 7.188 7.268 7.38 7.47 7.512 7.558 7.625 7.665 7.54 7.288 7.13 7.075 7.095 7.167 7.242 7.327 7.423 7.565 7.778 8.015 8.265 8.545 8.79 8.937 8.997 9.02 9.063 9.115 9.16 9.2 9.235 9.245 9.165 9.012 8.847 8.63 8.375 8.105 7.848 7.63 7.375 7.04 6.703 6.41 5.638 4.988 5.395 5.822 5.81 5.742 5.627
8.46 8.428 8.445 8.48 8.497 8.5 8.477 8.41 8.333 8.293 8.36 8.49 8.595 8.592 8.47 8.33 8.185 8.03 7.94 7.91 7.87 7.83 7.79 7.747 7.705 7.673 7.683 7.712 7.72 7.72 7.715 7.707 7.695 7.662 7.607 7.5 7.337 7.178 7.065 7.008 6.99 6.998 7.008 7.013 7.02 7.03 7.05 7.08 7.113 7.145 7.17 7.18 7.18 7.18 7.18 7.18 7.18 7.18 7.18 7.18 7.18 7.193 7.207 7.212 7.212 7.195 7.18 7.213 7.315 7.402 7.397 7.353 7.305 7.268 7.253 7.245 7.235 7.22 7.193 7.158 7.133 7.115 7.09 7.075 7.078 7.085 7.098 7.113 7.128 7.15 7.182 7.217 7.255 7.295 7.32 7.335 7.375 7.43 7.495 7.575 7.65 7.705 7.692 7.635 7.595 7.568 7.6 7.68 7.75 7.812 7.845 7.827 7.78 7.73 7.737 7.772 7.735 7.655 7.595 7.54 7.49 7.477 7.435 7.343 7.235 7.108 7.06 7.107 7.165 7.212 7.185 7.103 7.03 6.957 6.87 6.74 6.798 6.85 6.72 6.753 6.75 6.748 6.91 7.082 7.232 7.305 7.29 7.238 7.198 7.205 7.28 7.37 7.417 7.438 7.483 7.56 7.602 7.445 7.148 7.003 7.005 7.05 7.125 7.215 7.315 7.42 7.565 7.765 7.993 8.25 8.547 8.83 8.985 9.017 9.045 9.098 9.15 9.203 9.242 9.262 9.232 9.117 8.965 8.78 8.472 8.133 7.848 7.595 7.375 7.147 6.845 6.467 5.965 5.141 5.113 5.7 5.792 5.742 5.645 5.53
8.482 8.477 8.485 8.497 8.497 8.492 8.465 8.392 8.298 8.238 8.265 8.358 8.462 8.485 8.385 8.245 8.105 7.983 7.91 7.87 7.83 7.79 7.75 7.71 7.673 7.643 7.638 7.645 7.645 7.645 7.643 7.638 7.635 7.622 7.555 7.42 7.263 7.108 7.01 6.993 7 7.015 7.033 7.043 7.05 7.055 7.065 7.09 7.12 7.15 7.172 7.18 7.18 7.18 7.18 7.18 7.18 7.18 7.18 7.18 7.18 7.183 7.188 7.19 7.193 7.187 7.18 7.185 7.243 7.285 7.26 7.238 7.22 7.205 7.2 7.198 7.19 7.183 7.178 7.172 7.165 7.147 7.113 7.09 7.095 7.105 7.115 7.13 7.145 7.155 7.168 7.195 7.24 7.285 7.317 7.352 7.405 7.46 7.525 7.605 7.685 7.727 7.697 7.633 7.583 7.553 7.59 7.675 7.742 7.802 7.852 7.855 7.812 7.77 7.742 7.693 7.61 7.53 7.463 7.398 7.328 7.283 7.235 7.168 7.1 7.05 7.06 7.11 7.16 7.172 7.127 7.057 6.983 6.91 6.835 6.788 7.115 7.362 7.235 7.277 7.24 7.025 6.873 6.938 7.182 7.36 7.387 7.332 7.277 7.245 7.275 7.322 7.343 7.36 7.402 7.422 7.37 7.232 7.018 6.903 6.94 7.007 7.08 7.177 7.277 7.377 7.515 7.712 7.95 8.222 8.527 8.822 8.98 9.017 9.09 9.185 9.26 9.3 9.272 9.245 9.197 9.06 8.905 8.69 8.32 7.91 7.593 7.345 7.125 6.905 6.63 6.26 5.403 4.968 5.485 5.76 5.712 5.635 5.525 5.415
8.437 8.462 8.467 8.462 8.455 8.442 8.405 8.325 8.238 8.19 8.19 8.238 8.33 8.375 8.295 8.155 8.028 7.93 7.87 7.83 7.79 7.753 7.715 7.675 7.638 7.615 7.61 7.61 7.61 7.61 7.61 7.605 7.595 7.575 7.497 7.355 7.195 7.053 6.993 7 7.013 7.048 7.1 7.128 7.135 7.13 7.105 7.1 7.125 7.155 7.175 7.18 7.18 7.18 7.18 7.18 7.18 7.18 7.18 7.18 7.18 7.18 7.18 7.18 7.18 7.18 7.18 7.18 7.198 7.203 7.19 7.193 7.195 7.193 7.19 7.19 7.185 7.18 7.18 7.18 7.18 7.17 7.138 7.11 7.11 7.117 7.122 7.13 7.137 7.14 7.14 7.15 7.187 7.237 7.277 7.327 7.4 7.475 7.54 7.6 7.657 7.685 7.672 7.632 7.58 7.54 7.58 7.665 7.72 7.77 7.83 7.855 7.825 7.787 7.732 7.655 7.57 7.478 7.395 7.333 7.278 7.218 7.158 7.108 7.063 7.033 7.05 7.1 7.135 7.122 7.067 7.002 6.932 6.86 6.79 7.035 7.522 7.742 7.78 7.815 7.775 7.577 7.278 7.058 6.975 7.088 7.28 7.327 7.282 7.23 7.237 7.285 7.303 7.313 7.313 7.245 7.128 7.01 6.885 6.81 6.81 6.868 6.983 7.11 7.182 7.247 7.35 7.517 7.772 8.1 8.445 8.72 8.85 8.935 9.137 9.31 9.332 9.265 9.178 9.165 9.132 8.995 8.845 8.6 8.2 7.75 7.375 7.115 6.903 6.69 6.41 5.85 5.036 5.143 5.705 5.695 5.623 5.53 5.42 5.313
8.34 8.372 8.385 8.382 8.372 8.357 8.317 8.243 8.185 8.165 8.155 8.158 8.208 8.265 8.21 8.078 7.973 7.89 7.828 7.788 7.753 7.717 7.68 7.64 7.61 7.603 7.607 7.61 7.61 7.61 7.607 7.59 7.557 7.515 7.437 7.302 7.15 7.035 6.995 7.008 7.04 7.105 7.197 7.252 7.257 7.24 7.185 7.135 7.13 7.155 7.175 7.18 7.18 7.18 7.18 7.18 7.18 7.18 7.18 7.18 7.18 7.18 7.18 7.18 7.18 7.18 7.18 7.18 7.18 7.18 7.185 7.19 7.19 7.19 7.19 7.19 7.185 7.18 7.18 7.18 7.18 7.177 7.16 7.128 7.105 7.1 7.1 7.1 7.1 7.1 7.097 7.095 7.113 7.155 7.195 7.235 7.3 7.385 7.47 7.527 7.56 7.58 7.59 7.587 7.557 7.382 7.272 7.482 7.677 7.735 7.8 7.842 7.83 7.787 7.737 7.677 7.605 7.515 7.425 7.365 7.31 7.235 7.165 7.108 7.058 7.023 7.038 7.08 7.085 7.057 7.005 6.937 6.872 6.783 6.708 6.915 7.357 7.68 7.802 7.835 7.85 7.845 7.785 7.577 7.275 7.058 6.983 7.05 7.142 7.132 7.118 7.202 7.297 7.322 7.283 7.19 7.09 6.985 6.878 6.8 6.74 6.753 6.895 7.022 7.042 7.073 7.135 7.24 7.49 7.872 8.28 8.552 8.65 8.795 9.095 9.257 9.17 9.043 9.023 9.085 9.057 8.927 8.785 8.51 8.075 7.593 7.185 6.925 6.72 6.502 6.147 5.3 5.053 5.577 5.715 5.642 5.55 5.448 5.343 5.238
8.235 8.262 8.28 8.287 8.285 8.275 8.238 8.183 8.155 8.142 8.13 8.118 8.123 8.165 8.127 8.013 7.925 7.845 7.783 7.745 7.715 7.68 7.64 7.608 7.595 7.597 7.602 7.605 7.605 7.582 7.557 7.535 7.49 7.44 7.372 7.253 7.125 7.038 7.003 7.03 7.095 7.175 7.27 7.352 7.38 7.35 7.285 7.215 7.165 7.16 7.175 7.18 7.18 7.18 7.18 7.18 7.18 7.18 7.18 7.18 7.18 7.18 7.18 7.18 7.18 7.18 7.18 7.18 7.18 7.18 7.183 7.187 7.19 7.19 7.19 7.187 7.183 7.18 7.18 7.18 7.18 7.18 7.172 7.142 7.105 7.083 7.07 7.06 7.055 7.055 7.052 7.048 7.05 7.075 7.11 7.138 7.17 7.223 7.313 7.405 7.455 7.475 7.483 7.497 7.332 6.698 6.318 6.603 7.1 7.562 7.77 7.827 7.832 7.787 7.733 7.677 7.62 7.552 7.475 7.405 7.332 7.248 7.175 7.115 7.058 7.013 7.018 7.037 7.02 6.992 6.945 6.865 6.805 6.75 6.703 6.658 6.943 7.54 7.825 7.847 7.86 7.86 7.857 7.847 7.782 7.57 7.275 7.058 6.938 6.948 6.973 7.025 7.197 7.325 7.317 7.232 7.142 7.042 6.945 6.867 6.793 6.765 6.855 6.92 6.893 6.903 6.94 6.983 7.19 7.525 7.847 8.127 8.367 8.645 8.94 9.025 8.91 8.87 8.953 9.027 8.98 8.855 8.712 8.4 7.91 7.405 7.008 6.755 6.547 6.3 5.677 5.013 5.31 5.747 5.668 5.587 5.487 5.38 5.275 5.17
8.125 8.15 8.17 8.18 8.185 8.187 8.172 8.148 8.135 8.12 8.105 8.095 8.085 8.09 8.05 7.96 7.88 7.8 7.738 7.7 7.67 7.638 7.605 7.588 7.585 7.587 7.59 7.59 7.585 7.502 7.397 7.365 7.352 7.335 7.3 7.223 7.13 7.053 7.03 7.085 7.165 7.245 7.328 7.435 7.495 7.455 7.385 7.315 7.245 7.195 7.18 7.18 7.18 7.18 7.18 7.18 7.18 7.18 7.18 7.18 7.18 7.18 7.18 7.18 7.18 7.18 7.18 7.18 7.18 7.18 7.18 7.183 7.185 7.185 7.185 7.183 7.18 7.18 7.18 7.18 7.18 7.18 7.175 7.155 7.122 7.09 7.065 7.045 7.028 7.013 7.005 7.002 6.998 7.003 7.03 7.068 7.098 7.13 7.193 7.275 7.34 7.383 7.418 7.415 6.853 6.508 6.685 6.476 6.316 6.72 7.39 7.762 7.83 7.79 7.73 7.673 7.623 7.575 7.522 7.45 7.355 7.263 7.188 7.125 7.065 7.01 6.988 6.978 6.953 6.93 6.903 6.858 6.83 6.833 6.812 6.71 6.99 7.597 7.847 7.855 7.86 7.86 7.86 7.86 7.857 7.847 7.78 7.56 7.268 7.043 6.87 6.82 6.973 7.172 7.217 7.157 7.097 7.035 6.987 6.925 6.838 6.775 6.783 6.79 6.75 6.735 6.753 6.783 6.818 6.928 7.123 7.398 7.765 8.12 8.447 8.662 8.72 8.792 8.917 8.972 8.902 8.77 8.597 8.202 7.665 7.213 6.855 6.59 6.372 5.992 5.198 5.11 5.632 5.692 5.62 5.528 5.423 5.315 5.208 5.095
8.078 8.088 8.088 8.085 8.095 8.11 8.117 8.112 8.107 8.095 8.08 8.067 8.052 8.032 7.985 7.915 7.84 7.76 7.693 7.653 7.625 7.608 7.588 7.57 7.57 7.57 7.57 7.57 7.522 7.365 7.173 7.095 7.11 7.145 7.205 7.23 7.182 7.105 7.098 7.17 7.245 7.318 7.395 7.522 7.602 7.557 7.475 7.375 7.27 7.203 7.183 7.18 7.18 7.18 7.18 7.18 7.18 7.18 7.18 7.18 7.18 7.18 7.18 7.18 7.18 7.18 7.18 7.18 7.18 7.18 7.18 7.18 7.18 7.18 7.18 7.18 7.18 7.18 7.18 7.18 7.18 7.18 7.175 7.162 7.135 7.103 7.078 7.055 7.02 6.97 6.945 6.945 6.942 6.94 6.975 7.03 7.068 7.105 7.153 7.208 7.28 7.36 7.43 7.155 6.638 7.12 7.732 7.43 6.823 6.413 6.478 6.945 7.572 7.8 7.752 7.705 7.663 7.625 7.585 7.53 7.433 7.305 7.198 7.123 7.063 7.018 6.99 6.968 6.945 6.93 6.93 6.938 6.945 6.947 6.867 6.775 7.225 7.77 7.855 7.86 7.86 7.86 7.86 7.86 7.86 7.86 7.852 7.835 7.765 7.542 7.258 6.985 6.82 6.873 6.925 6.913 6.918 6.928 6.97 6.997 6.945 6.848 6.773 6.733 6.698 6.66 6.648 6.685 6.608 6.44 6.445 6.68 7.005 7.328 7.668 7.995 8.31 8.64 8.875 8.912 8.792 8.602 8.382 7.837 7.248 6.992 6.732 6.433 6.185 5.473 4.986 5.435 5.72 5.638 5.575 5.48 5.373 5.268 5.158 5.035
8.125 8.115 8.09 8.045 8.035 8.052 8.06 8.06 8.057 8.047 8.037 8.025 8.005 7.975 7.92 7.855 7.788 7.715 7.65 7.625 7.633 7.65 7.633 7.578 7.553 7.55 7.55 7.527 7.405 7.195 6.973 6.843 6.875 6.995 7.137 7.23 7.24 7.193 7.183 7.26 7.347 7.418 7.488 7.612 7.642 7.527 7.405 7.293 7.213 7.18 7.18 7.18 7.18 7.18 7.18 7.18 7.18 7.18 7.18 7.18 7.18 7.18 7.18 7.18 7.18 7.18 7.18 7.18 7.18 7.18 7.18 7.18 7.18 7.18 7.18 7.18 7.18 7.18 7.18 7.18 7.18 7.165 7.145 7.15 7.147 7.12 7.092 7.06 6.997 6.918 6.878 6.875 6.878 6.88 6.925 7 7.05 7.09 7.138 7.2 7.298 7.4 7.317 6.593 6.701 7.547 7.697 7.742 7.652 7.305 6.685 6.358 6.646 7.16 7.624 7.775 7.735 7.695 7.655 7.615 7.552 7.425 7.27 7.138 7.063 7.048 7.033 7.013 7 6.995 7.005 7.022 7.032 7.02 6.865 6.87 7.412 7.82 7.84 7.852 7.857 7.86 7.86 7.86 7.86 7.86 7.857 7.85 7.84 7.83 7.762 7.525 6.985 6.65 6.68 6.703 6.75 6.798 6.865 7.02 7.102 7 6.86 6.78 6.74 6.685 6.64 6.642 6.612 6.363 6.093 6.143 6.375 6.645 6.963 7.3 7.715 8.207 8.6 8.727 8.59 8.345 8.102 7.483 6.858 6.76 6.637 6.307 5.82 5.076 5.15 5.682 5.657 5.588 5.53 5.447 5.345 5.238 5.125 5.003
8.21 8.19 8.152 8.073 8.008 7.998 8.005 8 7.988 7.975 7.973 7.97 7.952 7.91 7.85 7.798 7.75 7.703 7.665 7.673 7.715 7.75 7.725 7.64 7.573 7.54 7.525 7.443 7.25 7.063 6.923 6.808 6.813 6.96 7.112 7.195 7.24 7.252 7.255 7.328 7.445 7.537 7.607 7.655 7.557 7.36 7.238 7.19 7.18 7.18 7.18 7.18 7.18 7.18 7.18 7.18 7.18 7.18 7.18 7.18 7.18 7.18 7.18 7.18 7.18 7.18 7.18 7.18 7.18 7.18 7.18 7.18 7.18 7.18 7.18 7.18 7.18 7.18 7.18 7.18 7.177 7.135 7.068 7.075 7.127 7.13 7.1 7.045 6.955 6.86 6.813 6.81 6.815 6.82 6.865 6.952 7.022 7.07 7.123 7.208 7.327 7.422 6.925 6.536 7.2 7.642 7.573 7.618 7.68 7.755 7.602 7.155 6.616 6.388 6.735 7.28 7.659 7.765 7.725 7.685 7.645 7.572 7.43 7.248 7.133 7.1 7.08 7.068 7.068 7.07 7.08 7.09 7.08 7.055 6.89 6.813 7.038 7.34 7.657 7.832 7.847 7.857 7.86 7.86 7.86 7.86 7.86 7.86 7.857 7.852 7.837 7.635 7.017 6.603 6.625 6.653 6.673 6.69 6.73 6.91 7.13 7.127 6.977 6.86 6.785 6.718 6.665 6.628 6.615 6.417 6.11 6.04 6.165 6.36 6.605 6.883 7.238 7.678 8.06 8.377 8.42 8.135 7.837 7.34 6.77 6.583 6.502 6.157 5.313 5.033 5.557 5.7 5.6 5.542 5.482 5.405 5.317 5.215 5.1 4.995
8.247 8.232 8.192 8.11 8.023 7.965 7.948 7.938 7.923 7.913 7.913 7.917 7.91 7.887 7.858 7.825 7.795 7.765 7.75 7.775 7.822 7.852 7.817 7.73 7.64 7.56 7.535 7.478 7.343 7.245 7.183 7.095 7.023 7.028 7.09 7.155 7.208 7.257 7.3 7.383 7.51 7.627 7.685 7.61 7.418 7.243 7.18 7.18 7.18 7.18 7.18 7.18 7.18 7.18 7.18 7.18 7.18 7.18 7.18 7.18 7.18 7.18 7.18 7.18 7.18 7.18 7.18 7.18 7.18 7.18 7.18 7.18 7.18 7.18 7.18 7.18 7.18 7.18 7.18 7.18 7.162 7.095 6.993 6.965 7.032 7.087 7.07 6.987 6.88 6.8 6.77 6.76 6.758 6.76 6.803 6.892 6.98 7.048 7.123 7.235 7.365 7.185 6.658 7.053 7.669 7.518 7.448 7.495 7.553 7.625 7.7 7.745 7.522 6.963 6.498 6.378 6.75 7.36 7.697 7.76 7.72 7.677 7.587 7.427 7.28 7.2 7.168 7.158 7.155 7.15 7.143 7.128 7.103 7.08 6.96 6.79 6.673 6.75 7.038 7.347 7.667 7.84 7.855 7.86 7.86 7.86 7.86 7.86 7.86 7.86 7.835 7.327 6.728 6.625 6.652 6.675 6.68 6.685 6.713 6.785 6.987 7.085 6.97 6.857 6.805 6.77 6.71 6.65 6.615 6.48 6.315 6.275 6.338 6.488 6.648 6.805 7.025 7.3 7.48 7.767 8.142 8.04 7.638 7.252 6.808 6.493 6.287 5.71 5.011 5.278 5.74 5.633 5.543 5.495 5.435 5.355 5.275 5.187 5.093 5.012
8.25 8.227 8.167 8.092 8.015 7.943 7.903 7.89 7.883 7.878 7.877 7.872 7.857 7.865 7.887 7.897 7.89 7.865 7.85 7.875 7.902 7.887 7.822 7.727 7.63 7.55 7.555 7.615 7.667 7.677 7.592 7.452 7.31 7.173 7.115 7.15 7.205 7.26 7.325 7.42 7.537 7.662 7.67 7.505 7.303 7.195 7.18 7.18 7.18 7.18 7.18 7.18 7.18 7.18 7.18 7.18 7.18 7.18 7.18 7.18 7.18 7.18 7.18 7.18 7.18 7.18 7.18 7.18 7.18 7.18 7.18 7.18 7.18 7.18 7.18 7.18 7.18 7.18 7.18 7.175 7.117 7.02 6.93 6.867 6.882 6.94 6.942 6.867 6.793 6.778 6.785 6.775 6.745 6.715 6.743 6.833 6.938 7.038 7.148 7.275 7.277 6.578 6.631 7.495 7.58 7.415 7.36 7.403 7.448 7.503 7.57 7.642 7.717 7.694 7.402 6.773 6.348 6.418 6.85 7.442 7.737 7.755 7.702 7.595 7.445 7.343 7.308 7.293 7.278 7.253 7.22 7.188 7.158 7.127 7.04 6.9 6.76 6.665 6.625 6.753 7.043 7.352 7.675 7.842 7.855 7.86 7.86 7.86 7.86 7.852 7.667 7.038 6.61 6.65 6.677 6.7 6.722 6.74 6.75 6.725 6.815 6.9 6.815 6.77 6.825 6.852 6.795 6.728 6.668 6.628 6.59 6.543 6.54 6.642 6.795 6.827 6.75 6.715 6.778 7.018 7.567 7.81 7.492 7.112 6.735 6.385 5.972 5.198 5.093 5.632 5.692 5.578 5.498 5.447 5.39 5.315 5.235 5.155 5.08 5.01
8.257 8.185 8.1 8.035 7.968 7.913 7.885 7.868 7.858 7.852 7.845 7.817 7.783 7.79 7.832 7.877 7.907 7.917 7.925 7.922 7.887 7.82 7.732 7.635 7.553 7.515 7.55 7.662 7.792 7.837 7.772 7.637 7.467 7.293 7.198 7.198 7.235 7.29 7.358 7.45 7.558 7.675 7.592 7.358 7.223 7.18 7.18 7.18 7.18 7.18 7.18 7.18 7.18 7.18 7.18 7.18 7.18 7.18 7.18 7.18 7.18 7.18 7.18 7.18 7.18 7.18 7.18 7.18 7.18 7.18 7.18 7.18 7.18 7.18 7.18 7.18 7.18 7.18 7.18 7.15 7.045 6.917 6.77 6.465 6.193 6.252 6.557 6.747 6.77 6.8 6.825 6.837 6.815 6.758 6.748 6.825 6.94 7.06 7.185 7.327 6.94 6.413 7.04 7.642 7.47 7.34 7.313 7.35 7.395 7.445 7.478 7.52 7.593 7.667 7.74 7.644 7.285 6.67 6.281 6.496 6.99 7.52 7.77 7.725 7.605 7.495 7.46 7.442 7.415 7.375 7.332 7.292 7.25 7.207 7.117 6.98 6.84 6.735 6.69 6.663 6.628 6.755 7.058 7.372 7.682 7.842 7.85 7.852 7.852 7.832 7.347 6.745 6.635 6.677 6.705 6.722 6.737 6.742 6.725 6.68 6.685 6.705 6.685 6.735 6.855 6.935 6.915 6.848 6.79 6.87 6.94 6.867 6.752 6.722 6.82 6.775 6.585 6.455 6.483 6.648 7.12 7.502 7.325 6.942 6.558 6.217 5.488 4.973 5.422 5.747 5.633 5.535 5.463 5.405 5.35 5.285 5.21 5.13 5.055 4.988
8.22 8.115 8.028 7.968 7.925 7.895 7.875 7.855 7.838 7.825 7.797 7.75 7.705 7.708 7.75 7.792 7.827 7.85 7.86 7.83 7.775 7.715 7.635 7.558 7.518 7.51 7.548 7.64 7.71 7.71 7.68 7.62 7.525 7.39 7.298 7.28 7.283 7.32 7.39 7.487 7.577 7.637 7.462 7.228 7.185 7.18 7.18 7.18 7.18 7.18 7.18 7.18 7.18 7.18 7.18 7.18 7.18 7.18 7.18 7.18 7.18 7.18 7.18 7.18 7.18 7.18 7.18 7.18 7.18 7.18 7.18 7.18 7.18 7.18 7.18 7.18 7.18 7.18 7.175 7.107 6.967 6.742 6.15 5.515 5.253 5.295 5.603 6.057 6.54 6.79 6.842 6.88 6.897 6.87 6.845 6.888 6.98 7.095 7.232 7.185 6.618 6.835 7.554 7.527 7.375 7.278 7.27 7.323 7.385 7.45 7.463 7.453 7.49 7.555 7.625 7.697 7.77 7.599 7.13 6.571 6.258 6.576 7.14 7.584 7.75 7.657 7.607 7.58 7.535 7.48 7.422 7.37 7.33 7.292 7.2 7.06 6.92 6.803 6.748 6.727 6.7 6.665 6.638 6.77 7.078 7.402 7.692 7.83 7.832 7.667 7.043 6.605 6.655 6.7 6.722 6.727 6.73 6.725 6.693 6.65 6.625 6.605 6.638 6.743 6.872 6.992 7.025 6.977 6.957 7.07 7.075 6.887 6.697 6.598 6.642 6.695 6.715 6.74 6.732 6.673 6.973 7.315 7.13 6.748 6.377 5.87 5.093 5.143 5.692 5.69 5.585 5.5 5.43 5.368 5.31 5.25 5.182 5.105 5.035 4.988
8.15 8.045 7.963 7.918 7.9 7.89 7.873 7.85 7.83 7.805 7.755 7.688 7.628 7.62 7.65 7.67 7.683 7.683 7.668 7.638 7.61 7.585 7.548 7.518 7.51 7.51 7.528 7.56 7.565 7.54 7.513 7.49 7.472 7.425 7.38 7.37 7.36 7.365 7.405 7.46 7.49 7.487 7.33 7.18 7.18 7.18 7.18 7.18 7.18 7.18 7.18 7.18 7.18 7.18 7.18 7.18 7.18 7.18 7.18 7.18 7.18 7.18 7.18 7.18 7.18 7.18 7.18 7.18 7.18 7.18 7.18 7.18 7.18 7.18 7.18 7.18 7.18 7.18 7.15 7.045 6.89 6.367 5.423 4.921 4.92 4.92 4.925 5.16 5.65 6.162 6.607 6.83 6.89 6.935 6.96 6.99 7.047 7.145 7.31 6.748 6.551 7.345 7.585 7.423 7.298 7.23 7.245 7.315 7.385 7.455 7.482 7.455 7.44 7.468 7.518 7.57 7.62 7.665 7.672 7.452 6.935 6.448 6.248 6.638 7.265 7.617 7.732 7.68 7.617 7.55 7.48 7.415 7.377 7.352 7.265 7.125 6.985 6.855 6.793 6.782 6.765 6.737 6.7 6.66 6.65 6.8 7.105 7.425 7.687 7.342 6.748 6.628 6.672 6.715 6.727 6.715 6.71 6.702 6.675 6.645 6.627 6.61 6.645 6.755 6.887 7.02 7.08 7.012 6.965 6.987 6.837 6.59 6.44 6.383 6.45 6.583 6.718 6.867 6.907 6.75 6.893 7.137 6.935 6.553 6.157 5.338 5.021 5.56 5.745 5.638 5.545 5.47 5.402 5.337 5.272 5.208 5.143 5.078 5.03 5.007
8.083 7.983 7.918 7.898 7.89 7.885 7.875 7.855 7.835 7.805 7.745 7.665 7.605 7.595 7.603 7.598 7.595 7.57 7.538 7.523 7.513 7.51 7.51 7.51 7.51 7.51 7.508 7.493 7.47 7.445 7.423 7.413 7.41 7.41 7.41 7.413 7.42 7.433 7.438 7.42 7.39 7.358 7.27 7.195 7.185 7.18 7.18 7.18 7.18 7.18 7.18 7.18 7.18 7.18 7.18 7.18 7.18 7.18 7.18 7.18 7.18 7.18 7.18 7.18 7.18 7.18 7.18 7.18 7.18 7.18 7.18 7.18 7.18 7.18 7.18 7.18 7.18 7.175 7.107 6.967 6.71 5.86 5.055 4.92 4.92 4.917 4.913 4.908 4.953 5.228 5.723 6.24 6.65 6.855 6.93 6.982 7.045 7.195 7.12 6.536 6.9 7.612 7.483 7.348 7.255 7.213 7.238 7.305 7.377 7.447 7.48 7.46 7.423 7.413 7.435 7.448 7.44 7.448 7.478 7.575 7.599 7.315 6.735 6.321 6.316 6.765 7.357 7.632 7.67 7.6 7.53 7.46 7.408 7.38 7.297 7.152 7.01 6.878 6.813 6.807 6.802 6.79 6.762 6.725 6.688 6.65 6.653 6.82 7.067 6.875 6.603 6.645 6.685 6.722 6.732 6.715 6.7 6.682 6.657 6.637 6.622 6.613 6.643 6.733 6.855 6.985 6.99 6.807 6.668 6.638 6.548 6.408 6.348 6.378 6.445 6.565 6.725 6.92 6.992 6.79 6.81 6.96 6.74 6.37 5.72 5.013 5.268 5.745 5.677 5.578 5.495 5.427 5.362 5.295 5.23 5.172 5.115 5.058 5.025 5.01
8.02 7.938 7.895 7.883 7.878 7.875 7.87 7.86 7.842 7.812 7.755 7.69 7.665 7.673 7.678 7.67 7.64 7.565 7.513 7.51 7.51 7.51 7.51 7.51 7.51 7.51 7.505 7.488 7.463 7.435 7.415 7.41 7.41 7.41 7.423 7.453 7.488 7.522 7.52 7.475 7.425 7.37 7.3 7.26 7.263 7.24 7.198 7.18 7.18 7.18 7.18 7.18 7.18 7.18 7.18 7.18 7.18 7.18 7.18 7.18 7.18 7.18 7.18 7.18 7.18 7.18 7.18 7.18 7.18 7.18 7.18 7.18 7.18 7.18 7.18 7.18 7.18 7.15 7.042 6.887 6.33 5.385 4.92 4.92 4.917 4.912 4.907 4.903 4.9 4.895 4.98 5.295 5.793 6.315 6.685 6.842 6.995 7.272 6.688 6.603 7.449 7.557 7.413 7.305 7.25 7.228 7.235 7.285 7.36 7.422 7.44 7.42 7.385 7.373 7.412 7.435 7.403 7.373 7.375 7.44 7.535 7.575 7.497 7.165 6.605 6.276 6.421 6.898 7.395 7.6 7.58 7.51 7.445 7.402 7.32 7.168 7.015 6.883 6.818 6.815 6.815 6.812 6.797 6.77 6.737 6.7 6.663 6.625 6.59 6.585 6.613 6.65 6.69 6.727 6.742 6.73 6.702 6.665 6.632 6.61 6.595 6.603 6.635 6.69 6.783 6.905 6.815 6.548 6.408 6.383 6.378 6.378 6.448 6.562 6.568 6.6 6.77 6.992 7.06 6.81 6.728 6.782 6.545 6.065 5.228 5.1 5.635 5.7 5.603 5.51 5.433 5.37 5.305 5.238 5.178 5.137 5.097 5.043 5.008 4.99
7.963 7.908 7.885 7.87 7.865 7.862 7.858 7.855 7.845 7.82 7.778 7.75 7.76 7.782 7.797 7.77 7.687 7.58 7.518 7.51 7.51 7.51 7.51 7.51 7.51 7.51 7.505 7.49 7.465 7.435 7.415 7.41 7.41 7.41 7.443 7.515 7.585 7.627 7.62 7.572 7.515 7.452 7.38 7.358 7.392 7.392 7.313 7.215 7.18 7.18 7.18 7.18 7.18 7.18 7.18 7.18 7.18 7.18 7.18 7.18 7.18 7.18 7.18 7.18 7.18 7.18 7.18 7.18 7.18 7.18 7.18 7.18 7.18 7.18 7.18 7.18 7.177 7.107 6.96 6.692 5.835 5.043 4.92 4.917 4.912 4.907 4.903 4.9 4.897 4.892 4.885 4.875 5.005 5.365 5.865 6.45 6.947 7.182 6.53 6.78 7.649 7.495 7.363 7.288 7.265 7.253 7.245 7.275 7.335 7.377 7.38 7.36 7.335 7.33 7.395 7.475 7.487 7.46 7.44 7.448 7.488 7.515 7.52 7.53 7.395 7 6.523 6.263 6.488 6.99 7.412 7.56 7.49 7.435 7.355 7.202 7.03 6.888 6.825 6.822 6.82 6.82 6.812 6.795 6.772 6.74 6.705 6.662 6.61 6.593 6.618 6.655 6.695 6.732 6.752 6.74 6.697 6.643 6.598 6.575 6.578 6.603 6.64 6.683 6.74 6.832 6.73 6.503 6.393 6.345 6.358 6.463 6.622 6.76 6.693 6.64 6.833 7.08 7.107 6.81 6.645 6.605 6.362 5.538 4.993 5.45 5.735 5.618 5.525 5.44 5.37 5.31 5.245 5.18 5.12 5.085 5.065 5.025 4.993 4.975
7.915 7.895 7.875 7.86 7.853 7.847 7.843 7.84 7.837 7.83 7.82 7.822 7.84 7.86 7.865 7.805 7.695 7.598 7.545 7.528 7.515 7.51 7.51 7.51 7.51 7.513 7.515 7.503 7.473 7.44 7.42 7.418 7.42 7.423 7.468 7.56 7.655 7.72 7.715 7.66 7.6 7.535 7.47 7.463 7.505 7.545 7.515 7.375 7.233 7.18 7.18 7.18 7.18 7.18 7.18 7.18 7.18 7.18 7.18 7.18 7.18 7.18 7.18 7.18 7.18 7.18 7.18 7.18 7.18 7.18 7.18 7.18 7.18 7.18 7.177 7.175 7.157 7.05 6.88 6.3 5.36 4.92 4.917 4.912 4.907 4.903 4.9 4.897 4.892 4.887 4.883 4.877 4.873 4.865 5.033 5.73 6.655 6.91 6.563 7.03 7.615 7.448 7.335 7.3 7.29 7.28 7.268 7.273 7.305 7.335 7.335 7.313 7.29 7.29 7.353 7.455 7.525 7.542 7.537 7.535 7.532 7.547 7.535 7.495 7.462 7.44 7.267 6.837 6.425 6.226 6.528 7.067 7.382 7.472 7.39 7.245 7.058 6.9 6.833 6.827 6.825 6.825 6.822 6.81 6.792 6.77 6.735 6.687 6.63 6.603 6.625 6.665 6.703 6.737 6.755 6.73 6.677 6.62 6.568 6.555 6.58 6.61 6.645 6.687 6.73 6.777 6.717 6.577 6.47 6.393 6.44 6.6 6.777 6.937 6.863 6.748 6.908 7.17 7.15 6.805 6.56 6.425 5.965 5.118 5.165 5.697 5.645 5.533 5.448 5.373 5.307 5.245 5.182 5.118 5.06 5.03 5.02 5 4.978 4.963
7.883 7.897 7.875 7.85 7.84 7.833 7.828 7.825 7.828 7.843 7.857 7.865 7.877 7.892 7.877 7.8 7.7 7.64 7.618 7.595 7.568 7.548 7.54 7.545 7.553 7.563 7.575 7.568 7.538 7.503 7.488 7.493 7.498 7.508 7.56 7.655 7.742 7.79 7.78 7.735 7.68 7.618 7.57 7.575 7.617 7.662 7.69 7.602 7.38 7.205 7.17 7.18 7.18 7.18 7.18 7.18 7.18 7.18 7.18 7.18 7.18 7.18 7.18 7.18 7.18 7.18 7.18 7.18 7.18 7.18 7.18 7.18 7.18 7.175 7.165 7.157 7.112 6.977 6.68 5.808 5.03 4.918 4.912 4.907 4.903 4.9 4.897 4.892 4.887 4.883 4.88 4.877 4.872 4.865 4.855 5.253 6.34 6.727 6.538 7.162 7.595 7.413 7.32 7.327 7.322 7.31 7.298 7.288 7.303 7.33 7.328 7.303 7.273 7.25 7.298 7.4 7.497 7.55 7.555 7.557 7.56 7.557 7.535 7.485 7.423 7.385 7.372 7.357 7.137 6.673 6.323 6.186 6.505 7.07 7.329 7.29 7.11 6.95 6.84 6.805 6.805 6.805 6.805 6.785 6.75 6.76 6.722 6.635 6.583 6.593 6.645 6.678 6.713 6.75 6.75 6.697 6.637 6.58 6.53 6.525 6.562 6.61 6.652 6.687 6.72 6.737 6.69 6.59 6.49 6.413 6.483 6.675 6.867 7.057 7.08 6.928 6.975 7.177 7.102 6.782 6.475 6.175 5.365 5.063 5.585 5.695 5.56 5.453 5.37 5.297 5.232 5.17 5.108 5.053 5.018 4.998 4.985 4.975 4.967 4.96
7.863 7.9 7.892 7.853 7.828 7.818 7.813 7.815 7.835 7.867 7.885 7.888 7.895 7.907 7.88 7.8 7.738 7.72 7.715 7.695 7.665 7.635 7.62 7.628 7.643 7.66 7.672 7.667 7.647 7.618 7.61 7.625 7.633 7.65 7.71 7.79 7.83 7.825 7.805 7.78 7.74 7.69 7.66 7.672 7.71 7.745 7.772 7.695 7.477 7.243 7.138 7.152 7.172 7.18 7.18 7.18 7.18 7.18 7.18 7.18 7.18 7.18 7.18 7.18 7.18 7.18 7.18 7.18 7.18 7.18 7.18 7.18 7.18 7.167 7.14 7.09 7.005 6.88 6.275 5.333 4.918 4.913 4.908 4.903 4.9 4.898 4.893 4.888 4.883 4.88 4.877 4.872 4.867 4.862 4.855 5.19 6.312 6.627 6.505 7.255 7.57 7.378 7.295 7.332 7.35 7.345 7.335 7.325 7.33 7.347 7.342 7.312 7.265 7.21 7.235 7.335 7.437 7.505 7.52 7.52 7.52 7.512 7.482 7.435 7.38 7.35 7.353 7.36 7.342 7.29 7.012 6.488 6.178 6.193 6.543 7.022 7.19 7.102 6.958 6.853 6.775 6.718 6.698 6.69 6.705 6.785 6.695 6.515 6.49 6.59 6.69 6.703 6.73 6.767 6.745 6.658 6.58 6.523 6.48 6.473 6.505 6.562 6.62 6.662 6.69 6.7 6.65 6.553 6.463 6.398 6.473 6.67 6.875 7.075 7.165 7.072 7.062 7.087 6.92 6.67 6.39 5.737 5.053 5.345 5.745 5.613 5.495 5.39 5.295 5.215 5.15 5.088 5.038 5.013 5 4.985 4.968 4.955 4.955 4.962
7.848 7.89 7.91 7.88 7.828 7.803 7.803 7.82 7.86 7.9 7.915 7.915 7.918 7.925 7.893 7.838 7.82 7.82 7.815 7.795 7.765 7.735 7.723 7.73 7.743 7.757 7.765 7.762 7.752 7.732 7.73 7.75 7.765 7.792 7.842 7.872 7.862 7.838 7.818 7.8 7.775 7.74 7.723 7.732 7.755 7.782 7.77 7.64 7.435 7.233 7.11 7.11 7.148 7.172 7.18 7.18 7.18 7.18 7.18 7.18 7.18 7.18 7.18 7.18 7.185 7.185 7.18 7.18 7.18 7.18 7.18 7.18 7.18 7.16 7.107 7.013 6.9 6.68 5.813 5.025 4.93 4.923 4.915 4.91 4.908 4.9 4.895 4.89 4.883 4.88 4.875 4.868 4.863 4.86 4.855 5.338 6.564 6.587 6.47 7.355 7.537 7.343 7.27 7.315 7.355 7.372 7.37 7.362 7.36 7.365 7.352 7.307 7.245 7.178 7.18 7.268 7.372 7.455 7.482 7.48 7.48 7.467 7.427 7.37 7.318 7.315 7.355 7.395 7.405 7.375 7.317 7.207 6.87 6.365 6.101 6.198 6.573 7.019 7.157 7.025 6.873 6.74 6.648 6.653 6.755 6.875 6.722 6.435 6.433 6.627 6.75 6.75 6.76 6.785 6.747 6.633 6.533 6.468 6.43 6.425 6.44 6.48 6.542 6.6 6.642 6.66 6.612 6.525 6.45 6.39 6.46 6.653 6.852 7.015 7.082 7.085 7.067 6.942 6.718 6.495 6.107 5.28 5.163 5.662 5.667 5.553 5.448 5.34 5.233 5.14 5.07 5.023 5.005 5.002 4.992 4.972 4.95 4.935 4.935 4.95
7.835 7.875 7.912 7.91 7.855 7.803 7.805 7.847 7.892 7.932 7.947 7.945 7.945 7.945 7.93 7.915 7.915 7.915 7.912 7.895 7.865 7.835 7.825 7.835 7.845 7.852 7.85 7.842 7.835 7.822 7.827 7.85 7.87 7.895 7.912 7.9 7.875 7.85 7.83 7.815 7.795 7.772 7.765 7.775 7.79 7.805 7.742 7.583 7.4 7.23 7.125 7.118 7.152 7.155 7.153 7.175 7.182 7.18 7.18 7.18 7.18 7.18 7.18 7.185 7.215 7.23 7.213 7.2 7.19 7.183 7.18 7.18 7.18 7.152 7.083 6.978 6.86 6.407 5.475 4.953 4.957 4.948 4.94 4.933 4.928 4.92 4.913 4.905 4.898 4.893 4.885 4.878 4.873 4.868 4.94 5.72 6.822 6.468 6.511 7.455 7.495 7.305 7.248 7.295 7.345 7.38 7.39 7.39 7.39 7.382 7.348 7.293 7.238 7.183 7.148 7.19 7.29 7.382 7.43 7.435 7.435 7.415 7.362 7.295 7.268 7.298 7.342 7.385 7.425 7.462 7.44 7.332 7.23 7.11 6.737 6.25 6.031 6.213 6.62 6.989 7.08 6.93 6.783 6.735 6.833 6.965 6.785 6.395 6.388 6.672 6.817 6.823 6.825 6.835 6.768 6.623 6.5 6.415 6.383 6.385 6.39 6.413 6.468 6.53 6.59 6.628 6.595 6.52 6.45 6.388 6.453 6.64 6.822 6.945 7.005 7.032 6.965 6.787 6.57 6.352 5.575 5.096 5.535 5.725 5.613 5.51 5.405 5.295 5.185 5.08 5.013 4.995 4.995 4.995 4.982 4.957 4.935 4.92 4.92 4.935
7.83 7.865 7.907 7.912 7.86 7.803 7.805 7.857 7.907 7.95 7.967 7.962 7.96 7.955 7.95 7.952 7.955 7.957 7.962 7.955 7.93 7.902 7.892 7.897 7.905 7.865 7.792 7.76 7.75 7.75 7.755 7.767 7.79 7.805 7.807 7.8 7.79 7.815 7.837 7.82 7.802 7.785 7.777 7.787 7.802 7.81 7.74 7.59 7.43 7.27 7.168 7.165 7.177 7.125 7.105 7.15 7.177 7.182 7.183 7.183 7.185 7.185 7.185 7.21 7.272 7.305 7.283 7.27 7.255 7.213 7.185 7.185 7.182 7.165 7.095 6.973 6.842 6.197 5.288 4.978 4.985 4.973 4.967 4.96 4.952 4.945 4.938 4.93 4.923 4.917 4.91 4.903 4.898 4.893 5.28 6.375 6.77 6.323 6.88 7.575 7.47 7.293 7.248 7.3 7.34 7.362 7.372 7.377 7.382 7.375 7.417 7.447 7.405 7.365 7.3 7.25 7.245 7.283 7.348 7.375 7.37 7.342 7.285 7.233 7.238 7.283 7.328 7.37 7.41 7.445 7.457 7.42 7.34 7.25 7.145 6.967 6.582 6.148 5.963 6.193 6.637 6.947 6.985 6.865 6.89 7.032 6.832 6.368 6.33 6.63 6.825 6.91 6.947 6.955 6.885 6.725 6.558 6.44 6.425 6.468 6.498 6.488 6.505 6.573 6.638 6.667 6.63 6.56 6.49 6.433 6.49 6.663 6.827 6.937 6.997 6.985 6.86 6.662 6.445 6 5.218 5.288 5.765 5.673 5.573 5.478 5.375 5.265 5.155 5.045 4.988 4.985 4.982 4.977 4.962 4.94 4.92 4.913 4.925 4.945
7.835 7.86 7.902 7.897 7.84 7.795 7.8 7.845 7.895 7.942 7.965 7.962 7.96 7.955 7.945 7.94 7.943 7.947 7.955 7.96 7.95 7.928 7.918 7.92 7.88 7.747 7.595 7.533 7.533 7.55 7.55 7.535 7.548 7.565 7.57 7.578 7.628 7.75 7.83 7.82 7.802 7.78 7.765 7.768 7.78 7.795 7.745 7.617 7.467 7.31 7.213 7.2 7.15 7.065 7.06 7.107 7.152 7.177 7.187 7.197 7.205 7.2 7.198 7.255 7.355 7.403 7.398 7.395 7.362 7.273 7.205 7.197 7.195 7.187 7.125 6.992 6.847 6.143 5.228 4.985 5.015 5 4.993 4.985 4.977 4.97 4.963 4.957 4.95 4.943 4.935 4.928 4.928 5.07 5.895 6.837 6.523 6.536 7.405 7.62 7.47 7.32 7.273 7.307 7.32 7.323 7.327 7.332 7.33 7.323 7.43 7.647 7.735 7.69 7.615 7.513 7.408 7.345 7.33 7.313 7.288 7.257 7.21 7.19 7.223 7.27 7.315 7.355 7.392 7.427 7.447 7.44 7.38 7.277 7.172 7.07 6.97 6.765 6.382 6.026 5.896 6.168 6.637 6.9 6.97 7.025 6.8 6.373 6.28 6.478 6.722 6.897 7.002 7.075 7.08 6.957 6.79 6.67 6.665 6.742 6.762 6.695 6.663 6.715 6.762 6.757 6.705 6.633 6.568 6.525 6.573 6.725 6.877 6.972 6.977 6.892 6.74 6.537 6.262 5.46 5.171 5.662 5.75 5.635 5.548 5.465 5.358 5.245 5.135 5.025 4.97 4.97 4.965 4.955 4.94 4.92 4.908 4.915 4.94 4.967
7.848 7.863 7.892 7.882 7.833 7.795 7.8 7.84 7.883 7.927 7.952 7.955 7.955 7.952 7.945 7.935 7.93 7.933 7.94 7.95 7.955 7.945 7.937 7.897 7.765 7.58 7.4 7.313 7.328 7.357 7.357 7.33 7.318 7.325 7.34 7.4 7.535 7.705 7.81 7.822 7.8 7.77 7.755 7.758 7.765 7.775 7.732 7.622 7.492 7.348 7.252 7.19 7.065 6.988 7.015 7.063 7.11 7.152 7.175 7.185 7.19 7.185 7.208 7.302 7.457 7.55 7.555 7.527 7.455 7.345 7.238 7.205 7.215 7.205 7.145 7.02 6.872 6.312 5.373 4.985 5.045 5.032 5.02 5.01 5.003 4.997 4.99 4.983 4.975 4.967 4.96 4.958 4.965 5.488 6.622 6.725 6.321 7.022 7.622 7.565 7.44 7.328 7.278 7.278 7.278 7.28 7.28 7.277 7.265 7.25 7.295 7.547 7.897 8.01 7.92 7.795 7.652 7.51 7.37 7.273 7.223 7.18 7.15 7.163 7.21 7.257 7.3 7.34 7.378 7.413 7.435 7.427 7.345 7.217 7.102 6.985 6.868 6.772 6.757 6.64 6.253 5.908 5.818 6.138 6.66 6.922 6.792 6.505 6.34 6.36 6.568 6.772 6.92 7.057 7.18 7.205 7.135 7.045 7.025 7.055 7.002 6.9 6.835 6.843 6.855 6.83 6.78 6.713 6.663 6.63 6.668 6.8 6.932 6.967 6.892 6.78 6.622 6.412 5.847 5.198 5.435 5.84 5.752 5.633 5.55 5.465 5.345 5.228 5.115 5.008 4.955 4.952 4.945 4.935 4.918 4.905 4.913 4.928 4.95 4.982
7.865 7.873 7.882 7.87 7.83 7.795 7.8 7.84 7.88 7.917 7.94 7.945 7.948 7.95 7.945 7.935 7.925 7.92 7.925 7.938 7.95 7.955 7.917 7.79 7.605 7.415 7.228 7.12 7.13 7.165 7.163 7.135 7.11 7.113 7.178 7.318 7.49 7.66 7.79 7.825 7.797 7.765 7.75 7.752 7.755 7.757 7.72 7.62 7.5 7.372 7.25 7.115 6.97 6.925 6.97 7.02 7.075 7.125 7.142 7.138 7.133 7.13 7.158 7.283 7.525 7.695 7.695 7.625 7.535 7.425 7.288 7.215 7.22 7.212 7.167 7.065 6.927 6.645 5.895 5.178 5.035 5.065 5.05 5.04 5.03 5.023 5.015 5.007 5 4.993 4.99 4.998 5.21 6.142 6.924 6.45 6.62 7.467 7.59 7.502 7.383 7.303 7.273 7.258 7.248 7.24 7.23 7.218 7.203 7.188 7.193 7.295 7.71 8.08 8.05 7.885 7.705 7.525 7.358 7.253 7.195 7.143 7.13 7.16 7.203 7.245 7.295 7.363 7.438 7.447 7.427 7.387 7.245 7.093 6.98 6.867 6.75 6.65 6.613 6.667 6.742 6.547 6.053 5.753 5.808 6.165 6.607 6.707 6.54 6.393 6.44 6.63 6.8 6.94 7.16 7.347 7.38 7.36 7.357 7.332 7.248 7.158 7.08 7.013 6.948 6.9 6.855 6.805 6.768 6.735 6.77 6.88 6.947 6.895 6.78 6.667 6.502 6.165 5.403 5.278 5.77 5.84 5.77 5.66 5.565 5.46 5.335 5.215 5.098 4.99 4.938 4.93 4.92 4.91 4.903 4.908 4.925 4.942 4.965 4.995
7.882 7.885 7.885 7.87 7.835 7.798 7.803 7.845 7.885 7.917 7.937 7.948 7.953 7.957 7.953 7.94 7.93 7.92 7.923 7.938 7.95 7.955 7.875 7.7 7.513 7.333 7.185 7.103 7.083 7.063 7.033 7.018 7.005 7.01 7.088 7.245 7.422 7.6 7.765 7.822 7.79 7.76 7.745 7.745 7.745 7.74 7.707 7.627 7.515 7.392 7.223 7.02 6.89 6.88 6.935 6.998 7.057 7.1 7.11 7.1 7.09 7.083 7.08 7.19 7.49 7.735 7.757 7.692 7.612 7.505 7.365 7.243 7.203 7.2 7.185 7.132 7.022 6.887 6.552 5.925 5.428 5.188 5.08 5.07 5.058 5.048 5.04 5.033 5.028 5.025 5.03 5.073 5.725 6.852 6.685 6.343 7.16 7.602 7.532 7.44 7.343 7.295 7.277 7.26 7.243 7.225 7.208 7.19 7.175 7.16 7.16 7.183 7.478 7.925 8 7.82 7.64 7.46 7.318 7.24 7.185 7.145 7.15 7.18 7.218 7.29 7.39 7.495 7.562 7.497 7.425 7.342 7.14 6.968 6.853 6.74 6.628 6.538 6.495 6.498 6.573 6.672 6.68 6.4 5.9 5.653 5.813 6.195 6.527 6.552 6.44 6.508 6.677 6.828 7.12 7.392 7.47 7.507 7.545 7.567 7.575 7.577 7.537 7.43 7.305 7.215 7.14 7.063 6.983 6.883 6.88 6.94 6.892 6.783 6.67 6.55 6.377 5.685 5.201 5.582 5.855 5.832 5.787 5.702 5.578 5.443 5.32 5.2 5.08 4.983 4.94 4.93 4.92 4.91 4.908 4.918 4.935 4.952 4.967 4.987
7.892 7.895 7.892 7.877 7.847 7.81 7.815 7.86 7.895 7.92 7.94 7.957 7.965 7.97 7.967 7.953 7.943 7.935 7.938 7.95 7.955 7.95 7.857 7.675 7.508 7.38 7.295 7.245 7.192 7.088 7.008 7 7 7 7.038 7.163 7.348 7.545 7.72 7.79 7.777 7.752 7.735 7.732 7.727 7.715 7.682 7.622 7.532 7.417 7.227 6.975 6.838 6.858 6.925 6.992 7.04 7.07 7.08 7.07 7.06 7.053 7.05 7.148 7.45 7.677 7.682 7.645 7.59 7.517 7.432 7.312 7.213 7.183 7.182 7.177 7.12 7.005 6.885 6.707 6.4 5.998 5.58 5.238 5.085 5.073 5.065 5.058 5.058 5.068 5.08 5.385 6.37 6.939 6.413 6.708 7.465 7.515 7.477 7.39 7.325 7.3 7.28 7.263 7.247 7.23 7.21 7.193 7.177 7.163 7.165 7.19 7.38 7.772 7.92 7.76 7.58 7.408 7.293 7.233 7.18 7.163 7.185 7.215 7.27 7.408 7.572 7.672 7.65 7.51 7.415 7.287 7.045 6.853 6.725 6.61 6.518 6.458 6.418 6.39 6.425 6.508 6.6 6.675 6.582 6.22 5.773 5.596 5.798 6.165 6.422 6.487 6.558 6.755 7.12 7.44 7.532 7.558 7.603 7.687 7.782 7.852 7.847 7.78 7.712 7.657 7.612 7.51 7.297 7.065 6.975 6.935 6.807 6.675 6.56 6.432 6.07 5.315 5.32 5.827 5.85 5.82 5.795 5.75 5.607 5.43 5.3 5.18 5.068 4.995 4.97 4.96 4.95 4.94 4.93 4.93 4.943 4.957 4.965 4.973
7.898 7.9 7.895 7.88 7.86 7.83 7.835 7.875 7.9 7.92 7.94 7.96 7.972 7.98 7.98 7.967 7.957 7.95 7.95 7.955 7.95 7.937 7.837 7.683 7.578 7.505 7.445 7.395 7.307 7.15 7.03 7 7.003 7.025 7.085 7.19 7.333 7.515 7.665 7.72 7.732 7.73 7.722 7.712 7.697 7.682 7.647 7.59 7.525 7.437 7.26 7.045 6.933 6.908 6.933 6.98 7.012 7.04 7.05 7.04 7.038 7.043 7.045 7.16 7.427 7.56 7.525 7.49 7.45 7.41 7.382 7.337 7.25 7.183 7.168 7.177 7.172 7.107 7.023 7 6.995 6.85 6.512 6.092 5.678 5.285 5.09 5.09 5.1 5.113 5.226 5.97 6.999 6.68 6.448 7.245 7.512 7.46 7.42 7.355 7.32 7.303 7.285 7.267 7.25 7.23 7.21 7.195 7.18 7.165 7.173 7.203 7.288 7.595 7.81 7.695 7.515 7.365 7.28 7.225 7.185 7.19 7.22 7.238 7.325 7.522 7.727 7.795 7.687 7.523 7.39 7.215 6.965 6.748 6.598 6.5 6.443 6.41 6.38 6.358 6.403 6.473 6.515 6.573 6.622 6.62 6.442 6.053 5.661 5.518 5.763 6.1 6.365 6.712 7.147 7.485 7.587 7.595 7.638 7.73 7.79 7.79 7.762 7.73 7.712 7.71 7.727 7.64 7.39 7.145 6.993 6.87 6.725 6.583 6.455 6.305 5.58 5.216 5.672 5.857 5.84 5.808 5.788 5.78 5.65 5.43 5.275 5.158 5.07 5.025 5.005 4.992 4.98 4.97 4.96 4.955 4.955 4.963 4.97 4.97
7.908 7.903 7.895 7.882 7.867 7.845 7.85 7.88 7.9 7.92 7.94 7.957 7.972 7.987 7.99 7.98 7.967 7.955 7.952 7.95 7.94 7.925 7.86 7.775 7.715 7.655 7.597 7.527 7.395 7.213 7.065 7.025 7.058 7.115 7.208 7.313 7.418 7.537 7.625 7.655 7.675 7.695 7.7 7.685 7.665 7.647 7.61 7.553 7.497 7.435 7.32 7.197 7.11 7.02 6.97 6.97 6.985 7.008 7.023 7.025 7.035 7.05 7.045 7.17 7.36 7.397 7.365 7.33 7.293 7.26 7.243 7.24 7.215 7.173 7.155 7.163 7.175 7.165 7.14 7.11 7.075 7.04 7.002 6.902 6.612 6.19 5.793 5.475 5.315 5.386 5.868 6.707 6.94 6.481 6.87 7.457 7.41 7.405 7.378 7.343 7.325 7.307 7.29 7.267 7.245 7.225 7.205 7.19 7.175 7.17 7.188 7.218 7.25 7.465 7.692 7.63 7.455 7.333 7.268 7.215 7.198 7.22 7.245 7.265 7.39 7.615 7.777 7.775 7.65 7.512 7.355 7.138 6.885 6.645 6.493 6.438 6.408 6.383 6.36 6.36 6.44 6.555 6.597 6.59 6.59 6.588 6.577 6.54 6.305 5.89 5.565 5.416 5.653 6.175 6.752 7.325 7.595 7.627 7.66 7.7 7.68 7.617 7.57 7.54 7.515 7.5 7.493 7.428 7.305 7.178 7.028 6.863 6.698 6.533 6.372 5.972 5.295 5.393 5.855 5.855 5.827 5.793 5.775 5.805 5.702 5.443 5.253 5.15 5.095 5.065 5.042 5.025 5.01 5 4.99 4.985 4.983 4.985 4.99 4.993
7.92 7.907 7.895 7.885 7.87 7.853 7.85 7.865 7.882 7.897 7.915 7.93 7.945 7.972 7.985 7.972 7.957 7.94 7.94 7.945 7.935 7.917 7.88 7.84 7.81 7.78 7.737 7.635 7.473 7.293 7.148 7.12 7.173 7.24 7.333 7.437 7.532 7.582 7.6 7.62 7.643 7.667 7.675 7.66 7.64 7.617 7.575 7.52 7.465 7.412 7.36 7.285 7.192 7.095 7.02 6.99 6.988 7 7.018 7.03 7.045 7.055 7.038 7.142 7.257 7.235 7.205 7.18 7.168 7.16 7.155 7.155 7.153 7.148 7.148 7.153 7.16 7.172 7.19 7.187 7.157 7.12 7.085 7.05 7.01 6.955 6.735 6.402 6.238 6.318 6.755 7.249 6.693 6.571 7.332 7.43 7.358 7.365 7.362 7.347 7.33 7.31 7.287 7.26 7.233 7.21 7.192 7.178 7.173 7.198 7.228 7.245 7.268 7.388 7.555 7.547 7.413 7.315 7.255 7.215 7.22 7.252 7.253 7.303 7.482 7.652 7.695 7.635 7.535 7.43 7.3 7.102 6.86 6.61 6.453 6.41 6.39 6.367 6.345 6.375 6.48 6.585 6.652 6.7 6.705 6.663 6.623 6.582 6.52 6.45 6.185 5.7 5.406 5.331 5.673 6.455 7.097 7.415 7.537 7.55 7.485 7.42 7.378 7.35 7.325 7.338 7.368 7.368 7.338 7.28 7.16 6.98 6.795 6.61 6.302 5.478 5.228 5.722 5.852 5.842 5.815 5.78 5.77 5.81 5.78 5.537 5.275 5.168 5.127 5.092 5.075 5.065 5.05 5.038 5.04 5.053 5.055 5.06 5.068 5.073
7.925 7.91 7.895 7.885 7.87 7.855 7.84 7.83 7.838 7.85 7.865 7.883 7.905 7.945 7.962 7.947 7.93 7.908 7.913 7.937 7.937 7.91 7.858 7.81 7.795 7.792 7.775 7.707 7.567 7.393 7.275 7.26 7.3 7.363 7.455 7.55 7.597 7.59 7.583 7.6 7.62 7.645 7.652 7.637 7.617 7.59 7.547 7.493 7.438 7.39 7.35 7.297 7.217 7.125 7.065 7.038 7.02 7.023 7.035 7.045 7.055 7.05 7.023 7.068 7.118 7.11 7.118 7.128 7.128 7.123 7.13 7.135 7.138 7.143 7.148 7.15 7.155 7.165 7.198 7.235 7.232 7.202 7.167 7.13 7.093 7.06 7.032 7.027 7.065 7.122 7.252 6.93 6.496 7.04 7.47 7.335 7.33 7.343 7.35 7.345 7.33 7.312 7.287 7.253 7.22 7.193 7.175 7.168 7.193 7.25 7.285 7.295 7.308 7.345 7.418 7.437 7.373 7.3 7.245 7.23 7.257 7.272 7.258 7.355 7.53 7.585 7.55 7.487 7.395 7.303 7.215 7.075 6.872 6.635 6.458 6.395 6.375 6.353 6.338 6.398 6.5 6.557 6.615 6.695 6.765 6.765 6.682 6.597 6.542 6.487 6.422 6.317 6.025 5.548 5.261 5.353 5.9 6.615 7.052 7.26 7.287 7.225 7.185 7.17 7.198 7.293 7.382 7.425 7.435 7.405 7.312 7.15 6.965 6.667 6.002 5.3 5.448 5.857 5.84 5.793 5.785 5.777 5.762 5.775 5.8 5.62 5.338 5.2 5.135 5.095 5.093 5.11 5.102 5.09 5.11 5.15 5.167 5.172 5.18 5.175
7.927 7.91 7.895 7.885 7.87 7.855 7.835 7.805 7.79 7.798 7.815 7.84 7.878 7.922 7.935 7.918 7.898 7.873 7.878 7.915 7.935 7.905 7.845 7.783 7.735 7.718 7.712 7.7 7.637 7.5 7.408 7.408 7.433 7.488 7.565 7.612 7.605 7.578 7.57 7.583 7.6 7.622 7.627 7.61 7.585 7.557 7.52 7.467 7.415 7.37 7.33 7.292 7.235 7.16 7.115 7.092 7.07 7.058 7.057 7.057 7.05 7.027 6.995 7.018 7.063 7.095 7.14 7.155 7.125 7.105 7.115 7.122 7.13 7.14 7.155 7.17 7.18 7.188 7.21 7.25 7.28 7.28 7.25 7.213 7.18 7.175 7.19 7.2 7.247 7.345 7.172 6.483 6.676 7.437 7.417 7.3 7.317 7.33 7.335 7.335 7.327 7.315 7.29 7.25 7.213 7.18 7.163 7.18 7.24 7.31 7.345 7.352 7.355 7.355 7.37 7.377 7.342 7.285 7.248 7.26 7.287 7.26 7.278 7.402 7.475 7.45 7.4 7.342 7.263 7.185 7.115 7 6.84 6.645 6.465 6.383 6.36 6.338 6.343 6.407 6.475 6.513 6.567 6.635 6.682 6.687 6.625 6.548 6.512 6.482 6.43 6.37 6.31 6.177 5.87 5.468 5.296 5.516 6.06 6.642 6.967 7.032 7.023 7.08 7.193 7.327 7.41 7.447 7.482 7.497 7.455 7.322 7.045 6.422 5.426 5.278 5.775 5.865 5.812 5.715 5.708 5.73 5.718 5.722 5.712 5.577 5.393 5.26 5.15 5.09 5.1 5.142 5.155 5.153 5.178 5.225 5.265 5.282 5.282 5.245
7.93 7.91 7.895 7.885 7.873 7.858 7.835 7.803 7.77 7.755 7.775 7.82 7.873 7.917 7.925 7.903 7.88 7.855 7.86 7.9 7.92 7.887 7.825 7.762 7.7 7.658 7.64 7.635 7.625 7.572 7.537 7.555 7.575 7.605 7.63 7.62 7.59 7.563 7.555 7.568 7.583 7.6 7.602 7.58 7.55 7.522 7.487 7.443 7.395 7.35 7.31 7.275 7.237 7.195 7.162 7.14 7.12 7.097 7.078 7.058 7.033 7.005 6.998 7.043 7.103 7.152 7.18 7.152 7.105 7.09 7.1 7.11 7.118 7.128 7.155 7.19 7.22 7.24 7.255 7.28 7.315 7.34 7.357 7.395 7.43 7.472 7.505 7.442 7.352 6.957 6.528 6.805 7.395 7.555 7.368 7.28 7.3 7.318 7.325 7.322 7.317 7.312 7.29 7.25 7.21 7.17 7.168 7.223 7.3 7.37 7.4 7.395 7.385 7.377 7.372 7.352 7.315 7.275 7.268 7.3 7.292 7.243 7.29 7.362 7.342 7.298 7.25 7.198 7.137 7.077 7.017 6.912 6.767 6.61 6.453 6.368 6.345 6.323 6.338 6.385 6.425 6.465 6.507 6.54 6.553 6.548 6.51 6.473 6.458 6.443 6.412 6.365 6.315 6.27 6.24 6.115 5.787 5.45 5.368 5.613 6.185 6.665 6.897 7.097 7.247 7.365 7.427 7.463 7.5 7.54 7.557 7.407 6.82 5.855 5.235 5.493 5.872 5.867 5.78 5.673 5.635 5.655 5.665 5.675 5.64 5.54 5.422 5.307 5.185 5.103 5.11 5.16 5.195 5.212 5.242 5.29 5.34 5.372 5.355 5.282
7.935 7.913 7.903 7.893 7.88 7.868 7.855 7.835 7.8 7.768 7.785 7.845 7.9 7.932 7.932 7.912 7.888 7.863 7.868 7.897 7.89 7.84 7.78 7.72 7.66 7.62 7.608 7.605 7.603 7.6 7.607 7.627 7.65 7.66 7.647 7.62 7.59 7.565 7.56 7.573 7.585 7.595 7.58 7.545 7.515 7.485 7.455 7.42 7.377 7.333 7.293 7.26 7.235 7.217 7.197 7.175 7.155 7.13 7.1 7.07 7.04 7.023 7.048 7.1 7.152 7.19 7.177 7.128 7.088 7.078 7.085 7.095 7.103 7.115 7.145 7.185 7.23 7.27 7.297 7.33 7.365 7.398 7.442 7.507 7.582 7.672 7.692 7.317 6.763 6.418 6.68 7.39 7.627 7.47 7.33 7.28 7.303 7.315 7.312 7.308 7.305 7.302 7.282 7.245 7.205 7.17 7.19 7.265 7.342 7.4 7.415 7.402 7.39 7.38 7.362 7.333 7.3 7.275 7.29 7.312 7.262 7.225 7.25 7.24 7.2 7.173 7.143 7.083 7.005 6.955 6.912 6.82 6.683 6.543 6.423 6.36 6.337 6.31 6.315 6.353 6.388 6.425 6.453 6.46 6.458 6.455 6.453 6.445 6.433 6.423 6.41 6.38 6.337 6.293 6.27 6.26 6.212 6.047 5.705 5.423 5.401 5.698 6.312 6.859 7.192 7.392 7.462 7.5 7.54 7.572 7.527 7.135 6.24 5.246 5.253 5.747 5.827 5.822 5.747 5.635 5.575 5.61 5.642 5.652 5.617 5.52 5.4 5.285 5.18 5.12 5.135 5.183 5.227 5.257 5.285 5.322 5.36 5.392 5.362 5.275
7.952 7.92 7.91 7.905 7.893 7.885 7.887 7.882 7.857 7.825 7.84 7.895 7.932 7.945 7.937 7.922 7.9 7.875 7.88 7.882 7.84 7.78 7.723 7.665 7.62 7.613 7.617 7.615 7.618 7.62 7.625 7.635 7.65 7.662 7.652 7.625 7.6 7.585 7.585 7.595 7.602 7.602 7.57 7.515 7.475 7.445 7.42 7.395 7.36 7.318 7.28 7.255 7.243 7.238 7.225 7.205 7.182 7.157 7.13 7.1 7.075 7.07 7.1 7.15 7.182 7.18 7.147 7.1 7.068 7.06 7.065 7.075 7.085 7.103 7.135 7.175 7.22 7.265 7.307 7.357 7.41 7.46 7.497 7.518 7.548 7.557 7.132 6.475 6.286 6.72 7.355 7.622 7.585 7.455 7.333 7.303 7.32 7.312 7.298 7.295 7.292 7.287 7.27 7.235 7.203 7.188 7.22 7.292 7.355 7.39 7.395 7.385 7.377 7.37 7.355 7.335 7.31 7.285 7.292 7.28 7.215 7.183 7.173 7.145 7.125 7.115 7.097 7.002 6.858 6.788 6.765 6.717 6.622 6.5 6.403 6.355 6.33 6.3 6.298 6.328 6.363 6.4 6.422 6.425 6.423 6.425 6.435 6.44 6.437 6.43 6.417 6.395 6.36 6.318 6.295 6.3 6.282 6.22 6.14 5.97 5.603 5.378 5.411 5.79 6.52 7.114 7.445 7.547 7.49 7.372 7.162 6.537 5.515 5.078 5.402 5.647 5.702 5.722 5.672 5.555 5.49 5.53 5.575 5.605 5.582 5.472 5.34 5.233 5.165 5.148 5.175 5.22 5.26 5.287 5.298 5.308 5.328 5.355 5.325 5.24
7.857 7.932 7.91 7.91 7.905 7.905 7.91 7.91 7.905 7.883 7.895 7.935 7.947 7.952 7.945 7.927 7.907 7.887 7.875 7.84 7.78 7.723 7.668 7.625 7.615 7.627 7.632 7.63 7.635 7.64 7.643 7.648 7.655 7.665 7.657 7.635 7.618 7.605 7.605 7.61 7.61 7.605 7.57 7.505 7.445 7.405 7.38 7.36 7.335 7.303 7.273 7.26 7.262 7.265 7.255 7.235 7.21 7.185 7.16 7.135 7.123 7.123 7.145 7.172 7.167 7.142 7.11 7.073 7.05 7.045 7.048 7.055 7.068 7.09 7.125 7.165 7.21 7.258 7.308 7.363 7.425 7.49 7.537 7.56 7.559 6.995 6.231 6.191 6.633 7.135 7.45 7.537 7.522 7.447 7.35 7.323 7.32 7.295 7.28 7.28 7.278 7.275 7.26 7.233 7.218 7.213 7.248 7.307 7.345 7.37 7.375 7.368 7.363 7.357 7.345 7.33 7.312 7.292 7.278 7.25 7.215 7.185 7.158 7.133 7.11 7.095 7.05 6.905 6.705 6.598 6.578 6.565 6.53 6.457 6.388 6.348 6.318 6.285 6.283 6.308 6.338 6.375 6.395 6.398 6.4 6.403 6.413 6.427 6.437 6.435 6.42 6.4 6.375 6.343 6.325 6.327 6.327 6.292 6.222 6.147 6.07 5.895 5.498 5.313 5.448 6.038 6.872 7.214 7.122 6.86 6.52 5.768 5.046 5.26 5.577 5.525 5.58 5.617 5.575 5.475 5.4 5.405 5.455 5.535 5.552 5.43 5.293 5.215 5.193 5.19 5.212 5.252 5.287 5.317 5.32 5.31 5.31 5.32 5.295 5.235
7.483 7.68 7.922 7.915 7.902 7.897 7.902 7.91 7.922 7.925 7.935 7.952 7.955 7.96 7.955 7.935 7.912 7.89 7.86 7.805 7.735 7.67 7.625 7.613 7.625 7.64 7.645 7.647 7.652 7.657 7.66 7.662 7.667 7.672 7.667 7.655 7.642 7.628 7.62 7.615 7.607 7.6 7.567 7.505 7.435 7.375 7.343 7.325 7.308 7.288 7.27 7.27 7.28 7.287 7.28 7.26 7.237 7.215 7.195 7.18 7.172 7.167 7.165 7.152 7.13 7.105 7.078 7.058 7.045 7.038 7.033 7.038 7.055 7.08 7.115 7.158 7.205 7.258 7.313 7.365 7.425 7.483 7.525 7.555 7.08 6.241 6.288 6.865 7.122 7.307 7.425 7.435 7.428 7.403 7.358 7.327 7.307 7.28 7.265 7.265 7.265 7.262 7.252 7.242 7.24 7.238 7.263 7.3 7.325 7.35 7.358 7.355 7.35 7.345 7.335 7.32 7.308 7.295 7.28 7.265 7.255 7.232 7.205 7.175 7.138 7.105 7.002 6.805 6.585 6.445 6.415 6.415 6.418 6.41 6.383 6.348 6.31 6.273 6.27 6.298 6.323 6.35 6.365 6.37 6.375 6.378 6.39 6.41 6.425 6.43 6.42 6.4 6.38 6.36 6.35 6.352 6.357 6.35 6.305 6.23 6.152 6.077 6 5.802 5.425 5.383 5.648 6.14 6.447 6.167 5.658 5.093 5.138 5.43 5.41 5.405 5.457 5.502 5.49 5.417 5.33 5.298 5.368 5.512 5.532 5.385 5.255 5.208 5.207 5.205 5.225 5.262 5.302 5.342 5.35 5.33 5.31 5.297 5.277 5.245
7.64 7.331 7.55 7.887 7.885 7.865 7.863 7.875 7.895 7.915 7.92 7.92 7.93 7.942 7.945 7.927 7.897 7.868 7.852 7.82 7.75 7.673 7.625 7.62 7.633 7.647 7.655 7.657 7.662 7.667 7.67 7.672 7.677 7.682 7.68 7.67 7.66 7.645 7.62 7.597 7.585 7.575 7.547 7.49 7.42 7.35 7.318 7.31 7.295 7.28 7.27 7.272 7.28 7.29 7.285 7.265 7.245 7.227 7.215 7.205 7.195 7.185 7.167 7.14 7.115 7.09 7.07 7.06 7.05 7.04 7.03 7.033 7.048 7.07 7.108 7.155 7.208 7.265 7.325 7.385 7.443 7.493 7.54 7.275 6.411 6.173 7.025 7.565 7.562 7.48 7.418 7.405 7.395 7.385 7.358 7.32 7.293 7.265 7.25 7.25 7.25 7.247 7.242 7.24 7.24 7.253 7.28 7.305 7.33 7.347 7.35 7.35 7.348 7.345 7.335 7.32 7.313 7.308 7.302 7.295 7.277 7.23 7.195 7.2 7.195 7.147 6.997 6.773 6.553 6.41 6.375 6.383 6.398 6.413 6.402 6.365 6.325 6.293 6.295 6.323 6.345 6.355 6.348 6.345 6.35 6.355 6.37 6.387 6.402 6.412 6.405 6.385 6.365 6.347 6.342 6.35 6.355 6.36 6.342 6.28 6.202 6.125 6.045 5.967 5.892 5.675 5.38 5.398 5.41 5.168 4.983 5.138 5.467 5.412 5.248 5.275 5.322 5.367 5.385 5.335 5.242 5.21 5.325 5.5 5.495 5.335 5.215 5.178 5.18 5.18 5.2 5.24 5.282 5.325 5.335 5.312 5.29 5.272 5.255 5.23
8.11 7.685 7.316 7.46 7.71 7.842 7.825 7.828 7.845 7.865 7.867 7.855 7.86 7.877 7.89 7.887 7.862 7.833 7.832 7.842 7.802 7.73 7.673 7.643 7.64 7.652 7.66 7.663 7.667 7.67 7.673 7.677 7.682 7.687 7.685 7.677 7.67 7.655 7.617 7.57 7.543 7.53 7.505 7.452 7.385 7.32 7.298 7.302 7.295 7.283 7.273 7.27 7.273 7.28 7.275 7.258 7.243 7.23 7.22 7.21 7.198 7.185 7.17 7.147 7.122 7.098 7.078 7.065 7.055 7.045 7.038 7.04 7.048 7.085 7.163 7.233 7.293 7.358 7.425 7.473 7.508 7.56 7.484 6.733 6.208 6.613 7.385 7.85 7.747 7.575 7.468 7.448 7.435 7.417 7.375 7.32 7.28 7.25 7.235 7.233 7.23 7.23 7.227 7.225 7.235 7.273 7.312 7.337 7.355 7.355 7.35 7.352 7.355 7.355 7.345 7.333 7.33 7.33 7.325 7.312 7.27 7.185 7.12 7.145 7.207 7.177 7.012 6.79 6.593 6.48 6.44 6.425 6.433 6.447 6.435 6.395 6.363 6.345 6.355 6.377 6.385 6.375 6.35 6.333 6.33 6.335 6.35 6.365 6.375 6.38 6.37 6.35 6.33 6.313 6.31 6.317 6.323 6.327 6.32 6.282 6.215 6.135 6.055 5.98 5.905 5.832 5.802 5.59 5.26 5.103 5.255 5.55 5.495 5.245 5.148 5.15 5.178 5.222 5.232 5.175 5.093 5.103 5.252 5.417 5.422 5.288 5.175 5.14 5.14 5.14 5.16 5.2 5.24 5.28 5.29 5.27 5.253 5.24 5.223 5.203
8.125 8.177 7.812 7.358 7.27 7.547 7.8 7.79 7.798 7.815 7.82 7.803 7.79 7.795 7.81 7.822 7.82 7.8 7.8 7.83 7.832 7.79 7.737 7.695 7.665 7.66 7.665 7.668 7.67 7.673 7.677 7.682 7.687 7.69 7.688 7.683 7.677 7.662 7.62 7.563 7.515 7.488 7.457 7.405 7.345 7.29 7.27 7.282 7.29 7.285 7.278 7.273 7.27 7.272 7.267 7.255 7.245 7.235 7.225 7.215 7.202 7.188 7.17 7.15 7.127 7.105 7.085 7.07 7.06 7.05 7.045 7.047 7.05 7.103 7.232 7.37 7.465 7.535 7.58 7.585 7.607 7.622 6.97 6.208 6.435 7.007 7.47 7.72 7.707 7.615 7.523 7.493 7.477 7.452 7.402 7.338 7.28 7.238 7.22 7.217 7.213 7.21 7.21 7.22 7.255 7.307 7.347 7.365 7.365 7.355 7.35 7.352 7.357 7.362 7.36 7.353 7.35 7.35 7.347 7.315 7.24 7.163 7.123 7.155 7.205 7.177 7.03 6.81 6.648 6.573 6.528 6.488 6.473 6.48 6.465 6.433 6.415 6.405 6.412 6.42 6.405 6.385 6.36 6.335 6.318 6.315 6.327 6.337 6.342 6.345 6.335 6.315 6.295 6.28 6.278 6.283 6.29 6.295 6.285 6.26 6.215 6.145 6.065 5.99 5.917 5.843 5.793 5.787 5.737 5.607 5.575 5.51 5.295 5.16 5.12 5.09 5.08 5.078 5.043 4.975 4.935 4.998 5.143 5.272 5.3 5.222 5.133 5.1 5.1 5.1 5.12 5.16 5.2 5.237 5.25 5.235 5.22 5.21 5.195 5.195
8.03 8.15 8.16 7.877 7.415 7.141 7.403 7.732 7.755 7.765 7.77 7.755 7.735 7.725 7.733 7.745 7.758 7.76 7.77 7.8 7.825 7.817 7.782 7.745 7.702 7.675 7.67 7.673 7.675 7.678 7.68 7.685 7.69 7.692 7.695 7.69 7.682 7.667 7.625 7.567 7.51 7.46 7.413 7.358 7.303 7.258 7.245 7.258 7.273 7.28 7.28 7.275 7.27 7.27 7.265 7.255 7.245 7.235 7.225 7.215 7.205 7.192 7.175 7.152 7.13 7.11 7.093 7.08 7.07 7.057 7.05 7.047 7.045 7.098 7.245 7.432 7.59 7.69 7.69 7.667 7.67 7.22 6.303 6.218 6.84 7.257 7.5 7.565 7.585 7.58 7.552 7.535 7.522 7.49 7.43 7.365 7.297 7.233 7.205 7.205 7.2 7.193 7.2 7.235 7.287 7.34 7.372 7.375 7.365 7.355 7.348 7.348 7.358 7.37 7.372 7.37 7.37 7.372 7.362 7.315 7.25 7.205 7.2 7.212 7.19 7.145 7.032 6.845 6.72 6.668 6.62 6.573 6.535 6.518 6.503 6.485 6.475 6.465 6.46 6.445 6.42 6.4 6.375 6.35 6.328 6.305 6.298 6.303 6.307 6.31 6.3 6.28 6.262 6.248 6.243 6.25 6.258 6.262 6.252 6.228 6.2 6.15 6.078 6.003 5.93 5.858 5.793 5.738 5.633 5.478 5.353 5.263 5.205 5.18 5.155 5.125 5.095 5.023 4.9 4.798 4.805 4.918 5.053 5.14 5.153 5.12 5.078 5.06 5.06 5.06 5.08 5.117 5.155 5.192 5.207 5.197 5.188 5.183 5.188 5.215
7.87 7.977 8.07 8.06 7.91 7.448 7.116 7.293 7.577 7.72 7.72 7.705 7.69 7.683 7.685 7.695 7.708 7.72 7.74 7.77 7.797 7.807 7.787 7.752 7.715 7.688 7.68 7.683 7.685 7.685 7.68 7.68 7.685 7.69 7.692 7.687 7.677 7.655 7.612 7.555 7.495 7.435 7.378 7.323 7.273 7.243 7.243 7.255 7.268 7.277 7.277 7.273 7.27 7.27 7.265 7.255 7.245 7.235 7.225 7.215 7.205 7.192 7.175 7.152 7.13 7.115 7.105 7.095 7.082 7.06 7.043 7.038 7.04 7.098 7.245 7.435 7.625 7.757 7.762 7.717 7.437 6.553 6.178 6.687 7.13 7.385 7.475 7.495 7.515 7.535 7.55 7.552 7.54 7.495 7.422 7.35 7.282 7.228 7.21 7.218 7.215 7.205 7.218 7.263 7.315 7.367 7.395 7.39 7.38 7.37 7.358 7.353 7.365 7.377 7.378 7.377 7.38 7.382 7.365 7.327 7.292 7.24 7.195 7.17 7.137 7.097 7.015 6.895 6.81 6.76 6.707 6.652 6.597 6.563 6.562 6.565 6.558 6.553 6.525 6.485 6.458 6.435 6.413 6.388 6.362 6.323 6.283 6.273 6.275 6.275 6.265 6.245 6.228 6.218 6.218 6.225 6.233 6.24 6.23 6.203 6.18 6.152 6.1 6.028 5.955 5.885 5.823 5.755 5.63 5.458 5.315 5.245 5.235 5.24 5.23 5.205 5.175 5.072 4.898 4.763 4.76 4.875 5.012 5.085 5.078 5.055 5.043 5.04 5.04 5.043 5.05 5.073 5.11 5.147 5.16 5.153 5.153 5.168 5.203 5.247
7.755 7.81 7.888 7.932 7.93 7.895 7.532 7.128 7.148 7.465 7.675 7.665 7.66 7.66 7.665 7.675 7.68 7.685 7.708 7.74 7.77 7.787 7.772 7.738 7.71 7.698 7.695 7.695 7.695 7.695 7.685 7.675 7.675 7.68 7.68 7.672 7.655 7.62 7.575 7.525 7.47 7.41 7.353 7.303 7.27 7.255 7.258 7.27 7.277 7.277 7.273 7.27 7.27 7.267 7.262 7.255 7.245 7.235 7.225 7.212 7.2 7.187 7.17 7.15 7.135 7.13 7.125 7.112 7.09 7.053 7.028 7.028 7.055 7.123 7.25 7.43 7.625 7.77 7.785 7.659 6.845 6.168 6.52 7.005 7.285 7.42 7.462 7.485 7.505 7.525 7.537 7.532 7.505 7.447 7.37 7.3 7.253 7.225 7.223 7.24 7.25 7.245 7.255 7.293 7.34 7.392 7.42 7.417 7.41 7.4 7.385 7.373 7.375 7.382 7.383 7.38 7.38 7.377 7.36 7.327 7.27 7.167 7.068 7.025 7.012 6.99 6.968 6.925 6.86 6.8 6.737 6.675 6.62 6.593 6.617 6.655 6.665 6.665 6.625 6.558 6.515 6.488 6.465 6.44 6.402 6.352 6.298 6.258 6.245 6.245 6.235 6.215 6.203 6.205 6.21 6.21 6.215 6.225 6.217 6.19 6.17 6.165 6.132 6.063 5.993 5.933 5.885 5.845 5.767 5.622 5.48 5.385 5.325 5.298 5.29 5.277 5.247 5.155 5.015 4.898 4.83 4.875 5 5.07 5.067 5.05 5.04 5.04 5.043 5.047 5.043 5.043 5.07 5.105 5.115 5.113 5.133 5.175 5.227 5.28
7.74 7.745 7.775 7.81 7.84 7.885 7.867 7.592 7.21 7.065 7.333 7.62 7.642 7.645 7.648 7.652 7.645 7.645 7.673 7.707 7.74 7.765 7.757 7.73 7.718 7.71 7.708 7.71 7.71 7.71 7.697 7.678 7.668 7.667 7.665 7.647 7.615 7.575 7.532 7.487 7.44 7.387 7.338 7.303 7.285 7.275 7.275 7.28 7.28 7.275 7.27 7.27 7.267 7.263 7.258 7.25 7.24 7.23 7.22 7.208 7.195 7.185 7.168 7.15 7.145 7.145 7.14 7.122 7.087 7.04 7.018 7.04 7.1 7.175 7.268 7.423 7.63 7.772 7.727 7.15 6.268 6.278 6.855 7.16 7.325 7.402 7.45 7.475 7.495 7.515 7.517 7.49 7.445 7.385 7.323 7.28 7.255 7.235 7.23 7.248 7.27 7.28 7.293 7.328 7.372 7.42 7.445 7.442 7.437 7.43 7.415 7.4 7.39 7.39 7.39 7.383 7.38 7.372 7.337 7.267 7.16 7.028 6.903 6.83 6.81 6.87 6.937 6.912 6.85 6.78 6.718 6.67 6.63 6.61 6.645 6.71 6.757 6.775 6.735 6.655 6.588 6.545 6.517 6.482 6.432 6.378 6.323 6.268 6.228 6.215 6.205 6.193 6.195 6.205 6.21 6.205 6.203 6.207 6.2 6.185 6.183 6.19 6.165 6.1 6.04 5.995 5.955 5.915 5.867 5.77 5.65 5.56 5.48 5.41 5.362 5.335 5.295 5.225 5.147 5.07 4.977 4.928 4.985 5.045 5.052 5.047 5.04 5.043 5.048 5.052 5.047 5.035 5.038 5.06 5.075 5.093 5.14 5.195 5.25 5.305
7.75 7.755 7.755 7.755 7.778 7.825 7.857 7.835 7.68 7.275 7.016 7.23 7.532 7.637 7.633 7.625 7.605 7.608 7.64 7.673 7.707 7.74 7.745 7.735 7.73 7.722 7.722 7.725 7.725 7.725 7.712 7.69 7.67 7.655 7.637 7.605 7.565 7.525 7.485 7.443 7.4 7.358 7.328 7.312 7.3 7.29 7.285 7.282 7.277 7.273 7.27 7.27 7.265 7.26 7.255 7.245 7.235 7.225 7.215 7.205 7.193 7.18 7.168 7.16 7.16 7.16 7.15 7.12 7.078 7.03 7.028 7.085 7.157 7.23 7.305 7.425 7.61 7.707 7.352 6.433 6.151 6.657 7.02 7.227 7.32 7.38 7.427 7.452 7.47 7.49 7.487 7.448 7.393 7.343 7.308 7.285 7.262 7.24 7.235 7.253 7.277 7.3 7.322 7.357 7.4 7.442 7.465 7.46 7.455 7.45 7.437 7.425 7.412 7.405 7.4 7.39 7.382 7.347 7.263 7.145 7.015 6.888 6.76 6.668 6.705 6.875 6.94 6.878 6.823 6.765 6.72 6.685 6.65 6.628 6.66 6.732 6.805 6.855 6.832 6.755 6.675 6.607 6.562 6.515 6.458 6.403 6.348 6.293 6.238 6.198 6.183 6.185 6.195 6.205 6.21 6.205 6.2 6.197 6.193 6.195 6.205 6.217 6.2 6.15 6.105 6.065 6.022 5.977 5.932 5.87 5.777 5.68 5.59 5.5 5.41 5.352 5.302 5.237 5.19 5.142 5.08 5.01 5 5.03 5.04 5.043 5.043 5.048 5.053 5.057 5.052 5.04 5.028 5.03 5.058 5.103 5.16 5.217 5.272 5.325
7.76 7.76 7.75 7.735 7.733 7.765 7.802 7.82 7.81 7.702 7.315 7.02 7.143 7.45 7.63 7.62 7.6 7.588 7.608 7.64 7.672 7.705 7.722 7.722 7.717 7.717 7.725 7.73 7.73 7.73 7.72 7.7 7.675 7.642 7.605 7.565 7.525 7.485 7.445 7.408 7.37 7.33 7.308 7.3 7.29 7.285 7.282 7.277 7.273 7.27 7.27 7.27 7.267 7.265 7.26 7.25 7.24 7.23 7.22 7.21 7.195 7.18 7.17 7.165 7.165 7.165 7.155 7.122 7.078 7.033 7.048 7.12 7.192 7.268 7.365 7.448 7.555 7.482 6.65 6.091 6.445 6.815 7.07 7.222 7.277 7.33 7.372 7.397 7.415 7.437 7.452 7.432 7.38 7.338 7.315 7.292 7.268 7.245 7.24 7.258 7.283 7.313 7.34 7.365 7.4 7.442 7.465 7.462 7.457 7.45 7.44 7.43 7.42 7.4 7.38 7.37 7.352 7.302 7.223 7.125 7.005 6.878 6.75 6.658 6.753 7.16 7.372 7.07 6.815 6.775 6.74 6.705 6.67 6.645 6.675 6.742 6.805 6.86 6.855 6.787 6.71 6.63 6.58 6.545 6.49 6.435 6.38 6.323 6.267 6.208 6.18 6.19 6.2 6.21 6.21 6.2 6.195 6.19 6.195 6.212 6.225 6.237 6.222 6.177 6.132 6.087 6.04 5.99 5.94 5.89 5.792 5.66 5.55 5.45 5.352 5.297 5.272 5.225 5.173 5.128 5.095 5.075 5.063 5.058 5.063 5.065 5.058 5.055 5.06 5.065 5.06 5.047 5.03 5.02 5.05 5.107 5.165 5.222 5.272 5.325
7.765 7.755 7.738 7.722 7.708 7.718 7.75 7.77 7.782 7.742 7.612 7.322 7.063 7.053 7.337 7.605 7.622 7.598 7.585 7.605 7.635 7.667 7.687 7.685 7.685 7.695 7.71 7.722 7.725 7.725 7.715 7.695 7.665 7.62 7.575 7.533 7.49 7.45 7.412 7.38 7.345 7.308 7.285 7.275 7.27 7.273 7.275 7.27 7.268 7.272 7.273 7.27 7.27 7.27 7.265 7.255 7.245 7.235 7.225 7.215 7.202 7.19 7.175 7.163 7.16 7.16 7.152 7.13 7.092 7.05 7.063 7.133 7.223 7.35 7.47 7.498 7.517 7.01 6.161 6.243 6.692 6.853 7.045 7.162 7.21 7.26 7.3 7.325 7.348 7.375 7.405 7.417 7.392 7.353 7.323 7.298 7.275 7.255 7.248 7.263 7.293 7.33 7.352 7.36 7.385 7.427 7.45 7.452 7.452 7.445 7.435 7.425 7.405 7.363 7.328 7.307 7.277 7.24 7.2 7.147 7.07 6.977 6.865 6.775 7.16 7.492 7.35 7.337 7.307 7.008 6.77 6.733 6.698 6.66 6.668 6.72 6.77 6.812 6.805 6.75 6.685 6.613 6.573 6.56 6.525 6.472 6.417 6.36 6.297 6.225 6.188 6.195 6.208 6.22 6.215 6.198 6.188 6.18 6.19 6.22 6.24 6.25 6.225 6.165 6.11 6.06 6.01 5.96 5.915 5.865 5.75 5.588 5.448 5.335 5.248 5.208 5.205 5.192 5.173 5.155 5.148 5.155 5.152 5.13 5.12 5.115 5.09 5.07 5.068 5.072 5.067 5.05 5.028 5.008 5.03 5.09 5.145 5.187 5.227 5.282
7.757 7.742 7.725 7.708 7.693 7.685 7.7 7.72 7.735 7.715 7.62 7.515 7.395 7.13 6.955 7.19 7.525 7.622 7.595 7.585 7.603 7.632 7.65 7.65 7.66 7.675 7.69 7.705 7.715 7.72 7.71 7.682 7.642 7.595 7.548 7.5 7.453 7.41 7.375 7.345 7.315 7.283 7.26 7.255 7.26 7.265 7.265 7.265 7.268 7.275 7.277 7.275 7.275 7.275 7.27 7.26 7.25 7.24 7.23 7.22 7.21 7.2 7.185 7.168 7.158 7.155 7.145 7.127 7.105 7.07 7.08 7.173 7.323 7.5 7.587 7.557 7.265 6.435 6.148 6.6 6.8 6.888 7.015 7.1 7.143 7.19 7.23 7.258 7.285 7.315 7.342 7.367 7.38 7.36 7.328 7.305 7.285 7.263 7.253 7.27 7.313 7.352 7.365 7.365 7.378 7.41 7.43 7.435 7.442 7.442 7.435 7.417 7.383 7.33 7.273 7.228 7.193 7.157 7.12 7.08 7.035 6.985 6.918 7.018 7.529 7.362 6.801 7.065 7.302 7.357 7.237 6.883 6.735 6.673 6.645 6.68 6.725 6.762 6.75 6.7 6.647 6.59 6.557 6.552 6.54 6.505 6.452 6.39 6.317 6.24 6.198 6.203 6.218 6.23 6.225 6.205 6.188 6.175 6.185 6.217 6.245 6.255 6.22 6.15 6.085 6.03 5.98 5.935 5.897 5.84 5.715 5.547 5.385 5.238 5.15 5.135 5.148 5.165 5.19 5.22 5.242 5.255 5.25 5.22 5.19 5.167 5.135 5.103 5.083 5.078 5.072 5.052 5.022 4.993 5.01 5.062 5.1 5.125 5.16 5.217
7.745 7.73 7.715 7.695 7.68 7.665 7.66 7.67 7.685 7.687 7.647 7.6 7.57 7.507 7.175 6.918 7.1 7.445 7.622 7.6 7.593 7.603 7.615 7.625 7.64 7.655 7.67 7.685 7.697 7.71 7.7 7.66 7.615 7.57 7.52 7.47 7.42 7.375 7.34 7.313 7.288 7.258 7.24 7.243 7.25 7.258 7.26 7.265 7.27 7.275 7.28 7.28 7.28 7.28 7.275 7.265 7.255 7.245 7.235 7.225 7.217 7.207 7.192 7.175 7.16 7.15 7.135 7.12 7.105 7.08 7.13 7.293 7.5 7.647 7.64 7.457 6.65 6.066 6.43 6.787 6.882 6.93 6.993 7.045 7.085 7.13 7.168 7.195 7.225 7.255 7.28 7.305 7.335 7.347 7.335 7.315 7.292 7.268 7.26 7.287 7.337 7.37 7.375 7.377 7.382 7.395 7.407 7.415 7.422 7.427 7.432 7.42 7.393 7.34 7.24 7.158 7.113 7.073 7.037 7 6.955 6.91 6.87 7.01 7.18 6.93 6.663 6.688 6.755 7.122 7.262 7.317 7.155 6.688 6.635 6.655 6.69 6.717 6.697 6.64 6.58 6.525 6.502 6.505 6.51 6.507 6.47 6.402 6.327 6.252 6.21 6.215 6.232 6.242 6.235 6.215 6.195 6.178 6.185 6.218 6.25 6.252 6.205 6.135 6.065 6 5.945 5.902 5.862 5.795 5.662 5.492 5.322 5.165 5.095 5.11 5.14 5.17 5.203 5.247 5.295 5.33 5.32 5.257 5.212 5.192 5.165 5.137 5.11 5.09 5.075 5.05 5.015 4.98 4.983 5.012 5.035 5.058 5.093 5.137
7.818 7.803 7.785 7.768 7.753 7.715 7.658 7.63 7.638 7.652 7.647 7.622 7.597 7.565 7.5 7.255 6.99 6.99 7.312 7.592 7.607 7.598 7.588 7.585 7.597 7.612 7.627 7.64 7.652 7.66 7.642 7.6 7.557 7.525 7.485 7.435 7.388 7.345 7.318 7.297 7.27 7.24 7.233 7.242 7.248 7.255 7.26 7.263 7.267 7.272 7.275 7.275 7.275 7.28 7.28 7.27 7.257 7.237 7.22 7.212 7.207 7.2 7.19 7.175 7.16 7.145 7.128 7.112 7.095 7.108 7.243 7.472 7.68 7.715 7.565 6.995 6.166 6.195 6.705 6.882 6.955 6.985 6.995 7.015 7.055 7.1 7.128 7.145 7.173 7.2 7.228 7.255 7.285 7.31 7.322 7.315 7.292 7.27 7.258 7.278 7.322 7.35 7.357 7.362 7.367 7.375 7.38 7.385 7.392 7.398 7.422 7.447 7.442 7.38 7.243 7.12 7.05 6.995 6.953 6.917 6.875 6.83 6.795 6.79 6.793 6.69 6.603 6.64 6.7 6.76 6.831 7.622 7.567 6.698 6.638 6.653 6.68 6.68 6.625 6.55 6.48 6.42 6.403 6.415 6.427 6.442 6.425 6.362 6.287 6.23 6.213 6.225 6.242 6.255 6.257 6.248 6.23 6.213 6.22 6.255 6.277 6.25 6.18 6.105 6.032 5.957 5.878 5.815 5.772 5.697 5.567 5.402 5.228 5.115 5.1 5.123 5.15 5.183 5.223 5.26 5.295 5.34 5.3 5.213 5.188 5.175 5.155 5.135 5.11 5.092 5.067 5.03 4.995 4.96 4.95 4.965 4.983 5.003 5.03 5.055
7.992 7.975 7.95 7.907 7.847 7.76 7.663 7.61 7.6 7.607 7.602 7.577 7.545 7.5 7.492 7.48 7.332 7.038 6.868 7.133 7.505 7.612 7.578 7.54 7.535 7.547 7.56 7.572 7.582 7.575 7.55 7.518 7.49 7.475 7.447 7.4 7.353 7.31 7.29 7.282 7.262 7.235 7.228 7.242 7.252 7.258 7.26 7.26 7.263 7.265 7.265 7.268 7.273 7.283 7.287 7.277 7.255 7.22 7.195 7.188 7.183 7.18 7.177 7.167 7.152 7.135 7.12 7.105 7.115 7.198 7.388 7.632 7.737 7.61 7.227 6.418 6.133 6.575 6.855 6.977 7.02 7.04 7.033 7.023 7.045 7.087 7.107 7.11 7.128 7.155 7.185 7.215 7.24 7.257 7.28 7.295 7.285 7.265 7.248 7.245 7.27 7.3 7.312 7.318 7.328 7.345 7.352 7.35 7.355 7.36 7.408 7.48 7.497 7.42 7.263 7.108 7.008 6.943 6.885 6.838 6.793 6.75 6.728 6.727 6.725 6.643 6.59 6.645 6.702 6.76 6.94 7.542 7.375 6.703 6.655 6.67 6.682 6.65 6.555 6.453 6.375 6.315 6.3 6.315 6.325 6.34 6.332 6.278 6.215 6.198 6.215 6.232 6.242 6.25 6.272 6.295 6.292 6.278 6.288 6.312 6.3 6.24 6.15 6.063 5.987 5.905 5.8 5.703 5.645 5.562 5.433 5.285 5.153 5.105 5.123 5.148 5.183 5.23 5.278 5.307 5.317 5.32 5.25 5.175 5.162 5.145 5.125 5.105 5.09 5.085 5.057 5.008 4.968 4.933 4.92 4.935 4.953 4.97 4.988 5.005
8.172 8.12 8.052 7.962 7.852 7.735 7.645 7.6 7.578 7.57 7.557 7.525 7.48 7.433 7.433 7.46 7.45 7.38 7.045 6.806 7.013 7.397 7.585 7.527 7.488 7.48 7.492 7.502 7.498 7.488 7.478 7.46 7.445 7.435 7.41 7.367 7.32 7.275 7.255 7.255 7.25 7.23 7.223 7.238 7.252 7.262 7.263 7.26 7.258 7.258 7.26 7.265 7.278 7.29 7.292 7.275 7.24 7.198 7.17 7.163 7.163 7.165 7.162 7.155 7.142 7.128 7.115 7.128 7.195 7.325 7.532 7.687 7.617 7.36 6.598 6.043 6.39 6.787 6.965 7.06 7.082 7.095 7.087 7.06 7.053 7.078 7.095 7.09 7.093 7.115 7.145 7.17 7.185 7.2 7.225 7.252 7.265 7.255 7.24 7.23 7.23 7.25 7.267 7.278 7.295 7.315 7.325 7.323 7.32 7.32 7.39 7.51 7.55 7.457 7.287 7.115 6.985 6.905 6.84 6.778 6.72 6.675 6.658 6.655 6.645 6.6 6.59 6.647 6.697 6.748 7.332 7.54 6.965 6.703 6.67 6.677 6.67 6.62 6.512 6.385 6.28 6.213 6.198 6.213 6.225 6.24 6.24 6.2 6.173 6.195 6.222 6.23 6.23 6.23 6.26 6.312 6.342 6.342 6.345 6.337 6.29 6.22 6.128 6.028 5.943 5.852 5.74 5.623 5.528 5.44 5.335 5.228 5.173 5.18 5.205 5.233 5.265 5.312 5.347 5.35 5.332 5.297 5.235 5.173 5.138 5.115 5.095 5.083 5.085 5.085 5.052 4.995 4.945 4.905 4.89 4.905 4.925 4.945 4.96 4.975
8.232 8.152 8.055 7.943 7.825 7.705 7.625 7.59 7.562 7.54 7.507 7.457 7.405 7.363 7.365 7.405 7.415 7.395 7.352 7.127 6.86 6.875 7.22 7.495 7.482 7.435 7.425 7.43 7.428 7.43 7.435 7.425 7.41 7.4 7.375 7.332 7.287 7.245 7.222 7.22 7.22 7.215 7.218 7.232 7.247 7.262 7.267 7.262 7.258 7.255 7.26 7.27 7.285 7.3 7.292 7.257 7.215 7.173 7.145 7.143 7.148 7.15 7.145 7.138 7.13 7.123 7.143 7.213 7.31 7.455 7.597 7.587 7.425 6.915 6.133 6.143 6.672 6.912 7.062 7.125 7.14 7.15 7.14 7.112 7.09 7.083 7.082 7.078 7.073 7.078 7.098 7.12 7.14 7.16 7.183 7.208 7.23 7.237 7.23 7.22 7.213 7.215 7.228 7.245 7.265 7.285 7.298 7.298 7.293 7.29 7.375 7.537 7.592 7.485 7.312 7.138 6.978 6.87 6.803 6.738 6.675 6.623 6.598 6.588 6.575 6.563 6.577 6.622 6.663 6.88 7.492 7.337 6.74 6.69 6.673 6.67 6.655 6.598 6.485 6.353 6.225 6.13 6.103 6.118 6.13 6.143 6.15 6.148 6.165 6.202 6.22 6.218 6.215 6.215 6.243 6.3 6.355 6.385 6.375 6.33 6.27 6.202 6.112 6.005 5.903 5.803 5.693 5.578 5.475 5.418 5.368 5.295 5.278 5.312 5.345 5.37 5.385 5.405 5.407 5.375 5.338 5.298 5.248 5.193 5.14 5.095 5.073 5.075 5.085 5.085 5.05 4.99 4.933 4.883 4.865 4.88 4.898 4.915 4.933 4.95
