ncols         200
nrows         83
xllcorner     547000
yllcorner     262205
cellsize      5
NODATA_value  -9999.0
12.237 11.875 10.385 9.513 9.34 9.255 9.172 9.088 9.005 8.92 8.83 8.74 8.658 8.593 8.54 8.482 8.42 8.36 8.325 8.322 8.322 8.317 8.31 8.317 8.332 8.325 8.305 8.285 8.25 8.17 8.13 8.157 8.18 8.197 8.19 8.16 8.133 8.108 8.102 8.102 8.067 8.015 7.968 7.92 7.87 7.82 7.783 7.76 7.745 7.743 7.765 7.807 7.845 7.872 7.89 7.892 7.872 7.835 7.828 7.85 7.865 7.88 7.913 7.957 7.997 8.03 8.047 8.055 8.057 8.052 8.052 8.055 8.047 8.03 7.98 7.9 7.817 7.728 7.713 7.815 7.975 8.823 9.722 9.195 8.258 7.908 7.835 7.858 7.887 7.92 7.93 7.912 7.875 7.827 7.788 7.755 7.733 7.715 7.705 7.71 7.717 7.717 7.652 7.565 7.53 7.502 7.43 7.315 7.208 7.138 7.1 7.068 7.04 7.017 6.985 6.95 6.912 6.842 6.71 6.525 6.335 6.278 6.347 6.417 6.48 6.54 6.57 6.573 6.583 6.605 6.62 6.623 6.638 6.662 6.68 6.68 6.657 6.615 6.57 6.53 6.482 6.425 6.383 6.365 6.36 6.357 6.345 6.325 6.305 6.285 6.265 6.245 6.223 6.195 6.152 6.097 6.043 5.998 5.975 5.965 5.942 5.882 5.797 5.71 5.623 5.545 5.528 5.568 5.613 5.657 5.68 5.662 5.61 5.53 5.45 5.415 5.438 5.495 5.565 5.635 5.728 5.85 5.975 6.098 6.225 6.327 6.355 6.332 6.305 6.278 6.258 6.248 6.243 6.237 6.23 6.225 6.25 6.31 6.355 6.36
12.247 11.69 10.245 9.473 9.365 9.285 9.2 9.115 9.035 8.95 8.857 8.76 8.66 8.575 8.51 8.447 8.383 8.32 8.283 8.275 8.278 8.28 8.278 8.275 8.268 8.253 8.235 8.215 8.198 8.165 8.15 8.172 8.197 8.22 8.217 8.19 8.165 8.14 8.117 8.087 8.035 7.983 7.935 7.883 7.828 7.773 7.73 7.715 7.723 7.74 7.77 7.802 7.827 7.85 7.862 7.865 7.86 7.843 7.84 7.852 7.857 7.865 7.888 7.925 7.962 7.992 8.007 8.012 8.015 8.017 8.01 7.992 7.973 7.95 7.902 7.828 7.753 7.69 7.728 7.853 7.988 8.5 9.432 9.462 8.505 7.913 7.828 7.857 7.892 7.925 7.93 7.897 7.85 7.8 7.76 7.73 7.7 7.67 7.65 7.65 7.658 7.665 7.63 7.578 7.552 7.525 7.457 7.347 7.23 7.128 7.07 7.038 7.008 6.978 6.943 6.91 6.875 6.84 6.757 6.592 6.398 6.318 6.373 6.445 6.515 6.58 6.607 6.602 6.598 6.6 6.608 6.622 6.645 6.667 6.685 6.675 6.64 6.595 6.55 6.51 6.467 6.42 6.385 6.378 6.38 6.375 6.36 6.337 6.315 6.292 6.27 6.25 6.222 6.185 6.147 6.102 6.048 6.003 5.98 5.967 5.925 5.847 5.763 5.68 5.605 5.545 5.54 5.578 5.618 5.66 5.67 5.625 5.558 5.49 5.425 5.415 5.468 5.533 5.6 5.668 5.74 5.843 5.968 6.095 6.225 6.34 6.382 6.36 6.33 6.302 6.28 6.27 6.268 6.263 6.258 6.265 6.313 6.385 6.422 6.407
12.247 11.497 10.145 9.473 9.375 9.287 9.197 9.105 9.015 8.927 8.832 8.727 8.625 8.538 8.47 8.41 8.345 8.28 8.245 8.24 8.245 8.25 8.255 8.253 8.233 8.21 8.193 8.178 8.165 8.158 8.155 8.163 8.18 8.202 8.207 8.185 8.16 8.14 8.112 8.072 8.02 7.968 7.928 7.885 7.83 7.77 7.728 7.72 7.74 7.765 7.773 7.78 7.803 7.825 7.837 7.838 7.835 7.838 7.837 7.835 7.835 7.84 7.863 7.897 7.927 7.945 7.955 7.96 7.96 7.96 7.95 7.93 7.905 7.885 7.847 7.78 7.713 7.693 7.765 7.883 8.003 8.225 8.857 8.999 8.315 7.883 7.813 7.837 7.87 7.89 7.882 7.852 7.815 7.772 7.735 7.705 7.675 7.645 7.62 7.608 7.608 7.612 7.605 7.59 7.572 7.545 7.485 7.382 7.268 7.153 7.068 7.025 6.995 6.955 6.913 6.878 6.843 6.807 6.757 6.645 6.465 6.365 6.4 6.47 6.542 6.602 6.62 6.615 6.61 6.6 6.6 6.615 6.637 6.662 6.677 6.662 6.625 6.58 6.535 6.495 6.455 6.413 6.388 6.387 6.39 6.385 6.37 6.345 6.32 6.295 6.27 6.247 6.21 6.158 6.125 6.102 6.055 6.008 5.985 5.96 5.897 5.813 5.735 5.668 5.61 5.563 5.558 5.593 5.63 5.67 5.68 5.635 5.575 5.525 5.49 5.503 5.555 5.615 5.678 5.742 5.785 5.848 5.965 6.095 6.222 6.327 6.372 6.362 6.337 6.312 6.297 6.295 6.295 6.29 6.288 6.318 6.377 6.432 6.447 6.425
12.242 11.3 10.035 9.438 9.325 9.23 9.135 9.035 8.94 8.855 8.76 8.655 8.568 8.495 8.43 8.37 8.308 8.248 8.22 8.22 8.228 8.24 8.252 8.252 8.235 8.21 8.188 8.178 8.17 8.163 8.158 8.153 8.153 8.16 8.16 8.145 8.128 8.115 8.095 8.062 8.017 7.965 7.93 7.905 7.865 7.81 7.773 7.768 7.778 7.795 7.793 7.775 7.78 7.8 7.812 7.813 7.82 7.837 7.828 7.808 7.805 7.813 7.838 7.867 7.885 7.89 7.895 7.9 7.9 7.9 7.89 7.87 7.85 7.837 7.812 7.755 7.71 7.728 7.815 7.935 8.012 8.028 8.18 8.175 7.958 7.848 7.795 7.81 7.832 7.835 7.82 7.795 7.765 7.732 7.705 7.68 7.65 7.62 7.595 7.575 7.565 7.568 7.567 7.565 7.56 7.547 7.51 7.422 7.31 7.2 7.103 7.035 6.995 6.95 6.893 6.845 6.81 6.775 6.735 6.672 6.532 6.413 6.425 6.497 6.562 6.605 6.615 6.608 6.6 6.59 6.59 6.6 6.615 6.64 6.655 6.64 6.607 6.57 6.53 6.488 6.445 6.405 6.388 6.39 6.385 6.375 6.362 6.342 6.317 6.293 6.27 6.237 6.185 6.128 6.095 6.085 6.057 6.013 5.985 5.942 5.865 5.79 5.73 5.678 5.625 5.578 5.573 5.61 5.65 5.69 5.722 5.707 5.655 5.605 5.59 5.62 5.665 5.72 5.782 5.832 5.837 5.863 5.965 6.095 6.207 6.285 6.322 6.327 6.315 6.295 6.295 6.31 6.317 6.318 6.33 6.37 6.415 6.447 6.45 6.43
12.237 11.09 9.908 9.385 9.245 9.14 9.045 8.948 8.863 8.785 8.69 8.593 8.52 8.455 8.39 8.33 8.27 8.22 8.2 8.205 8.22 8.24 8.255 8.25 8.235 8.217 8.195 8.183 8.175 8.168 8.163 8.158 8.155 8.15 8.138 8.123 8.108 8.095 8.077 8.047 8.007 7.963 7.93 7.91 7.885 7.845 7.818 7.82 7.827 7.835 7.827 7.795 7.77 7.775 7.788 7.798 7.825 7.85 7.83 7.79 7.775 7.785 7.807 7.825 7.83 7.83 7.835 7.84 7.84 7.84 7.83 7.813 7.8 7.792 7.777 7.74 7.735 7.783 7.865 7.935 7.927 7.89 7.868 7.848 7.833 7.807 7.775 7.772 7.777 7.772 7.76 7.732 7.697 7.663 7.65 7.647 7.625 7.595 7.57 7.55 7.533 7.525 7.523 7.52 7.517 7.515 7.495 7.432 7.347 7.25 7.15 7.065 7.003 6.95 6.885 6.825 6.783 6.745 6.705 6.665 6.575 6.46 6.45 6.52 6.572 6.602 6.61 6.6 6.59 6.583 6.583 6.59 6.598 6.61 6.62 6.605 6.578 6.55 6.517 6.48 6.44 6.4 6.383 6.382 6.372 6.358 6.345 6.332 6.312 6.29 6.262 6.217 6.16 6.103 6.065 6.053 6.042 6.012 5.975 5.922 5.853 5.793 5.74 5.69 5.64 5.593 5.59 5.63 5.67 5.713 5.757 5.77 5.735 5.695 5.7 5.74 5.78 5.828 5.88 5.895 5.868 5.875 5.965 6.082 6.167 6.23 6.265 6.277 6.282 6.273 6.278 6.302 6.325 6.342 6.367 6.4 6.43 6.45 6.445 6.425
12.234 10.863 9.763 9.35 9.188 9.058 8.958 8.868 8.788 8.71 8.623 8.543 8.48 8.415 8.35 8.292 8.235 8.195 8.19 8.205 8.225 8.245 8.257 8.25 8.233 8.217 8.2 8.188 8.18 8.175 8.17 8.165 8.162 8.157 8.145 8.122 8.098 8.078 8.06 8.03 7.993 7.958 7.935 7.92 7.9 7.875 7.858 7.857 7.862 7.865 7.85 7.817 7.783 7.765 7.775 7.803 7.84 7.865 7.842 7.79 7.755 7.755 7.77 7.775 7.775 7.775 7.778 7.78 7.78 7.78 7.773 7.76 7.753 7.75 7.743 7.74 7.773 7.83 7.88 7.88 7.84 7.813 7.8 7.785 7.77 7.76 7.74 7.723 7.718 7.712 7.695 7.66 7.62 7.58 7.57 7.593 7.595 7.572 7.55 7.53 7.51 7.49 7.48 7.477 7.472 7.47 7.447 7.398 7.34 7.267 7.18 7.092 7.012 6.945 6.88 6.815 6.76 6.713 6.67 6.63 6.577 6.495 6.478 6.532 6.572 6.597 6.6 6.59 6.58 6.572 6.572 6.577 6.58 6.585 6.598 6.588 6.558 6.528 6.495 6.463 6.43 6.398 6.375 6.365 6.355 6.34 6.325 6.315 6.303 6.285 6.247 6.193 6.135 6.078 6.038 6.02 6.015 6.002 5.965 5.913 5.86 5.807 5.755 5.702 5.65 5.608 5.61 5.65 5.69 5.735 5.782 5.82 5.812 5.795 5.82 5.86 5.9 5.937 5.952 5.932 5.895 5.888 5.955 6.047 6.115 6.175 6.21 6.222 6.235 6.245 6.263 6.287 6.315 6.342 6.367 6.392 6.42 6.437 6.437 6.425
12.147 10.62 9.608 9.32 9.15 8.995 8.883 8.8 8.72 8.643 8.565 8.495 8.432 8.367 8.305 8.247 8.193 8.17 8.187 8.21 8.23 8.25 8.26 8.25 8.23 8.218 8.208 8.195 8.188 8.185 8.18 8.175 8.17 8.165 8.152 8.125 8.098 8.073 8.047 8.018 7.985 7.955 7.943 7.94 7.925 7.905 7.885 7.875 7.875 7.875 7.86 7.83 7.8 7.78 7.79 7.825 7.862 7.885 7.877 7.838 7.785 7.758 7.755 7.755 7.755 7.755 7.748 7.738 7.735 7.735 7.733 7.728 7.725 7.725 7.725 7.748 7.797 7.852 7.865 7.84 7.818 7.798 7.785 7.772 7.755 7.735 7.71 7.685 7.67 7.662 7.64 7.598 7.565 7.55 7.55 7.565 7.568 7.548 7.525 7.502 7.477 7.452 7.435 7.428 7.422 7.42 7.41 7.372 7.315 7.252 7.175 7.09 7.005 6.928 6.862 6.798 6.743 6.698 6.653 6.608 6.562 6.505 6.49 6.52 6.545 6.565 6.565 6.552 6.545 6.542 6.545 6.55 6.553 6.575 6.61 6.61 6.58 6.545 6.51 6.475 6.443 6.408 6.375 6.36 6.348 6.33 6.323 6.323 6.318 6.295 6.238 6.17 6.11 6.055 6.018 6 5.995 5.987 5.962 5.92 5.87 5.82 5.77 5.715 5.663 5.628 5.633 5.67 5.713 5.758 5.805 5.855 5.88 5.892 5.92 5.952 5.985 6.015 6.01 5.97 5.93 5.903 5.93 5.998 6.06 6.12 6.155 6.168 6.188 6.215 6.242 6.267 6.292 6.315 6.34 6.367 6.385 6.392 6.41 6.427
11.937 10.388 9.488 9.29 9.123 8.958 8.833 8.75 8.675 8.608 8.53 8.445 8.373 8.307 8.245 8.185 8.143 8.143 8.172 8.202 8.23 8.255 8.26 8.25 8.238 8.23 8.225 8.21 8.198 8.192 8.188 8.185 8.18 8.172 8.155 8.127 8.1 8.067 8.038 8.012 7.985 7.958 7.948 7.952 7.95 7.935 7.91 7.89 7.885 7.882 7.865 7.838 7.818 7.808 7.82 7.852 7.882 7.9 7.91 7.902 7.86 7.815 7.798 7.795 7.795 7.795 7.775 7.738 7.72 7.72 7.72 7.72 7.72 7.72 7.728 7.755 7.803 7.855 7.862 7.828 7.8 7.78 7.768 7.76 7.747 7.73 7.702 7.67 7.64 7.62 7.603 7.583 7.583 7.603 7.622 7.623 7.61 7.57 7.505 7.46 7.433 7.408 7.388 7.378 7.37 7.363 7.367 7.355 7.307 7.24 7.155 7.07 6.985 6.903 6.835 6.775 6.733 6.7 6.655 6.605 6.555 6.505 6.48 6.48 6.488 6.502 6.502 6.493 6.495 6.503 6.507 6.513 6.533 6.588 6.642 6.652 6.63 6.595 6.56 6.525 6.485 6.438 6.395 6.373 6.357 6.325 6.315 6.347 6.365 6.327 6.243 6.158 6.093 6.038 6.003 5.99 5.982 5.97 5.95 5.922 5.88 5.83 5.78 5.73 5.69 5.663 5.655 5.688 5.737 5.782 5.828 5.875 5.92 5.955 5.98 6.002 6.03 6.067 6.07 6.027 5.98 5.928 5.923 5.97 6.02 6.07 6.105 6.128 6.158 6.19 6.217 6.242 6.265 6.285 6.31 6.332 6.332 6.323 6.348 6.397
11.695 10.203 9.43 9.263 9.097 8.93 8.798 8.715 8.658 8.602 8.517 8.413 8.32 8.245 8.178 8.125 8.108 8.118 8.145 8.18 8.215 8.255 8.27 8.263 8.258 8.253 8.245 8.23 8.213 8.2 8.195 8.193 8.187 8.177 8.152 8.122 8.09 8.05 8.023 8.005 7.98 7.958 7.95 7.955 7.96 7.957 7.94 7.915 7.9 7.89 7.873 7.855 7.847 7.84 7.85 7.875 7.895 7.91 7.92 7.93 7.925 7.897 7.875 7.87 7.867 7.865 7.835 7.77 7.728 7.72 7.72 7.72 7.72 7.72 7.733 7.765 7.81 7.857 7.867 7.83 7.788 7.76 7.75 7.745 7.737 7.725 7.697 7.662 7.625 7.59 7.578 7.602 7.647 7.685 7.712 7.725 7.712 7.645 7.538 7.45 7.395 7.363 7.343 7.33 7.32 7.31 7.313 7.322 7.297 7.225 7.135 7.05 6.965 6.878 6.808 6.76 6.73 6.7 6.655 6.605 6.555 6.505 6.47 6.453 6.443 6.443 6.443 6.445 6.455 6.465 6.47 6.488 6.54 6.615 6.675 6.69 6.675 6.647 6.612 6.572 6.525 6.473 6.423 6.39 6.37 6.308 6.27 6.35 6.41 6.357 6.258 6.158 6.08 6.023 5.99 5.98 5.967 5.95 5.93 5.91 5.882 5.84 5.795 5.758 5.73 5.705 5.683 5.7 5.752 5.805 5.85 5.895 5.94 5.982 6.015 6.038 6.073 6.12 6.13 6.087 6.025 5.953 5.935 5.975 6.012 6.045 6.075 6.105 6.135 6.165 6.193 6.215 6.235 6.255 6.275 6.282 6.27 6.255 6.278 6.333
11.432 10.048 9.403 9.237 9.07 8.9 8.768 8.698 8.657 8.605 8.515 8.405 8.298 8.2 8.12 8.083 8.085 8.095 8.118 8.158 8.205 8.26 8.29 8.287 8.283 8.278 8.27 8.255 8.233 8.213 8.205 8.202 8.197 8.177 8.14 8.105 8.07 8.033 8.01 7.995 7.973 7.955 7.953 7.957 7.96 7.965 7.96 7.94 7.92 7.9 7.885 7.88 7.875 7.867 7.875 7.89 7.9 7.91 7.92 7.93 7.942 7.947 7.942 7.94 7.937 7.93 7.89 7.815 7.75 7.723 7.72 7.72 7.72 7.72 7.738 7.775 7.82 7.865 7.872 7.835 7.785 7.748 7.733 7.728 7.722 7.712 7.687 7.65 7.612 7.575 7.548 7.565 7.62 7.672 7.72 7.792 7.797 7.697 7.582 7.467 7.368 7.32 7.308 7.295 7.288 7.28 7.278 7.292 7.275 7.2 7.112 7.027 6.94 6.85 6.788 6.755 6.727 6.697 6.655 6.605 6.552 6.503 6.47 6.45 6.43 6.415 6.413 6.418 6.423 6.428 6.443 6.49 6.565 6.642 6.705 6.722 6.71 6.695 6.66 6.61 6.56 6.507 6.455 6.415 6.37 6.293 6.285 6.392 6.442 6.375 6.273 6.17 6.078 6.01 5.978 5.965 5.95 5.93 5.91 5.89 5.873 5.847 5.817 5.79 5.765 5.74 5.715 5.71 5.748 5.812 5.87 5.917 5.96 6.005 6.045 6.08 6.125 6.172 6.18 6.127 6.05 5.97 5.95 5.983 6.008 6.035 6.068 6.105 6.145 6.17 6.178 6.19 6.208 6.225 6.235 6.228 6.21 6.193 6.215 6.283
11.17 9.895 9.378 9.21 9.04 8.87 8.743 8.69 8.662 8.607 8.515 8.405 8.3 8.203 8.12 8.083 8.083 8.09 8.113 8.16 8.223 8.285 8.315 8.312 8.308 8.308 8.302 8.285 8.26 8.233 8.218 8.215 8.205 8.167 8.12 8.085 8.05 8.015 7.995 7.98 7.963 7.953 7.955 7.96 7.963 7.967 7.965 7.95 7.922 7.885 7.865 7.862 7.857 7.857 7.862 7.867 7.872 7.88 7.89 7.9 7.915 7.945 7.965 7.965 7.962 7.942 7.892 7.825 7.758 7.728 7.73 7.73 7.728 7.725 7.75 7.798 7.845 7.872 7.86 7.82 7.77 7.74 7.725 7.713 7.705 7.697 7.675 7.635 7.597 7.56 7.518 7.493 7.51 7.56 7.63 7.712 7.695 7.575 7.468 7.393 7.338 7.305 7.303 7.3 7.293 7.285 7.283 7.275 7.22 7.13 7.045 6.96 6.87 6.805 6.775 6.75 6.722 6.687 6.637 6.582 6.525 6.49 6.475 6.455 6.435 6.418 6.41 6.41 6.41 6.415 6.445 6.508 6.585 6.662 6.722 6.735 6.717 6.705 6.665 6.607 6.562 6.517 6.47 6.425 6.38 6.33 6.347 6.415 6.43 6.38 6.29 6.19 6.088 6.005 5.965 5.948 5.93 5.91 5.895 5.885 5.875 5.857 5.835 5.81 5.785 5.76 5.727 5.703 5.73 5.805 5.88 5.94 5.985 6.028 6.073 6.12 6.167 6.21 6.207 6.145 6.065 5.99 5.98 6.018 6.045 6.08 6.12 6.165 6.205 6.2 6.173 6.173 6.188 6.208 6.238 6.245 6.228 6.21 6.218 6.283
10.962 9.773 9.353 9.183 9.015 8.845 8.718 8.67 8.657 8.612 8.528 8.43 8.338 8.255 8.18 8.128 8.11 8.115 8.14 8.188 8.25 8.312 8.34 8.338 8.338 8.342 8.337 8.317 8.287 8.253 8.23 8.225 8.202 8.153 8.105 8.068 8.03 7.995 7.975 7.963 7.953 7.953 7.958 7.963 7.967 7.97 7.965 7.945 7.902 7.848 7.818 7.81 7.808 7.815 7.82 7.818 7.82 7.828 7.835 7.848 7.88 7.932 7.96 7.957 7.94 7.897 7.842 7.785 7.758 7.765 7.768 7.763 7.758 7.755 7.783 7.835 7.865 7.855 7.825 7.787 7.745 7.733 7.727 7.705 7.69 7.682 7.662 7.623 7.58 7.54 7.5 7.46 7.435 7.45 7.507 7.515 7.448 7.38 7.335 7.323 7.328 7.32 7.315 7.32 7.315 7.307 7.295 7.24 7.135 7.025 6.935 6.85 6.778 6.763 6.765 6.742 6.707 6.652 6.59 6.53 6.488 6.485 6.485 6.463 6.44 6.423 6.415 6.415 6.42 6.438 6.473 6.528 6.6 6.68 6.727 6.722 6.7 6.685 6.637 6.568 6.52 6.48 6.437 6.395 6.365 6.34 6.337 6.355 6.365 6.355 6.297 6.202 6.098 6.008 5.958 5.935 5.915 5.9 5.9 5.902 5.892 5.87 5.845 5.82 5.795 5.762 5.715 5.68 5.71 5.79 5.87 5.945 6.007 6.055 6.1 6.15 6.195 6.222 6.205 6.147 6.075 6.02 6.038 6.095 6.14 6.177 6.218 6.26 6.265 6.215 6.168 6.158 6.17 6.193 6.265 6.327 6.322 6.308 6.303 6.328
10.79 9.678 9.333 9.16 8.99 8.823 8.69 8.635 8.63 8.61 8.56 8.487 8.405 8.325 8.253 8.195 8.16 8.158 8.185 8.23 8.283 8.337 8.365 8.368 8.372 8.377 8.372 8.347 8.31 8.27 8.245 8.232 8.195 8.138 8.09 8.05 8.01 7.978 7.958 7.95 7.95 7.955 7.962 7.967 7.97 7.972 7.962 7.927 7.875 7.815 7.775 7.763 7.765 7.773 7.775 7.773 7.773 7.775 7.78 7.805 7.86 7.925 7.955 7.937 7.895 7.843 7.788 7.763 7.803 7.837 7.827 7.815 7.808 7.805 7.827 7.855 7.845 7.818 7.79 7.753 7.725 7.73 7.732 7.71 7.685 7.67 7.648 7.615 7.57 7.52 7.48 7.44 7.4 7.375 7.385 7.37 7.335 7.33 7.335 7.34 7.345 7.342 7.325 7.325 7.332 7.317 7.262 7.162 7.045 6.928 6.828 6.753 6.725 6.747 6.755 6.725 6.67 6.598 6.53 6.48 6.473 6.497 6.497 6.473 6.448 6.428 6.423 6.43 6.448 6.473 6.508 6.558 6.62 6.695 6.727 6.707 6.685 6.667 6.617 6.535 6.47 6.425 6.382 6.34 6.303 6.275 6.278 6.297 6.308 6.307 6.27 6.19 6.097 6.01 5.955 5.927 5.9 5.887 5.895 5.897 5.887 5.872 5.855 5.83 5.797 5.75 5.695 5.685 5.743 5.818 5.885 5.953 6.018 6.078 6.13 6.18 6.225 6.23 6.19 6.14 6.08 6.058 6.105 6.175 6.232 6.273 6.315 6.33 6.285 6.215 6.163 6.145 6.153 6.168 6.255 6.382 6.42 6.408 6.408 6.41
10.618 9.583 9.315 9.142 8.97 8.8 8.658 8.595 8.59 8.585 8.562 8.517 8.46 8.395 8.33 8.275 8.223 8.2 8.225 8.27 8.317 8.365 8.39 8.395 8.4 8.405 8.4 8.37 8.33 8.29 8.262 8.232 8.182 8.125 8.073 8.03 7.993 7.963 7.945 7.945 7.952 7.96 7.967 7.97 7.972 7.975 7.95 7.898 7.843 7.785 7.735 7.718 7.73 7.745 7.745 7.74 7.738 7.735 7.743 7.783 7.85 7.917 7.935 7.893 7.84 7.79 7.763 7.803 7.877 7.905 7.89 7.875 7.862 7.85 7.85 7.84 7.81 7.783 7.755 7.723 7.713 7.73 7.737 7.72 7.69 7.665 7.653 7.635 7.568 7.495 7.455 7.415 7.375 7.35 7.35 7.348 7.345 7.35 7.355 7.36 7.365 7.365 7.338 7.325 7.337 7.297 7.195 7.078 6.96 6.84 6.735 6.688 6.705 6.742 6.74 6.685 6.615 6.543 6.478 6.453 6.475 6.51 6.51 6.485 6.46 6.435 6.435 6.457 6.482 6.508 6.545 6.595 6.647 6.702 6.717 6.692 6.67 6.645 6.592 6.512 6.435 6.375 6.327 6.285 6.243 6.208 6.213 6.247 6.27 6.257 6.205 6.132 6.05 5.965 5.9 5.857 5.835 5.835 5.845 5.85 5.847 5.845 5.837 5.817 5.78 5.727 5.675 5.713 5.837 5.93 5.988 6.04 6.095 6.12 6.145 6.202 6.24 6.225 6.178 6.133 6.088 6.095 6.162 6.24 6.31 6.365 6.39 6.355 6.285 6.218 6.16 6.135 6.14 6.15 6.233 6.39 6.49 6.51 6.51 6.51
10.455 9.498 9.295 9.125 8.955 8.785 8.64 8.568 8.553 8.547 8.527 8.495 8.462 8.422 8.377 8.327 8.265 8.228 8.243 8.285 8.335 8.38 8.4 8.402 8.407 8.41 8.407 8.392 8.357 8.315 8.275 8.225 8.168 8.113 8.06 8.015 7.978 7.948 7.938 7.945 7.955 7.965 7.97 7.97 7.972 7.97 7.935 7.875 7.818 7.763 7.718 7.718 7.748 7.763 7.75 7.733 7.725 7.72 7.733 7.78 7.85 7.91 7.912 7.865 7.815 7.775 7.795 7.872 7.915 7.91 7.895 7.877 7.862 7.842 7.827 7.82 7.8 7.77 7.738 7.703 7.698 7.725 7.742 7.732 7.713 7.698 7.702 7.677 7.573 7.475 7.425 7.385 7.348 7.358 7.397 7.398 7.38 7.373 7.375 7.38 7.385 7.385 7.355 7.328 7.332 7.28 7.16 7.04 6.925 6.823 6.735 6.693 6.71 6.747 6.727 6.643 6.558 6.485 6.443 6.453 6.487 6.52 6.522 6.498 6.473 6.45 6.448 6.472 6.507 6.542 6.582 6.622 6.66 6.692 6.692 6.667 6.642 6.607 6.55 6.475 6.397 6.322 6.268 6.23 6.185 6.145 6.145 6.18 6.212 6.185 6.103 6.015 5.925 5.84 5.77 5.735 5.738 5.753 5.77 5.785 5.792 5.795 5.79 5.777 5.75 5.705 5.68 5.763 5.925 6.06 6.14 6.192 6.207 6.15 6.14 6.205 6.245 6.232 6.19 6.148 6.118 6.138 6.205 6.285 6.362 6.422 6.417 6.355 6.285 6.22 6.158 6.125 6.13 6.155 6.25 6.402 6.525 6.567 6.565 6.565
10.333 9.453 9.28 9.11 8.945 8.788 8.648 8.558 8.52 8.51 8.492 8.458 8.428 8.405 8.382 8.342 8.283 8.248 8.258 8.29 8.335 8.377 8.395 8.395 8.397 8.395 8.395 8.402 8.387 8.347 8.292 8.223 8.155 8.1 8.05 8.005 7.968 7.938 7.93 7.94 7.95 7.96 7.965 7.965 7.965 7.962 7.93 7.868 7.808 7.753 7.725 7.763 7.812 7.812 7.78 7.748 7.728 7.72 7.738 7.79 7.852 7.895 7.9 7.865 7.82 7.808 7.86 7.91 7.892 7.863 7.845 7.825 7.807 7.785 7.768 7.78 7.795 7.78 7.745 7.698 7.67 7.692 7.727 7.745 7.757 7.767 7.772 7.715 7.588 7.47 7.4 7.36 7.345 7.395 7.452 7.462 7.445 7.418 7.403 7.4 7.405 7.405 7.375 7.335 7.325 7.275 7.163 7.058 6.968 6.893 6.825 6.763 6.743 6.765 6.735 6.635 6.533 6.453 6.433 6.465 6.5 6.53 6.535 6.513 6.49 6.473 6.46 6.465 6.5 6.545 6.58 6.607 6.635 6.662 6.66 6.632 6.6 6.555 6.495 6.42 6.335 6.247 6.195 6.165 6.122 6.085 6.073 6.09 6.122 6.1 6.01 5.91 5.813 5.715 5.645 5.635 5.652 5.67 5.69 5.71 5.725 5.735 5.737 5.73 5.715 5.68 5.705 5.835 5.995 6.155 6.277 6.307 6.237 6.135 6.125 6.192 6.25 6.26 6.225 6.185 6.165 6.185 6.24 6.315 6.395 6.437 6.41 6.347 6.282 6.22 6.155 6.118 6.135 6.19 6.3 6.437 6.537 6.575 6.575 6.575
10.238 9.435 9.268 9.105 8.95 8.8 8.663 8.565 8.503 8.473 8.455 8.425 8.403 8.387 8.37 8.342 8.298 8.27 8.28 8.305 8.34 8.375 8.387 8.385 8.382 8.375 8.375 8.39 8.4 8.38 8.32 8.233 8.15 8.09 8.04 7.995 7.963 7.938 7.925 7.93 7.94 7.95 7.955 7.955 7.957 7.96 7.93 7.865 7.803 7.745 7.735 7.8 7.862 7.86 7.82 7.777 7.74 7.723 7.743 7.792 7.837 7.87 7.887 7.868 7.843 7.865 7.905 7.895 7.848 7.813 7.792 7.772 7.75 7.725 7.7 7.708 7.745 7.77 7.755 7.702 7.645 7.64 7.677 7.715 7.752 7.787 7.805 7.737 7.605 7.478 7.385 7.345 7.37 7.45 7.505 7.52 7.515 7.488 7.455 7.433 7.428 7.425 7.395 7.353 7.327 7.282 7.202 7.125 7.055 6.99 6.925 6.855 6.8 6.79 6.755 6.658 6.563 6.488 6.463 6.485 6.515 6.545 6.55 6.53 6.513 6.497 6.483 6.47 6.478 6.51 6.542 6.568 6.595 6.625 6.625 6.59 6.545 6.495 6.435 6.36 6.24 6.138 6.115 6.095 6.055 6.025 6.01 6.008 6.025 6.02 5.95 5.85 5.742 5.618 5.538 5.535 5.555 5.575 5.595 5.615 5.638 5.668 5.69 5.69 5.678 5.665 5.738 5.892 6.047 6.205 6.317 6.315 6.222 6.12 6.11 6.177 6.24 6.272 6.255 6.228 6.22 6.238 6.285 6.353 6.425 6.44 6.39 6.33 6.27 6.21 6.148 6.125 6.17 6.243 6.347 6.455 6.53 6.575 6.585 6.593
10.148 9.425 9.267 9.115 8.965 8.815 8.678 8.58 8.508 8.45 8.42 8.4 8.385 8.372 8.355 8.335 8.305 8.287 8.3 8.325 8.347 8.367 8.375 8.37 8.365 8.355 8.355 8.37 8.39 8.392 8.345 8.255 8.16 8.085 8.03 7.99 7.963 7.94 7.923 7.92 7.93 7.94 7.945 7.945 7.95 7.955 7.927 7.865 7.8 7.738 7.735 7.802 7.865 7.872 7.835 7.795 7.757 7.73 7.74 7.777 7.81 7.84 7.867 7.877 7.885 7.905 7.897 7.855 7.805 7.763 7.738 7.715 7.69 7.665 7.64 7.63 7.655 7.71 7.735 7.697 7.63 7.6 7.625 7.668 7.713 7.762 7.79 7.737 7.62 7.49 7.375 7.348 7.415 7.505 7.56 7.572 7.575 7.562 7.53 7.495 7.47 7.45 7.417 7.377 7.337 7.282 7.222 7.167 7.11 7.052 6.995 6.937 6.88 6.837 6.785 6.705 6.635 6.57 6.525 6.525 6.545 6.565 6.567 6.55 6.535 6.52 6.505 6.492 6.48 6.485 6.51 6.538 6.563 6.59 6.582 6.535 6.485 6.435 6.377 6.277 6.118 6.025 6.03 6.022 5.993 5.97 5.96 5.95 5.945 5.942 5.89 5.78 5.65 5.505 5.425 5.43 5.45 5.47 5.498 5.535 5.578 5.625 5.662 5.67 5.67 5.705 5.798 5.925 6.057 6.165 6.21 6.21 6.177 6.105 6.095 6.16 6.22 6.272 6.285 6.275 6.272 6.282 6.327 6.392 6.442 6.43 6.367 6.305 6.245 6.185 6.15 6.173 6.233 6.3 6.38 6.455 6.52 6.575 6.6 6.623
10.073 9.395 9.245 9.095 8.945 8.795 8.665 8.585 8.525 8.458 8.415 8.393 8.373 8.357 8.34 8.32 8.292 8.262 8.255 8.27 8.295 8.335 8.355 8.35 8.345 8.335 8.335 8.35 8.365 8.367 8.327 8.247 8.16 8.08 8.025 7.993 7.968 7.945 7.925 7.918 7.923 7.93 7.937 7.94 7.94 7.935 7.915 7.872 7.815 7.75 7.725 7.763 7.82 7.84 7.812 7.78 7.75 7.728 7.735 7.765 7.795 7.825 7.85 7.865 7.882 7.887 7.857 7.81 7.763 7.733 7.728 7.715 7.688 7.663 7.638 7.608 7.608 7.658 7.69 7.66 7.603 7.573 7.595 7.648 7.7 7.75 7.765 7.725 7.63 7.5 7.39 7.378 7.457 7.55 7.605 7.617 7.625 7.625 7.6 7.56 7.517 7.475 7.435 7.392 7.335 7.26 7.19 7.14 7.095 7.045 6.995 6.95 6.905 6.855 6.8 6.74 6.68 6.617 6.575 6.57 6.58 6.59 6.587 6.57 6.555 6.542 6.528 6.515 6.5 6.488 6.498 6.525 6.55 6.565 6.522 6.443 6.392 6.357 6.295 6.15 5.985 5.925 5.935 5.94 5.932 5.917 5.905 5.892 5.877 5.867 5.81 5.683 5.535 5.385 5.315 5.335 5.368 5.403 5.448 5.503 5.555 5.605 5.648 5.678 5.723 5.798 5.883 5.975 6.062 6.1 6.1 6.1 6.098 6.078 6.085 6.143 6.205 6.265 6.297 6.297 6.287 6.285 6.322 6.385 6.42 6.397 6.337 6.273 6.21 6.175 6.195 6.25 6.31 6.36 6.41 6.47 6.53 6.588 6.628 6.66
10.01 9.328 9.18 9.03 8.88 8.73 8.613 8.557 8.52 8.472 8.432 8.4 8.37 8.34 8.312 8.285 8.247 8.195 8.153 8.145 8.2 8.292 8.332 8.33 8.325 8.315 8.317 8.327 8.327 8.317 8.272 8.198 8.123 8.063 8.028 8.003 7.98 7.96 7.94 7.928 7.923 7.925 7.932 7.932 7.922 7.905 7.89 7.872 7.837 7.782 7.738 7.733 7.765 7.792 7.78 7.75 7.728 7.72 7.735 7.765 7.792 7.815 7.827 7.825 7.83 7.837 7.81 7.763 7.73 7.723 7.745 7.767 7.755 7.728 7.7 7.653 7.615 7.64 7.65 7.608 7.573 7.558 7.58 7.633 7.685 7.732 7.737 7.702 7.63 7.513 7.435 7.43 7.483 7.567 7.62 7.637 7.65 7.657 7.637 7.59 7.54 7.487 7.44 7.39 7.32 7.243 7.168 7.105 7.055 7.005 6.958 6.913 6.868 6.828 6.787 6.732 6.67 6.628 6.615 6.61 6.608 6.617 6.615 6.595 6.578 6.565 6.55 6.535 6.517 6.498 6.503 6.527 6.54 6.532 6.472 6.353 6.258 6.22 6.14 5.973 5.855 5.843 5.858 5.87 5.852 5.82 5.802 5.787 5.775 5.767 5.722 5.605 5.45 5.293 5.233 5.273 5.32 5.373 5.428 5.48 5.533 5.588 5.663 5.733 5.798 5.882 5.965 6.047 6.105 6.115 6.105 6.098 6.113 6.163 6.18 6.165 6.198 6.26 6.292 6.285 6.263 6.25 6.28 6.332 6.36 6.347 6.3 6.238 6.195 6.213 6.27 6.33 6.38 6.407 6.448 6.51 6.568 6.622 6.665 6.698
9.95 9.25 9.107 8.96 8.81 8.66 8.55 8.503 8.48 8.462 8.432 8.39 8.35 8.31 8.273 8.23 8.185 8.143 8.1 8.085 8.15 8.26 8.31 8.307 8.302 8.295 8.292 8.29 8.277 8.262 8.217 8.148 8.09 8.055 8.035 8.017 8 7.98 7.963 7.947 7.933 7.925 7.92 7.907 7.89 7.87 7.858 7.85 7.835 7.805 7.77 7.745 7.738 7.75 7.747 7.728 7.72 7.72 7.735 7.76 7.777 7.79 7.795 7.79 7.785 7.785 7.763 7.73 7.72 7.72 7.745 7.792 7.817 7.805 7.767 7.705 7.635 7.62 7.613 7.58 7.563 7.55 7.568 7.618 7.67 7.71 7.705 7.667 7.617 7.543 7.5 7.5 7.52 7.575 7.62 7.64 7.655 7.665 7.647 7.6 7.547 7.492 7.437 7.375 7.3 7.225 7.15 7.078 7.018 6.965 6.92 6.878 6.838 6.805 6.77 6.718 6.67 6.663 6.667 6.655 6.643 6.645 6.642 6.625 6.605 6.588 6.57 6.555 6.535 6.505 6.505 6.52 6.51 6.49 6.447 6.322 6.16 6.06 5.943 5.77 5.71 5.765 5.81 5.815 5.745 5.678 5.66 5.65 5.648 5.647 5.64 5.562 5.415 5.255 5.193 5.238 5.293 5.353 5.413 5.468 5.525 5.6 5.743 5.852 5.893 5.955 6.03 6.11 6.167 6.18 6.175 6.203 6.275 6.375 6.4 6.323 6.263 6.27 6.282 6.26 6.23 6.21 6.235 6.275 6.29 6.29 6.258 6.218 6.228 6.285 6.352 6.402 6.427 6.443 6.485 6.55 6.61 6.667 6.71 6.74
9.893 9.17 9.03 8.887 8.74 8.59 8.49 8.453 8.443 8.442 8.417 8.37 8.323 8.285 8.255 8.218 8.18 8.15 8.12 8.113 8.158 8.24 8.285 8.283 8.28 8.275 8.263 8.248 8.228 8.208 8.173 8.125 8.09 8.063 8.043 8.03 8.017 8 7.982 7.965 7.945 7.922 7.893 7.868 7.852 7.835 7.822 7.815 7.802 7.802 7.795 7.77 7.748 7.733 7.725 7.72 7.72 7.72 7.728 7.74 7.75 7.76 7.765 7.76 7.75 7.743 7.73 7.72 7.72 7.723 7.745 7.79 7.837 7.862 7.827 7.747 7.665 7.618 7.598 7.578 7.56 7.545 7.558 7.605 7.662 7.69 7.67 7.63 7.592 7.565 7.557 7.56 7.565 7.585 7.607 7.62 7.63 7.64 7.622 7.577 7.53 7.485 7.43 7.358 7.28 7.205 7.13 7.055 6.988 6.928 6.88 6.843 6.81 6.78 6.75 6.72 6.708 6.72 6.722 6.707 6.692 6.68 6.67 6.655 6.635 6.612 6.59 6.572 6.55 6.515 6.497 6.49 6.47 6.45 6.425 6.317 6.13 5.963 5.805 5.663 5.64 5.713 5.775 5.76 5.638 5.545 5.53 5.528 5.53 5.532 5.535 5.51 5.44 5.325 5.23 5.23 5.285 5.35 5.415 5.475 5.535 5.665 5.88 6.007 6.035 6.068 6.113 6.178 6.232 6.263 6.303 6.385 6.492 6.597 6.65 6.59 6.463 6.35 6.28 6.235 6.2 6.173 6.183 6.21 6.218 6.223 6.223 6.24 6.298 6.37 6.425 6.452 6.465 6.48 6.525 6.59 6.65 6.71 6.755 6.785
9.813 9.09 8.95 8.81 8.667 8.52 8.433 8.418 8.423 8.427 8.402 8.358 8.315 8.285 8.268 8.25 8.225 8.195 8.165 8.163 8.202 8.245 8.26 8.26 8.26 8.257 8.242 8.22 8.198 8.173 8.148 8.12 8.09 8.062 8.045 8.035 8.025 8.012 7.995 7.975 7.95 7.912 7.863 7.82 7.8 7.787 7.772 7.76 7.753 7.788 7.812 7.79 7.767 7.74 7.723 7.72 7.72 7.72 7.72 7.723 7.728 7.733 7.735 7.733 7.728 7.723 7.72 7.72 7.72 7.733 7.755 7.783 7.825 7.867 7.842 7.755 7.683 7.643 7.62 7.6 7.58 7.56 7.563 7.605 7.652 7.657 7.625 7.585 7.558 7.555 7.565 7.572 7.577 7.575 7.57 7.573 7.58 7.587 7.567 7.525 7.49 7.465 7.42 7.345 7.265 7.19 7.118 7.055 6.998 6.925 6.875 6.855 6.835 6.803 6.755 6.74 6.755 6.77 6.765 6.742 6.722 6.7 6.682 6.662 6.64 6.617 6.595 6.57 6.537 6.502 6.475 6.455 6.435 6.415 6.395 6.297 6.115 5.928 5.765 5.668 5.668 5.72 5.762 5.722 5.573 5.453 5.42 5.41 5.403 5.413 5.45 5.505 5.502 5.43 5.35 5.298 5.305 5.36 5.425 5.485 5.583 5.79 6.04 6.165 6.195 6.22 6.242 6.272 6.31 6.37 6.462 6.567 6.675 6.782 6.86 6.812 6.655 6.47 6.328 6.255 6.203 6.163 6.158 6.18 6.2 6.223 6.258 6.318 6.39 6.452 6.485 6.498 6.51 6.523 6.555 6.61 6.67 6.727 6.77 6.8
9.703 9.01 8.87 8.733 8.6 8.47 8.4 8.4 8.41 8.415 8.39 8.348 8.318 8.298 8.283 8.27 8.257 8.237 8.21 8.21 8.242 8.25 8.24 8.24 8.24 8.24 8.225 8.2 8.177 8.153 8.13 8.107 8.08 8.053 8.038 8.032 8.025 8.015 8 7.975 7.937 7.89 7.837 7.783 7.74 7.72 7.705 7.688 7.708 7.785 7.825 7.805 7.777 7.745 7.725 7.72 7.72 7.72 7.72 7.72 7.72 7.72 7.72 7.72 7.72 7.72 7.72 7.72 7.728 7.755 7.78 7.79 7.81 7.842 7.82 7.75 7.708 7.683 7.66 7.64 7.617 7.59 7.583 7.615 7.635 7.612 7.575 7.543 7.533 7.538 7.545 7.555 7.555 7.543 7.53 7.525 7.528 7.53 7.51 7.475 7.458 7.45 7.41 7.335 7.255 7.185 7.125 7.083 7.052 7.008 6.972 6.942 6.9 6.845 6.773 6.75 6.782 6.81 6.792 6.745 6.713 6.687 6.665 6.642 6.617 6.595 6.572 6.542 6.508 6.475 6.448 6.423 6.4 6.38 6.34 6.24 6.085 5.91 5.77 5.698 5.7 5.747 5.76 5.692 5.543 5.398 5.335 5.318 5.303 5.325 5.41 5.522 5.55 5.5 5.462 5.412 5.373 5.388 5.438 5.515 5.688 5.95 6.19 6.295 6.305 6.315 6.322 6.325 6.353 6.425 6.525 6.63 6.735 6.842 6.937 6.905 6.75 6.57 6.41 6.318 6.265 6.235 6.23 6.243 6.268 6.305 6.355 6.417 6.475 6.517 6.542 6.555 6.568 6.58 6.593 6.618 6.663 6.717 6.76 6.79
9.64 8.955 8.833 8.708 8.585 8.475 8.418 8.405 8.403 8.402 8.38 8.35 8.33 8.313 8.298 8.285 8.275 8.267 8.255 8.252 8.255 8.235 8.22 8.22 8.22 8.22 8.205 8.18 8.155 8.13 8.11 8.09 8.067 8.04 8.025 8.027 8.027 8.017 7.997 7.962 7.915 7.865 7.813 7.757 7.703 7.658 7.633 7.633 7.693 7.797 7.837 7.812 7.782 7.748 7.725 7.72 7.72 7.72 7.72 7.72 7.72 7.72 7.72 7.72 7.72 7.72 7.72 7.725 7.75 7.79 7.812 7.818 7.823 7.832 7.817 7.78 7.752 7.727 7.702 7.677 7.65 7.62 7.607 7.612 7.6 7.567 7.533 7.513 7.515 7.522 7.53 7.535 7.525 7.51 7.497 7.485 7.478 7.475 7.458 7.438 7.438 7.437 7.4 7.33 7.263 7.203 7.15 7.115 7.102 7.092 7.062 7.002 6.927 6.853 6.78 6.748 6.79 6.84 6.817 6.755 6.705 6.668 6.638 6.615 6.592 6.567 6.54 6.51 6.48 6.45 6.42 6.39 6.365 6.337 6.267 6.155 6.025 5.888 5.788 5.73 5.73 5.757 5.732 5.655 5.515 5.355 5.27 5.25 5.245 5.288 5.383 5.5 5.585 5.585 5.548 5.512 5.473 5.453 5.475 5.583 5.805 6.077 6.28 6.34 6.33 6.325 6.32 6.32 6.358 6.428 6.51 6.608 6.713 6.82 6.927 6.915 6.785 6.637 6.485 6.4 6.382 6.38 6.38 6.38 6.385 6.405 6.447 6.495 6.535 6.572 6.6 6.615 6.63 6.645 6.65 6.653 6.668 6.708 6.75 6.78
9.683 8.938 8.83 8.72 8.607 8.51 8.457 8.432 8.412 8.397 8.38 8.362 8.345 8.327 8.315 8.302 8.287 8.28 8.275 8.262 8.24 8.21 8.195 8.195 8.195 8.195 8.182 8.16 8.135 8.11 8.09 8.07 8.05 8.028 8.018 8.022 8.027 8.02 7.99 7.945 7.895 7.845 7.79 7.733 7.677 7.62 7.578 7.603 7.695 7.805 7.845 7.815 7.782 7.748 7.725 7.72 7.72 7.72 7.72 7.72 7.72 7.72 7.72 7.72 7.72 7.72 7.723 7.743 7.783 7.825 7.845 7.845 7.837 7.822 7.81 7.792 7.77 7.747 7.72 7.69 7.66 7.632 7.615 7.592 7.555 7.52 7.498 7.493 7.497 7.505 7.512 7.51 7.495 7.48 7.465 7.45 7.438 7.428 7.42 7.418 7.422 7.425 7.397 7.342 7.29 7.237 7.185 7.15 7.132 7.115 7.075 7.007 6.933 6.86 6.788 6.74 6.778 6.85 6.845 6.782 6.717 6.66 6.615 6.585 6.562 6.537 6.512 6.483 6.45 6.42 6.39 6.36 6.332 6.282 6.19 6.083 5.973 5.873 5.807 5.76 5.75 5.742 5.69 5.617 5.487 5.323 5.218 5.183 5.198 5.265 5.355 5.465 5.59 5.65 5.632 5.6 5.57 5.54 5.543 5.675 5.918 6.175 6.322 6.332 6.32 6.313 6.308 6.32 6.37 6.44 6.51 6.593 6.692 6.802 6.915 6.912 6.79 6.65 6.507 6.432 6.427 6.43 6.435 6.44 6.437 6.457 6.522 6.577 6.605 6.635 6.66 6.678 6.695 6.71 6.715 6.715 6.715 6.723 6.745 6.775
9.705 8.93 8.823 8.717 8.612 8.52 8.465 8.44 8.415 8.39 8.375 8.36 8.34 8.322 8.312 8.302 8.29 8.28 8.27 8.25 8.223 8.195 8.173 8.165 8.165 8.162 8.15 8.13 8.107 8.087 8.067 8.042 8.017 8.005 8.007 8.012 8.017 8.007 7.97 7.92 7.87 7.82 7.767 7.71 7.653 7.603 7.57 7.585 7.665 7.775 7.827 7.81 7.777 7.743 7.723 7.72 7.72 7.72 7.72 7.72 7.72 7.72 7.72 7.72 7.72 7.72 7.733 7.77 7.817 7.855 7.862 7.845 7.822 7.798 7.78 7.765 7.747 7.727 7.7 7.67 7.64 7.625 7.612 7.578 7.533 7.493 7.47 7.47 7.477 7.485 7.485 7.475 7.46 7.445 7.43 7.415 7.4 7.393 7.398 7.403 7.41 7.407 7.357 7.295 7.257 7.22 7.182 7.165 7.15 7.122 7.08 7.012 6.938 6.865 6.793 6.73 6.743 6.815 6.817 6.75 6.682 6.617 6.565 6.535 6.512 6.49 6.482 6.467 6.435 6.403 6.37 6.34 6.307 6.245 6.155 6.063 5.958 5.858 5.805 5.78 5.752 5.71 5.65 5.582 5.46 5.295 5.17 5.125 5.165 5.248 5.335 5.443 5.575 5.687 5.722 5.7 5.675 5.64 5.638 5.785 6.03 6.262 6.345 6.313 6.31 6.302 6.295 6.323 6.385 6.45 6.507 6.562 6.64 6.75 6.87 6.882 6.76 6.602 6.463 6.383 6.358 6.363 6.38 6.39 6.395 6.448 6.572 6.682 6.725 6.745 6.745 6.745 6.765 6.777 6.78 6.78 6.777 6.765 6.77 6.792
9.66 8.925 8.818 8.71 8.605 8.508 8.445 8.42 8.397 8.373 8.355 8.34 8.317 8.295 8.285 8.285 8.28 8.27 8.26 8.245 8.222 8.197 8.163 8.138 8.135 8.127 8.11 8.092 8.07 8.042 8.012 7.98 7.965 7.978 7.992 7.997 7.997 7.98 7.942 7.895 7.845 7.795 7.743 7.688 7.64 7.613 7.605 7.605 7.633 7.715 7.787 7.795 7.77 7.738 7.72 7.72 7.72 7.72 7.72 7.72 7.72 7.72 7.72 7.72 7.72 7.725 7.753 7.797 7.835 7.855 7.845 7.818 7.795 7.77 7.75 7.735 7.715 7.695 7.67 7.64 7.623 7.632 7.622 7.573 7.525 7.488 7.46 7.448 7.45 7.46 7.452 7.435 7.42 7.403 7.387 7.373 7.363 7.37 7.382 7.387 7.392 7.38 7.3 7.195 7.143 7.117 7.102 7.125 7.147 7.13 7.085 7.017 6.943 6.868 6.795 6.728 6.703 6.737 6.732 6.665 6.598 6.533 6.488 6.467 6.45 6.43 6.45 6.462 6.43 6.398 6.365 6.332 6.297 6.245 6.167 6.07 5.948 5.833 5.78 5.757 5.717 5.665 5.605 5.545 5.445 5.295 5.153 5.103 5.163 5.258 5.353 5.455 5.575 5.707 5.797 5.807 5.785 5.753 5.75 5.888 6.12 6.327 6.357 6.283 6.275 6.277 6.275 6.302 6.357 6.407 6.447 6.477 6.525 6.625 6.75 6.785 6.68 6.528 6.408 6.32 6.28 6.295 6.32 6.33 6.355 6.44 6.59 6.755 6.857 6.887 6.86 6.828 6.835 6.845 6.845 6.84 6.825 6.808 6.815 6.82
9.608 8.92 8.813 8.705 8.598 8.493 8.425 8.4 8.38 8.355 8.335 8.317 8.29 8.263 8.253 8.26 8.262 8.255 8.245 8.235 8.22 8.2 8.16 8.118 8.102 8.09 8.067 8.04 8.005 7.965 7.928 7.91 7.925 7.955 7.975 7.977 7.967 7.945 7.91 7.867 7.822 7.775 7.72 7.675 7.655 7.653 7.655 7.655 7.655 7.683 7.74 7.767 7.755 7.733 7.72 7.72 7.72 7.72 7.72 7.72 7.72 7.72 7.72 7.72 7.72 7.737 7.77 7.795 7.807 7.812 7.805 7.785 7.765 7.743 7.723 7.705 7.685 7.662 7.638 7.623 7.633 7.655 7.635 7.573 7.518 7.48 7.455 7.435 7.425 7.43 7.42 7.395 7.378 7.36 7.343 7.33 7.333 7.35 7.365 7.37 7.367 7.35 7.27 7.138 7.033 6.983 6.988 7.045 7.11 7.13 7.095 7.025 6.948 6.873 6.8 6.735 6.683 6.67 6.647 6.58 6.513 6.45 6.413 6.397 6.382 6.368 6.407 6.447 6.425 6.392 6.36 6.325 6.29 6.252 6.177 6.062 5.932 5.81 5.743 5.692 5.648 5.612 5.555 5.508 5.47 5.38 5.238 5.173 5.223 5.318 5.42 5.518 5.62 5.738 5.842 5.87 5.837 5.862 5.933 6.035 6.208 6.382 6.39 6.273 6.223 6.222 6.225 6.24 6.275 6.31 6.337 6.36 6.39 6.468 6.572 6.615 6.567 6.465 6.355 6.255 6.213 6.233 6.258 6.28 6.335 6.44 6.593 6.777 6.94 7.012 6.982 6.925 6.905 6.91 6.905 6.887 6.863 6.845 6.845 6.827
9.543 8.915 8.807 8.7 8.592 8.483 8.408 8.38 8.36 8.337 8.315 8.29 8.26 8.233 8.223 8.23 8.235 8.232 8.225 8.215 8.207 8.197 8.16 8.105 8.068 8.04 8.008 7.968 7.925 7.888 7.868 7.878 7.905 7.933 7.95 7.947 7.933 7.91 7.875 7.835 7.795 7.75 7.713 7.698 7.695 7.697 7.7 7.7 7.7 7.7 7.718 7.735 7.733 7.725 7.72 7.72 7.72 7.72 7.72 7.72 7.72 7.72 7.72 7.72 7.72 7.732 7.75 7.757 7.76 7.765 7.77 7.757 7.735 7.715 7.695 7.675 7.653 7.628 7.615 7.63 7.66 7.672 7.64 7.577 7.515 7.472 7.45 7.43 7.412 7.405 7.39 7.36 7.335 7.317 7.3 7.295 7.31 7.33 7.345 7.347 7.342 7.322 7.237 7.102 6.973 6.878 6.88 6.955 7.035 7.097 7.097 7.035 6.955 6.877 6.808 6.745 6.683 6.635 6.583 6.51 6.44 6.378 6.343 6.325 6.31 6.303 6.35 6.417 6.42 6.387 6.352 6.315 6.275 6.232 6.15 6.027 5.902 5.783 5.693 5.615 5.57 5.55 5.503 5.473 5.485 5.475 5.387 5.308 5.323 5.405 5.51 5.612 5.71 5.805 5.862 5.857 5.82 5.91 6.12 6.267 6.375 6.462 6.425 6.295 6.195 6.152 6.127 6.11 6.15 6.2 6.22 6.242 6.267 6.32 6.39 6.423 6.452 6.42 6.298 6.19 6.16 6.188 6.218 6.26 6.333 6.44 6.595 6.782 6.965 7.072 7.065 7.015 6.98 6.965 6.947 6.922 6.897 6.88 6.862 6.825
9.473 8.91 8.802 8.695 8.582 8.463 8.383 8.355 8.335 8.317 8.295 8.265 8.238 8.213 8.2 8.203 8.208 8.21 8.205 8.195 8.187 8.18 8.145 8.09 8.045 8.008 7.97 7.93 7.893 7.865 7.865 7.885 7.908 7.928 7.935 7.925 7.91 7.887 7.848 7.805 7.765 7.725 7.708 7.712 7.72 7.735 7.747 7.75 7.753 7.755 7.748 7.73 7.72 7.72 7.72 7.72 7.72 7.72 7.72 7.72 7.72 7.72 7.717 7.71 7.702 7.702 7.708 7.715 7.723 7.735 7.747 7.735 7.708 7.685 7.665 7.645 7.623 7.6 7.6 7.63 7.662 7.662 7.617 7.552 7.487 7.44 7.415 7.395 7.375 7.357 7.34 7.32 7.295 7.273 7.263 7.27 7.293 7.315 7.325 7.32 7.315 7.29 7.195 7.06 6.943 6.863 6.855 6.915 6.993 7.07 7.087 7.025 6.947 6.875 6.81 6.75 6.685 6.63 6.573 6.498 6.428 6.375 6.345 6.323 6.303 6.285 6.313 6.387 6.412 6.377 6.33 6.282 6.232 6.172 6.08 5.96 5.85 5.75 5.645 5.54 5.49 5.483 5.455 5.443 5.457 5.467 5.44 5.408 5.425 5.495 5.6 5.702 5.787 5.845 5.85 5.83 5.818 5.923 6.195 6.432 6.532 6.532 6.432 6.277 5.918 5.625 5.6 5.588 5.623 5.695 5.79 5.902 6.017 6.137 6.217 6.265 6.367 6.387 6.265 6.175 6.17 6.2 6.233 6.28 6.355 6.453 6.6 6.79 6.952 7.055 7.072 7.04 6.997 6.957 6.935 6.917 6.9 6.897 6.885 6.845
9.4 8.905 8.797 8.685 8.557 8.425 8.345 8.323 8.308 8.295 8.275 8.248 8.222 8.195 8.18 8.18 8.185 8.19 8.185 8.172 8.16 8.15 8.12 8.078 8.04 8.003 7.965 7.93 7.905 7.888 7.89 7.912 7.93 7.935 7.93 7.918 7.905 7.877 7.828 7.778 7.735 7.7 7.685 7.693 7.723 7.767 7.797 7.81 7.817 7.82 7.802 7.76 7.728 7.72 7.72 7.72 7.72 7.72 7.72 7.72 7.72 7.72 7.71 7.688 7.67 7.668 7.673 7.68 7.693 7.715 7.727 7.712 7.685 7.665 7.648 7.62 7.595 7.575 7.575 7.602 7.627 7.62 7.567 7.495 7.428 7.375 7.34 7.315 7.295 7.278 7.265 7.255 7.24 7.235 7.248 7.265 7.29 7.317 7.317 7.295 7.282 7.245 7.143 7.028 6.958 6.933 6.928 6.945 7 7.07 7.07 6.998 6.928 6.868 6.81 6.75 6.693 6.65 6.597 6.528 6.473 6.435 6.41 6.385 6.355 6.318 6.31 6.367 6.392 6.342 6.28 6.223 6.165 6.1 6.005 5.9 5.82 5.732 5.615 5.505 5.458 5.45 5.42 5.4 5.412 5.415 5.423 5.467 5.52 5.588 5.69 5.78 5.822 5.843 5.858 5.863 5.875 5.983 6.237 6.485 6.585 6.562 6.435 6.235 5.633 5.135 5.143 5.16 5.175 5.215 5.3 5.4 5.503 5.61 5.785 6.062 6.3 6.352 6.275 6.228 6.238 6.258 6.283 6.323 6.388 6.47 6.61 6.782 6.91 7.01 7.045 7.01 6.95 6.89 6.865 6.853 6.86 6.897 6.912 6.89
9.328 8.898 8.78 8.652 8.517 8.385 8.308 8.293 8.285 8.275 8.255 8.23 8.205 8.175 8.16 8.16 8.163 8.167 8.162 8.147 8.13 8.11 8.087 8.065 8.035 7.998 7.965 7.943 7.93 7.915 7.915 7.932 7.937 7.93 7.92 7.91 7.9 7.872 7.82 7.763 7.71 7.67 7.66 7.685 7.74 7.8 7.835 7.855 7.87 7.88 7.86 7.802 7.748 7.723 7.72 7.72 7.72 7.72 7.72 7.72 7.72 7.72 7.705 7.673 7.645 7.635 7.638 7.65 7.673 7.7 7.707 7.693 7.678 7.668 7.65 7.615 7.58 7.553 7.545 7.562 7.58 7.572 7.52 7.44 7.365 7.308 7.265 7.233 7.21 7.195 7.19 7.198 7.21 7.235 7.265 7.283 7.305 7.327 7.315 7.278 7.252 7.2 7.113 7.055 7.035 7.028 7.02 7.013 7.028 7.062 7.045 6.98 6.92 6.865 6.81 6.753 6.708 6.675 6.627 6.573 6.53 6.497 6.47 6.437 6.397 6.353 6.325 6.352 6.362 6.305 6.238 6.173 6.105 6.035 5.955 5.88 5.82 5.727 5.613 5.548 5.535 5.525 5.468 5.383 5.365 5.398 5.443 5.507 5.58 5.672 5.76 5.812 5.835 5.858 5.905 5.937 5.968 6.065 6.285 6.502 6.595 6.585 6.455 6.18 5.565 5.138 5.152 5.165 5.172 5.178 5.18 5.18 5.18 5.188 5.33 5.82 6.245 6.317 6.308 6.3 6.31 6.325 6.343 6.37 6.415 6.485 6.607 6.742 6.85 6.955 7.007 6.975 6.9 6.82 6.78 6.783 6.83 6.895 6.93 6.932
9.273 8.865 8.735 8.602 8.467 8.343 8.28 8.273 8.265 8.255 8.237 8.212 8.185 8.158 8.145 8.143 8.14 8.143 8.135 8.112 8.085 8.052 8.023 8.015 8.017 8.002 7.982 7.97 7.957 7.942 7.937 7.937 7.93 7.92 7.91 7.9 7.892 7.867 7.815 7.755 7.698 7.648 7.645 7.695 7.757 7.815 7.85 7.867 7.885 7.9 7.877 7.822 7.767 7.73 7.72 7.72 7.72 7.72 7.72 7.72 7.72 7.72 7.702 7.668 7.633 7.608 7.608 7.63 7.657 7.685 7.695 7.687 7.685 7.68 7.657 7.615 7.567 7.523 7.503 7.513 7.527 7.527 7.477 7.393 7.31 7.243 7.198 7.163 7.143 7.148 7.168 7.198 7.232 7.267 7.297 7.315 7.327 7.33 7.305 7.265 7.23 7.188 7.15 7.138 7.132 7.125 7.115 7.105 7.095 7.07 7.022 6.967 6.912 6.857 6.802 6.752 6.712 6.68 6.652 6.625 6.59 6.555 6.52 6.477 6.432 6.39 6.35 6.345 6.342 6.287 6.21 6.13 6.05 5.983 5.935 5.882 5.815 5.728 5.66 5.655 5.67 5.667 5.597 5.465 5.38 5.395 5.463 5.538 5.625 5.732 5.805 5.835 5.873 5.915 5.963 6.003 6.06 6.16 6.328 6.497 6.6 6.605 6.45 6.06 5.46 5.143 5.152 5.16 5.167 5.172 5.177 5.18 5.18 5.18 5.205 5.705 6.24 6.33 6.365 6.375 6.385 6.392 6.398 6.418 6.457 6.495 6.567 6.68 6.787 6.895 6.96 6.93 6.845 6.755 6.713 6.75 6.83 6.897 6.935 6.957
9.23 8.795 8.66 8.53 8.4 8.3 8.263 8.255 8.247 8.235 8.212 8.187 8.16 8.14 8.135 8.133 8.13 8.127 8.102 8.063 8.027 7.99 7.945 7.93 7.96 7.987 7.99 7.98 7.967 7.955 7.942 7.93 7.92 7.91 7.9 7.89 7.888 7.877 7.838 7.783 7.725 7.658 7.638 7.685 7.745 7.8 7.832 7.847 7.86 7.862 7.837 7.792 7.747 7.712 7.7 7.702 7.705 7.718 7.73 7.73 7.73 7.725 7.7 7.665 7.63 7.585 7.573 7.6 7.627 7.652 7.667 7.67 7.67 7.66 7.632 7.585 7.53 7.475 7.45 7.46 7.475 7.482 7.435 7.35 7.268 7.195 7.148 7.113 7.108 7.138 7.175 7.212 7.25 7.287 7.32 7.337 7.34 7.33 7.3 7.26 7.23 7.225 7.232 7.232 7.228 7.222 7.215 7.202 7.165 7.087 7.005 6.94 6.885 6.83 6.775 6.73 6.692 6.658 6.642 6.64 6.622 6.587 6.545 6.5 6.452 6.407 6.365 6.35 6.32 6.242 6.155 6.065 5.988 5.935 5.907 5.877 5.82 5.77 5.765 5.782 5.797 5.805 5.742 5.613 5.5 5.468 5.515 5.593 5.68 5.778 5.85 5.893 5.937 5.985 6.027 6.07 6.148 6.255 6.373 6.49 6.6 6.61 6.412 5.907 5.348 5.143 5.148 5.153 5.16 5.165 5.17 5.177 5.18 5.18 5.183 5.695 6.285 6.41 6.46 6.47 6.467 6.448 6.44 6.455 6.467 6.453 6.488 6.595 6.705 6.815 6.887 6.865 6.78 6.69 6.673 6.745 6.835 6.9 6.935 6.965
9.195 8.725 8.573 8.443 8.338 8.275 8.25 8.24 8.227 8.207 8.18 8.153 8.133 8.128 8.13 8.127 8.122 8.115 8.072 8.013 7.97 7.93 7.878 7.845 7.87 7.922 7.96 7.97 7.962 7.95 7.935 7.918 7.905 7.897 7.89 7.885 7.893 7.907 7.892 7.842 7.772 7.685 7.645 7.668 7.713 7.765 7.797 7.81 7.812 7.807 7.782 7.738 7.698 7.673 7.663 7.665 7.683 7.723 7.75 7.75 7.745 7.73 7.7 7.665 7.622 7.56 7.528 7.548 7.58 7.607 7.622 7.625 7.617 7.595 7.565 7.527 7.477 7.423 7.4 7.41 7.425 7.432 7.392 7.315 7.235 7.163 7.113 7.088 7.098 7.133 7.17 7.208 7.245 7.285 7.317 7.332 7.335 7.325 7.295 7.263 7.258 7.28 7.305 7.322 7.325 7.318 7.31 7.277 7.195 7.09 6.993 6.908 6.843 6.788 6.735 6.693 6.657 6.623 6.608 6.61 6.61 6.587 6.545 6.5 6.45 6.405 6.372 6.345 6.272 6.168 6.075 5.993 5.93 5.885 5.858 5.853 5.858 5.868 5.885 5.902 5.917 5.932 5.917 5.843 5.763 5.73 5.738 5.768 5.818 5.9 5.94 5.953 5.997 6.042 6.088 6.143 6.22 6.32 6.422 6.517 6.605 6.567 6.325 5.725 5.213 5.138 5.143 5.148 5.153 5.158 5.163 5.17 5.175 5.177 5.18 5.698 6.322 6.495 6.565 6.565 6.54 6.503 6.465 6.437 6.41 6.37 6.395 6.495 6.605 6.712 6.785 6.78 6.71 6.638 6.655 6.748 6.84 6.902 6.935 6.965
9.18 8.675 8.488 8.375 8.305 8.26 8.235 8.22 8.197 8.173 8.148 8.128 8.12 8.123 8.125 8.12 8.11 8.097 8.052 7.98 7.92 7.87 7.828 7.805 7.818 7.855 7.898 7.935 7.95 7.942 7.925 7.905 7.89 7.883 7.885 7.897 7.915 7.937 7.94 7.89 7.8 7.705 7.665 7.675 7.693 7.73 7.76 7.762 7.758 7.755 7.73 7.688 7.658 7.638 7.625 7.633 7.68 7.745 7.772 7.765 7.75 7.73 7.702 7.66 7.6 7.53 7.485 7.495 7.53 7.56 7.575 7.567 7.545 7.515 7.488 7.46 7.42 7.37 7.348 7.357 7.367 7.365 7.332 7.272 7.205 7.133 7.08 7.073 7.095 7.13 7.17 7.205 7.24 7.28 7.305 7.315 7.322 7.317 7.29 7.275 7.295 7.325 7.357 7.39 7.41 7.412 7.385 7.31 7.202 7.093 6.99 6.895 6.81 6.745 6.698 6.658 6.622 6.588 6.57 6.573 6.58 6.57 6.535 6.493 6.448 6.408 6.375 6.312 6.205 6.093 6 5.933 5.88 5.833 5.818 5.855 5.925 5.975 5.995 6.012 6.025 6.055 6.107 6.132 6.117 6.1 6.082 6.055 6.058 6.122 6.13 6.06 6.053 6.098 6.145 6.21 6.29 6.378 6.475 6.547 6.545 6.42 6.1 5.51 5.138 5.138 5.14 5.145 5.15 5.155 5.16 5.165 5.17 5.175 5.18 5.703 6.34 6.55 6.655 6.65 6.62 6.565 6.47 6.383 6.328 6.285 6.303 6.395 6.505 6.61 6.677 6.68 6.63 6.603 6.658 6.753 6.848 6.92 6.968 7.013
9.173 8.63 8.42 8.34 8.285 8.24 8.213 8.19 8.165 8.14 8.12 8.115 8.117 8.12 8.117 8.108 8.095 8.082 8.04 7.965 7.89 7.84 7.828 7.815 7.81 7.833 7.86 7.893 7.92 7.93 7.92 7.897 7.878 7.873 7.885 7.902 7.917 7.935 7.937 7.887 7.802 7.72 7.685 7.692 7.698 7.715 7.72 7.708 7.705 7.702 7.677 7.643 7.623 7.605 7.593 7.618 7.687 7.757 7.78 7.767 7.75 7.73 7.697 7.64 7.57 7.503 7.445 7.44 7.478 7.512 7.522 7.498 7.465 7.438 7.413 7.385 7.353 7.315 7.293 7.295 7.295 7.285 7.255 7.205 7.153 7.093 7.055 7.065 7.095 7.13 7.168 7.205 7.248 7.285 7.3 7.303 7.308 7.307 7.3 7.31 7.337 7.36 7.385 7.41 7.43 7.442 7.405 7.312 7.205 7.095 6.99 6.895 6.8 6.718 6.665 6.625 6.588 6.553 6.535 6.538 6.545 6.548 6.527 6.49 6.452 6.415 6.365 6.283 6.178 6.075 6.015 5.975 5.915 5.858 5.863 5.935 6.015 6.075 6.102 6.115 6.14 6.2 6.28 6.35 6.37 6.345 6.31 6.293 6.318 6.377 6.395 6.28 6.158 6.153 6.208 6.282 6.365 6.445 6.51 6.5 6.39 6.23 5.773 5.265 5.135 5.14 5.143 5.147 5.15 5.155 5.16 5.165 5.17 5.175 5.183 5.71 6.345 6.55 6.69 6.737 6.705 6.605 6.478 6.36 6.27 6.208 6.21 6.295 6.402 6.505 6.57 6.57 6.555 6.595 6.685 6.785 6.88 6.96 7.03 7.102
9.163 8.603 8.393 8.338 8.288 8.243 8.21 8.185 8.16 8.135 8.115 8.11 8.113 8.117 8.112 8.098 8.085 8.07 8.025 7.95 7.885 7.86 7.862 7.835 7.815 7.838 7.86 7.88 7.9 7.91 7.9 7.875 7.853 7.85 7.86 7.872 7.885 7.897 7.887 7.835 7.765 7.7 7.688 7.705 7.71 7.717 7.713 7.698 7.673 7.65 7.628 7.613 7.618 7.613 7.603 7.613 7.665 7.732 7.755 7.745 7.732 7.715 7.675 7.61 7.54 7.473 7.42 7.405 7.433 7.475 7.495 7.48 7.448 7.418 7.388 7.355 7.323 7.285 7.26 7.255 7.253 7.24 7.233 7.213 7.168 7.12 7.098 7.113 7.135 7.158 7.19 7.233 7.28 7.305 7.305 7.305 7.305 7.295 7.28 7.287 7.307 7.32 7.332 7.345 7.355 7.365 7.355 7.295 7.195 7.087 6.985 6.887 6.793 6.71 6.655 6.615 6.578 6.543 6.523 6.523 6.53 6.545 6.525 6.478 6.442 6.405 6.37 6.312 6.225 6.135 6.105 6.115 6.08 6.023 6.033 6.105 6.157 6.185 6.2 6.225 6.283 6.36 6.44 6.507 6.507 6.475 6.478 6.518 6.582 6.647 6.682 6.575 6.373 6.255 6.265 6.337 6.41 6.48 6.52 6.455 6.313 6.11 5.558 5.133 5.135 5.14 5.145 5.15 5.15 5.155 5.16 5.165 5.17 5.175 5.193 5.718 6.325 6.495 6.65 6.755 6.725 6.612 6.492 6.367 6.253 6.163 6.135 6.195 6.298 6.4 6.462 6.483 6.533 6.633 6.743 6.85 6.942 7.013 7.085 7.167
9.133 8.578 8.398 8.357 8.312 8.265 8.228 8.202 8.177 8.15 8.128 8.115 8.11 8.112 8.107 8.095 8.082 8.06 8.007 7.943 7.908 7.9 7.895 7.85 7.823 7.845 7.865 7.88 7.887 7.88 7.86 7.838 7.818 7.81 7.815 7.828 7.84 7.852 7.832 7.773 7.71 7.658 7.668 7.707 7.72 7.725 7.73 7.727 7.7 7.663 7.645 7.653 7.66 7.655 7.642 7.628 7.64 7.692 7.72 7.71 7.697 7.682 7.642 7.575 7.508 7.468 7.465 7.433 7.41 7.445 7.482 7.502 7.49 7.458 7.423 7.388 7.352 7.303 7.268 7.263 7.255 7.233 7.245 7.28 7.27 7.233 7.208 7.215 7.225 7.225 7.245 7.285 7.325 7.33 7.315 7.315 7.305 7.272 7.225 7.195 7.195 7.205 7.215 7.225 7.235 7.245 7.255 7.24 7.172 7.072 6.97 6.873 6.788 6.72 6.668 6.628 6.592 6.553 6.528 6.528 6.543 6.572 6.542 6.465 6.415 6.378 6.367 6.36 6.302 6.215 6.185 6.225 6.25 6.235 6.245 6.285 6.3 6.295 6.305 6.355 6.43 6.507 6.582 6.645 6.632 6.618 6.67 6.732 6.795 6.852 6.882 6.777 6.555 6.353 6.293 6.355 6.42 6.477 6.51 6.457 6.335 6.045 5.475 5.13 5.135 5.14 5.145 5.15 5.153 5.157 5.16 5.165 5.17 5.175 5.19 5.698 6.28 6.44 6.597 6.695 6.667 6.575 6.472 6.362 6.25 6.145 6.083 6.115 6.21 6.305 6.383 6.463 6.57 6.69 6.807 6.917 7.005 7.07 7.13 7.2
9.06 8.525 8.41 8.375 8.332 8.285 8.245 8.218 8.192 8.165 8.143 8.128 8.115 8.11 8.105 8.092 8.072 8.045 8 7.96 7.948 7.942 7.922 7.86 7.828 7.85 7.862 7.862 7.852 7.837 7.82 7.8 7.783 7.77 7.77 7.783 7.795 7.805 7.777 7.718 7.668 7.623 7.638 7.7 7.73 7.735 7.74 7.745 7.745 7.73 7.717 7.717 7.707 7.695 7.68 7.665 7.658 7.673 7.685 7.675 7.663 7.647 7.608 7.555 7.53 7.548 7.575 7.515 7.423 7.418 7.457 7.49 7.51 7.5 7.467 7.432 7.392 7.33 7.29 7.28 7.255 7.223 7.235 7.295 7.337 7.34 7.325 7.322 7.32 7.31 7.31 7.335 7.36 7.347 7.327 7.315 7.285 7.24 7.183 7.123 7.09 7.09 7.1 7.11 7.117 7.125 7.135 7.142 7.125 7.055 6.955 6.868 6.8 6.74 6.685 6.642 6.602 6.558 6.533 6.54 6.568 6.605 6.575 6.48 6.403 6.353 6.343 6.357 6.35 6.292 6.265 6.305 6.35 6.375 6.385 6.385 6.377 6.367 6.382 6.437 6.507 6.58 6.65 6.712 6.735 6.745 6.79 6.847 6.897 6.937 6.94 6.84 6.635 6.413 6.315 6.353 6.417 6.467 6.485 6.455 6.367 6 5.41 5.133 5.137 5.14 5.145 5.15 5.155 5.16 5.16 5.165 5.17 5.175 5.18 5.67 6.24 6.402 6.555 6.617 6.582 6.505 6.407 6.312 6.215 6.118 6.048 6.06 6.138 6.22 6.315 6.445 6.592 6.737 6.87 6.98 7.057 7.085 7.085 7.135
8.913 8.445 8.42 8.385 8.345 8.3 8.263 8.235 8.208 8.182 8.16 8.142 8.127 8.115 8.102 8.085 8.06 8.033 8.01 7.995 7.987 7.98 7.947 7.873 7.833 7.84 7.835 7.825 7.81 7.795 7.78 7.762 7.747 7.73 7.725 7.737 7.752 7.757 7.727 7.678 7.632 7.588 7.603 7.677 7.727 7.737 7.737 7.74 7.742 7.745 7.737 7.725 7.715 7.705 7.692 7.68 7.67 7.665 7.66 7.648 7.633 7.615 7.603 7.61 7.64 7.682 7.695 7.62 7.493 7.423 7.43 7.463 7.497 7.517 7.507 7.477 7.422 7.348 7.305 7.282 7.245 7.21 7.225 7.288 7.352 7.4 7.42 7.42 7.41 7.4 7.387 7.39 7.387 7.36 7.333 7.3 7.26 7.218 7.158 7.083 7.02 6.988 6.985 6.995 7 7.005 7.015 7.025 7.032 7.012 6.95 6.88 6.817 6.755 6.7 6.652 6.607 6.563 6.543 6.565 6.602 6.637 6.605 6.51 6.418 6.343 6.323 6.335 6.348 6.34 6.338 6.367 6.4 6.43 6.442 6.435 6.425 6.413 6.423 6.47 6.53 6.593 6.66 6.725 6.782 6.825 6.862 6.905 6.94 6.967 6.947 6.86 6.7 6.495 6.36 6.353 6.41 6.445 6.45 6.442 6.392 5.985 5.375 5.135 5.14 5.14 5.145 5.15 5.155 5.16 5.16 5.165 5.17 5.175 5.18 5.665 6.22 6.372 6.497 6.522 6.487 6.427 6.335 6.238 6.148 6.078 6.035 6.028 6.068 6.143 6.24 6.368 6.525 6.697 6.857 6.98 7.042 7.022 6.963 6.985
8.765 8.408 8.412 8.362 8.317 8.29 8.275 8.252 8.225 8.197 8.17 8.147 8.132 8.115 8.1 8.085 8.063 8.04 8.028 8.02 8.01 7.997 7.957 7.88 7.835 7.828 7.815 7.805 7.793 7.772 7.737 7.71 7.697 7.685 7.683 7.69 7.702 7.705 7.677 7.635 7.59 7.553 7.575 7.65 7.705 7.72 7.72 7.72 7.72 7.72 7.715 7.705 7.695 7.685 7.675 7.665 7.658 7.66 7.657 7.64 7.623 7.613 7.613 7.64 7.69 7.74 7.742 7.647 7.515 7.428 7.41 7.435 7.465 7.497 7.52 7.505 7.44 7.36 7.308 7.27 7.23 7.198 7.215 7.28 7.345 7.405 7.45 7.462 7.455 7.445 7.432 7.43 7.422 7.395 7.355 7.31 7.27 7.23 7.178 7.108 7.033 6.963 6.918 6.91 6.918 6.923 6.93 6.94 6.95 6.962 6.932 6.865 6.802 6.74 6.69 6.647 6.605 6.56 6.545 6.577 6.62 6.647 6.605 6.507 6.418 6.368 6.365 6.375 6.385 6.393 6.395 6.405 6.428 6.455 6.477 6.477 6.465 6.455 6.465 6.51 6.568 6.628 6.693 6.758 6.82 6.88 6.925 6.955 6.985 7.007 6.972 6.882 6.742 6.567 6.412 6.36 6.395 6.41 6.412 6.415 6.392 5.917 5.298 5.135 5.14 5.143 5.147 5.15 5.155 5.16 5.16 5.165 5.17 5.175 5.265 5.745 6.195 6.332 6.425 6.417 6.385 6.342 6.265 6.17 6.1 6.058 6.035 6.025 6.028 6.073 6.165 6.28 6.415 6.578 6.745 6.86 6.9 6.882 6.84 6.843
8.668 8.41 8.372 8.303 8.263 8.273 8.287 8.267 8.24 8.21 8.175 8.145 8.125 8.105 8.095 8.09 8.075 8.055 8.04 8.03 8.017 8 7.95 7.883 7.848 7.835 7.825 7.812 7.787 7.742 7.68 7.64 7.638 7.645 7.653 7.65 7.65 7.65 7.622 7.58 7.545 7.528 7.56 7.625 7.665 7.682 7.695 7.7 7.7 7.697 7.692 7.685 7.675 7.665 7.655 7.645 7.648 7.665 7.665 7.648 7.638 7.64 7.625 7.608 7.638 7.695 7.69 7.58 7.47 7.423 7.413 7.42 7.435 7.463 7.49 7.49 7.44 7.363 7.3 7.255 7.215 7.185 7.208 7.272 7.335 7.395 7.44 7.455 7.452 7.445 7.435 7.445 7.465 7.455 7.41 7.355 7.31 7.27 7.227 7.175 7.107 7.025 6.938 6.88 6.87 6.878 6.885 6.895 6.91 6.937 6.91 6.828 6.755 6.693 6.65 6.622 6.59 6.548 6.538 6.572 6.605 6.615 6.567 6.475 6.423 6.435 6.462 6.475 6.482 6.475 6.453 6.44 6.453 6.478 6.51 6.522 6.508 6.495 6.505 6.553 6.618 6.688 6.755 6.818 6.883 6.945 6.99 7.02 7.045 7.06 7.017 6.917 6.78 6.592 6.332 6.092 6 6.025 6.105 6.205 6.192 5.675 5.178 5.135 5.14 5.145 5.15 5.15 5.155 5.16 5.163 5.167 5.17 5.175 5.458 5.935 6.162 6.265 6.34 6.322 6.288 6.253 6.195 6.125 6.08 6.05 6.033 6.027 6.02 6.028 6.093 6.205 6.328 6.465 6.59 6.662 6.687 6.685 6.7 6.865
8.588 8.403 8.318 8.243 8.235 8.277 8.3 8.28 8.253 8.225 8.19 8.153 8.12 8.098 8.088 8.085 8.08 8.065 8.05 8.037 8.017 7.995 7.948 7.898 7.872 7.852 7.835 7.802 7.75 7.69 7.63 7.598 7.603 7.62 7.637 7.63 7.61 7.597 7.57 7.538 7.523 7.518 7.548 7.595 7.62 7.64 7.66 7.672 7.675 7.673 7.67 7.665 7.655 7.645 7.635 7.633 7.65 7.672 7.675 7.668 7.668 7.672 7.655 7.615 7.6 7.63 7.61 7.523 7.465 7.438 7.425 7.425 7.428 7.432 7.435 7.435 7.417 7.36 7.295 7.248 7.203 7.175 7.203 7.265 7.325 7.385 7.432 7.447 7.445 7.442 7.438 7.455 7.495 7.505 7.465 7.405 7.355 7.312 7.27 7.225 7.172 7.1 7 6.9 6.843 6.835 6.843 6.858 6.885 6.92 6.897 6.808 6.718 6.643 6.6 6.585 6.567 6.535 6.53 6.555 6.567 6.57 6.528 6.475 6.485 6.525 6.557 6.572 6.567 6.547 6.52 6.495 6.488 6.503 6.542 6.565 6.552 6.538 6.55 6.608 6.683 6.758 6.825 6.885 6.948 7.01 7.055 7.082 7.1 7.11 7.062 6.95 6.82 6.602 6.01 5.475 5.373 5.395 5.473 5.57 5.565 5.318 5.133 5.137 5.14 5.145 5.15 5.153 5.157 5.16 5.165 5.17 5.173 5.178 5.607 6.09 6.155 6.203 6.247 6.238 6.208 6.188 6.155 6.11 6.075 6.045 6.028 6.023 6.018 6.023 6.075 6.18 6.3 6.25 5.89 5.653 6.1 6.572 6.683 7.022
8.518 8.382 8.268 8.205 8.235 8.29 8.31 8.29 8.265 8.24 8.205 8.165 8.128 8.098 8.083 8.08 8.08 8.075 8.06 8.04 8.015 7.988 7.955 7.92 7.89 7.862 7.827 7.775 7.718 7.663 7.618 7.598 7.6 7.61 7.625 7.622 7.59 7.558 7.535 7.523 7.518 7.51 7.525 7.555 7.575 7.595 7.615 7.635 7.647 7.65 7.647 7.642 7.635 7.625 7.62 7.633 7.657 7.677 7.685 7.687 7.695 7.702 7.69 7.655 7.618 7.6 7.565 7.513 7.48 7.45 7.435 7.432 7.42 7.397 7.38 7.373 7.367 7.342 7.295 7.245 7.193 7.165 7.195 7.255 7.315 7.377 7.427 7.442 7.438 7.438 7.443 7.468 7.512 7.54 7.517 7.46 7.402 7.35 7.302 7.255 7.205 7.142 7.055 6.955 6.865 6.81 6.803 6.83 6.868 6.908 6.895 6.815 6.728 6.64 6.585 6.568 6.55 6.523 6.515 6.525 6.528 6.53 6.523 6.535 6.577 6.62 6.652 6.66 6.64 6.615 6.59 6.563 6.54 6.535 6.577 6.607 6.598 6.593 6.618 6.683 6.76 6.835 6.9 6.957 7.015 7.075 7.115 7.135 7.15 7.16 7.105 6.977 6.845 6.457 5.633 5.13 5.13 5.13 5.13 5.13 5.13 5.133 5.137 5.14 5.143 5.147 5.15 5.155 5.16 5.163 5.167 5.17 5.175 5.208 5.68 6.137 6.16 6.178 6.2 6.208 6.198 6.193 6.165 6.118 6.078 6.045 6.025 6.018 6.023 6.047 6.09 6.162 6.26 5.967 5.188 4.751 5.568 6.527 6.785 7.09
8.445 8.337 8.233 8.203 8.245 8.3 8.317 8.297 8.272 8.247 8.215 8.175 8.138 8.105 8.093 8.095 8.093 8.09 8.077 8.053 8.025 7.987 7.952 7.922 7.89 7.86 7.817 7.765 7.712 7.658 7.623 7.61 7.608 7.613 7.623 7.635 7.62 7.588 7.57 7.563 7.555 7.533 7.51 7.515 7.535 7.555 7.575 7.598 7.617 7.627 7.625 7.62 7.615 7.608 7.61 7.622 7.632 7.645 7.667 7.685 7.695 7.707 7.722 7.722 7.695 7.655 7.613 7.568 7.525 7.48 7.44 7.415 7.385 7.35 7.33 7.32 7.31 7.315 7.297 7.245 7.193 7.165 7.193 7.25 7.31 7.375 7.427 7.445 7.445 7.448 7.458 7.488 7.532 7.567 7.552 7.495 7.427 7.357 7.297 7.245 7.192 7.132 7.055 6.965 6.872 6.803 6.805 6.855 6.9 6.945 6.945 6.88 6.792 6.69 6.62 6.595 6.575 6.55 6.525 6.515 6.518 6.52 6.55 6.602 6.647 6.692 6.727 6.737 6.715 6.683 6.658 6.63 6.605 6.585 6.615 6.657 6.663 6.67 6.705 6.773 6.847 6.915 6.975 7.03 7.085 7.137 7.167 7.182 7.197 7.175 7.077 6.937 6.812 6.125 5.31 5.13 5.13 5.13 5.13 5.133 5.135 5.137 5.14 5.143 5.147 5.15 5.153 5.157 5.16 5.165 5.17 5.17 5.175 5.353 5.825 6.132 6.147 6.165 6.202 6.237 6.245 6.235 6.195 6.138 6.088 6.045 6.02 6.022 6.037 6.047 6.05 6.067 6.122 5.745 5.04 4.778 5.59 6.525 6.782 7
8.398 8.283 8.218 8.225 8.258 8.307 8.325 8.302 8.278 8.252 8.22 8.183 8.148 8.12 8.113 8.117 8.117 8.115 8.102 8.072 8.032 7.982 7.94 7.91 7.877 7.845 7.807 7.76 7.708 7.66 7.635 7.625 7.618 7.618 7.625 7.655 7.682 7.675 7.66 7.65 7.622 7.567 7.515 7.498 7.51 7.53 7.55 7.568 7.59 7.615 7.62 7.613 7.605 7.59 7.578 7.575 7.57 7.578 7.617 7.657 7.675 7.693 7.727 7.765 7.78 7.762 7.72 7.662 7.592 7.51 7.433 7.378 7.338 7.303 7.28 7.27 7.288 7.32 7.302 7.253 7.208 7.185 7.208 7.258 7.315 7.377 7.43 7.455 7.465 7.47 7.483 7.513 7.555 7.587 7.565 7.502 7.43 7.35 7.275 7.213 7.158 7.097 7.02 6.93 6.86 6.825 6.845 6.907 6.97 7.022 7.03 6.97 6.865 6.745 6.67 6.65 6.645 6.622 6.573 6.538 6.533 6.538 6.575 6.64 6.692 6.737 6.775 6.8 6.8 6.772 6.74 6.708 6.68 6.655 6.673 6.722 6.747 6.76 6.798 6.867 6.935 6.99 7.045 7.1 7.147 7.185 7.21 7.222 7.197 7.105 6.967 6.825 6.565 5.763 5.14 5.13 5.13 5.133 5.135 5.137 5.14 5.14 5.143 5.147 5.15 5.15 5.155 5.16 5.16 5.165 5.17 5.173 5.178 5.56 6.025 6.112 6.12 6.148 6.203 6.26 6.29 6.275 6.225 6.165 6.105 6.042 6.003 6 6 5.987 5.967 5.933 5.945 5.527 4.913 4.953 5.827 6.585 6.755 6.928
8.338 8.238 8.23 8.255 8.278 8.315 8.33 8.307 8.285 8.26 8.225 8.193 8.165 8.14 8.13 8.135 8.14 8.14 8.122 8.08 8.025 7.968 7.925 7.895 7.862 7.828 7.792 7.752 7.703 7.665 7.65 7.642 7.635 7.628 7.633 7.67 7.727 7.752 7.742 7.715 7.655 7.58 7.525 7.498 7.493 7.505 7.525 7.545 7.575 7.61 7.625 7.617 7.602 7.578 7.545 7.518 7.5 7.51 7.558 7.617 7.652 7.678 7.715 7.757 7.802 7.822 7.785 7.705 7.612 7.512 7.423 7.355 7.3 7.255 7.23 7.25 7.32 7.35 7.315 7.275 7.235 7.215 7.238 7.283 7.33 7.383 7.428 7.458 7.48 7.49 7.505 7.538 7.577 7.602 7.572 7.502 7.427 7.35 7.27 7.195 7.128 7.065 6.993 6.923 6.888 6.87 6.88 6.938 7.012 7.08 7.102 7.04 6.922 6.8 6.73 6.723 6.722 6.69 6.633 6.583 6.555 6.555 6.595 6.665 6.73 6.78 6.815 6.845 6.865 6.862 6.837 6.802 6.77 6.74 6.745 6.787 6.827 6.85 6.89 6.955 7.01 7.06 7.112 7.162 7.2 7.23 7.245 7.212 7.115 6.985 6.845 6.74 6.232 5.443 5.13 5.13 5.133 5.137 5.14 5.14 5.143 5.145 5.147 5.15 5.15 5.153 5.157 5.16 5.163 5.167 5.17 5.175 5.23 5.697 6.105 6.093 6.1 6.14 6.203 6.27 6.307 6.272 6.197 6.122 6.045 5.982 5.957 5.94 5.915 5.9 5.882 5.823 5.787 5.343 4.818 5.248 6.152 6.64 6.802 6.97
8.295 8.23 8.257 8.283 8.305 8.33 8.332 8.31 8.287 8.265 8.237 8.21 8.185 8.158 8.145 8.147 8.15 8.15 8.125 8.07 8.012 7.955 7.91 7.88 7.848 7.813 7.777 7.742 7.7 7.672 7.665 7.657 7.65 7.64 7.647 7.69 7.755 7.802 7.795 7.737 7.662 7.59 7.538 7.508 7.485 7.483 7.503 7.533 7.573 7.613 7.632 7.625 7.603 7.575 7.54 7.498 7.46 7.458 7.503 7.568 7.62 7.66 7.702 7.745 7.785 7.797 7.75 7.662 7.567 7.48 7.408 7.342 7.278 7.22 7.218 7.293 7.372 7.377 7.34 7.305 7.268 7.248 7.27 7.315 7.358 7.405 7.443 7.468 7.49 7.505 7.528 7.565 7.602 7.617 7.577 7.5 7.423 7.345 7.265 7.185 7.11 7.043 6.985 6.95 6.932 6.915 6.913 6.96 7.035 7.105 7.135 7.07 6.952 6.84 6.79 6.805 6.797 6.753 6.698 6.64 6.593 6.578 6.615 6.685 6.752 6.805 6.835 6.855 6.867 6.877 6.88 6.86 6.827 6.795 6.795 6.835 6.885 6.927 6.975 7.03 7.08 7.127 7.17 7.207 7.24 7.265 7.232 7.125 6.995 6.863 6.748 6.62 5.925 5.22 5.133 5.135 5.137 5.14 5.14 5.143 5.147 5.15 5.15 5.15 5.153 5.157 5.16 5.163 5.167 5.17 5.173 5.178 5.42 5.885 6.105 6.103 6.12 6.168 6.235 6.292 6.282 6.195 6.087 5.99 5.913 5.883 5.89 5.885 5.858 5.825 5.797 5.738 5.662 5.23 4.788 5.375 6.282 6.645 6.81 6.985
8.325 8.263 8.287 8.312 8.327 8.33 8.317 8.292 8.27 8.26 8.245 8.22 8.195 8.165 8.143 8.132 8.132 8.132 8.1 8.042 7.987 7.938 7.9 7.87 7.835 7.797 7.76 7.725 7.672 7.622 7.607 7.6 7.587 7.59 7.63 7.692 7.75 7.79 7.792 7.74 7.665 7.603 7.558 7.525 7.495 7.483 7.505 7.548 7.593 7.632 7.647 7.635 7.612 7.582 7.547 7.507 7.463 7.448 7.483 7.54 7.598 7.645 7.688 7.73 7.745 7.717 7.665 7.587 7.493 7.43 7.387 7.327 7.263 7.238 7.295 7.395 7.447 7.418 7.37 7.335 7.3 7.283 7.303 7.347 7.393 7.44 7.477 7.5 7.518 7.535 7.563 7.6 7.632 7.63 7.582 7.512 7.435 7.355 7.275 7.198 7.123 7.048 7.005 6.992 6.977 6.96 6.948 6.983 7.057 7.102 7.11 7.06 6.953 6.858 6.835 6.865 6.877 6.85 6.793 6.73 6.67 6.618 6.62 6.677 6.74 6.79 6.815 6.825 6.83 6.84 6.86 6.86 6.837 6.81 6.815 6.86 6.913 6.975 7.035 7.085 7.135 7.175 7.197 7.22 7.25 7.272 7.192 7.025 6.878 6.75 6.695 6.32 5.535 5.13 5.135 5.14 5.14 5.14 5.143 5.147 5.15 5.15 5.153 5.155 5.157 5.16 5.16 5.165 5.17 5.173 5.178 5.273 5.7 6.087 6.145 6.16 6.183 6.228 6.29 6.295 6.21 6.09 5.967 5.855 5.798 5.803 5.82 5.83 5.82 5.78 5.732 5.67 5.587 5.183 4.785 5.133 6.002 6.572 6.75 6.955
8.36 8.308 8.31 8.317 8.315 8.302 8.282 8.26 8.25 8.255 8.245 8.22 8.195 8.162 8.13 8.105 8.098 8.095 8.062 8.008 7.958 7.923 7.893 7.86 7.822 7.78 7.74 7.695 7.61 7.508 7.453 7.447 7.458 7.513 7.605 7.67 7.707 7.73 7.747 7.727 7.67 7.62 7.58 7.545 7.52 7.51 7.533 7.58 7.622 7.655 7.662 7.645 7.622 7.59 7.555 7.52 7.478 7.458 7.488 7.542 7.59 7.63 7.672 7.692 7.667 7.625 7.582 7.512 7.43 7.4 7.375 7.313 7.283 7.333 7.428 7.525 7.552 7.488 7.418 7.368 7.33 7.315 7.335 7.38 7.428 7.475 7.515 7.54 7.56 7.583 7.61 7.642 7.647 7.61 7.567 7.527 7.465 7.385 7.308 7.232 7.152 7.073 7.033 7.027 7.017 7.002 6.988 7.01 7.062 7.067 7.057 7.035 6.948 6.875 6.875 6.905 6.94 6.957 6.925 6.857 6.767 6.673 6.63 6.648 6.695 6.747 6.775 6.782 6.788 6.8 6.822 6.84 6.837 6.818 6.825 6.873 6.938 7.015 7.08 7.127 7.167 7.195 7.208 7.218 7.24 7.267 7.182 6.988 6.81 6.695 6.69 6.022 5.228 5.133 5.137 5.14 5.14 5.143 5.147 5.15 5.15 5.153 5.157 5.16 5.16 5.163 5.165 5.168 5.17 5.175 5.223 5.523 5.96 6.16 6.195 6.225 6.255 6.292 6.302 6.225 6.092 5.96 5.825 5.73 5.725 5.745 5.743 5.75 5.762 5.73 5.673 5.625 5.562 5.17 4.783 4.83 5.6 6.397 6.625 6.89
8.375 8.34 8.313 8.29 8.275 8.265 8.248 8.238 8.245 8.255 8.247 8.22 8.19 8.157 8.123 8.09 8.068 8.057 8.027 7.978 7.943 7.917 7.887 7.85 7.805 7.76 7.72 7.652 7.54 7.415 7.313 7.273 7.335 7.48 7.587 7.622 7.645 7.665 7.685 7.697 7.687 7.658 7.62 7.585 7.56 7.55 7.57 7.61 7.645 7.675 7.68 7.657 7.627 7.59 7.555 7.525 7.49 7.465 7.49 7.54 7.578 7.615 7.637 7.617 7.575 7.535 7.495 7.433 7.385 7.387 7.363 7.33 7.373 7.465 7.56 7.647 7.652 7.575 7.493 7.418 7.365 7.345 7.368 7.415 7.465 7.515 7.557 7.585 7.605 7.63 7.657 7.662 7.62 7.558 7.52 7.5 7.465 7.41 7.342 7.265 7.175 7.093 7.058 7.052 7.047 7.04 7.03 7.037 7.04 7.01 7.003 7.007 6.945 6.895 6.915 6.948 6.983 7.02 7.022 6.95 6.825 6.72 6.67 6.653 6.665 6.703 6.73 6.738 6.745 6.758 6.778 6.805 6.825 6.823 6.84 6.9 6.977 7.06 7.125 7.165 7.19 7.21 7.222 7.228 7.238 7.26 7.182 7 6.828 6.715 6.505 5.728 5.13 5.135 5.14 5.14 5.14 5.145 5.15 5.15 5.15 5.155 5.16 5.16 5.162 5.167 5.17 5.17 5.173 5.178 5.32 5.765 6.12 6.19 6.23 6.27 6.31 6.33 6.237 6.075 5.93 5.785 5.648 5.608 5.675 5.71 5.693 5.678 5.678 5.65 5.605 5.577 5.54 5.162 4.78 4.75 5.285 6.06 6.447 6.757
8.4 8.367 8.325 8.288 8.258 8.235 8.223 8.227 8.242 8.255 8.247 8.217 8.182 8.15 8.117 8.082 8.05 8.027 7.998 7.963 7.938 7.912 7.88 7.838 7.79 7.743 7.69 7.603 7.485 7.368 7.253 7.173 7.248 7.437 7.542 7.565 7.585 7.605 7.625 7.66 7.702 7.712 7.685 7.65 7.62 7.6 7.608 7.635 7.665 7.692 7.695 7.667 7.63 7.59 7.555 7.525 7.495 7.473 7.49 7.535 7.575 7.605 7.592 7.548 7.505 7.463 7.418 7.373 7.363 7.377 7.378 7.415 7.502 7.595 7.68 7.745 7.73 7.652 7.572 7.49 7.418 7.385 7.413 7.468 7.523 7.577 7.585 7.562 7.585 7.637 7.667 7.637 7.573 7.513 7.473 7.45 7.427 7.4 7.36 7.292 7.193 7.11 7.083 7.075 7.067 7.06 7.05 7.037 7.005 6.958 6.95 6.975 6.947 6.925 6.957 6.992 7.025 7.057 7.047 6.962 6.845 6.763 6.725 6.697 6.678 6.675 6.685 6.695 6.705 6.715 6.735 6.765 6.795 6.818 6.86 6.932 7.01 7.09 7.15 7.182 7.205 7.225 7.237 7.242 7.245 7.255 7.19 7.04 6.892 6.765 6.117 5.328 5.13 5.135 5.14 5.14 5.14 5.145 5.15 5.15 5.15 5.155 5.16 5.16 5.162 5.167 5.17 5.17 5.175 5.18 5.383 5.862 6.177 6.235 6.275 6.315 6.35 6.34 6.18 5.943 5.755 5.598 5.495 5.515 5.61 5.677 5.685 5.653 5.618 5.58 5.553 5.537 5.517 5.142 4.765 4.75 5.045 5.725 6.272 6.618
8.427 8.382 8.33 8.29 8.25 8.213 8.198 8.205 8.217 8.232 8.227 8.197 8.162 8.13 8.097 8.062 8.03 8.003 7.98 7.957 7.932 7.907 7.877 7.838 7.793 7.745 7.678 7.58 7.47 7.36 7.25 7.17 7.21 7.372 7.485 7.51 7.532 7.555 7.578 7.623 7.69 7.742 7.747 7.72 7.693 7.673 7.658 7.66 7.685 7.707 7.702 7.67 7.63 7.59 7.555 7.525 7.498 7.48 7.498 7.543 7.58 7.587 7.557 7.51 7.463 7.418 7.383 7.363 7.36 7.375 7.423 7.502 7.587 7.67 7.747 7.787 7.755 7.682 7.605 7.525 7.463 7.45 7.49 7.55 7.61 7.67 7.625 7.485 7.443 7.507 7.59 7.597 7.535 7.48 7.443 7.418 7.393 7.368 7.345 7.3 7.207 7.125 7.095 7.085 7.075 7.06 7.037 7.01 6.972 6.923 6.908 6.932 6.945 6.96 6.992 7.025 7.055 7.075 7.032 6.935 6.845 6.788 6.755 6.725 6.697 6.673 6.665 6.673 6.68 6.685 6.703 6.735 6.768 6.805 6.862 6.937 7.015 7.095 7.15 7.177 7.202 7.227 7.242 7.245 7.245 7.25 7.195 7.067 6.93 6.697 5.833 5.13 5.133 5.137 5.14 5.14 5.14 5.145 5.15 5.15 5.15 5.155 5.16 5.16 5.16 5.165 5.17 5.17 5.175 5.18 5.36 5.845 6.2 6.277 6.325 6.362 6.38 6.34 6.167 5.9 5.65 5.44 5.37 5.445 5.54 5.63 5.67 5.642 5.592 5.535 5.498 5.487 5.457 5.09 4.75 4.75 4.883 5.448 6.122 6.602
8.422 8.367 8.31 8.27 8.23 8.19 8.168 8.168 8.175 8.19 8.187 8.16 8.127 8.095 8.063 8.03 8 7.975 7.96 7.947 7.927 7.903 7.88 7.85 7.81 7.765 7.692 7.59 7.477 7.368 7.263 7.19 7.188 7.305 7.425 7.455 7.478 7.5 7.535 7.595 7.663 7.73 7.78 7.787 7.772 7.76 7.735 7.708 7.708 7.72 7.707 7.67 7.63 7.588 7.553 7.525 7.505 7.495 7.515 7.557 7.572 7.555 7.522 7.48 7.43 7.398 7.395 7.387 7.365 7.375 7.44 7.53 7.615 7.692 7.757 7.775 7.74 7.677 7.6 7.535 7.515 7.54 7.59 7.653 7.715 7.772 7.697 7.48 7.31 7.29 7.41 7.515 7.505 7.45 7.415 7.392 7.367 7.342 7.315 7.277 7.21 7.13 7.09 7.08 7.065 7.04 7.01 6.977 6.942 6.9 6.875 6.888 6.943 6.995 7.02 7.05 7.08 7.075 7.007 6.918 6.845 6.793 6.755 6.728 6.702 6.675 6.665 6.67 6.67 6.665 6.68 6.717 6.755 6.793 6.848 6.925 7.005 7.085 7.14 7.165 7.193 7.227 7.242 7.238 7.235 7.24 7.185 7.06 6.915 6.382 5.53 5.13 5.135 5.14 5.14 5.14 5.143 5.147 5.15 5.15 5.15 5.155 5.16 5.16 5.16 5.165 5.17 5.17 5.175 5.18 5.293 5.78 6.207 6.302 6.372 6.402 6.392 6.332 6.152 5.888 5.633 5.425 5.355 5.413 5.498 5.583 5.64 5.625 5.562 5.495 5.435 5.41 5.352 5.023 4.75 4.75 4.775 5.118 5.817 6.472
8.402 8.345 8.29 8.25 8.207 8.165 8.143 8.138 8.138 8.147 8.142 8.117 8.09 8.06 8.03 8 7.97 7.945 7.93 7.925 7.917 7.897 7.875 7.852 7.822 7.782 7.707 7.597 7.483 7.373 7.278 7.215 7.185 7.258 7.365 7.402 7.425 7.45 7.5 7.57 7.637 7.705 7.772 7.822 7.847 7.85 7.825 7.785 7.753 7.738 7.713 7.67 7.63 7.585 7.55 7.53 7.52 7.515 7.535 7.56 7.545 7.515 7.485 7.448 7.415 7.415 7.427 7.415 7.383 7.373 7.428 7.525 7.622 7.71 7.752 7.745 7.72 7.67 7.613 7.593 7.608 7.64 7.69 7.755 7.82 7.86 7.755 7.525 7.295 7.153 7.198 7.348 7.435 7.422 7.388 7.365 7.34 7.312 7.28 7.24 7.192 7.128 7.085 7.067 7.04 7.01 6.977 6.943 6.91 6.875 6.843 6.855 6.945 7.03 7.058 7.08 7.102 7.07 6.993 6.92 6.855 6.798 6.758 6.732 6.705 6.675 6.663 6.662 6.655 6.648 6.663 6.7 6.742 6.78 6.835 6.915 6.995 7.072 7.125 7.155 7.19 7.23 7.247 7.24 7.233 7.232 7.175 7.037 6.87 6.05 5.225 5.133 5.137 5.14 5.14 5.14 5.145 5.15 5.15 5.15 5.153 5.157 5.16 5.16 5.163 5.167 5.17 5.17 5.175 5.18 5.248 5.74 6.215 6.315 6.392 6.415 6.395 6.325 6.137 5.898 5.708 5.57 5.468 5.448 5.515 5.59 5.622 5.585 5.52 5.457 5.39 5.34 5.245 4.958 4.75 4.75 4.75 4.845 5.293 6.03
8.383 8.323 8.27 8.228 8.183 8.14 8.118 8.113 8.11 8.11 8.1 8.075 8.05 8.025 7.998 7.97 7.94 7.915 7.9 7.895 7.895 7.887 7.87 7.847 7.822 7.792 7.72 7.605 7.49 7.38 7.295 7.245 7.208 7.233 7.302 7.347 7.375 7.41 7.47 7.54 7.607 7.675 7.742 7.807 7.867 7.91 7.905 7.862 7.812 7.77 7.733 7.688 7.643 7.593 7.558 7.545 7.54 7.535 7.54 7.535 7.508 7.48 7.453 7.433 7.435 7.457 7.462 7.44 7.408 7.38 7.42 7.52 7.623 7.72 7.752 7.728 7.703 7.673 7.66 7.677 7.702 7.73 7.762 7.802 7.845 7.87 7.785 7.58 7.35 7.165 7.15 7.263 7.363 7.39 7.36 7.335 7.312 7.28 7.24 7.197 7.155 7.11 7.075 7.048 7.013 6.98 6.945 6.91 6.878 6.843 6.81 6.838 6.942 7.055 7.11 7.12 7.115 7.065 6.995 6.93 6.862 6.8 6.757 6.73 6.7 6.673 6.658 6.65 6.64 6.635 6.65 6.685 6.728 6.77 6.828 6.905 6.985 7.06 7.112 7.15 7.19 7.232 7.252 7.245 7.235 7.227 7.15 6.985 6.665 5.783 5.13 5.135 5.14 5.14 5.14 5.143 5.147 5.15 5.15 5.15 5.155 5.16 5.16 5.16 5.165 5.17 5.17 5.17 5.175 5.18 5.275 5.773 6.225 6.305 6.352 6.377 6.382 6.317 6.16 5.995 5.868 5.755 5.63 5.543 5.563 5.615 5.597 5.53 5.465 5.405 5.345 5.285 5.127 4.875 4.75 4.75 4.75 4.75 4.878 5.325
8.415 8.348 8.27 8.223 8.178 8.128 8.095 8.09 8.087 8.085 8.07 8.043 8.02 7.995 7.97 7.945 7.915 7.888 7.873 7.87 7.87 7.87 7.86 7.837 7.813 7.792 7.73 7.615 7.5 7.4 7.33 7.285 7.245 7.228 7.248 7.288 7.325 7.373 7.44 7.508 7.573 7.638 7.705 7.773 7.838 7.905 7.94 7.912 7.86 7.818 7.778 7.73 7.677 7.61 7.563 7.552 7.547 7.545 7.545 7.533 7.51 7.488 7.463 7.445 7.46 7.495 7.497 7.47 7.435 7.4 7.433 7.53 7.632 7.73 7.76 7.73 7.7 7.685 7.7 7.725 7.75 7.775 7.777 7.77 7.78 7.802 7.787 7.647 7.42 7.253 7.26 7.353 7.402 7.375 7.315 7.29 7.262 7.22 7.175 7.132 7.09 7.075 7.065 7.035 7 6.965 6.933 6.898 6.863 6.83 6.803 6.825 6.923 7.05 7.135 7.147 7.112 7.052 6.987 6.92 6.852 6.787 6.74 6.71 6.683 6.665 6.655 6.645 6.635 6.64 6.658 6.683 6.72 6.765 6.828 6.903 6.98 7.047 7.097 7.142 7.185 7.227 7.245 7.235 7.225 7.202 7.097 6.92 6.267 5.418 5.13 5.135 5.14 5.14 5.14 5.145 5.15 5.15 5.15 5.153 5.157 5.16 5.16 5.16 5.165 5.17 5.17 5.17 5.175 5.18 5.36 5.857 6.207 6.253 6.283 6.318 6.347 6.335 6.26 6.155 6.042 5.932 5.815 5.688 5.625 5.605 5.55 5.48 5.41 5.343 5.283 5.25 5.053 4.805 4.75 4.75 4.75 4.75 4.75 4.823
8.52 8.407 8.29 8.235 8.182 8.115 8.075 8.068 8.065 8.067 8.052 8.023 8 7.975 7.95 7.925 7.895 7.868 7.853 7.85 7.85 7.85 7.84 7.82 7.803 7.795 7.74 7.625 7.523 7.45 7.398 7.353 7.315 7.295 7.298 7.32 7.353 7.4 7.46 7.518 7.575 7.633 7.69 7.753 7.813 7.87 7.927 7.94 7.905 7.87 7.83 7.777 7.71 7.62 7.558 7.545 7.543 7.545 7.56 7.565 7.55 7.53 7.505 7.473 7.47 7.507 7.522 7.5 7.465 7.43 7.458 7.548 7.645 7.74 7.77 7.74 7.708 7.693 7.708 7.733 7.763 7.787 7.775 7.74 7.718 7.72 7.74 7.677 7.49 7.338 7.373 7.487 7.492 7.362 7.255 7.227 7.187 7.135 7.09 7.048 7.028 7.058 7.07 7.038 7.003 6.968 6.935 6.903 6.87 6.84 6.823 6.84 6.903 7.01 7.112 7.135 7.087 7.025 6.96 6.893 6.827 6.76 6.71 6.683 6.665 6.66 6.655 6.645 6.648 6.675 6.695 6.7 6.725 6.768 6.83 6.905 6.97 7.022 7.07 7.12 7.167 7.21 7.225 7.217 7.21 7.162 7.032 6.855 5.988 5.17 5.133 5.137 5.14 5.14 5.14 5.145 5.15 5.15 5.15 5.155 5.16 5.16 5.16 5.163 5.167 5.17 5.17 5.17 5.175 5.18 5.47 5.96 6.18 6.215 6.248 6.283 6.315 6.347 6.345 6.287 6.195 6.087 5.965 5.823 5.713 5.645 5.573 5.49 5.41 5.33 5.268 5.302 5.072 4.768 4.75 4.75 4.75 4.75 4.75 4.75
8.61 8.442 8.31 8.24 8.172 8.098 8.055 8.048 8.05 8.055 8.04 8.01 7.983 7.955 7.93 7.905 7.875 7.85 7.838 7.833 7.83 7.83 7.82 7.805 7.8 7.802 7.75 7.65 7.578 7.525 7.48 7.443 7.425 7.43 7.445 7.447 7.44 7.46 7.502 7.55 7.6 7.65 7.7 7.752 7.805 7.855 7.91 7.95 7.947 7.92 7.88 7.812 7.72 7.62 7.553 7.535 7.538 7.545 7.565 7.587 7.587 7.57 7.545 7.51 7.483 7.498 7.52 7.515 7.492 7.46 7.485 7.57 7.66 7.75 7.78 7.747 7.713 7.7 7.715 7.743 7.78 7.805 7.787 7.745 7.703 7.675 7.67 7.657 7.542 7.42 7.475 7.6 7.545 7.325 7.198 7.162 7.11 7.053 7.005 6.983 7.008 7.065 7.077 7.043 7.008 6.973 6.94 6.91 6.878 6.853 6.853 6.88 6.92 6.985 7.077 7.105 7.055 6.992 6.928 6.865 6.8 6.733 6.688 6.668 6.66 6.66 6.655 6.658 6.685 6.725 6.742 6.738 6.745 6.773 6.828 6.895 6.945 6.99 7.04 7.09 7.14 7.185 7.202 7.2 7.195 7.122 6.965 6.595 5.723 5.13 5.135 5.14 5.14 5.14 5.143 5.147 5.15 5.15 5.15 5.155 5.16 5.16 5.16 5.165 5.17 5.17 5.17 5.173 5.177 5.18 5.59 6.075 6.17 6.205 6.235 6.265 6.298 6.332 6.357 6.35 6.3 6.217 6.092 5.932 5.81 5.745 5.682 5.607 5.525 5.433 5.328 5.382 5.142 4.77 4.75 4.75 4.75 4.75 4.75 4.853
8.46 8.377 8.302 8.232 8.157 8.083 8.038 8.033 8.038 8.043 8.03 8 7.97 7.935 7.905 7.88 7.852 7.83 7.82 7.818 7.813 7.81 7.805 7.8 7.803 7.807 7.772 7.708 7.655 7.608 7.563 7.548 7.565 7.58 7.585 7.562 7.518 7.503 7.525 7.558 7.598 7.645 7.695 7.745 7.795 7.845 7.895 7.942 7.965 7.957 7.917 7.833 7.73 7.628 7.553 7.533 7.54 7.55 7.568 7.595 7.615 7.61 7.585 7.55 7.51 7.495 7.502 7.507 7.502 7.485 7.515 7.597 7.682 7.762 7.785 7.752 7.718 7.705 7.723 7.758 7.802 7.825 7.802 7.76 7.717 7.675 7.64 7.617 7.557 7.505 7.572 7.645 7.532 7.29 7.143 7.09 7.03 6.97 6.938 6.955 7 7.067 7.087 7.05 7.015 6.98 6.95 6.917 6.885 6.873 6.888 6.92 6.96 7.003 7.062 7.075 7.02 6.958 6.898 6.84 6.778 6.713 6.675 6.668 6.663 6.66 6.668 6.695 6.732 6.77 6.787 6.785 6.783 6.788 6.823 6.873 6.918 6.963 7.01 7.06 7.11 7.155 7.175 7.175 7.16 7.065 6.897 6.185 5.345 5.13 5.135 5.14 5.14 5.14 5.145 5.15 5.15 5.15 5.153 5.157 5.16 5.16 5.16 5.165 5.17 5.17 5.17 5.175 5.18 5.24 5.71 6.13 6.155 6.185 6.215 6.245 6.28 6.315 6.347 6.36 6.34 6.292 6.167 5.985 5.858 5.802 5.767 5.73 5.677 5.602 5.458 5.43 5.17 4.793 4.75 4.75 4.75 4.75 4.75 5.005
8.27 8.29 8.275 8.212 8.138 8.07 8.04 8.045 8.055 8.055 8.035 8.005 7.967 7.905 7.852 7.825 7.805 7.805 7.81 7.808 7.803 7.8 7.8 7.803 7.807 7.81 7.805 7.78 7.735 7.687 7.643 7.643 7.695 7.722 7.702 7.66 7.608 7.565 7.56 7.583 7.61 7.643 7.68 7.723 7.77 7.82 7.87 7.922 7.96 7.97 7.945 7.87 7.77 7.668 7.588 7.558 7.56 7.57 7.585 7.605 7.627 7.64 7.622 7.58 7.53 7.49 7.48 7.485 7.487 7.493 7.533 7.612 7.692 7.745 7.762 7.752 7.723 7.71 7.733 7.775 7.825 7.845 7.817 7.775 7.732 7.688 7.645 7.603 7.563 7.568 7.642 7.625 7.452 7.243 7.1 7.04 6.99 6.94 6.89 6.885 6.925 7.035 7.102 7.06 7.023 6.99 6.957 6.923 6.9 6.9 6.92 6.958 7 7.04 7.072 7.062 7.01 6.95 6.893 6.835 6.778 6.713 6.675 6.675 6.67 6.675 6.688 6.703 6.735 6.78 6.815 6.822 6.815 6.808 6.825 6.868 6.91 6.937 6.975 7.03 7.08 7.122 7.135 7.13 7.115 7.007 6.777 5.908 5.153 5.133 5.137 5.14 5.14 5.14 5.145 5.15 5.15 5.15 5.155 5.16 5.16 5.16 5.163 5.167 5.17 5.17 5.17 5.175 5.18 5.393 5.862 6.125 6.14 6.165 6.195 6.227 6.262 6.297 6.33 6.347 6.332 6.285 6.147 5.968 5.855 5.805 5.785 5.765 5.74 5.695 5.592 5.402 5.04 4.773 4.75 4.75 4.75 4.75 4.75 5.133
8.255 8.27 8.252 8.187 8.118 8.078 8.083 8.1 8.105 8.09 8.06 8.02 7.95 7.85 7.778 7.753 7.758 7.79 7.81 7.805 7.8 7.8 7.8 7.805 7.81 7.813 7.825 7.832 7.807 7.76 7.718 7.71 7.787 7.842 7.805 7.753 7.7 7.648 7.615 7.625 7.65 7.67 7.695 7.725 7.758 7.798 7.845 7.898 7.945 7.967 7.96 7.915 7.83 7.733 7.658 7.61 7.593 7.6 7.615 7.63 7.645 7.64 7.612 7.572 7.515 7.465 7.45 7.455 7.465 7.488 7.538 7.612 7.665 7.677 7.695 7.722 7.72 7.72 7.753 7.798 7.845 7.862 7.832 7.788 7.745 7.702 7.66 7.618 7.59 7.615 7.652 7.567 7.393 7.235 7.125 7.063 7.015 6.975 6.88 6.793 6.825 7 7.125 7.083 7.03 6.997 6.963 6.935 6.925 6.93 6.953 6.992 7.032 7.065 7.077 7.06 7.022 6.97 6.91 6.85 6.792 6.725 6.685 6.685 6.695 6.725 6.73 6.71 6.71 6.733 6.778 6.82 6.83 6.82 6.838 6.877 6.9 6.9 6.93 6.995 7.05 7.087 7.09 7.075 7.067 6.962 6.525 5.66 5.13 5.135 5.14 5.14 5.14 5.143 5.147 5.15 5.15 5.15 5.155 5.16 5.16 5.16 5.165 5.17 5.17 5.17 5.173 5.178 5.2 5.588 6.04 6.127 6.135 6.15 6.175 6.205 6.232 6.257 6.277 6.295 6.292 6.24 6.105 5.958 5.858 5.798 5.775 5.755 5.727 5.682 5.457 5.09 4.835 4.75 4.75 4.75 4.75 4.75 4.75 5.263
8.253 8.25 8.227 8.16 8.118 8.12 8.142 8.157 8.147 8.12 8.087 8.022 7.91 7.785 7.713 7.71 7.745 7.79 7.81 7.805 7.8 7.798 7.798 7.805 7.813 7.818 7.83 7.85 7.855 7.83 7.795 7.78 7.873 7.945 7.9 7.847 7.793 7.74 7.693 7.675 7.69 7.71 7.735 7.76 7.78 7.808 7.843 7.88 7.925 7.96 7.96 7.932 7.877 7.798 7.73 7.678 7.638 7.63 7.645 7.657 7.642 7.582 7.535 7.515 7.48 7.438 7.418 7.43 7.455 7.485 7.537 7.587 7.597 7.59 7.605 7.65 7.687 7.725 7.775 7.822 7.867 7.877 7.845 7.802 7.76 7.717 7.675 7.645 7.648 7.675 7.655 7.548 7.415 7.298 7.205 7.135 7.073 7.025 6.92 6.793 6.805 6.995 7.155 7.13 7.05 7.003 6.973 6.958 6.955 6.963 6.99 7.025 7.052 7.075 7.075 7.05 7.022 6.985 6.93 6.87 6.807 6.735 6.695 6.708 6.75 6.797 6.8 6.77 6.74 6.733 6.76 6.798 6.82 6.825 6.843 6.862 6.86 6.85 6.88 6.952 7.017 7.05 7.047 7.03 7.015 6.907 6.155 5.318 5.13 5.135 5.14 5.14 5.14 5.145 5.15 5.15 5.15 5.153 5.157 5.16 5.16 5.16 5.165 5.17 5.17 5.17 5.175 5.18 5.313 5.782 6.125 6.133 6.14 6.148 6.158 6.173 6.19 6.205 6.215 6.228 6.235 6.192 6.085 5.97 5.868 5.795 5.765 5.735 5.69 5.637 5.223 4.793 4.75 4.75 4.75 4.75 4.75 4.75 4.753 5.358
8.26 8.235 8.205 8.155 8.153 8.17 8.18 8.185 8.175 8.15 8.115 8.037 7.913 7.788 7.73 7.743 7.77 7.798 7.81 7.808 7.808 7.808 7.808 7.813 7.82 7.828 7.84 7.86 7.88 7.888 7.885 7.918 8.01 8.045 7.993 7.94 7.887 7.833 7.78 7.74 7.733 7.753 7.777 7.8 7.823 7.847 7.87 7.895 7.928 7.958 7.96 7.938 7.907 7.857 7.802 7.755 7.703 7.67 7.662 7.64 7.575 7.485 7.435 7.428 7.418 7.4 7.398 7.423 7.458 7.49 7.515 7.52 7.51 7.503 7.518 7.565 7.64 7.722 7.785 7.837 7.89 7.897 7.857 7.815 7.775 7.732 7.698 7.687 7.692 7.69 7.645 7.552 7.447 7.355 7.28 7.212 7.145 7.082 7.023 7 7.038 7.137 7.227 7.195 7.097 7.023 6.99 6.985 6.985 6.995 7.02 7.045 7.065 7.08 7.07 7.04 7.012 6.985 6.945 6.89 6.822 6.745 6.718 6.76 6.827 6.875 6.87 6.843 6.818 6.813 6.838 6.853 6.858 6.863 6.85 6.828 6.81 6.8 6.83 6.905 6.977 7.01 7.002 6.985 6.965 6.725 5.813 5.13 5.133 5.137 5.14 5.14 5.14 5.145 5.15 5.15 5.15 5.155 5.16 5.16 5.16 5.16 5.165 5.17 5.17 5.17 5.175 5.18 5.43 5.905 6.135 6.145 6.15 6.15 6.15 6.153 6.163 6.175 6.185 6.19 6.192 6.157 6.072 5.977 5.88 5.795 5.745 5.705 5.658 5.61 5.168 4.75 4.75 4.75 4.75 4.75 4.75 4.75 4.753 5.4
8.227 8.23 8.2 8.182 8.187 8.19 8.19 8.19 8.187 8.175 8.145 8.072 7.955 7.86 7.835 7.845 7.85 7.848 7.845 7.85 7.86 7.865 7.865 7.868 7.87 7.873 7.908 7.955 7.98 8 8.025 8.107 8.17 8.14 8.087 8.033 7.98 7.927 7.873 7.82 7.788 7.795 7.82 7.84 7.865 7.89 7.91 7.935 7.96 7.988 7.995 7.975 7.945 7.895 7.845 7.802 7.752 7.702 7.662 7.605 7.525 7.445 7.39 7.375 7.37 7.373 7.403 7.443 7.478 7.51 7.508 7.478 7.453 7.428 7.438 7.505 7.61 7.712 7.782 7.84 7.895 7.902 7.862 7.82 7.78 7.74 7.71 7.695 7.677 7.652 7.6 7.515 7.43 7.37 7.317 7.255 7.192 7.128 7.127 7.197 7.247 7.27 7.272 7.217 7.12 7.04 7.01 7.01 7.01 7.018 7.035 7.055 7.072 7.075 7.055 7.027 7 6.975 6.947 6.905 6.84 6.768 6.765 6.832 6.91 6.952 6.942 6.92 6.9 6.893 6.935 6.975 6.975 6.957 6.91 6.855 6.813 6.773 6.775 6.837 6.907 6.952 6.955 6.935 6.905 6.352 5.475 5.13 5.135 5.14 5.14 5.14 5.14 5.145 5.15 5.15 5.15 5.155 5.16 5.16 5.16 5.16 5.165 5.17 5.17 5.17 5.175 5.18 5.465 5.945 6.147 6.157 6.155 6.15 6.15 6.148 6.15 6.16 6.17 6.172 6.155 6.107 6.03 5.94 5.853 5.79 5.738 5.685 5.645 5.587 5.15 4.75 4.75 4.75 4.75 4.75 4.75 4.75 4.75 5.4
7.815 7.905 7.993 8.085 8.162 8.195 8.195 8.195 8.195 8.19 8.17 8.11 8.013 7.958 7.957 7.957 7.947 7.93 7.915 7.92 7.935 7.942 7.95 7.957 7.947 7.94 7.998 8.087 8.147 8.18 8.205 8.267 8.287 8.233 8.18 8.127 8.073 8.02 7.967 7.915 7.865 7.845 7.86 7.883 7.907 7.93 7.953 7.977 8 8.04 8.06 8.035 7.985 7.915 7.858 7.815 7.765 7.697 7.647 7.605 7.537 7.465 7.403 7.368 7.358 7.368 7.415 7.472 7.51 7.537 7.53 7.49 7.45 7.413 7.42 7.49 7.593 7.7 7.78 7.837 7.882 7.887 7.855 7.815 7.777 7.74 7.698 7.66 7.633 7.607 7.557 7.475 7.405 7.368 7.325 7.265 7.205 7.148 7.153 7.2 7.227 7.25 7.245 7.185 7.105 7.05 7.03 7.03 7.03 7.035 7.05 7.065 7.07 7.06 7.035 7.007 6.982 6.957 6.933 6.915 6.892 6.85 6.84 6.895 6.972 7.015 7.015 7 6.98 6.97 7.02 7.087 7.102 7.072 7.015 6.945 6.862 6.775 6.723 6.745 6.802 6.86 6.892 6.885 6.835 6.035 5.203 5.13 5.135 5.14 5.14 5.14 5.143 5.147 5.15 5.15 5.15 5.155 5.16 5.16 5.16 5.163 5.167 5.17 5.17 5.17 5.175 5.18 5.478 5.957 6.147 6.155 6.153 6.15 6.147 6.143 6.143 6.15 6.152 6.135 6.09 6.032 5.96 5.873 5.813 5.8 5.757 5.685 5.637 5.527 5.095 4.75 4.75 4.75 4.75 4.75 4.75 4.75 4.75 5.078
8.201 8.043 7.916 7.781 7.78 7.893 7.978 8.065 8.152 8.195 8.19 8.147 8.09 8.067 8.06 8.047 8.03 8.01 7.99 7.983 7.993 8.005 8.02 8.027 8.008 8.003 8.065 8.17 8.267 8.337 8.387 8.407 8.38 8.327 8.273 8.22 8.167 8.115 8.063 8.01 7.958 7.913 7.903 7.925 7.95 7.97 7.995 8.02 8.048 8.097 8.12 8.08 8.01 7.933 7.872 7.82 7.75 7.668 7.62 7.6 7.552 7.485 7.42 7.37 7.345 7.36 7.42 7.492 7.54 7.562 7.55 7.51 7.478 7.463 7.48 7.528 7.593 7.685 7.772 7.827 7.862 7.87 7.845 7.808 7.773 7.737 7.69 7.633 7.59 7.562 7.512 7.44 7.393 7.37 7.332 7.275 7.215 7.163 7.15 7.173 7.2 7.227 7.217 7.163 7.11 7.07 7.05 7.05 7.05 7.055 7.062 7.062 7.052 7.035 7.012 6.985 6.96 6.94 6.923 6.93 6.952 6.95 6.933 6.953 7.01 7.052 7.067 7.067 7.057 7.05 7.1 7.187 7.215 7.165 7.082 6.987 6.882 6.778 6.685 6.658 6.695 6.75 6.802 6.825 6.59 5.743 5.13 5.133 5.137 5.14 5.14 5.14 5.145 5.15 5.15 5.15 5.15 5.155 5.16 5.16 5.16 5.165 5.17 5.17 5.17 5.17 5.175 5.18 5.51 5.987 6.14 6.147 6.15 6.15 6.145 6.14 6.14 6.132 6.1 6.055 6.007 5.955 5.89 5.833 5.82 5.83 5.797 5.708 5.632 5.445 5.015 4.75 4.75 4.75 4.75 4.75 4.75 4.75 4.75 4.826
9.855 9.398 8.943 8.486 8.156 7.983 7.861 7.766 7.77 7.865 7.953 8.022 8.092 8.142 8.14 8.122 8.105 8.087 8.07 8.053 8.053 8.065 8.077 8.08 8.06 8.065 8.135 8.238 8.342 8.442 8.512 8.517 8.472 8.42 8.367 8.315 8.262 8.21 8.157 8.103 8.05 7.998 7.963 7.968 7.99 8.013 8.037 8.06 8.1 8.16 8.17 8.11 8.03 7.947 7.875 7.805 7.72 7.635 7.59 7.575 7.547 7.502 7.445 7.388 7.343 7.35 7.415 7.497 7.562 7.587 7.573 7.545 7.53 7.533 7.56 7.6 7.64 7.698 7.765 7.81 7.838 7.852 7.837 7.803 7.768 7.733 7.687 7.625 7.563 7.52 7.47 7.418 7.388 7.365 7.335 7.285 7.228 7.18 7.158 7.163 7.183 7.207 7.2 7.157 7.112 7.065 7.043 7.05 7.06 7.065 7.058 7.045 7.03 7.01 6.99 6.97 6.95 6.935 6.925 6.945 6.987 7.007 7.007 7.012 7.037 7.067 7.085 7.097 7.105 7.112 7.165 7.247 7.26 7.19 7.092 6.985 6.878 6.773 6.668 6.595 6.6 6.65 6.703 6.747 6.162 5.345 5.13 5.135 5.14 5.14 5.14 5.14 5.145 5.15 5.15 5.15 5.153 5.157 5.16 5.16 5.16 5.165 5.17 5.17 5.17 5.173 5.177 5.18 5.573 6.047 6.132 6.14 6.145 6.147 6.145 6.14 6.132 6.082 5.987 5.908 5.86 5.82 5.795 5.812 5.845 5.86 5.852 5.762 5.645 5.34 4.913 4.75 4.75 4.75 4.75 4.75 4.75 4.75 4.75 4.873
11.645 11.185 10.727 10.232 9.675 9.16 8.753 8.391 8.126 7.993 7.896 7.801 7.76 7.82 7.915 7.993 8.07 8.132 8.147 8.13 8.12 8.125 8.13 8.127 8.113 8.125 8.203 8.305 8.39 8.47 8.537 8.545 8.512 8.48 8.45 8.41 8.357 8.302 8.25 8.197 8.143 8.09 8.043 8.02 8.03 8.055 8.08 8.105 8.155 8.2 8.175 8.097 8.015 7.93 7.852 7.78 7.695 7.61 7.565 7.55 7.53 7.505 7.46 7.402 7.353 7.358 7.423 7.5 7.575 7.615 7.613 7.603 7.598 7.61 7.642 7.677 7.71 7.742 7.778 7.803 7.825 7.847 7.842 7.813 7.778 7.74 7.688 7.62 7.552 7.493 7.443 7.41 7.387 7.363 7.335 7.292 7.243 7.203 7.18 7.175 7.185 7.205 7.197 7.152 7.1 7.055 7.038 7.048 7.065 7.077 7.068 7.048 7.028 7.003 6.98 6.965 6.952 6.938 6.93 6.963 7.022 7.052 7.057 7.05 7.03 7.027 7.042 7.057 7.07 7.11 7.182 7.235 7.215 7.142 7.062 6.975 6.875 6.767 6.663 6.563 6.525 6.56 6.61 6.68 5.935 5.138 5.13 5.135 5.14 5.14 5.14 5.143 5.147 5.15 5.15 5.15 5.155 5.16 5.16 5.16 5.16 5.165 5.17 5.17 5.17 5.175 5.18 5.218 5.665 6.1 6.127 6.133 6.135 6.14 6.142 6.137 6.095 5.99 5.86 5.743 5.66 5.618 5.638 5.71 5.777 5.827 5.872 5.827 5.69 5.235 4.8 4.75 4.75 4.75 4.75 4.75 4.75 4.75 4.75 4.8
13.432 12.955 12.44 11.867 11.248 10.725 10.333 9.967 9.603 9.238 8.873 8.511 8.236 8.133 8.098 8.038 7.956 7.836 7.808 7.9 8.003 8.097 8.15 8.167 8.165 8.185 8.252 8.322 8.37 8.453 8.54 8.527 8.488 8.475 8.465 8.445 8.412 8.377 8.337 8.29 8.237 8.182 8.13 8.088 8.075 8.095 8.12 8.157 8.195 8.185 8.127 8.047 7.962 7.878 7.81 7.752 7.677 7.595 7.548 7.53 7.513 7.497 7.46 7.41 7.388 7.41 7.47 7.54 7.607 7.652 7.665 7.662 7.66 7.672 7.697 7.72 7.743 7.78 7.815 7.823 7.83 7.85 7.852 7.832 7.807 7.777 7.712 7.618 7.535 7.465 7.415 7.392 7.377 7.362 7.34 7.302 7.263 7.228 7.205 7.195 7.195 7.21 7.197 7.15 7.105 7.073 7.06 7.065 7.078 7.095 7.097 7.078 7.05 7.015 6.985 6.968 6.955 6.943 6.943 6.988 7.057 7.095 7.095 7.065 7.01 6.965 6.958 6.973 7.04 7.117 7.17 7.187 7.135 7.065 6.995 6.925 6.845 6.755 6.657 6.553 6.473 6.47 6.52 6.477 5.77 5.13 5.133 5.137 5.14 5.14 5.14 5.145 5.15 5.15 5.15 5.15 5.155 5.16 5.16 5.16 5.163 5.167 5.17 5.17 5.17 5.175 5.18 5.305 5.775 6.12 6.125 6.13 6.13 6.135 6.14 6.107 6.01 5.88 5.75 5.62 5.5 5.428 5.453 5.535 5.615 5.697 5.785 5.79 5.677 5.178 4.75 4.75 4.75 4.75 4.75 4.75 4.75 4.75 4.75 4.75
15.177 14.635 14.045 13.427 12.808 12.3 11.913 11.543 11.18 10.815 10.463 10.138 9.88 9.688 9.46 9.18 8.868 8.533 8.338 8.271 8.191 8.096 7.958 7.833 7.826 7.975 8.17 8.265 8.325 8.46 8.555 8.512 8.455 8.438 8.425 8.415 8.402 8.39 8.37 8.34 8.31 8.272 8.225 8.172 8.135 8.138 8.165 8.19 8.18 8.13 8.065 7.99 7.907 7.825 7.76 7.71 7.65 7.578 7.53 7.513 7.503 7.493 7.465 7.445 7.458 7.488 7.54 7.605 7.657 7.695 7.71 7.71 7.702 7.697 7.708 7.728 7.765 7.822 7.865 7.865 7.85 7.855 7.857 7.84 7.82 7.792 7.725 7.62 7.522 7.435 7.375 7.355 7.345 7.337 7.322 7.307 7.287 7.253 7.23 7.22 7.212 7.212 7.195 7.158 7.125 7.095 7.083 7.09 7.1 7.113 7.125 7.115 7.077 7.03 6.995 6.975 6.958 6.945 6.958 7.013 7.087 7.132 7.122 7.073 7.01 6.945 6.898 6.938 7.07 7.137 7.142 7.125 7.055 6.985 6.915 6.845 6.775 6.705 6.625 6.537 6.443 6.398 6.47 6.155 5.453 5.13 5.135 5.14 5.14 5.14 5.14 5.145 5.15 5.15 5.15 5.153 5.157 5.16 5.16 5.16 5.165 5.17 5.17 5.17 5.17 5.175 5.18 5.403 5.872 6.122 6.128 6.13 6.133 6.137 6.125 6.04 5.905 5.775 5.645 5.515 5.388 5.31 5.313 5.37 5.45 5.535 5.632 5.67 5.605 5.153 4.75 4.75 4.75 4.75 4.75 4.75 4.75 4.75 4.75 4.75
16.149 15.857 15.5 14.982 14.375 13.882 13.492 13.12 12.76 12.42 12.115 11.85 11.648 11.48 11.287 11.037 10.752 10.465 10.175 9.863 9.53 9.198 8.863 8.591 8.346 8.078 7.901 7.97 8.212 8.427 8.537 8.507 8.435 8.403 8.388 8.375 8.365 8.355 8.342 8.327 8.315 8.3 8.275 8.24 8.205 8.19 8.192 8.175 8.13 8.073 8.005 7.93 7.85 7.773 7.71 7.66 7.608 7.553 7.518 7.508 7.505 7.505 7.505 7.518 7.54 7.563 7.603 7.652 7.697 7.735 7.75 7.747 7.73 7.705 7.71 7.75 7.81 7.875 7.915 7.915 7.89 7.87 7.852 7.827 7.8 7.76 7.687 7.592 7.5 7.405 7.335 7.31 7.297 7.265 7.243 7.262 7.28 7.27 7.255 7.242 7.217 7.205 7.2 7.175 7.145 7.115 7.105 7.115 7.125 7.135 7.147 7.142 7.097 7.037 7 6.982 6.965 6.948 6.97 7.035 7.105 7.157 7.155 7.105 7.05 6.995 6.938 7.02 7.12 7.11 7.095 7.045 6.975 6.905 6.835 6.765 6.695 6.625 6.555 6.485 6.405 6.338 6.48 5.967 5.21 5.13 5.135 5.14 5.14 5.14 5.143 5.147 5.15 5.15 5.15 5.155 5.16 5.16 5.16 5.16 5.165 5.17 5.17 5.17 5.173 5.177 5.18 5.505 5.982 6.135 6.135 6.133 6.135 6.14 6.085 5.95 5.805 5.672 5.54 5.41 5.308 5.265 5.253 5.26 5.303 5.375 5.487 5.572 5.517 5.098 4.75 4.75 4.75 4.75 4.75 4.75 4.75 4.75 4.75 4.75
16.24 16.242 16.162 15.912 15.585 15.332 15.055 14.712 14.387 14.095 13.83 13.607 13.432 13.265 13.092 12.877 12.607 12.32 12.038 11.77 11.51 11.25 11.095 10.84 10.16 9.313 8.521 7.938 7.848 8.173 8.467 8.507 8.425 8.365 8.352 8.34 8.328 8.315 8.305 8.292 8.278 8.265 8.255 8.242 8.23 8.222 8.197 8.148 8.095 8.033 7.96 7.888 7.813 7.743 7.688 7.64 7.59 7.55 7.533 7.53 7.533 7.553 7.58 7.6 7.622 7.64 7.658 7.69 7.733 7.772 7.79 7.782 7.758 7.733 7.75 7.803 7.863 7.925 7.965 7.962 7.932 7.892 7.84 7.795 7.765 7.715 7.632 7.54 7.453 7.368 7.295 7.258 7.232 7.17 7.143 7.18 7.22 7.235 7.215 7.18 7.153 7.173 7.202 7.192 7.167 7.14 7.128 7.138 7.15 7.16 7.167 7.152 7.095 7.023 6.978 6.957 6.94 6.917 6.92 6.967 7.032 7.097 7.127 7.115 7.1 7.085 7.067 7.12 7.127 7.068 7.027 6.963 6.895 6.825 6.755 6.688 6.628 6.573 6.518 6.463 6.408 6.36 6.39 5.785 5.13 5.133 5.137 5.14 5.14 5.14 5.145 5.15 5.15 5.15 5.15 5.155 5.16 5.16 5.16 5.163 5.167 5.17 5.17 5.17 5.175 5.18 5.238 5.665 6.1 6.162 6.158 6.153 6.15 6.132 6.025 5.85 5.7 5.568 5.435 5.32 5.26 5.245 5.235 5.223 5.218 5.24 5.325 5.435 5.375 5.01 4.75 4.75 4.75 4.75 4.75 4.75 4.75 4.75 4.75 4.75
16.182 16.177 16.115 16.042 16.017 16.017 15.922 15.702 15.5 15.347 15.192 15.037 14.877 14.712 14.547 14.375 14.185 14.017 13.89 13.742 13.535 13.332 13.204 12.787 11.937 11.135 10.26 9.105 8.236 8.151 8.415 8.497 8.425 8.338 8.315 8.305 8.292 8.278 8.265 8.255 8.245 8.235 8.228 8.225 8.23 8.24 8.215 8.155 8.09 8.015 7.94 7.873 7.808 7.745 7.693 7.648 7.608 7.58 7.57 7.57 7.585 7.625 7.66 7.682 7.702 7.712 7.72 7.738 7.77 7.81 7.83 7.815 7.793 7.79 7.823 7.875 7.93 7.982 8.01 7.997 7.96 7.917 7.833 7.755 7.725 7.667 7.58 7.493 7.413 7.338 7.265 7.21 7.127 7.053 7.057 7.082 7.1 7.105 7.08 7.05 7.07 7.14 7.19 7.2 7.19 7.165 7.153 7.162 7.175 7.182 7.185 7.155 7.08 6.998 6.938 6.905 6.885 6.855 6.815 6.82 6.88 6.955 7.012 7.035 7.05 7.065 7.082 7.097 7.067 7.018 6.973 6.92 6.868 6.813 6.758 6.705 6.658 6.615 6.575 6.535 6.495 6.48 6.182 5.505 5.13 5.135 5.14 5.14 5.14 5.14 5.145 5.15 5.15 5.15 5.153 5.157 5.16 5.16 5.16 5.165 5.17 5.17 5.17 5.17 5.175 5.18 5.358 5.837 6.165 6.195 6.195 6.19 6.18 6.125 5.962 5.755 5.598 5.465 5.34 5.26 5.238 5.23 5.218 5.205 5.193 5.195 5.235 5.303 5.247 4.953 4.75 4.75 4.75 4.75 4.75 4.75 4.75 4.75 4.75 4.75
16.127 16.115 16.065 16.035 16.045 16.07 16.032 15.9 15.785 15.737 15.705 15.622 15.482 15.335 15.187 15.05 14.925 14.845 14.802 14.732 14.642 14.589 14.489 14.204 13.665 13.015 12.155 10.967 9.805 8.96 8.538 8.423 8.382 8.318 8.278 8.265 8.255 8.245 8.238 8.23 8.225 8.225 8.228 8.238 8.255 8.27 8.245 8.177 8.095 8.01 7.935 7.873 7.815 7.755 7.7 7.66 7.638 7.62 7.608 7.618 7.655 7.705 7.742 7.765 7.775 7.778 7.787 7.8 7.818 7.85 7.865 7.853 7.85 7.863 7.9 7.947 7.987 8.025 8.035 8.012 7.977 7.94 7.843 7.735 7.685 7.62 7.533 7.453 7.38 7.31 7.24 7.147 7 6.918 6.935 6.943 6.943 6.943 6.938 6.963 7.035 7.12 7.17 7.19 7.2 7.185 7.175 7.185 7.192 7.195 7.19 7.152 7.075 6.988 6.908 6.858 6.832 6.795 6.733 6.695 6.733 6.807 6.877 6.915 6.93 6.948 6.973 7.007 7.007 6.978 6.952 6.925 6.897 6.87 6.842 6.812 6.772 6.727 6.685 6.645 6.605 6.607 6.002 5.253 5.13 5.135 5.14 5.14 5.14 5.143 5.147 5.15 5.15 5.15 5.155 5.16 5.16 5.16 5.16 5.165 5.17 5.17 5.17 5.173 5.177 5.18 5.508 5.997 6.185 6.225 6.235 6.222 6.2 6.125 5.925 5.68 5.5 5.36 5.263 5.228 5.222 5.215 5.202 5.19 5.195 5.23 5.265 5.288 5.245 4.97 4.75 4.75 4.75 4.75 4.75 4.75 4.75 4.75 4.75 4.75
15.607 15.935 16.062 16.06 16.082 16.117 16.08 15.955 15.825 15.745 15.725 15.682 15.575 15.46 15.352 15.232 15.107 14.99 14.877 14.765 14.717 14.747 14.767 14.755 14.609 14.327 13.807 12.78 11.562 10.343 9.203 8.548 8.36 8.31 8.258 8.238 8.23 8.225 8.225 8.223 8.225 8.235 8.248 8.265 8.285 8.3 8.267 8.185 8.095 8.01 7.938 7.877 7.82 7.76 7.715 7.69 7.672 7.655 7.653 7.685 7.735 7.785 7.822 7.837 7.84 7.84 7.85 7.865 7.875 7.892 7.902 7.902 7.905 7.928 7.967 7.993 8.013 8.04 8.042 8.018 7.995 7.96 7.865 7.735 7.645 7.575 7.495 7.42 7.35 7.277 7.205 7.068 6.928 6.89 6.893 6.898 6.903 6.908 6.92 6.97 7.048 7.11 7.147 7.17 7.19 7.197 7.197 7.202 7.205 7.205 7.19 7.147 7.075 6.983 6.89 6.818 6.773 6.733 6.678 6.62 6.61 6.663 6.737 6.787 6.81 6.835 6.87 6.915 6.942 6.937 6.922 6.907 6.892 6.877 6.862 6.845 6.82 6.79 6.76 6.732 6.705 6.592 5.817 5.135 5.13 5.135 5.14 5.14 5.14 5.145 5.15 5.15 5.15 5.15 5.155 5.16 5.16 5.16 5.163 5.167 5.17 5.17 5.17 5.175 5.18 5.233 5.678 6.122 6.202 6.252 6.267 6.243 6.21 6.125 5.91 5.633 5.41 5.273 5.22 5.213 5.205 5.195 5.188 5.195 5.23 5.28 5.322 5.34 5.32 5.025 4.75 4.75 4.75 4.75 4.75 4.75 4.75 4.75 4.75 4.75
14.455 15.34 15.894 16.055 16.105 16.142 16.145 16.07 15.94 15.82 15.777 15.555 15.155 14.832 14.624 14.527 14.469 14.439 14.452 14.494 14.562 14.647 14.667 14.627 14.6 14.58 14.377 13.799 13.012 11.885 10.475 9.296 8.601 8.37 8.305 8.255 8.228 8.218 8.22 8.23 8.242 8.257 8.272 8.287 8.305 8.307 8.265 8.185 8.095 8.01 7.94 7.88 7.823 7.77 7.738 7.72 7.703 7.698 7.708 7.735 7.78 7.83 7.87 7.89 7.895 7.895 7.895 7.89 7.89 7.902 7.912 7.92 7.948 8 8.035 8.045 8.058 8.075 8.075 8.055 8.035 7.975 7.86 7.725 7.623 7.545 7.463 7.388 7.315 7.242 7.162 7.033 6.953 6.965 6.97 6.975 6.98 6.983 6.998 7.045 7.1 7.112 7.118 7.14 7.16 7.177 7.177 7.19 7.21 7.21 7.187 7.14 7.07 6.978 6.885 6.803 6.745 6.705 6.668 6.628 6.588 6.583 6.615 6.658 6.695 6.735 6.788 6.845 6.887 6.895 6.88 6.863 6.847 6.832 6.818 6.802 6.787 6.772 6.757 6.742 6.73 6.345 5.548 5.13 5.133 5.137 5.14 5.14 5.14 5.145 5.15 5.15 5.15 5.153 5.157 5.16 5.16 5.16 5.165 5.17 5.17 5.17 5.17 5.175 5.18 5.373 5.852 6.165 6.217 6.267 6.297 6.282 6.242 6.142 5.915 5.623 5.368 5.243 5.223 5.215 5.205 5.198 5.2 5.23 5.28 5.33 5.377 5.4 5.372 5.048 4.75 4.75 4.75 4.75 4.75 4.75 4.75 4.75 4.75 4.75
13.391 14.123 15.05 15.77 16.102 16.152 16.192 16.172 16.09 15.94 15.504 14.635 13.737 13.1 12.74 12.637 12.64 12.712 12.845 13.04 13.27 13.562 13.904 14.237 14.419 14.365 14.142 13.87 13.637 13.112 12.112 10.788 9.476 8.673 8.41 8.335 8.27 8.23 8.223 8.24 8.255 8.27 8.285 8.295 8.295 8.272 8.232 8.175 8.095 8.01 7.94 7.883 7.833 7.793 7.763 7.743 7.74 7.763 7.775 7.773 7.793 7.835 7.882 7.92 7.94 7.945 7.935 7.913 7.895 7.89 7.903 7.945 8.023 8.092 8.12 8.127 8.135 8.142 8.14 8.125 8.075 7.967 7.835 7.71 7.645 7.585 7.473 7.365 7.278 7.205 7.115 7.038 7.025 7.04 7.047 7.052 7.055 7.055 7.073 7.12 7.14 7.105 7.085 7.102 7.12 7.125 7.113 7.115 7.142 7.172 7.175 7.132 7.062 6.978 6.895 6.82 6.76 6.718 6.688 6.662 6.63 6.595 6.575 6.588 6.63 6.685 6.748 6.808 6.845 6.855 6.845 6.823 6.803 6.788 6.773 6.757 6.743 6.727 6.713 6.7 6.662 6.007 5.258 5.13 5.135 5.14 5.14 5.14 5.14 5.145 5.15 5.15 5.15 5.155 5.16 5.16 5.16 5.16 5.165 5.17 5.17 5.17 5.173 5.177 5.18 5.53 6.015 6.175 6.222 6.265 6.307 6.332 6.29 6.16 5.942 5.66 5.42 5.323 5.31 5.303 5.295 5.288 5.29 5.31 5.34 5.38 5.43 5.457 5.405 5.05 4.75 4.75 4.75 4.75 4.75 4.75 4.75 4.75 4.75 4.75
12.995 13.206 14.058 15.18 15.937 16.165 16.225 16.227 16.197 15.782 14.567 13.095 11.888 11.038 10.61 10.458 10.455 10.55 10.66 10.803 11.015 11.403 12.03 12.752 13.357 13.734 13.877 13.765 13.597 13.5 13.184 12.482 11.255 9.863 8.886 8.438 8.335 8.272 8.235 8.235 8.252 8.27 8.282 8.28 8.255 8.22 8.185 8.142 8.087 8.012 7.943 7.895 7.855 7.818 7.788 7.778 7.8 7.842 7.86 7.845 7.835 7.85 7.888 7.932 7.97 7.99 7.985 7.968 7.95 7.935 7.958 8.033 8.127 8.187 8.202 8.207 8.212 8.217 8.215 8.175 8.075 7.945 7.813 7.705 7.685 7.68 7.575 7.428 7.3 7.185 7.1 7.078 7.095 7.112 7.122 7.125 7.125 7.125 7.147 7.17 7.14 7.085 7.058 7.065 7.072 7.065 7.05 7.03 7.025 7.053 7.08 7.082 7.055 6.992 6.92 6.85 6.783 6.735 6.705 6.678 6.652 6.625 6.598 6.595 6.635 6.695 6.755 6.792 6.803 6.812 6.812 6.79 6.765 6.748 6.73 6.713 6.698 6.682 6.668 6.675 6.465 5.685 5.13 5.133 5.137 5.14 5.14 5.14 5.143 5.147 5.15 5.15 5.15 5.155 5.16 5.16 5.16 5.16 5.165 5.17 5.17 5.17 5.175 5.18 5.203 5.647 6.112 6.175 6.218 6.26 6.298 6.345 6.305 6.152 5.97 5.72 5.533 5.483 5.465 5.458 5.452 5.445 5.44 5.443 5.45 5.467 5.492 5.5 5.422 5.05 4.75 4.75 4.75 4.75 4.75 4.75 4.75 4.75 4.75 4.75
13.013 13.003 13.503 14.553 15.615 16.145 16.235 16.297 16.36 15.532 13.67 11.795 10.271 9.453 9.196 9.088 9.086 9.131 9.176 9.263 9.388 9.566 9.938 10.596 11.43 12.252 12.869 13.202 13.372 13.39 13.297 13.192 12.714 11.724 10.428 9.291 8.601 8.29 8.233 8.195 8.195 8.225 8.247 8.232 8.197 8.167 8.135 8.095 8.055 8.005 7.955 7.917 7.88 7.843 7.82 7.832 7.872 7.92 7.94 7.92 7.892 7.875 7.89 7.935 7.98 8.025 8.05 8.045 8.038 8.035 8.065 8.14 8.222 8.26 8.265 8.277 8.287 8.295 8.272 8.182 8.052 7.92 7.788 7.708 7.715 7.747 7.702 7.57 7.415 7.258 7.16 7.148 7.165 7.185 7.192 7.19 7.192 7.195 7.197 7.172 7.118 7.065 7.03 7.02 7.015 7.005 6.99 6.97 6.948 6.95 6.985 7.028 7.042 7.007 6.945 6.875 6.805 6.753 6.72 6.693 6.668 6.643 6.63 6.635 6.668 6.725 6.782 6.8 6.78 6.773 6.772 6.757 6.735 6.715 6.693 6.67 6.653 6.638 6.643 6.685 6.167 5.375 5.13 5.135 5.14 5.14 5.14 5.14 5.145 5.15 5.15 5.15 5.153 5.157 5.16 5.16 5.16 5.163 5.167 5.17 5.17 5.17 5.175 5.18 5.255 5.727 6.142 6.178 6.215 6.255 6.29 6.327 6.285 6.137 5.99 5.802 5.67 5.647 5.625 5.612 5.607 5.6 5.592 5.58 5.56 5.54 5.52 5.492 5.335 4.973 4.75 4.75 4.75 4.75 4.75 4.75 4.75 4.75 4.75 4.75
13.042 12.998 13.138 13.96 15.225 16.017 16.22 16.345 16.492 15.529 13.345 11.048 9.396 8.87 8.815 8.765 8.738 8.73 8.773 8.87 8.93 8.928 8.988 9.263 9.696 10.338 11.095 11.815 12.5 12.999 13.182 13.125 13.032 12.777 12.159 11.122 9.865 8.858 8.331 8.15 8.11 8.125 8.162 8.155 8.12 8.105 8.085 8.045 8.008 7.983 7.965 7.937 7.9 7.863 7.843 7.855 7.892 7.937 7.96 7.945 7.915 7.885 7.89 7.935 7.988 8.073 8.14 8.147 8.145 8.143 8.175 8.252 8.305 8.305 8.295 8.305 8.32 8.33 8.28 8.16 8.027 7.893 7.768 7.718 7.745 7.785 7.797 7.717 7.565 7.405 7.265 7.213 7.227 7.245 7.247 7.235 7.235 7.24 7.215 7.16 7.105 7.055 7.015 6.995 6.98 6.958 6.935 6.915 6.895 6.915 6.97 7.007 7.015 6.997 6.96 6.9 6.83 6.773 6.735 6.708 6.683 6.668 6.683 6.7 6.715 6.76 6.807 6.807 6.775 6.75 6.738 6.725 6.705 6.685 6.66 6.638 6.623 6.618 6.65 6.557 5.828 5.175 5.13 5.135 5.14 5.14 5.14 5.143 5.147 5.15 5.15 5.15 5.155 5.16 5.16 5.16 5.16 5.165 5.17 5.17 5.17 5.17 5.175 5.18 5.335 5.812 6.152 6.188 6.223 6.253 6.278 6.302 6.26 6.122 5.947 5.815 5.79 5.785 5.74 5.707 5.695 5.685 5.667 5.625 5.57 5.52 5.472 5.425 5.148 4.823 4.75 4.75 4.75 4.75 4.75 4.75 4.75 4.75 4.75 4.75
