ncols         200
nrows         71
xllcorner     547000
yllcorner     253480
cellsize      5
NODATA_value  -9999.0
37.175 37.097 36.982 36.822 36.662 36.505 36.345 36.177 36.002 35.827 35.637 35.422 35.195 34.965 34.755 34.565 34.37 34.172 33.952 33.71 33.47 33.253 33.08 32.928 32.775 32.618 32.458 32.303 32.15 32.018 31.915 31.828 31.74 31.642 31.537 31.432 31.327 31.227 31.122 31.01 30.9 30.79 30.672 30.535 30.385 30.24 30.125 30.043 29.97 29.895 29.825 29.747 29.648 29.54 29.428 29.343 29.305 29.285 29.24 29.117 28.933 28.74 28.578 28.44 28.303 28.178 28.085 28 27.905 27.815 27.72 27.63 27.548 27.463 27.378 27.3 27.228 27.155 27.103 27.075 27.055 27.035 26.992 26.92 26.837 26.748 26.685 26.653 26.617 26.572 26.515 26.46 26.405 26.35 26.302 26.27 26.25 26.215 26.168 26.122 26.072 26.012 25.958 25.915 25.875 25.835 25.79 25.74 25.69 25.643 25.615 25.608 25.603 25.59 25.542 25.465 25.385 25.31 25.27 25.26 25.25 25.243 25.24 25.242 25.245 25.248 25.255 25.265 25.275 25.288 25.305 25.325 25.343 25.365 25.398 25.435 25.477 25.517 25.53 25.537 25.567 25.6 25.622 25.632 25.64 25.657 25.67 25.675 25.685 25.69 25.68 25.61 25.495 25.425 25.79 26.287 26.44 26.18 25.88 25.792 25.63 25.51 25.483 25.478 25.443 25.42 25.43 25.458 25.488 25.503 25.523 25.645 25.845 26.045 26.235 26.372 26.437 26.478 26.555 26.66 26.765 26.855 26.895 26.9 26.9 26.9 26.935 27.01 27.09 27.167 27.227 27.267 27.303 27.34 27.378 27.415 27.455 27.52 27.645 27.812
37.31 37.225 37.112 36.965 36.805 36.645 36.492 36.345 36.185 36.012 35.82 35.6 35.37 35.15 34.95 34.76 34.568 34.362 34.135 33.893 33.648 33.43 33.258 33.108 32.96 32.813 32.662 32.508 32.355 32.228 32.13 32.045 31.96 31.87 31.775 31.67 31.562 31.452 31.347 31.247 31.14 31.03 30.91 30.77 30.62 30.473 30.365 30.29 30.215 30.142 30.053 29.94 29.818 29.7 29.613 29.565 29.535 29.507 29.46 29.345 29.17 28.978 28.81 28.668 28.525 28.388 28.275 28.183 28.09 27.995 27.898 27.808 27.72 27.635 27.555 27.48 27.41 27.333 27.278 27.255 27.237 27.22 27.172 27.087 26.992 26.893 26.825 26.79 26.745 26.69 26.642 26.6 26.547 26.495 26.447 26.412 26.387 26.352 26.305 26.26 26.215 26.162 26.122 26.092 26.055 26.015 25.96 25.895 25.84 25.79 25.76 25.75 25.742 25.727 25.675 25.593 25.51 25.438 25.393 25.375 25.365 25.355 25.343 25.335 25.335 25.34 25.35 25.36 25.37 25.38 25.398 25.423 25.445 25.468 25.5 25.54 25.58 25.605 25.585 25.555 25.575 25.622 25.662 25.69 25.71 25.717 25.717 25.727 25.742 25.745 25.69 25.588 25.523 25.738 26.215 26.45 26.352 26.143 26 25.905 25.748 25.63 25.613 25.615 25.578 25.548 25.543 25.568 25.603 25.64 25.713 25.85 26.035 26.237 26.407 26.487 26.515 26.55 26.625 26.733 26.84 26.93 26.982 26.995 26.985 26.975 27.008 27.085 27.165 27.24 27.295 27.333 27.368 27.41 27.455 27.495 27.538 27.605 27.728 27.888
37.42 37.312 37.195 37.065 36.915 36.755 36.608 36.475 36.335 36.175 35.987 35.77 35.55 35.353 35.165 34.972 34.772 34.555 34.32 34.078 33.845 33.645 33.475 33.32 33.17 33.025 32.875 32.723 32.58 32.458 32.36 32.275 32.19 32.1 32.005 31.897 31.782 31.665 31.56 31.467 31.367 31.26 31.147 31.025 30.89 30.743 30.628 30.553 30.478 30.405 30.307 30.175 30.038 29.913 29.82 29.765 29.725 29.69 29.637 29.55 29.422 29.245 29.073 28.925 28.775 28.623 28.498 28.405 28.31 28.2 28.095 28.005 27.915 27.828 27.748 27.672 27.592 27.503 27.445 27.425 27.41 27.387 27.327 27.232 27.128 27.028 26.963 26.925 26.847 26.758 26.722 26.7 26.655 26.605 26.565 26.542 26.522 26.49 26.445 26.397 26.345 26.288 26.265 26.265 26.242 26.205 26.145 26.063 25.993 25.94 25.91 25.9 25.885 25.862 25.81 25.73 25.655 25.588 25.535 25.503 25.485 25.475 25.455 25.435 25.428 25.43 25.44 25.45 25.46 25.468 25.488 25.522 25.552 25.575 25.603 25.64 25.68 25.685 25.645 25.598 25.58 25.61 25.655 25.687 25.71 25.69 25.66 25.665 25.683 25.697 25.677 25.605 25.7 26.147 26.505 26.547 26.293 26.118 26.14 26.023 25.89 25.8 25.833 25.91 25.91 25.875 25.84 25.838 25.868 25.905 25.958 26.043 26.18 26.365 26.525 26.6 26.62 26.64 26.71 26.82 26.91 26.957 27 27.042 27.05 27.04 27.073 27.153 27.235 27.307 27.36 27.398 27.44 27.495 27.545 27.588 27.633 27.69 27.803 27.96
37.505 37.388 37.27 37.147 37.015 36.865 36.72 36.592 36.465 36.325 36.152 35.948 35.748 35.565 35.38 35.18 34.962 34.737 34.505 34.273 34.063 33.875 33.705 33.545 33.388 33.237 33.088 32.943 32.813 32.693 32.59 32.505 32.42 32.33 32.232 32.12 31.997 31.875 31.77 31.682 31.59 31.485 31.373 31.26 31.145 31.012 30.898 30.817 30.742 30.667 30.565 30.432 30.3 30.173 30.058 29.968 29.905 29.862 29.802 29.72 29.627 29.495 29.337 29.182 29.022 28.86 28.728 28.622 28.512 28.395 28.29 28.202 28.115 28.025 27.94 27.857 27.765 27.668 27.613 27.592 27.562 27.517 27.45 27.362 27.262 27.165 27.1 27.037 26.915 26.805 26.78 26.78 26.755 26.71 26.678 26.665 26.652 26.625 26.58 26.525 26.457 26.39 26.375 26.4 26.412 26.395 26.335 26.245 26.155 26.09 26.058 26.042 26.022 26 25.95 25.873 25.805 25.743 25.688 25.645 25.613 25.595 25.575 25.548 25.528 25.523 25.53 25.538 25.545 25.553 25.575 25.615 25.652 25.68 25.705 25.74 25.77 25.755 25.705 25.66 25.62 25.613 25.645 25.683 25.698 25.648 25.6 25.608 25.628 25.645 25.655 25.698 26.01 26.497 26.685 26.517 26.285 26.273 26.285 26.165 26.06 25.978 26.013 26.137 26.21 26.205 26.16 26.128 26.135 26.173 26.225 26.288 26.373 26.508 26.645 26.707 26.715 26.73 26.8 26.887 26.935 26.963 27.003 27.06 27.1 27.105 27.138 27.22 27.305 27.375 27.427 27.473 27.525 27.585 27.637 27.682 27.727 27.775 27.88 28.038
37.58 37.463 37.345 37.223 37.1 36.97 36.835 36.71 36.585 36.457 36.312 36.137 35.955 35.777 35.587 35.372 35.147 34.922 34.7 34.49 34.293 34.105 33.935 33.775 33.613 33.453 33.305 33.173 33.048 32.925 32.82 32.732 32.647 32.557 32.452 32.335 32.213 32.088 31.98 31.895 31.807 31.708 31.6 31.49 31.38 31.265 31.155 31.067 30.995 30.922 30.82 30.69 30.56 30.432 30.317 30.212 30.12 30.045 29.965 29.88 29.795 29.697 29.577 29.43 29.265 29.1 28.955 28.83 28.71 28.59 28.485 28.398 28.31 28.22 28.128 28.033 27.935 27.835 27.77 27.732 27.68 27.62 27.555 27.48 27.392 27.302 27.222 27.112 26.96 26.85 26.828 26.84 26.84 26.818 26.795 26.785 26.775 26.752 26.705 26.64 26.565 26.493 26.475 26.505 26.537 26.555 26.52 26.435 26.338 26.253 26.203 26.18 26.157 26.135 26.09 26.02 25.955 25.895 25.84 25.795 25.755 25.723 25.695 25.665 25.64 25.623 25.62 25.625 25.63 25.64 25.665 25.703 25.74 25.775 25.808 25.842 25.85 25.818 25.77 25.723 25.675 25.64 25.65 25.7 25.828 25.86 25.893 25.963 25.923 25.913 25.91 26.015 26.417 26.762 26.752 26.45 26.288 26.427 26.435 26.335 26.242 26.158 26.188 26.322 26.445 26.507 26.49 26.445 26.417 26.435 26.492 26.555 26.617 26.697 26.775 26.805 26.805 26.818 26.865 26.913 26.938 26.965 27.005 27.063 27.122 27.157 27.205 27.287 27.37 27.442 27.5 27.552 27.607 27.665 27.72 27.767 27.815 27.863 27.965 28.123
37.678 37.563 37.445 37.325 37.203 37.08 36.955 36.828 36.702 36.577 36.447 36.302 36.135 35.96 35.767 35.545 35.32 35.103 34.908 34.727 34.538 34.348 34.175 34.015 33.853 33.685 33.543 33.423 33.295 33.17 33.055 32.958 32.872 32.782 32.672 32.55 32.43 32.31 32.205 32.118 32.033 31.94 31.838 31.73 31.617 31.497 31.373 31.27 31.195 31.122 31.03 30.91 30.78 30.655 30.54 30.435 30.337 30.243 30.135 30.035 29.95 29.862 29.77 29.647 29.492 29.33 29.178 29.043 28.918 28.795 28.688 28.595 28.505 28.415 28.32 28.22 28.118 28.013 27.928 27.865 27.808 27.75 27.683 27.605 27.52 27.428 27.313 27.165 27.005 26.895 26.888 26.933 26.965 26.963 26.945 26.938 26.925 26.882 26.815 26.745 26.67 26.61 26.588 26.6 26.633 26.667 26.67 26.612 26.525 26.43 26.35 26.308 26.282 26.257 26.217 26.155 26.09 26.03 25.975 25.93 25.89 25.85 25.815 25.785 25.76 25.738 25.73 25.735 25.74 25.748 25.77 25.808 25.843 25.878 25.91 25.94 25.942 25.908 25.86 25.813 25.765 25.73 25.748 25.853 26.15 26.425 26.585 26.645 26.572 26.522 26.452 26.475 26.757 26.945 26.7 26.423 26.435 26.547 26.555 26.482 26.407 26.333 26.363 26.502 26.625 26.695 26.7 26.675 26.652 26.66 26.707 26.76 26.805 26.84 26.875 26.902 26.91 26.915 26.933 26.958 26.978 26.993 27.023 27.08 27.148 27.2 27.257 27.335 27.412 27.482 27.542 27.6 27.655 27.71 27.765 27.815 27.868 27.948 28.07 28.223
37.795 37.685 37.57 37.45 37.327 37.205 37.08 36.948 36.82 36.695 36.565 36.43 36.277 36.11 35.922 35.705 35.488 35.293 35.125 34.967 34.792 34.605 34.43 34.27 34.102 33.925 33.785 33.68 33.56 33.435 33.31 33.193 33.095 33.005 32.897 32.773 32.655 32.548 32.45 32.358 32.27 32.182 32.082 31.975 31.852 31.715 31.578 31.453 31.355 31.278 31.195 31.092 30.97 30.845 30.733 30.63 30.538 30.452 30.335 30.203 30.103 30.017 29.93 29.83 29.702 29.55 29.403 29.273 29.148 29.025 28.908 28.8 28.705 28.615 28.52 28.417 28.31 28.2 28.105 28.03 27.968 27.91 27.84 27.755 27.67 27.585 27.46 27.298 27.15 27.075 27.103 27.163 27.18 27.155 27.133 27.12 27.08 27.002 26.918 26.845 26.788 26.76 26.733 26.71 26.728 26.76 26.772 26.752 26.697 26.61 26.515 26.44 26.398 26.372 26.332 26.272 26.21 26.15 26.095 26.05 26.01 25.97 25.935 25.905 25.883 25.868 25.863 25.865 25.867 25.87 25.89 25.93 25.962 25.985 26.007 26.03 26.037 26.017 25.975 25.93 25.898 25.888 25.925 26.125 26.487 26.825 26.987 26.992 26.952 26.912 26.887 26.922 27.017 26.972 26.625 26.438 26.55 26.632 26.635 26.578 26.528 26.5 26.563 26.682 26.752 26.772 26.772 26.767 26.772 26.797 26.835 26.865 26.88 26.888 26.923 26.987 27.022 27.028 27.04 27.057 27.062 27.058 27.073 27.125 27.187 27.232 27.285 27.357 27.427 27.49 27.552 27.615 27.672 27.73 27.785 27.843 27.93 28.063 28.203 28.34
37.917 37.805 37.69 37.573 37.455 37.335 37.207 37.073 36.943 36.815 36.682 36.545 36.402 36.252 36.077 35.873 35.675 35.5 35.34 35.192 35.037 34.865 34.69 34.52 34.342 34.16 34.02 33.925 33.822 33.702 33.575 33.445 33.325 33.225 33.12 33.003 32.895 32.793 32.695 32.603 32.513 32.425 32.325 32.207 32.072 31.93 31.792 31.655 31.53 31.438 31.355 31.26 31.152 31.035 30.928 30.835 30.75 30.667 30.552 30.405 30.273 30.17 30.08 29.99 29.89 29.765 29.632 29.512 29.395 29.275 29.15 29.025 28.913 28.813 28.715 28.61 28.5 28.39 28.295 28.213 28.135 28.07 27.998 27.92 27.855 27.795 27.682 27.538 27.448 27.42 27.437 27.445 27.407 27.355 27.32 27.275 27.195 27.105 27.023 26.965 26.94 26.927 26.897 26.855 26.835 26.848 26.857 26.852 26.835 26.78 26.695 26.603 26.528 26.488 26.445 26.388 26.33 26.27 26.218 26.173 26.13 26.09 26.055 26.03 26.013 26 25.995 25.995 25.993 25.993 26.013 26.045 26.067 26.083 26.102 26.117 26.12 26.115 26.093 26.068 26.06 26.063 26.145 26.402 26.707 26.922 27.045 27.072 27.047 27.035 27.092 27.175 27.187 26.908 26.573 26.543 26.63 26.705 26.707 26.673 26.67 26.7 26.76 26.81 26.825 26.827 26.828 26.83 26.853 26.89 26.912 26.915 26.915 26.92 26.955 27.035 27.11 27.14 27.15 27.152 27.142 27.128 27.135 27.177 27.222 27.255 27.305 27.373 27.435 27.495 27.558 27.623 27.685 27.748 27.82 27.918 28.053 28.207 28.347 28.473
38.042 37.93 37.815 37.698 37.58 37.462 37.335 37.2 37.068 36.935 36.8 36.66 36.52 36.38 36.227 36.055 35.882 35.715 35.555 35.41 35.268 35.115 34.942 34.758 34.575 34.398 34.26 34.163 34.067 33.962 33.84 33.71 33.58 33.46 33.35 33.243 33.14 33.037 32.94 32.85 32.757 32.665 32.557 32.425 32.285 32.145 32.005 31.868 31.733 31.613 31.515 31.423 31.328 31.225 31.128 31.045 30.965 30.882 30.77 30.622 30.47 30.34 30.243 30.155 30.065 29.96 29.847 29.742 29.635 29.522 29.4 29.27 29.143 29.023 28.91 28.8 28.69 28.58 28.483 28.398 28.315 28.24 28.17 28.11 28.062 28.015 27.932 27.837 27.78 27.737 27.687 27.635 27.582 27.53 27.472 27.392 27.298 27.205 27.14 27.118 27.11 27.095 27.062 27.017 26.975 26.95 26.945 26.943 26.937 26.92 26.865 26.777 26.688 26.618 26.56 26.503 26.445 26.388 26.34 26.295 26.25 26.21 26.178 26.16 26.145 26.13 26.123 26.12 26.118 26.118 26.13 26.15 26.165 26.178 26.193 26.205 26.215 26.223 26.223 26.225 26.235 26.24 26.358 26.59 26.792 26.967 27.097 27.137 27.128 27.128 27.19 27.252 27.247 26.985 26.735 26.75 26.78 26.805 26.805 26.805 26.832 26.865 26.882 26.882 26.88 26.883 26.888 26.903 26.93 26.975 27 26.988 26.97 26.958 26.988 27.073 27.177 27.235 27.235 27.222 27.21 27.195 27.198 27.23 27.265 27.298 27.345 27.405 27.465 27.523 27.578 27.643 27.713 27.78 27.883 28.03 28.19 28.35 28.5 28.65
38.165 38.055 37.942 37.827 37.71 37.592 37.467 37.332 37.195 37.055 36.915 36.775 36.635 36.498 36.365 36.23 36.077 35.912 35.772 35.647 35.51 35.365 35.195 35.005 34.818 34.643 34.505 34.403 34.307 34.21 34.095 33.965 33.835 33.705 33.59 33.487 33.383 33.28 33.182 33.087 32.993 32.9 32.785 32.645 32.505 32.375 32.248 32.115 31.983 31.848 31.735 31.645 31.545 31.433 31.33 31.245 31.165 31.082 30.97 30.82 30.668 30.533 30.428 30.34 30.245 30.135 30.027 29.93 29.83 29.725 29.617 29.5 29.37 29.24 29.123 29.013 28.898 28.783 28.678 28.59 28.513 28.435 28.365 28.31 28.262 28.217 28.16 28.09 28.02 27.947 27.858 27.773 27.715 27.665 27.595 27.503 27.408 27.323 27.28 27.272 27.265 27.252 27.22 27.175 27.13 27.08 27.053 27.05 27.048 27.042 27.01 26.937 26.85 26.763 26.69 26.633 26.575 26.52 26.473 26.428 26.385 26.343 26.315 26.305 26.29 26.275 26.265 26.258 26.255 26.255 26.265 26.283 26.295 26.308 26.318 26.328 26.345 26.36 26.37 26.38 26.398 26.42 26.503 26.663 26.838 27.015 27.155 27.202 27.198 27.22 27.282 27.31 27.282 27.135 26.992 26.967 26.942 26.917 26.908 26.92 26.94 26.955 26.96 26.955 26.95 26.945 26.95 26.968 27 27.062 27.105 27.102 27.075 27.04 27.068 27.168 27.262 27.307 27.307 27.293 27.28 27.255 27.243 27.3 27.367 27.405 27.45 27.505 27.563 27.61 27.648 27.698 27.768 27.84 27.955 28.12 28.29 28.428 28.805 29.137
38.283 38.17 38.063 37.957 37.847 37.73 37.602 37.465 37.322 37.173 37.025 36.885 36.75 36.62 36.498 36.382 36.247 36.09 35.97 35.877 35.76 35.622 35.455 35.268 35.088 34.92 34.773 34.653 34.553 34.455 34.337 34.205 34.075 33.945 33.83 33.73 33.627 33.525 33.423 33.318 33.22 33.127 33.012 32.873 32.748 32.648 32.535 32.405 32.272 32.135 32.02 31.92 31.795 31.658 31.538 31.438 31.35 31.267 31.152 31.005 30.86 30.728 30.62 30.527 30.422 30.303 30.19 30.09 29.987 29.88 29.79 29.7 29.58 29.453 29.343 29.24 29.125 29.005 28.895 28.803 28.723 28.645 28.57 28.505 28.45 28.402 28.337 28.26 28.19 28.115 28.02 27.918 27.838 27.78 27.71 27.618 27.53 27.46 27.425 27.415 27.405 27.395 27.367 27.325 27.275 27.215 27.18 27.173 27.17 27.165 27.135 27.075 26.997 26.91 26.835 26.78 26.725 26.67 26.62 26.573 26.53 26.488 26.465 26.462 26.45 26.435 26.425 26.415 26.408 26.405 26.42 26.445 26.46 26.472 26.48 26.485 26.498 26.51 26.523 26.545 26.578 26.615 26.668 26.758 26.895 27.063 27.21 27.265 27.268 27.317 27.362 27.35 27.315 27.195 27.085 27.062 27.038 27.013 27 27.005 27.02 27.035 27.037 27.032 27.025 27.008 27.005 27.028 27.085 27.165 27.202 27.207 27.2 27.17 27.205 27.295 27.345 27.37 27.377 27.365 27.345 27.287 27.245 27.34 27.482 27.552 27.598 27.65 27.697 27.735 27.76 27.788 27.84 27.91 28.028 28.187 28.322 28.42 28.955 29.512
38.4 38.285 38.18 38.08 37.977 37.865 37.735 37.592 37.442 37.288 37.14 37.003 36.875 36.75 36.63 36.52 36.402 36.265 36.15 36.07 35.98 35.867 35.715 35.54 35.378 35.22 35.065 34.925 34.808 34.702 34.582 34.448 34.315 34.185 34.07 33.97 33.87 33.772 33.67 33.56 33.455 33.355 33.238 33.113 33.02 32.942 32.832 32.697 32.562 32.425 32.3 32.175 32.028 31.88 31.755 31.645 31.543 31.455 31.34 31.198 31.06 30.923 30.813 30.712 30.592 30.468 30.353 30.247 30.14 30.03 29.943 29.872 29.78 29.665 29.558 29.46 29.355 29.24 29.13 29.033 28.94 28.858 28.783 28.71 28.645 28.587 28.515 28.43 28.355 28.28 28.185 28.078 27.978 27.9 27.825 27.74 27.668 27.603 27.565 27.555 27.545 27.535 27.512 27.47 27.41 27.345 27.31 27.3 27.292 27.285 27.252 27.197 27.135 27.058 26.985 26.93 26.877 26.823 26.77 26.72 26.673 26.633 26.615 26.612 26.605 26.595 26.585 26.575 26.563 26.555 26.57 26.6 26.625 26.637 26.643 26.648 26.655 26.673 26.7 26.738 26.782 26.825 26.875 26.933 27.01 27.128 27.262 27.33 27.35 27.4 27.42 27.387 27.345 27.255 27.175 27.155 27.132 27.11 27.1 27.098 27.103 27.115 27.115 27.105 27.087 27.063 27.058 27.1 27.185 27.267 27.3 27.305 27.31 27.303 27.333 27.38 27.405 27.43 27.442 27.435 27.385 27.28 27.22 27.328 27.522 27.665 27.74 27.782 27.82 27.855 27.88 27.9 27.928 27.983 28.092 28.212 28.29 28.403 28.82 29.362
38.525 38.408 38.3 38.2 38.1 37.995 37.865 37.715 37.56 37.405 37.263 37.13 37.005 36.88 36.76 36.65 36.543 36.43 36.33 36.25 36.172 36.085 35.962 35.817 35.67 35.517 35.365 35.218 35.08 34.953 34.825 34.693 34.558 34.428 34.315 34.215 34.115 34.017 33.915 33.805 33.695 33.588 33.478 33.38 33.302 33.225 33.115 32.972 32.83 32.687 32.557 32.42 32.258 32.1 31.973 31.868 31.765 31.665 31.54 31.398 31.26 31.12 31.003 30.89 30.76 30.633 30.515 30.405 30.3 30.195 30.103 30.033 29.962 29.872 29.772 29.675 29.575 29.47 29.365 29.265 29.165 29.075 28.998 28.923 28.85 28.778 28.695 28.608 28.525 28.445 28.35 28.243 28.135 28.043 27.965 27.89 27.823 27.755 27.71 27.698 27.69 27.68 27.657 27.608 27.54 27.475 27.44 27.43 27.418 27.405 27.37 27.315 27.263 27.2 27.138 27.083 27.03 26.975 26.923 26.875 26.825 26.783 26.765 26.76 26.755 26.753 26.745 26.735 26.723 26.713 26.725 26.76 26.79 26.802 26.81 26.815 26.82 26.845 26.887 26.935 26.985 27.032 27.082 27.137 27.195 27.263 27.348 27.407 27.442 27.467 27.457 27.42 27.375 27.318 27.27 27.25 27.23 27.21 27.2 27.195 27.193 27.195 27.19 27.175 27.153 27.13 27.133 27.193 27.29 27.37 27.4 27.405 27.413 27.425 27.45 27.47 27.483 27.495 27.508 27.482 27.385 27.263 27.21 27.323 27.535 27.737 27.86 27.9 27.935 27.97 28 28.028 28.048 28.083 28.15 28.213 28.26 28.348 28.638 29.068
38.65 38.53 38.42 38.32 38.225 38.132 38.005 37.85 37.698 37.55 37.413 37.278 37.148 37.02 36.908 36.813 36.718 36.618 36.52 36.438 36.362 36.28 36.175 36.05 35.917 35.79 35.665 35.528 35.385 35.245 35.11 34.978 34.84 34.703 34.575 34.465 34.365 34.265 34.158 34.045 33.935 33.825 33.713 33.61 33.525 33.445 33.34 33.2 33.05 32.905 32.795 32.685 32.53 32.363 32.233 32.138 32.035 31.91 31.765 31.62 31.478 31.333 31.2 31.078 30.95 30.82 30.703 30.6 30.5 30.393 30.295 30.22 30.147 30.057 29.962 29.87 29.77 29.67 29.57 29.47 29.378 29.303 29.235 29.163 29.085 28.998 28.903 28.808 28.71 28.618 28.535 28.455 28.365 28.265 28.18 28.11 28.04 27.973 27.89 27.835 27.827 27.82 27.802 27.762 27.698 27.628 27.59 27.583 27.57 27.542 27.502 27.455 27.405 27.353 27.298 27.243 27.188 27.13 27.083 27.042 26.995 26.95 26.93 26.925 26.92 26.918 26.915 26.91 26.9 26.89 26.903 26.942 26.962 26.965 26.977 26.985 26.99 27.015 27.06 27.115 27.167 27.2 27.245 27.307 27.362 27.415 27.462 27.502 27.527 27.522 27.493 27.455 27.42 27.39 27.368 27.352 27.335 27.315 27.303 27.298 27.293 27.29 27.295 27.29 27.27 27.25 27.26 27.32 27.403 27.472 27.505 27.518 27.53 27.55 27.585 27.61 27.615 27.615 27.618 27.583 27.49 27.385 27.33 27.408 27.6 27.82 27.957 28 28.035 28.083 28.143 28.2 28.238 28.263 28.295 28.335 28.373 28.405 28.533 28.848
38.765 38.65 38.54 38.445 38.363 38.28 38.155 38.003 37.86 37.725 37.59 37.453 37.323 37.205 37.11 37.025 36.93 36.827 36.725 36.635 36.555 36.47 36.365 36.24 36.128 36.048 35.965 35.855 35.725 35.585 35.448 35.31 35.167 35.02 34.87 34.733 34.62 34.52 34.41 34.29 34.175 34.065 33.94 33.808 33.703 33.617 33.515 33.387 33.245 33.108 33.015 32.942 32.827 32.673 32.543 32.44 32.312 32.16 32.005 31.86 31.712 31.56 31.42 31.295 31.17 31.04 30.928 30.827 30.72 30.605 30.503 30.425 30.332 30.213 30.115 30.037 29.947 29.85 29.75 29.66 29.595 29.55 29.495 29.422 29.34 29.245 29.143 29.035 28.938 28.868 28.815 28.752 28.662 28.548 28.45 28.38 28.315 28.255 28.14 28.008 27.958 27.95 27.94 27.925 27.882 27.815 27.775 27.765 27.737 27.682 27.64 27.612 27.57 27.52 27.465 27.407 27.35 27.288 27.243 27.215 27.175 27.13 27.108 27.102 27.097 27.09 27.09 27.097 27.095 27.085 27.098 27.127 27.13 27.123 27.137 27.152 27.16 27.185 27.23 27.277 27.305 27.305 27.345 27.425 27.485 27.535 27.577 27.602 27.6 27.578 27.548 27.518 27.495 27.478 27.465 27.455 27.442 27.425 27.41 27.405 27.397 27.395 27.417 27.437 27.43 27.41 27.42 27.475 27.542 27.597 27.628 27.645 27.66 27.68 27.72 27.762 27.785 27.787 27.783 27.765 27.717 27.635 27.573 27.59 27.715 27.92 28.052 28.093 28.14 28.213 28.3 28.385 28.455 28.495 28.525 28.562 28.597 28.628 28.655 28.79
38.855 38.765 38.67 38.585 38.51 38.43 38.312 38.173 38.038 37.905 37.773 37.645 37.533 37.433 37.342 37.247 37.14 37.033 36.933 36.838 36.75 36.662 36.553 36.445 36.373 36.327 36.262 36.165 36.055 35.927 35.79 35.647 35.5 35.35 35.195 35.038 34.895 34.78 34.667 34.543 34.42 34.305 34.18 34.035 33.9 33.793 33.685 33.565 33.435 33.308 33.22 33.16 33.085 32.972 32.847 32.717 32.565 32.405 32.248 32.097 31.942 31.785 31.648 31.523 31.398 31.27 31.155 31.045 30.93 30.815 30.708 30.62 30.502 30.358 30.255 30.185 30.11 30.025 29.945 29.888 29.847 29.812 29.757 29.677 29.587 29.49 29.388 29.293 29.235 29.21 29.157 29.06 28.945 28.823 28.723 28.655 28.597 28.54 28.425 28.258 28.13 28.08 28.07 28.065 28.05 28.007 27.97 27.937 27.88 27.81 27.768 27.752 27.727 27.685 27.63 27.57 27.507 27.443 27.4 27.377 27.347 27.31 27.285 27.277 27.27 27.26 27.263 27.277 27.285 27.282 27.292 27.302 27.29 27.28 27.293 27.312 27.328 27.355 27.387 27.405 27.402 27.388 27.418 27.515 27.602 27.652 27.687 27.695 27.675 27.658 27.638 27.61 27.588 27.57 27.56 27.552 27.545 27.53 27.517 27.51 27.498 27.495 27.52 27.555 27.575 27.57 27.58 27.632 27.69 27.737 27.765 27.778 27.793 27.813 27.85 27.9 27.94 27.957 27.957 27.945 27.922 27.872 27.83 27.83 27.878 28.025 28.147 28.198 28.273 28.36 28.45 28.54 28.63 28.702 28.752 28.79 28.822 28.85 28.87 28.9
38.928 38.867 38.805 38.737 38.662 38.582 38.477 38.35 38.22 38.088 37.963 37.855 37.76 37.67 37.575 37.468 37.355 37.243 37.14 37.045 36.95 36.855 36.763 36.698 36.655 36.62 36.555 36.452 36.347 36.237 36.11 35.967 35.822 35.677 35.525 35.365 35.205 35.06 34.93 34.8 34.673 34.55 34.418 34.273 34.128 33.995 33.875 33.753 33.625 33.505 33.42 33.357 33.295 33.217 33.1 32.952 32.795 32.637 32.482 32.325 32.16 32.005 31.875 31.755 31.632 31.492 31.362 31.252 31.14 31.025 30.912 30.802 30.663 30.508 30.4 30.333 30.265 30.195 30.142 30.112 30.085 30.06 30.01 29.925 29.832 29.735 29.647 29.582 29.54 29.502 29.425 29.312 29.197 29.085 28.99 28.925 28.872 28.817 28.705 28.537 28.37 28.245 28.2 28.195 28.19 28.175 28.142 28.085 28.015 27.943 27.895 27.88 27.865 27.837 27.79 27.727 27.662 27.598 27.555 27.533 27.51 27.485 27.463 27.45 27.44 27.433 27.438 27.45 27.46 27.47 27.477 27.47 27.45 27.438 27.448 27.47 27.49 27.505 27.505 27.495 27.485 27.47 27.483 27.58 27.702 27.765 27.785 27.777 27.76 27.76 27.745 27.713 27.685 27.665 27.655 27.648 27.64 27.63 27.622 27.61 27.593 27.595 27.623 27.655 27.69 27.712 27.735 27.78 27.825 27.865 27.895 27.912 27.927 27.943 27.975 28.025 28.072 28.107 28.11 28.09 28.075 28.06 28.08 28.112 28.115 28.17 28.255 28.33 28.42 28.51 28.6 28.687 28.775 28.862 28.937 28.995 29.04 29.07 29.09 29.105
39.015 38.965 38.927 38.885 38.817 38.737 38.635 38.512 38.388 38.27 38.175 38.09 38.003 37.917 37.82 37.705 37.59 37.485 37.385 37.283 37.178 37.08 37.015 36.975 36.935 36.897 36.83 36.725 36.618 36.512 36.39 36.25 36.11 35.972 35.835 35.687 35.53 35.37 35.225 35.09 34.958 34.825 34.68 34.535 34.395 34.255 34.125 34 33.855 33.713 33.608 33.533 33.467 33.4 33.287 33.135 32.982 32.83 32.682 32.527 32.37 32.238 32.12 32 31.857 31.69 31.553 31.445 31.337 31.227 31.115 30.987 30.838 30.685 30.568 30.493 30.428 30.365 30.318 30.287 30.265 30.247 30.202 30.122 30.037 29.955 29.89 29.837 29.78 29.715 29.627 29.522 29.415 29.312 29.197 29.097 29.04 28.987 28.895 28.742 28.57 28.413 28.335 28.328 28.323 28.317 28.297 28.245 28.175 28.103 28.048 28.023 28.008 27.987 27.945 27.88 27.815 27.76 27.728 27.71 27.688 27.665 27.648 27.635 27.623 27.61 27.613 27.625 27.635 27.65 27.655 27.64 27.62 27.6 27.6 27.62 27.642 27.65 27.63 27.605 27.583 27.558 27.55 27.635 27.787 27.872 27.875 27.855 27.853 27.87 27.86 27.823 27.788 27.763 27.753 27.745 27.738 27.73 27.717 27.702 27.688 27.695 27.727 27.76 27.795 27.83 27.86 27.892 27.93 27.967 28.002 28.032 28.05 28.063 28.095 28.143 28.195 28.245 28.225 28.178 28.165 28.183 28.292 28.412 28.435 28.405 28.43 28.52 28.61 28.67 28.735 28.825 28.91 28.995 29.072 29.147 29.212 29.252 29.272 29.287
39.115 39.068 39.037 39.012 38.965 38.892 38.79 38.67 38.555 38.46 38.392 38.33 38.255 38.17 38.07 37.958 37.853 37.762 37.665 37.555 37.45 37.36 37.293 37.243 37.2 37.16 37.09 36.985 36.88 36.775 36.65 36.51 36.373 36.24 36.115 35.987 35.845 35.69 35.542 35.405 35.265 35.122 34.975 34.828 34.685 34.545 34.415 34.275 34.095 33.925 33.8 33.703 33.625 33.56 33.452 33.298 33.148 33.005 32.862 32.715 32.585 32.485 32.377 32.232 32.05 31.873 31.74 31.63 31.522 31.415 31.305 31.182 31.04 30.89 30.758 30.663 30.593 30.533 30.485 30.448 30.415 30.39 30.345 30.27 30.19 30.12 30.075 30.035 29.98 29.912 29.822 29.72 29.62 29.525 29.38 29.21 29.11 29.05 28.975 28.86 28.705 28.548 28.47 28.463 28.457 28.45 28.44 28.412 28.355 28.285 28.225 28.183 28.16 28.142 28.097 28.033 27.978 27.94 27.92 27.905 27.882 27.86 27.845 27.832 27.812 27.788 27.785 27.802 27.815 27.83 27.835 27.82 27.797 27.768 27.753 27.763 27.788 27.807 27.792 27.758 27.723 27.695 27.683 27.745 27.887 27.97 27.955 27.938 27.953 27.977 27.972 27.935 27.895 27.865 27.853 27.847 27.84 27.825 27.805 27.79 27.78 27.79 27.83 27.872 27.907 27.942 27.967 27.985 28.015 28.055 28.095 28.132 28.157 28.175 28.21 28.263 28.325 28.39 28.345 28.248 28.22 28.275 28.45 28.65 28.712 28.658 28.668 28.745 28.795 28.795 28.838 28.947 29.042 29.125 29.2 29.27 29.332 29.377 29.4 29.415
39.187 39.17 39.14 39.12 39.092 39.04 38.95 38.843 38.745 38.66 38.595 38.545 38.487 38.415 38.323 38.22 38.13 38.045 37.945 37.843 37.75 37.665 37.59 37.525 37.468 37.42 37.35 37.248 37.142 37.035 36.91 36.773 36.64 36.51 36.385 36.265 36.137 36 35.857 35.712 35.565 35.417 35.272 35.125 34.977 34.835 34.69 34.515 34.31 34.138 34.013 33.9 33.798 33.717 33.612 33.465 33.323 33.19 33.048 32.915 32.815 32.727 32.607 32.43 32.23 32.058 31.93 31.82 31.71 31.6 31.49 31.375 31.242 31.098 30.96 30.845 30.76 30.7 30.655 30.615 30.575 30.538 30.483 30.408 30.33 30.26 30.225 30.207 30.172 30.11 30.02 29.923 29.83 29.737 29.587 29.385 29.218 29.118 29.038 28.94 28.825 28.685 28.605 28.598 28.593 28.583 28.57 28.557 28.525 28.465 28.405 28.355 28.318 28.295 28.252 28.198 28.16 28.133 28.112 28.095 28.077 28.06 28.042 28.02 27.99 27.96 27.955 27.975 27.992 28.01 28.012 27.992 27.965 27.933 27.908 27.908 27.938 27.967 27.958 27.928 27.908 27.9 27.9 27.923 28.007 28.057 28.033 28.033 28.057 28.08 28.077 28.048 28.01 27.975 27.955 27.945 27.93 27.91 27.893 27.88 27.87 27.878 27.92 27.972 28.015 28.055 28.08 28.09 28.11 28.145 28.185 28.225 28.26 28.288 28.328 28.393 28.465 28.535 28.487 28.343 28.275 28.368 28.57 28.772 28.872 28.872 28.892 28.917 28.905 28.875 28.92 29.05 29.167 29.255 29.325 29.382 29.435 29.48 29.507 29.522
39.197 39.24 39.243 39.23 39.218 39.19 39.122 39.03 38.943 38.865 38.81 38.768 38.723 38.675 38.6 38.505 38.418 38.33 38.235 38.143 38.055 37.97 37.895 37.825 37.755 37.692 37.612 37.51 37.405 37.295 37.172 37.04 36.91 36.78 36.652 36.527 36.4 36.27 36.135 35.992 35.847 35.702 35.557 35.41 35.26 35.112 34.94 34.733 34.52 34.353 34.23 34.113 33.998 33.893 33.778 33.643 33.508 33.375 33.245 33.132 33.037 32.94 32.797 32.607 32.41 32.243 32.12 32.01 31.9 31.79 31.678 31.56 31.437 31.302 31.168 31.043 30.938 30.87 30.825 30.785 30.748 30.71 30.645 30.56 30.475 30.403 30.37 30.36 30.342 30.3 30.222 30.132 30.045 29.947 29.795 29.595 29.395 29.248 29.148 29.043 28.94 28.823 28.75 28.74 28.733 28.728 28.713 28.693 28.673 28.635 28.588 28.54 28.493 28.453 28.415 28.38 28.35 28.325 28.305 28.285 28.27 28.255 28.23 28.198 28.165 28.133 28.123 28.143 28.165 28.187 28.187 28.16 28.13 28.1 28.07 28.063 28.095 28.135 28.143 28.133 28.133 28.14 28.145 28.143 28.153 28.14 28.118 28.135 28.163 28.188 28.193 28.168 28.133 28.095 28.07 28.055 28.033 28.01 27.988 27.97 27.96 27.963 28 28.055 28.108 28.16 28.192 28.205 28.218 28.238 28.27 28.31 28.35 28.398 28.46 28.533 28.605 28.675 28.635 28.475 28.373 28.458 28.653 28.835 28.987 29.05 29.045 29.022 28.987 28.955 29.003 29.14 29.28 29.38 29.438 29.485 29.535 29.582 29.612 29.625
39.21 39.29 39.355 39.38 39.378 39.365 39.31 39.223 39.143 39.085 39.068 39.055 39.02 38.983 38.917 38.825 38.735 38.645 38.555 38.465 38.375 38.285 38.193 38.11 38.04 37.97 37.877 37.765 37.657 37.547 37.42 37.287 37.16 37.03 36.9 36.77 36.64 36.505 36.37 36.235 36.095 35.952 35.805 35.655 35.505 35.36 35.18 34.96 34.75 34.59 34.47 34.353 34.24 34.118 33.983 33.848 33.71 33.575 33.45 33.335 33.23 33.125 32.975 32.783 32.588 32.423 32.3 32.19 32.08 31.98 31.875 31.753 31.632 31.505 31.372 31.242 31.12 31.045 31.008 30.973 30.94 30.907 30.842 30.75 30.658 30.58 30.545 30.533 30.518 30.487 30.422 30.337 30.25 30.16 30.015 29.818 29.635 29.505 29.405 29.295 29.18 29.04 28.938 28.9 28.89 28.935 28.97 28.938 28.88 28.823 28.773 28.728 28.68 28.645 28.615 28.58 28.553 28.528 28.503 28.483 28.468 28.45 28.423 28.388 28.355 28.32 28.303 28.318 28.34 28.362 28.362 28.335 28.305 28.275 28.245 28.243 28.278 28.317 28.345 28.36 28.37 28.38 28.382 28.37 28.325 28.265 28.248 28.27 28.303 28.335 28.337 28.308 28.273 28.24 28.223 28.213 28.193 28.168 28.138 28.108 28.085 28.065 28.085 28.143 28.2 28.26 28.3 28.315 28.325 28.335 28.358 28.395 28.438 28.5 28.592 28.685 28.76 28.827 28.792 28.64 28.54 28.618 28.8 28.98 29.122 29.162 29.135 29.105 29.07 29.035 29.085 29.253 29.42 29.512 29.563 29.608 29.655 29.692 29.725 29.75
39.262 39.345 39.44 39.522 39.555 39.552 39.502 39.423 39.363 39.328 39.335 39.36 39.352 39.32 39.255 39.165 39.075 38.985 38.895 38.805 38.712 38.612 38.498 38.393 38.315 38.242 38.142 38.018 37.903 37.792 37.66 37.518 37.385 37.255 37.128 37 36.87 36.735 36.6 36.465 36.322 36.175 36.025 35.875 35.728 35.59 35.417 35.203 35.01 34.86 34.738 34.625 34.502 34.36 34.215 34.075 33.94 33.81 33.67 33.53 33.413 33.305 33.152 32.958 32.768 32.603 32.475 32.365 32.263 32.18 32.085 31.96 31.827 31.687 31.55 31.42 31.3 31.225 31.197 31.175 31.145 31.112 31.05 30.96 30.87 30.788 30.745 30.73 30.712 30.682 30.617 30.53 30.45 30.382 30.25 30.06 29.925 29.85 29.765 29.652 29.505 29.315 29.178 29.108 29.078 29.152 29.24 29.207 29.11 29.023 28.96 28.918 28.888 28.88 28.862 28.81 28.77 28.745 28.715 28.69 28.67 28.65 28.625 28.592 28.557 28.523 28.503 28.505 28.523 28.54 28.535 28.512 28.485 28.455 28.428 28.438 28.477 28.51 28.542 28.572 28.592 28.605 28.605 28.575 28.515 28.458 28.438 28.453 28.483 28.512 28.502 28.463 28.428 28.403 28.395 28.392 28.382 28.36 28.33 28.297 28.25 28.185 28.18 28.24 28.3 28.36 28.4 28.415 28.425 28.435 28.453 28.485 28.535 28.603 28.705 28.827 28.925 28.997 28.962 28.84 28.788 28.87 29.04 29.192 29.257 29.245 29.212 29.18 29.148 29.143 29.245 29.447 29.595 29.655 29.705 29.752 29.787 29.795 29.823 29.882
39.282 39.395 39.49 39.6 39.69 39.73 39.7 39.643 39.608 39.583 39.588 39.625 39.652 39.65 39.595 39.505 39.415 39.325 39.235 39.142 39.042 38.937 38.82 38.698 38.598 38.517 38.412 38.28 38.155 38.04 37.907 37.755 37.61 37.478 37.352 37.225 37.097 36.965 36.827 36.687 36.542 36.395 36.245 36.098 35.958 35.825 35.655 35.458 35.29 35.143 35.013 34.89 34.747 34.593 34.445 34.313 34.19 34.065 33.917 33.758 33.61 33.485 33.332 33.14 32.955 32.785 32.653 32.553 32.465 32.39 32.295 32.16 32.002 31.843 31.703 31.588 31.485 31.405 31.373 31.362 31.345 31.32 31.26 31.17 31.08 30.995 30.948 30.927 30.905 30.875 30.81 30.73 30.668 30.612 30.487 30.335 30.258 30.207 30.125 29.982 29.78 29.565 29.43 29.36 29.303 29.335 29.407 29.38 29.285 29.205 29.155 29.13 29.125 29.13 29.127 29.075 29.003 28.963 28.933 28.9 28.875 28.855 28.827 28.795 28.76 28.725 28.708 28.703 28.71 28.717 28.705 28.685 28.662 28.635 28.618 28.635 28.67 28.703 28.737 28.77 28.797 28.82 28.817 28.775 28.722 28.675 28.65 28.653 28.668 28.685 28.665 28.62 28.583 28.565 28.565 28.565 28.562 28.55 28.522 28.475 28.397 28.303 28.285 28.345 28.405 28.462 28.5 28.515 28.525 28.538 28.553 28.58 28.638 28.71 28.805 28.935 29.062 29.162 29.155 29.093 29.085 29.14 29.265 29.35 29.347 29.32 29.288 29.255 29.265 29.345 29.512 29.682 29.757 29.798 29.845 29.885 29.895 29.88 29.895 29.975
39.22 39.4 39.542 39.668 39.783 39.877 39.91 39.893 39.865 39.838 39.838 39.878 39.933 39.972 39.94 39.85 39.76 39.67 39.575 39.473 39.368 39.263 39.145 39.018 38.898 38.795 38.682 38.55 38.418 38.29 38.153 38 37.85 37.708 37.575 37.448 37.323 37.193 37.053 36.908 36.763 36.618 36.473 36.33 36.195 36.063 35.905 35.735 35.58 35.428 35.28 35.135 34.983 34.828 34.685 34.563 34.445 34.32 34.17 34.005 33.84 33.688 33.528 33.34 33.153 32.975 32.845 32.76 32.68 32.602 32.492 32.333 32.155 31.995 31.873 31.773 31.675 31.585 31.538 31.53 31.527 31.517 31.467 31.38 31.292 31.208 31.15 31.12 31.095 31.065 31.01 30.948 30.893 30.84 30.75 30.66 30.61 30.56 30.457 30.262 30.03 29.818 29.688 29.622 29.558 29.54 29.562 29.54 29.463 29.398 29.373 29.37 29.375 29.38 29.385 29.35 29.27 29.2 29.158 29.123 29.09 29.063 29.033 28.998 28.963 28.93 28.913 28.905 28.903 28.898 28.88 28.86 28.84 28.815 28.808 28.832 28.865 28.897 28.927 28.955 28.982 29.007 29.002 28.965 28.927 28.89 28.867 28.86 28.86 28.855 28.82 28.772 28.73 28.712 28.717 28.722 28.727 28.727 28.695 28.617 28.52 28.42 28.395 28.45 28.51 28.565 28.6 28.615 28.633 28.66 28.69 28.723 28.763 28.82 28.908 29.03 29.17 29.295 29.345 29.347 29.365 29.397 29.442 29.452 29.425 29.395 29.378 29.403 29.495 29.63 29.772 29.862 29.9 29.94 29.977 29.992 29.98 29.963 29.965 30.035
39.148 39.378 39.607 39.785 39.905 40.02 40.127 40.175 40.16 40.128 40.128 40.18 40.25 40.31 40.29 40.2 40.115 40.04 39.95 39.838 39.728 39.615 39.49 39.365 39.24 39.105 38.968 38.835 38.7 38.565 38.423 38.27 38.12 37.973 37.835 37.708 37.58 37.448 37.308 37.165 37.023 36.878 36.735 36.598 36.463 36.323 36.18 36.035 35.883 35.728 35.555 35.385 35.233 35.08 34.938 34.808 34.687 34.565 34.417 34.252 34.085 33.918 33.75 33.573 33.385 33.205 33.075 32.988 32.905 32.827 32.7 32.52 32.343 32.19 32.078 31.983 31.885 31.783 31.718 31.705 31.705 31.705 31.665 31.58 31.495 31.418 31.363 31.33 31.305 31.27 31.222 31.172 31.12 31.067 31.01 30.955 30.902 30.84 30.715 30.507 30.273 30.06 29.935 29.875 29.815 29.765 29.733 29.698 29.648 29.618 29.615 29.62 29.625 29.63 29.635 29.62 29.565 29.488 29.438 29.408 29.37 29.333 29.298 29.258 29.215 29.168 29.138 29.133 29.123 29.108 29.088 29.06 29.033 29.003 28.993 29.015 29.045 29.072 29.095 29.12 29.145 29.16 29.152 29.122 29.09 29.052 29.025 29.017 29.012 28.992 28.95 28.9 28.85 28.823 28.825 28.835 28.845 28.867 28.842 28.75 28.648 28.558 28.533 28.573 28.63 28.685 28.725 28.753 28.788 28.83 28.875 28.915 28.938 28.965 29.02 29.123 29.252 29.37 29.447 29.485 29.515 29.562 29.577 29.545 29.513 29.495 29.525 29.618 29.74 29.862 29.957 30.007 30.043 30.078 30.098 30.095 30.083 30.073 30.07 30.118
39.13 39.375 39.647 39.9 40.062 40.18 40.315 40.435 40.475 40.453 40.463 40.528 40.6 40.66 40.64 40.555 40.488 40.437 40.357 40.242 40.125 40 39.87 39.745 39.61 39.45 39.29 39.148 39.01 38.872 38.722 38.563 38.413 38.268 38.132 38.002 37.867 37.727 37.588 37.452 37.315 37.17 37.028 36.892 36.75 36.6 36.463 36.335 36.195 36.042 35.858 35.663 35.498 35.345 35.198 35.055 34.925 34.802 34.66 34.495 34.325 34.155 33.99 33.825 33.645 33.465 33.33 33.23 33.14 33.06 32.927 32.748 32.575 32.423 32.305 32.207 32.105 31.99 31.918 31.9 31.895 31.895 31.855 31.77 31.693 31.633 31.59 31.562 31.53 31.48 31.43 31.39 31.345 31.292 31.24 31.185 31.117 31.032 30.902 30.72 30.502 30.29 30.165 30.11 30.05 29.982 29.923 29.88 29.885 29.91 29.918 29.923 29.928 29.927 29.912 29.895 29.862 29.8 29.758 29.737 29.707 29.67 29.63 29.582 29.517 29.435 29.39 29.385 29.362 29.34 29.325 29.298 29.263 29.225 29.198 29.188 29.2 29.225 29.245 29.27 29.292 29.3 29.287 29.255 29.212 29.16 29.128 29.122 29.117 29.1 29.06 29.007 28.953 28.915 28.908 28.915 28.938 28.995 28.987 28.89 28.81 28.773 28.763 28.773 28.813 28.865 28.908 28.945 28.988 29.033 29.077 29.115 29.142 29.16 29.175 29.215 29.3 29.407 29.487 29.53 29.578 29.667 29.705 29.665 29.635 29.64 29.705 29.805 29.91 30.02 30.105 30.153 30.195 30.245 30.273 30.275 30.273 30.268 30.263 30.275
39.115 39.377 39.653 39.945 40.185 40.34 40.475 40.625 40.74 40.772 40.798 40.87 40.947 41.01 40.995 40.928 40.883 40.845 40.765 40.645 40.52 40.39 40.26 40.125 39.967 39.795 39.63 39.478 39.333 39.19 39.035 38.868 38.71 38.563 38.427 38.292 38.147 38.003 37.865 37.735 37.602 37.462 37.322 37.18 37.025 36.87 36.735 36.617 36.495 36.355 36.175 35.965 35.773 35.61 35.463 35.317 35.175 35.04 34.897 34.735 34.562 34.39 34.225 34.065 33.897 33.728 33.593 33.487 33.387 33.292 33.157 32.985 32.818 32.66 32.53 32.422 32.31 32.19 32.12 32.103 32.09 32.085 32.045 31.97 31.91 31.863 31.825 31.79 31.74 31.683 31.633 31.595 31.557 31.512 31.46 31.387 31.3 31.205 31.07 30.9 30.715 30.52 30.395 30.332 30.26 30.183 30.118 30.11 30.182 30.252 30.272 30.267 30.25 30.222 30.187 30.167 30.155 30.112 30.073 30.055 30.035 30.007 29.965 29.897 29.805 29.703 29.65 29.632 29.595 29.568 29.562 29.55 29.517 29.477 29.435 29.398 29.375 29.378 29.395 29.417 29.432 29.435 29.417 29.375 29.32 29.26 29.23 29.228 29.222 29.207 29.17 29.115 29.06 29.013 28.99 29.005 29.06 29.14 29.135 29.07 29.053 29.065 29.065 29.053 29.058 29.09 29.127 29.158 29.195 29.238 29.28 29.315 29.345 29.367 29.375 29.37 29.388 29.453 29.528 29.59 29.68 29.797 29.837 29.81 29.8 29.815 29.878 29.973 30.07 30.172 30.255 30.313 30.378 30.452 30.497 30.51 30.52 30.52 30.51 30.498
39.025 39.352 39.652 39.95 40.24 40.472 40.638 40.788 40.94 41.055 41.13 41.205 41.285 41.357 41.362 41.315 41.28 41.242 41.16 41.035 40.907 40.78 40.64 40.482 40.31 40.135 39.97 39.815 39.665 39.515 39.355 39.185 39.018 38.86 38.718 38.575 38.425 38.278 38.14 38.01 37.877 37.742 37.597 37.445 37.292 37.14 37.007 36.892 36.775 36.65 36.482 36.272 36.065 35.882 35.722 35.572 35.425 35.277 35.125 34.962 34.792 34.62 34.455 34.295 34.135 33.977 33.845 33.735 33.625 33.515 33.382 33.222 33.057 32.893 32.748 32.628 32.51 32.39 32.32 32.305 32.29 32.277 32.242 32.188 32.14 32.095 32.052 32 31.943 31.888 31.835 31.795 31.76 31.722 31.655 31.557 31.465 31.37 31.237 31.067 30.895 30.728 30.61 30.535 30.457 30.38 30.335 30.375 30.467 30.552 30.582 30.555 30.51 30.463 30.435 30.432 30.435 30.415 30.385 30.367 30.352 30.327 30.272 30.182 30.077 29.97 29.905 29.872 29.828 29.793 29.792 29.795 29.77 29.73 29.685 29.645 29.6 29.568 29.558 29.563 29.575 29.585 29.568 29.51 29.44 29.37 29.335 29.333 29.328 29.315 29.278 29.223 29.168 29.113 29.085 29.123 29.208 29.292 29.315 29.312 29.335 29.355 29.355 29.337 29.317 29.317 29.345 29.375 29.407 29.445 29.482 29.515 29.545 29.57 29.58 29.575 29.56 29.563 29.6 29.683 29.808 29.932 29.985 29.98 29.98 29.993 30.053 30.148 30.243 30.34 30.428 30.505 30.585 30.665 30.712 30.73 30.75 30.76 30.752 30.737
38.867 39.26 39.595 39.895 40.2 40.53 40.817 41.007 41.163 41.32 41.437 41.512 41.595 41.687 41.717 41.68 41.645 41.61 41.53 41.405 41.28 41.165 41.025 40.853 40.675 40.498 40.33 40.175 40.022 39.86 39.69 39.52 39.347 39.173 39.015 38.87 38.715 38.545 38.395 38.27 38.135 38 37.84 37.673 37.525 37.377 37.245 37.125 37.005 36.885 36.725 36.52 36.317 36.133 35.958 35.792 35.64 35.49 35.33 35.165 35 34.832 34.67 34.51 34.347 34.18 34.037 33.922 33.807 33.69 33.572 33.442 33.285 33.118 32.968 32.838 32.713 32.59 32.523 32.51 32.498 32.485 32.452 32.405 32.36 32.312 32.262 32.205 32.148 32.09 32.035 31.995 31.96 31.925 31.842 31.72 31.62 31.527 31.397 31.227 31.058 30.908 30.803 30.725 30.65 30.575 30.545 30.592 30.672 30.757 30.787 30.757 30.72 30.69 30.677 30.677 30.68 30.672 30.672 30.672 30.655 30.615 30.545 30.455 30.35 30.243 30.165 30.118 30.068 30.02 30.013 30.027 30.01 29.965 29.917 29.872 29.825 29.777 29.745 29.74 29.755 29.772 29.76 29.7 29.62 29.538 29.493 29.485 29.478 29.465 29.445 29.408 29.35 29.295 29.26 29.285 29.365 29.452 29.502 29.52 29.54 29.562 29.562 29.54 29.52 29.51 29.53 29.567 29.602 29.647 29.68 29.697 29.722 29.745 29.755 29.75 29.737 29.725 29.74 29.825 29.955 30.08 30.145 30.152 30.157 30.17 30.23 30.33 30.43 30.53 30.625 30.71 30.787 30.862 30.922 30.955 30.972 30.982 30.972 30.952
38.713 39.132 39.48 39.788 40.143 40.565 40.95 41.227 41.432 41.597 41.717 41.8 41.898 42.012 42.055 42.023 41.993 41.965 41.89 41.765 41.648 41.55 41.42 41.245 41.063 40.88 40.71 40.552 40.39 40.215 40.04 39.867 39.685 39.493 39.325 39.177 39 38.793 38.63 38.515 38.387 38.252 38.08 37.888 37.725 37.58 37.445 37.318 37.195 37.075 36.915 36.713 36.535 36.38 36.193 35.998 35.833 35.68 35.52 35.355 35.192 35.028 34.865 34.705 34.53 34.34 34.185 34.068 33.947 33.825 33.722 33.625 33.497 33.342 33.19 33.055 32.925 32.813 32.748 32.725 32.715 32.702 32.667 32.618 32.57 32.52 32.467 32.412 32.355 32.295 32.24 32.198 32.162 32.125 32.035 31.898 31.778 31.68 31.55 31.383 31.225 31.085 30.985 30.912 30.84 30.765 30.733 30.76 30.82 30.9 30.932 30.915 30.895 30.885 30.882 30.88 30.872 30.857 30.887 30.94 30.932 30.872 30.8 30.72 30.622 30.518 30.438 30.383 30.325 30.26 30.223 30.225 30.205 30.155 30.105 30.055 30.005 29.963 29.945 29.95 29.963 29.977 29.972 29.917 29.832 29.745 29.695 29.685 29.672 29.655 29.662 29.665 29.622 29.57 29.528 29.513 29.545 29.618 29.665 29.675 29.688 29.707 29.707 29.688 29.675 29.668 29.685 29.728 29.778 29.847 29.875 29.863 29.875 29.895 29.905 29.902 29.895 29.883 29.908 29.998 30.118 30.24 30.305 30.315 30.322 30.34 30.415 30.527 30.632 30.732 30.822 30.905 30.98 31.05 31.12 31.172 31.197 31.2 31.18 31.153
38.57 39.005 39.37 39.73 40.165 40.627 41.017 41.342 41.635 41.857 41.997 42.103 42.225 42.35 42.395 42.367 42.345 42.322 42.25 42.135 42.035 41.945 41.815 41.637 41.448 41.26 41.09 40.922 40.745 40.565 40.387 40.205 40.007 39.805 39.632 39.462 39.25 39.028 38.863 38.75 38.635 38.505 38.327 38.115 37.93 37.78 37.645 37.515 37.388 37.265 37.105 36.923 36.783 36.655 36.465 36.235 36.038 35.873 35.712 35.548 35.385 35.222 35.06 34.892 34.695 34.488 34.33 34.21 34.085 33.96 33.858 33.772 33.677 33.555 33.415 33.288 33.18 33.095 33.023 32.963 32.935 32.92 32.882 32.83 32.78 32.73 32.675 32.618 32.562 32.505 32.45 32.405 32.367 32.322 32.225 32.085 31.95 31.835 31.702 31.545 31.4 31.265 31.165 31.095 31.025 30.958 30.935 30.955 30.988 31.048 31.082 31.073 31.06 31.055 31.055 31.047 31.022 30.995 31.038 31.122 31.137 31.097 31.042 30.972 30.89 30.793 30.715 30.655 30.582 30.497 30.425 30.395 30.365 30.317 30.27 30.22 30.173 30.15 30.155 30.163 30.17 30.182 30.182 30.13 30.035 29.943 29.895 29.882 29.865 29.845 29.855 29.892 29.895 29.857 29.82 29.79 29.778 29.803 29.83 29.837 29.845 29.85 29.847 29.842 29.835 29.825 29.84 29.893 29.97 30.062 30.085 30.045 30.033 30.045 30.055 30.055 30.052 30.04 30.073 30.173 30.29 30.405 30.462 30.47 30.475 30.498 30.593 30.725 30.837 30.935 31.02 31.097 31.17 31.24 31.31 31.375 31.417 31.417 31.39 31.36
38.435 38.887 39.313 39.75 40.22 40.687 41.087 41.42 41.75 42.052 42.267 42.415 42.55 42.675 42.725 42.705 42.687 42.672 42.615 42.52 42.432 42.345 42.21 42.022 41.827 41.638 41.46 41.28 41.095 40.913 40.725 40.528 40.323 40.12 39.925 39.715 39.485 39.265 39.1 38.983 38.87 38.75 38.575 38.355 38.148 37.98 37.845 37.715 37.585 37.458 37.31 37.163 37.042 36.922 36.742 36.505 36.275 36.075 35.905 35.743 35.58 35.42 35.26 35.072 34.848 34.633 34.473 34.35 34.225 34.1 33.995 33.908 33.823 33.732 33.632 33.54 33.47 33.407 33.332 33.247 33.178 33.138 33.097 33.045 32.995 32.945 32.89 32.83 32.77 32.713 32.66 32.615 32.575 32.522 32.417 32.275 32.135 32.003 31.865 31.72 31.58 31.445 31.345 31.278 31.21 31.153 31.14 31.163 31.185 31.218 31.24 31.238 31.233 31.23 31.22 31.192 31.157 31.128 31.155 31.222 31.255 31.247 31.215 31.17 31.12 31.057 30.985 30.905 30.812 30.715 30.625 30.568 30.525 30.48 30.438 30.39 30.358 30.358 30.367 30.372 30.377 30.385 30.385 30.332 30.232 30.14 30.092 30.075 30.055 30.035 30.035 30.08 30.125 30.117 30.082 30.047 30.015 29.99 29.985 29.99 29.992 29.983 29.975 29.982 29.985 29.983 30.01 30.088 30.193 30.287 30.3 30.253 30.215 30.203 30.205 30.205 30.205 30.198 30.24 30.353 30.48 30.595 30.642 30.64 30.635 30.655 30.755 30.902 31.032 31.135 31.217 31.29 31.357 31.422 31.487 31.552 31.605 31.612 31.59 31.567
38.32 38.785 39.267 39.75 40.22 40.69 41.142 41.532 41.87 42.2 42.487 42.692 42.84 42.965 43.02 43.005 42.99 43 42.977 42.895 42.807 42.72 42.582 42.39 42.195 42.005 41.818 41.632 41.448 41.263 41.073 40.873 40.67 40.47 40.255 40.025 39.793 39.563 39.39 39.27 39.155 39.02 38.83 38.61 38.39 38.208 38.07 37.94 37.808 37.67 37.528 37.392 37.27 37.147 36.97 36.74 36.505 36.28 36.1 35.945 35.785 35.625 35.462 35.26 35.02 34.8 34.635 34.508 34.378 34.248 34.143 34.058 33.978 33.9 33.822 33.752 33.692 33.637 33.572 33.492 33.41 33.358 33.32 33.27 33.22 33.17 33.115 33.055 32.993 32.935 32.885 32.838 32.795 32.732 32.62 32.483 32.345 32.205 32.065 31.923 31.783 31.648 31.545 31.48 31.415 31.358 31.345 31.37 31.395 31.41 31.418 31.42 31.42 31.417 31.377 31.318 31.28 31.248 31.25 31.298 31.34 31.342 31.317 31.292 31.27 31.257 31.2 31.097 31 30.9 30.815 30.763 30.723 30.673 30.62 30.573 30.553 30.56 30.557 30.55 30.552 30.56 30.552 30.49 30.392 30.308 30.26 30.24 30.222 30.205 30.2 30.233 30.287 30.305 30.275 30.235 30.195 30.15 30.128 30.132 30.13 30.11 30.1 30.11 30.12 30.153 30.233 30.343 30.445 30.51 30.517 30.48 30.43 30.388 30.37 30.37 30.37 30.368 30.428 30.558 30.692 30.805 30.845 30.835 30.825 30.845 30.943 31.088 31.22 31.312 31.377 31.44 31.5 31.56 31.617 31.675 31.732 31.755 31.742 31.727
38.22 38.685 39.18 39.687 40.17 40.643 41.14 41.62 42.012 42.347 42.652 42.912 43.102 43.235 43.29 43.278 43.283 43.33 43.33 43.25 43.162 43.075 42.94 42.75 42.555 42.362 42.173 41.987 41.802 41.618 41.432 41.245 41.05 40.85 40.635 40.402 40.162 39.918 39.735 39.615 39.477 39.3 39.09 38.87 38.655 38.47 38.325 38.195 38.055 37.903 37.748 37.6 37.468 37.342 37.165 36.935 36.7 36.47 36.293 36.15 35.995 35.835 35.665 35.455 35.215 34.993 34.825 34.693 34.558 34.425 34.318 34.233 34.155 34.08 34 33.92 33.85 33.792 33.73 33.658 33.605 33.582 33.552 33.505 33.455 33.405 33.35 33.29 33.23 33.175 33.125 33.075 33.02 32.94 32.83 32.707 32.575 32.438 32.297 32.15 32.008 31.87 31.768 31.702 31.635 31.573 31.555 31.58 31.597 31.597 31.602 31.615 31.62 31.612 31.547 31.45 31.393 31.358 31.35 31.38 31.422 31.435 31.413 31.39 31.39 31.422 31.372 31.253 31.155 31.063 31.003 30.972 30.945 30.902 30.845 30.788 30.753 30.75 30.74 30.713 30.703 30.707 30.685 30.612 30.523 30.445 30.4 30.38 30.365 30.353 30.35 30.373 30.415 30.442 30.425 30.385 30.345 30.3 30.275 30.275 30.262 30.235 30.225 30.235 30.268 30.373 30.515 30.622 30.682 30.707 30.722 30.715 30.672 30.62 30.59 30.583 30.58 30.58 30.648 30.783 30.917 31.02 31.05 31.043 31.04 31.068 31.165 31.297 31.392 31.445 31.49 31.542 31.597 31.655 31.712 31.77 31.83 31.865 31.86 31.843
38.112 38.583 39.078 39.6 40.107 40.595 41.095 41.615 42.095 42.485 42.797 43.08 43.33 43.502 43.56 43.57 43.615 43.68 43.68 43.602 43.517 43.43 43.297 43.11 42.915 42.72 42.53 42.345 42.158 41.97 41.785 41.605 41.422 41.23 41.012 40.772 40.525 40.275 40.085 39.942 39.762 39.56 39.35 39.135 38.93 38.743 38.59 38.45 38.295 38.135 37.975 37.818 37.67 37.537 37.36 37.127 36.888 36.653 36.475 36.342 36.2 36.045 35.867 35.65 35.41 35.19 35.023 34.888 34.755 34.625 34.513 34.42 34.335 34.257 34.177 34.093 34.015 33.95 33.885 33.833 33.815 33.812 33.787 33.74 33.69 33.64 33.585 33.528 33.47 33.415 33.365 33.305 33.227 33.137 33.035 32.922 32.802 32.672 32.53 32.38 32.233 32.093 31.993 31.925 31.855 31.788 31.765 31.782 31.785 31.775 31.78 31.802 31.817 31.805 31.732 31.62 31.525 31.47 31.46 31.475 31.507 31.525 31.51 31.51 31.553 31.61 31.552 31.413 31.308 31.238 31.203 31.178 31.155 31.127 31.087 31.03 30.97 30.945 30.93 30.895 30.865 30.855 30.817 30.738 30.658 30.583 30.535 30.518 30.505 30.495 30.498 30.52 30.553 30.585 30.58 30.538 30.495 30.45 30.423 30.41 30.385 30.355 30.345 30.375 30.475 30.652 30.797 30.855 30.872 30.88 30.9 30.922 30.915 30.882 30.855 30.84 30.83 30.825 30.888 31.015 31.145 31.237 31.262 31.26 31.26 31.29 31.387 31.487 31.53 31.555 31.593 31.64 31.69 31.745 31.805 31.865 31.925 31.972 31.98 31.96
37.992 38.472 38.975 39.5 40.022 40.535 41.045 41.565 42.085 42.56 42.917 43.205 43.495 43.74 43.852 43.9 43.965 44.03 44.03 43.955 43.867 43.775 43.645 43.462 43.27 43.077 42.887 42.7 42.51 42.32 42.135 41.955 41.777 41.59 41.37 41.125 40.877 40.63 40.415 40.227 40.028 39.823 39.615 39.41 39.21 39.015 38.845 38.688 38.525 38.363 38.203 38.045 37.89 37.743 37.555 37.32 37.08 36.843 36.658 36.525 36.39 36.247 36.07 35.845 35.605 35.388 35.22 35.085 34.955 34.825 34.71 34.615 34.523 34.438 34.355 34.27 34.19 34.115 34.06 34.04 34.04 34.042 34.02 33.97 33.922 33.875 33.82 33.765 33.71 33.655 33.595 33.515 33.425 33.335 33.235 33.125 33.017 32.9 32.763 32.618 32.473 32.333 32.228 32.153 32.078 32.005 31.973 31.973 31.965 31.955 31.96 31.985 32.01 31.997 31.92 31.808 31.693 31.603 31.573 31.583 31.603 31.618 31.63 31.67 31.732 31.785 31.727 31.58 31.475 31.43 31.408 31.383 31.36 31.338 31.31 31.27 31.21 31.155 31.12 31.085 31.045 31.015 30.96 30.875 30.798 30.72 30.673 30.66 30.65 30.64 30.648 30.675 30.71 30.75 30.75 30.703 30.653 30.603 30.563 30.535 30.505 30.478 30.485 30.578 30.73 30.892 31 31.032 31.045 31.055 31.073 31.1 31.12 31.117 31.1 31.085 31.072 31.063 31.12 31.245 31.365 31.445 31.472 31.477 31.48 31.51 31.578 31.625 31.645 31.668 31.703 31.745 31.788 31.843 31.908 31.973 32.038 32.095 32.107 32.08
37.833 38.338 38.875 39.412 39.94 40.465 40.985 41.505 42.033 42.557 42.962 43.257 43.557 43.875 44.072 44.142 44.212 44.305 44.335 44.265 44.177 44.082 43.952 43.775 43.585 43.4 43.217 43.03 42.84 42.65 42.465 42.285 42.1 41.897 41.677 41.442 41.197 40.95 40.718 40.51 40.308 40.103 39.9 39.7 39.5 39.3 39.113 38.943 38.778 38.61 38.443 38.283 38.13 37.977 37.785 37.55 37.31 37.075 36.87 36.713 36.578 36.445 36.267 36.035 35.805 35.618 35.473 35.34 35.21 35.07 34.943 34.84 34.74 34.645 34.56 34.48 34.4 34.323 34.28 34.278 34.28 34.275 34.245 34.195 34.15 34.113 34.065 34.01 33.955 33.89 33.81 33.72 33.63 33.54 33.442 33.335 33.228 33.118 33.012 32.892 32.75 32.61 32.5 32.42 32.34 32.255 32.205 32.195 32.188 32.18 32.185 32.208 32.23 32.21 32.127 32.02 31.91 31.808 31.76 31.763 31.765 31.76 31.778 31.827 31.885 31.927 31.87 31.743 31.675 31.655 31.635 31.61 31.585 31.565 31.542 31.51 31.462 31.398 31.323 31.265 31.225 31.185 31.12 31.035 30.958 30.898 30.853 30.823 30.81 30.803 30.82 30.86 30.905 30.95 30.95 30.9 30.845 30.78 30.735 30.71 30.668 30.625 30.645 30.767 30.91 31.03 31.122 31.17 31.195 31.212 31.235 31.265 31.29 31.3 31.292 31.277 31.27 31.27 31.333 31.455 31.56 31.63 31.66 31.67 31.68 31.733 31.8 31.838 31.863 31.865 31.875 31.91 31.95 31.998 32.058 32.125 32.195 32.252 32.257 32.223
37.658 38.198 38.762 39.325 39.865 40.392 40.915 41.44 41.99 42.542 42.957 43.255 43.585 43.965 44.2 44.273 44.375 44.527 44.59 44.527 44.447 44.357 44.227 44.05 43.868 43.695 43.52 43.337 43.152 42.963 42.775 42.592 42.39 42.162 41.942 41.727 41.49 41.243 41.015 40.81 40.605 40.4 40.2 40 39.798 39.595 39.408 39.233 39.06 38.89 38.715 38.543 38.385 38.235 38.045 37.81 37.573 37.345 37.125 36.928 36.775 36.642 36.457 36.23 36.043 35.905 35.78 35.652 35.512 35.348 35.205 35.095 34.99 34.89 34.803 34.725 34.648 34.573 34.533 34.535 34.53 34.505 34.465 34.415 34.378 34.355 34.317 34.262 34.195 34.11 34.02 33.93 33.84 33.75 33.655 33.55 33.44 33.333 33.252 33.172 33.052 32.913 32.8 32.72 32.627 32.525 32.47 32.463 32.458 32.45 32.455 32.475 32.475 32.432 32.352 32.257 32.155 32.06 32.02 32.01 31.987 31.958 31.945 31.968 32.015 32.052 31.993 31.91 31.9 31.9 31.885 31.863 31.84 31.82 31.777 31.733 31.715 31.672 31.573 31.468 31.4 31.355 31.29 31.213 31.163 31.135 31.08 31.013 30.985 30.983 31.013 31.067 31.12 31.167 31.17 31.12 31.05 30.96 30.928 30.942 30.91 30.85 30.833 30.898 31.01 31.13 31.225 31.285 31.325 31.35 31.38 31.417 31.447 31.462 31.458 31.45 31.455 31.468 31.538 31.647 31.732 31.797 31.832 31.85 31.908 32.028 32.13 32.165 32.16 32.127 32.113 32.135 32.173 32.213 32.255 32.313 32.38 32.427 32.423 32.415
37.518 38.073 38.64 39.215 39.777 40.32 40.85 41.395 41.97 42.535 42.952 43.283 43.67 44.08 44.327 44.433 44.59 44.777 44.84 44.775 44.705 44.627 44.502 44.33 44.16 43.997 43.825 43.645 43.465 43.277 43.085 42.882 42.655 42.418 42.198 41.992 41.775 41.54 41.315 41.11 40.905 40.7 40.5 40.297 40.092 39.888 39.7 39.525 39.35 39.18 39.005 38.825 38.653 38.492 38.302 38.073 37.84 37.615 37.395 37.18 36.993 36.835 36.653 36.468 36.333 36.215 36.092 35.955 35.79 35.613 35.47 35.36 35.253 35.148 35.055 34.978 34.903 34.828 34.79 34.785 34.76 34.725 34.685 34.643 34.62 34.605 34.567 34.502 34.417 34.325 34.235 34.143 34.05 33.96 33.865 33.76 33.653 33.548 33.465 33.405 33.33 33.215 33.102 33.007 32.89 32.783 32.738 32.735 32.73 32.72 32.725 32.73 32.7 32.645 32.572 32.485 32.39 32.307 32.265 32.24 32.205 32.165 32.14 32.138 32.158 32.177 32.14 32.11 32.127 32.14 32.137 32.12 32.1 32.062 31.983 31.935 31.95 31.937 31.85 31.72 31.61 31.535 31.473 31.428 31.412 31.392 31.327 31.238 31.178 31.17 31.21 31.27 31.327 31.382 31.385 31.32 31.225 31.13 31.115 31.16 31.17 31.13 31.08 31.068 31.123 31.23 31.325 31.392 31.45 31.485 31.518 31.56 31.6 31.628 31.633 31.638 31.653 31.67 31.733 31.823 31.898 31.967 32.018 32.088 32.225 32.387 32.472 32.462 32.42 32.375 32.358 32.368 32.398 32.435 32.47 32.513 32.57 32.603 32.615 32.673
37.393 37.95 38.518 39.093 39.67 40.235 40.795 41.372 41.962 42.53 42.977 43.36 43.767 44.172 44.457 44.632 44.82 45.01 45.075 45.01 44.945 44.877 44.767 44.612 44.45 44.29 44.125 43.95 43.77 43.587 43.385 43.155 42.915 42.678 42.455 42.25 42.045 41.83 41.618 41.415 41.213 41.008 40.8 40.59 40.385 40.183 39.993 39.818 39.643 39.47 39.295 39.112 38.93 38.755 38.562 38.34 38.112 37.887 37.667 37.452 37.24 37.05 36.888 36.752 36.635 36.517 36.39 36.23 36.05 35.875 35.735 35.625 35.515 35.405 35.31 35.233 35.158 35.083 35.038 35.012 34.978 34.943 34.908 34.882 34.867 34.852 34.805 34.72 34.63 34.537 34.447 34.357 34.263 34.17 34.075 33.97 33.865 33.76 33.673 33.613 33.56 33.487 33.387 33.27 33.138 33.038 33.005 33.002 32.997 32.99 32.982 32.957 32.907 32.852 32.78 32.69 32.597 32.512 32.46 32.43 32.4 32.37 32.347 32.335 32.33 32.33 32.328 32.335 32.353 32.37 32.382 32.377 32.345 32.267 32.178 32.148 32.16 32.157 32.09 31.965 31.84 31.735 31.678 31.665 31.66 31.63 31.562 31.472 31.39 31.363 31.397 31.452 31.507 31.562 31.557 31.48 31.38 31.305 31.31 31.358 31.397 31.397 31.36 31.315 31.298 31.35 31.43 31.498 31.56 31.613 31.668 31.728 31.785 31.823 31.835 31.845 31.858 31.883 31.94 32.015 32.088 32.148 32.243 32.4 32.57 32.697 32.727 32.697 32.66 32.62 32.602 32.61 32.625 32.653 32.687 32.723 32.768 32.815 32.88 32.975
37.262 37.817 38.39 38.972 39.55 40.127 40.712 41.307 41.905 42.492 42.99 43.402 43.805 44.202 44.537 44.77 44.96 45.14 45.222 45.197 45.142 45.077 44.982 44.84 44.677 44.522 44.387 44.242 44.07 43.89 43.68 43.44 43.2 42.958 42.733 42.528 42.32 42.118 41.927 41.735 41.535 41.333 41.12 40.903 40.69 40.483 40.295 40.125 39.952 39.76 39.552 39.355 39.17 38.987 38.79 38.572 38.352 38.135 37.917 37.7 37.483 37.29 37.145 37.025 36.905 36.787 36.652 36.485 36.308 36.14 36 35.885 35.772 35.66 35.568 35.49 35.415 35.348 35.29 35.245 35.21 35.175 35.138 35.115 35.1 35.085 35.027 34.927 34.835 34.74 34.65 34.565 34.472 34.38 34.282 34.178 34.072 33.968 33.883 33.825 33.775 33.72 33.63 33.505 33.375 33.285 33.257 33.247 33.237 33.23 33.202 33.152 33.097 33.042 32.967 32.875 32.77 32.66 32.6 32.577 32.552 32.53 32.527 32.53 32.52 32.52 32.545 32.572 32.585 32.6 32.617 32.617 32.567 32.468 32.378 32.343 32.342 32.34 32.282 32.17 32.047 31.938 31.888 31.882 31.865 31.822 31.752 31.667 31.58 31.525 31.54 31.59 31.64 31.69 31.677 31.6 31.518 31.483 31.515 31.565 31.617 31.65 31.632 31.587 31.545 31.53 31.573 31.648 31.725 31.805 31.885 31.96 32.017 32.045 32.055 32.065 32.075 32.118 32.193 32.265 32.327 32.338 32.465 32.712 32.872 32.932 32.927 32.905 32.875 32.83 32.82 32.842 32.845 32.863 32.897 32.935 32.99 33.075 33.172 33.27
37.122 37.668 38.248 38.85 39.432 40.01 40.598 41.195 41.808 42.425 42.947 43.377 43.79 44.185 44.545 44.822 45.03 45.19 45.275 45.3 45.29 45.242 45.155 45.017 44.86 44.718 44.605 44.5 44.357 44.185 43.977 43.74 43.498 43.253 43.028 42.82 42.608 42.405 42.23 42.06 41.87 41.67 41.46 41.24 41.023 40.81 40.623 40.452 40.26 40.03 39.788 39.565 39.37 39.185 38.982 38.768 38.557 38.35 38.135 37.915 37.71 37.533 37.39 37.272 37.155 37.035 36.9 36.735 36.568 36.42 36.278 36.145 36.028 35.915 35.823 35.748 35.68 35.625 35.565 35.505 35.463 35.425 35.38 35.34 35.318 35.302 35.242 35.135 35.035 34.94 34.85 34.765 34.675 34.587 34.49 34.385 34.28 34.175 34.095 34.042 33.995 33.94 33.85 33.725 33.598 33.503 33.467 33.455 33.44 33.427 33.39 33.33 33.275 33.22 33.145 33.045 32.92 32.793 32.723 32.7 32.675 32.648 32.665 32.705 32.71 32.718 32.762 32.81 32.83 32.845 32.855 32.837 32.782 32.69 32.595 32.535 32.515 32.51 32.455 32.352 32.238 32.135 32.093 32.075 32.035 31.985 31.917 31.83 31.733 31.653 31.65 31.698 31.745 31.795 31.777 31.708 31.675 31.695 31.745 31.795 31.847 31.892 31.89 31.85 31.81 31.778 31.803 31.883 31.975 32.07 32.155 32.22 32.252 32.265 32.275 32.285 32.31 32.38 32.47 32.54 32.557 32.505 32.635 32.925 33.082 33.125 33.125 33.075 32.93 32.873 32.945 33.015 33.055 33.07 33.105 33.158 33.245 33.35 33.45 33.55
36.97 37.508 38.085 38.702 39.307 39.895 40.485 41.098 41.735 42.365 42.89 43.332 43.762 44.165 44.53 44.847 45.095 45.24 45.305 45.345 45.377 45.382 45.325 45.197 45.055 44.92 44.803 44.712 44.61 44.47 44.275 44.037 43.792 43.547 43.32 43.107 42.893 42.688 42.515 42.36 42.192 42.007 41.8 41.583 41.368 41.155 40.962 40.767 40.535 40.285 40.038 39.798 39.578 39.38 39.177 38.968 38.763 38.557 38.345 38.135 37.948 37.778 37.635 37.518 37.4 37.28 37.147 36.993 36.843 36.71 36.568 36.418 36.285 36.173 36.08 36.01 35.955 35.905 35.847 35.783 35.723 35.678 35.635 35.583 35.543 35.52 35.457 35.348 35.24 35.143 35.053 34.965 34.878 34.792 34.697 34.592 34.487 34.383 34.305 34.257 34.212 34.16 34.067 33.94 33.808 33.695 33.65 33.642 33.63 33.612 33.572 33.515 33.457 33.4 33.317 33.197 33.06 32.925 32.848 32.822 32.795 32.765 32.785 32.852 32.887 32.91 32.965 33.03 33.072 33.092 33.082 33.04 32.985 32.91 32.825 32.755 32.708 32.685 32.63 32.53 32.423 32.333 32.285 32.245 32.195 32.145 32.077 31.982 31.875 31.778 31.76 31.807 31.853 31.895 31.888 31.865 31.89 31.935 31.985 32.035 32.082 32.125 32.137 32.11 32.078 32.063 32.095 32.168 32.25 32.34 32.415 32.457 32.475 32.485 32.495 32.513 32.568 32.66 32.747 32.777 32.725 32.648 32.78 33.027 33.155 33.227 33.22 33.042 32.913 32.958 32.985 33.085 33.227 33.28 33.325 33.408 33.517 33.627 33.73 33.827
36.812 37.348 37.923 38.54 39.16 39.77 40.383 41.02 41.67 42.302 42.83 43.272 43.715 44.135 44.505 44.842 45.135 45.287 45.335 45.375 45.415 45.455 45.457 45.377 45.25 45.117 45 44.907 44.82 44.717 44.547 44.31 44.062 43.815 43.597 43.395 43.178 42.97 42.795 42.643 42.487 42.325 42.135 41.922 41.707 41.492 41.277 41.045 40.795 40.545 40.295 40.05 39.813 39.59 39.38 39.173 38.968 38.765 38.563 38.373 38.195 38.023 37.88 37.763 37.645 37.528 37.403 37.265 37.132 37.005 36.865 36.71 36.558 36.433 36.348 36.29 36.24 36.19 36.132 36.067 36 35.94 35.89 35.837 35.785 35.745 35.675 35.565 35.455 35.35 35.258 35.17 35.085 34.997 34.9 34.797 34.695 34.59 34.515 34.47 34.425 34.375 34.28 34.147 34.012 33.89 33.833 33.825 33.815 33.795 33.752 33.695 33.635 33.572 33.475 33.34 33.2 33.06 32.975 32.945 32.915 32.885 32.903 32.975 33.042 33.097 33.16 33.232 33.295 33.317 33.287 33.232 33.175 33.115 33.05 32.985 32.922 32.87 32.8 32.697 32.593 32.515 32.468 32.42 32.37 32.315 32.232 32.127 32.02 31.913 31.878 31.92 31.965 32.015 32.055 32.088 32.13 32.175 32.225 32.272 32.315 32.355 32.377 32.367 32.352 32.355 32.395 32.465 32.537 32.61 32.657 32.68 32.695 32.705 32.718 32.755 32.835 32.927 32.98 32.947 32.863 32.793 32.885 33.055 33.153 33.232 33.153 32.93 33.095 33.22 33.005 33.07 33.305 33.465 33.568 33.675 33.792 33.902 34.005 34.102
36.647 37.183 37.768 38.395 39.015 39.635 40.27 40.92 41.567 42.195 42.74 43.202 43.647 44.072 44.447 44.79 45.107 45.3 45.365 45.405 45.445 45.485 45.52 45.507 45.417 45.29 45.175 45.08 44.99 44.897 44.752 44.532 44.285 44.035 43.838 43.675 43.475 43.263 43.085 42.935 42.777 42.612 42.435 42.235 42.022 41.807 41.575 41.325 41.075 40.833 40.593 40.348 40.103 39.863 39.64 39.433 39.228 39.028 38.838 38.66 38.485 38.308 38.15 38.025 37.91 37.795 37.672 37.537 37.407 37.28 37.14 36.985 36.83 36.705 36.63 36.58 36.53 36.475 36.41 36.345 36.28 36.202 36.132 36.08 36.027 35.97 35.892 35.79 35.68 35.57 35.473 35.388 35.3 35.192 35.08 34.98 34.88 34.785 34.718 34.67 34.622 34.555 34.445 34.31 34.175 34.06 34.005 33.995 33.985 33.962 33.915 33.852 33.79 33.72 33.612 33.475 33.335 33.198 33.105 33.065 33.035 33.002 33.01 33.07 33.147 33.23 33.305 33.375 33.442 33.462 33.422 33.367 33.312 33.26 33.212 33.16 33.095 33.022 32.935 32.833 32.748 32.705 32.673 32.625 32.575 32.495 32.37 32.252 32.155 32.053 32.003 32.043 32.118 32.2 32.272 32.322 32.367 32.41 32.447 32.477 32.505 32.532 32.547 32.545 32.54 32.56 32.622 32.7 32.77 32.825 32.852 32.87 32.89 32.907 32.925 32.967 33.04 33.112 33.14 33.09 33.003 32.938 32.98 33.098 33.2 33.27 33.275 33.26 33.455 33.397 33.113 33.225 33.52 33.74 33.85 33.95 34.067 34.177 34.28 34.37
36.473 37.008 37.603 38.25 38.882 39.505 40.14 40.787 41.42 42.03 42.597 43.107 43.57 43.99 44.362 44.697 45.01 45.237 45.362 45.435 45.48 45.52 45.55 45.565 45.535 45.437 45.325 45.228 45.135 45.04 44.912 44.72 44.482 44.238 44.05 43.917 43.76 43.565 43.385 43.227 43.057 42.88 42.702 42.52 42.317 42.105 41.872 41.623 41.383 41.155 40.925 40.68 40.428 40.18 39.955 39.748 39.548 39.36 39.18 39.003 38.825 38.645 38.47 38.318 38.193 38.077 37.947 37.803 37.663 37.532 37.392 37.24 37.103 36.993 36.92 36.87 36.815 36.75 36.68 36.612 36.537 36.445 36.365 36.31 36.252 36.175 36.092 36.01 35.91 35.8 35.7 35.612 35.505 35.365 35.24 35.14 35.048 34.97 34.91 34.86 34.792 34.69 34.565 34.43 34.308 34.218 34.17 34.155 34.14 34.11 34.06 33.995 33.925 33.847 33.74 33.605 33.465 33.328 33.215 33.15 33.112 33.077 33.078 33.125 33.198 33.29 33.382 33.46 33.527 33.547 33.505 33.448 33.395 33.345 33.305 33.27 33.215 33.14 33.05 32.963 32.92 32.915 32.892 32.845 32.775 32.657 32.495 32.358 32.265 32.175 32.15 32.223 32.328 32.425 32.495 32.545 32.585 32.6 32.607 32.622 32.637 32.647 32.65 32.645 32.648 32.68 32.763 32.86 32.935 32.985 33.007 33.025 33.047 33.072 33.095 33.128 33.175 33.23 33.27 33.235 33.145 33.095 33.14 33.245 33.33 33.355 33.452 33.617 33.74 33.69 33.608 33.728 33.967 34.142 34.188 34.245 34.343 34.455 34.557 34.622
36.303 36.833 37.428 38.085 38.737 39.372 40.007 40.64 41.25 41.85 42.425 42.97 43.475 43.907 44.27 44.587 44.89 45.13 45.292 45.417 45.502 45.555 45.58 45.592 45.597 45.557 45.47 45.373 45.278 45.18 45.065 44.892 44.67 44.438 44.255 44.125 43.992 43.84 43.675 43.502 43.32 43.14 42.965 42.79 42.605 42.402 42.17 41.93 41.708 41.49 41.257 41.007 40.753 40.503 40.275 40.073 39.888 39.713 39.535 39.355 39.175 38.995 38.815 38.638 38.485 38.357 38.22 38.07 37.923 37.788 37.65 37.513 37.395 37.29 37.215 37.16 37.092 37.02 36.95 36.872 36.78 36.68 36.598 36.535 36.457 36.36 36.275 36.205 36.125 36.027 35.93 35.822 35.682 35.528 35.4 35.308 35.23 35.16 35.1 35.035 34.932 34.81 34.685 34.563 34.465 34.39 34.34 34.315 34.29 34.255 34.202 34.132 34.052 33.97 33.865 33.732 33.595 33.458 33.328 33.223 33.155 33.115 33.113 33.158 33.238 33.335 33.435 33.53 33.61 33.635 33.595 33.535 33.478 33.425 33.388 33.365 33.327 33.257 33.175 33.125 33.118 33.122 33.11 33.052 32.942 32.802 32.633 32.47 32.36 32.315 32.36 32.455 32.555 32.647 32.715 32.75 32.757 32.74 32.728 32.74 32.75 32.75 32.75 32.75 32.768 32.805 32.885 33 33.092 33.142 33.162 33.178 33.195 33.22 33.248 33.278 33.313 33.355 33.4 33.377 33.285 33.258 33.335 33.43 33.47 33.443 33.468 33.648 33.862 34.012 34.127 34.235 34.385 34.507 34.555 34.59 34.64 34.73 34.82 34.86
36.145 36.665 37.255 37.915 38.572 39.22 39.852 40.465 41.067 41.67 42.247 42.802 43.345 43.807 44.16 44.462 44.76 45.012 45.187 45.335 45.467 45.565 45.612 45.628 45.643 45.645 45.602 45.517 45.42 45.32 45.215 45.055 44.843 44.63 44.463 44.338 44.213 44.087 43.94 43.762 43.58 43.4 43.222 43.047 42.875 42.69 42.475 42.25 42.035 41.82 41.585 41.33 41.075 40.823 40.6 40.415 40.24 40.065 39.885 39.705 39.525 39.342 39.16 38.977 38.8 38.643 38.495 38.345 38.195 38.053 37.925 37.808 37.695 37.59 37.508 37.437 37.362 37.287 37.207 37.115 37.017 36.92 36.827 36.743 36.645 36.54 36.453 36.382 36.315 36.237 36.137 36 35.842 35.688 35.568 35.49 35.42 35.35 35.275 35.177 35.055 34.93 34.813 34.715 34.637 34.563 34.505 34.47 34.437 34.4 34.342 34.262 34.177 34.092 33.987 33.857 33.72 33.588 33.463 33.34 33.233 33.16 33.143 33.193 33.285 33.385 33.485 33.585 33.68 33.72 33.685 33.622 33.557 33.5 33.468 33.45 33.427 33.38 33.33 33.317 33.32 33.322 33.317 33.242 33.103 32.953 32.78 32.595 32.493 32.52 32.605 32.695 32.788 32.872 32.917 32.915 32.895 32.87 32.853 32.855 32.855 32.85 32.853 32.865 32.895 32.938 33.013 33.133 33.242 33.295 33.315 33.332 33.348 33.37 33.4 33.43 33.46 33.495 33.54 33.52 33.42 33.41 33.515 33.582 33.58 33.538 33.548 33.71 33.953 34.155 34.322 34.5 34.642 34.727 34.797 34.862 34.917 34.995 35.062 35.087
36.002 36.508 37.083 37.74 38.392 39.03 39.65 40.257 40.865 41.47 42.047 42.602 43.157 43.637 43.99 44.285 44.595 44.882 45.077 45.225 45.383 45.545 45.655 45.695 45.713 45.727 45.717 45.662 45.575 45.475 45.372 45.225 45.025 44.83 44.685 44.57 44.45 44.33 44.185 44.012 43.835 43.637 43.45 43.292 43.13 42.955 42.757 42.54 42.325 42.117 41.89 41.637 41.385 41.145 40.94 40.763 40.587 40.41 40.22 40.03 39.85 39.665 39.482 39.305 39.122 38.948 38.79 38.64 38.493 38.358 38.248 38.143 38.03 37.923 37.793 37.675 37.6 37.525 37.427 37.322 37.227 37.132 37.045 36.96 36.863 36.76 36.648 36.543 36.467 36.4 36.297 36.15 35.99 35.855 35.75 35.663 35.59 35.52 35.43 35.315 35.19 35.063 34.96 34.883 34.81 34.737 34.663 34.603 34.557 34.515 34.455 34.372 34.29 34.205 34.097 33.965 33.84 33.733 33.618 33.493 33.363 33.245 33.188 33.23 33.33 33.43 33.527 33.625 33.725 33.782 33.757 33.69 33.623 33.568 33.54 33.525 33.513 33.502 33.492 33.49 33.487 33.48 33.467 33.42 33.302 33.148 32.973 32.79 32.72 32.778 32.863 32.95 33.035 33.09 33.095 33.073 33.048 33.023 33.005 33 32.995 32.99 32.998 33.023 33.063 33.11 33.175 33.285 33.392 33.442 33.465 33.485 33.503 33.523 33.56 33.608 33.655 33.705 33.745 33.715 33.615 33.613 33.702 33.725 33.693 33.715 33.833 34.003 34.183 34.333 34.488 34.672 34.82 34.868 34.905 34.995 35.117 35.21 35.205 35.2
35.857 36.345 36.91 37.56 38.197 38.812 39.42 40.03 40.64 41.245 41.822 42.377 42.927 43.41 43.767 44.075 44.42 44.747 44.962 45.118 45.308 45.515 45.67 45.757 45.797 45.815 45.815 45.787 45.732 45.642 45.535 45.405 45.225 45.035 44.9 44.797 44.687 44.57 44.427 44.257 44.065 43.833 43.64 43.512 43.372 43.207 43.012 42.798 42.595 42.405 42.182 41.933 41.698 41.485 41.293 41.11 40.93 40.752 40.553 40.34 40.15 39.967 39.788 39.612 39.435 39.26 39.1 38.953 38.818 38.7 38.6 38.505 38.4 38.282 38.103 37.918 37.813 37.732 37.627 37.513 37.41 37.315 37.245 37.192 37.115 37.015 36.88 36.723 36.608 36.53 36.43 36.288 36.148 36.05 35.95 35.833 35.745 35.675 35.582 35.465 35.34 35.213 35.12 35.052 34.98 34.91 34.822 34.728 34.658 34.61 34.547 34.465 34.385 34.3 34.188 34.065 33.975 33.902 33.812 33.693 33.558 33.44 33.368 33.358 33.393 33.465 33.56 33.655 33.75 33.82 33.81 33.74 33.678 33.633 33.608 33.598 33.605 33.625 33.63 33.625 33.615 33.595 33.575 33.562 33.51 33.385 33.21 33.063 33.013 33.055 33.142 33.225 33.282 33.297 33.283 33.26 33.238 33.213 33.198 33.195 33.193 33.19 33.2 33.23 33.273 33.32 33.373 33.46 33.545 33.585 33.613 33.635 33.663 33.703 33.765 33.842 33.92 33.982 34.002 33.98 33.925 33.885 33.903 33.913 33.95 34.108 34.31 34.467 34.545 34.58 34.683 34.855 35.01 35.017 35.018 35.16 35.327 35.372 35.28 35.22
35.7 36.18 36.738 37.365 37.98 38.585 39.19 39.8 40.41 41.017 41.597 42.147 42.69 43.18 43.555 43.893 44.267 44.617 44.855 45.038 45.26 45.482 45.647 45.767 45.86 45.902 45.902 45.885 45.857 45.797 45.697 45.577 45.42 45.24 45.105 45.007 44.91 44.805 44.672 44.49 44.26 44.01 43.828 43.712 43.592 43.452 43.267 43.065 42.885 42.702 42.48 42.245 42.035 41.838 41.647 41.462 41.277 41.097 40.895 40.67 40.46 40.27 40.093 39.918 39.743 39.57 39.413 39.278 39.158 39.045 38.947 38.86 38.765 38.637 38.442 38.218 38.048 37.94 37.832 37.708 37.593 37.495 37.433 37.402 37.355 37.267 37.13 36.955 36.795 36.675 36.563 36.44 36.34 36.262 36.16 36.033 35.92 35.833 35.735 35.615 35.49 35.37 35.283 35.217 35.15 35.08 34.99 34.88 34.783 34.713 34.642 34.558 34.475 34.385 34.285 34.2 34.135 34.072 34.005 33.917 33.823 33.753 33.7 33.65 33.608 33.6 33.623 33.685 33.773 33.842 33.85 33.795 33.74 33.7 33.683 33.693 33.723 33.752 33.76 33.75 33.73 33.703 33.683 33.675 33.665 33.602 33.473 33.373 33.333 33.348 33.42 33.48 33.5 33.5 33.487 33.465 33.443 33.418 33.405 33.408 33.41 33.41 33.42 33.45 33.49 33.535 33.583 33.643 33.703 33.745 33.785 33.81 33.85 33.92 33.995 34.06 34.132 34.225 34.28 34.297 34.297 34.235 34.158 34.195 34.383 34.615 34.787 34.87 34.88 34.87 34.913 35.05 35.14 35.13 35.22 35.442 35.565 35.505 35.4 35.345
35.532 36.015 36.553 37.15 37.753 38.355 38.96 39.572 40.185 40.792 41.367 41.91 42.45 42.955 43.367 43.738 44.125 44.492 44.767 44.988 45.222 45.45 45.622 45.745 45.867 45.962 45.99 45.975 45.955 45.927 45.857 45.742 45.605 45.445 45.313 45.215 45.117 45.02 44.87 44.647 44.397 44.165 44.005 43.89 43.775 43.652 43.495 43.327 43.172 43.002 42.8 42.59 42.39 42.192 42 41.81 41.62 41.43 41.222 41 40.78 40.578 40.4 40.225 40.05 39.88 39.732 39.612 39.497 39.382 39.282 39.192 39.097 38.962 38.765 38.542 38.328 38.165 38.04 37.91 37.785 37.68 37.623 37.597 37.57 37.51 37.38 37.205 37.027 36.863 36.72 36.615 36.537 36.462 36.365 36.242 36.115 36 35.887 35.765 35.64 35.528 35.448 35.382 35.317 35.245 35.15 35.037 34.925 34.825 34.738 34.653 34.57 34.485 34.408 34.342 34.28 34.215 34.15 34.107 34.095 34.09 34.065 34.017 33.96 33.898 33.84 33.833 33.865 33.89 33.89 33.858 33.813 33.783 33.788 33.818 33.85 33.88 33.885 33.862 33.837 33.81 33.79 33.785 33.788 33.78 33.737 33.69 33.657 33.647 33.672 33.695 33.7 33.702 33.695 33.672 33.648 33.625 33.618 33.623 33.628 33.63 33.64 33.67 33.715 33.768 33.823 33.88 33.935 33.985 34.033 34.038 34.04 34.082 34.133 34.2 34.3 34.435 34.557 34.627 34.662 34.64 34.598 34.705 34.92 35.102 35.202 35.21 35.195 35.185 35.188 35.24 35.188 35.238 35.518 35.737 35.787 35.708 35.64 35.645
35.353 35.835 36.365 36.953 37.55 38.135 38.723 39.332 39.945 40.552 41.125 41.665 42.207 42.74 43.21 43.615 44.005 44.382 44.7 44.955 45.193 45.425 45.617 45.755 45.88 46.005 46.075 46.077 46.06 46.042 45.987 45.882 45.767 45.637 45.515 45.415 45.312 45.21 45 44.698 44.432 44.233 44.117 44.022 43.907 43.77 43.612 43.465 43.327 43.187 43.015 42.817 42.63 42.477 42.315 42.117 41.922 41.725 41.515 41.295 41.085 40.903 40.733 40.558 40.38 40.195 40.033 39.907 39.792 39.677 39.572 39.477 39.367 39.215 39.02 38.81 38.595 38.43 38.308 38.17 38.033 37.895 37.81 37.777 37.747 37.7 37.58 37.405 37.225 37.045 36.883 36.768 36.685 36.61 36.532 36.425 36.295 36.17 36.045 35.92 35.798 35.69 35.613 35.548 35.48 35.39 35.277 35.162 35.05 34.938 34.838 34.755 34.675 34.597 34.527 34.46 34.395 34.333 34.273 34.263 34.312 34.355 34.355 34.325 34.285 34.232 34.172 34.13 34.092 34.045 34.003 33.965 33.935 33.935 33.963 33.995 34.025 34.025 33.995 33.967 33.943 33.923 33.92 33.928 33.938 33.952 33.95 33.93 33.91 33.897 33.895 33.898 33.903 33.907 33.9 33.878 33.855 33.84 33.857 33.878 33.878 33.88 33.885 33.915 33.97 34.033 34.1 34.17 34.235 34.287 34.322 34.3 34.243 34.23 34.275 34.375 34.513 34.66 34.802 34.91 34.977 35.017 35.092 35.237 35.387 35.512 35.572 35.565 35.548 35.533 35.518 35.525 35.41 35.513 35.885 36.06 36.075 36.03 35.985 36.038
35.17 35.65 36.185 36.775 37.355 37.905 38.47 39.075 39.688 40.3 40.875 41.418 41.968 42.522 43.04 43.495 43.905 44.285 44.622 44.91 45.165 45.4 45.612 45.787 45.93 46.055 46.14 46.175 46.175 46.157 46.097 45.995 45.9 45.805 45.702 45.597 45.492 45.36 45.085 44.715 44.413 44.235 44.182 44.125 43.997 43.827 43.648 43.495 43.375 43.265 43.105 42.93 42.805 42.73 42.6 42.395 42.195 41.997 41.79 41.575 41.393 41.245 41.087 40.91 40.717 40.508 40.323 40.178 40.05 39.933 39.827 39.722 39.59 39.425 39.23 39.023 38.863 38.773 38.67 38.522 38.355 38.165 38.015 37.938 37.895 37.845 37.725 37.55 37.37 37.19 37.03 36.903 36.8 36.72 36.655 36.572 36.457 36.333 36.208 36.085 35.968 35.86 35.778 35.712 35.627 35.507 35.383 35.27 35.157 35.043 34.943 34.86 34.783 34.705 34.635 34.57 34.505 34.448 34.395 34.405 34.497 34.562 34.565 34.55 34.53 34.497 34.445 34.382 34.31 34.23 34.163 34.123 34.12 34.15 34.185 34.215 34.215 34.155 34.095 34.07 34.055 34.055 34.075 34.1 34.12 34.135 34.13 34.115 34.108 34.108 34.107 34.105 34.108 34.112 34.102 34.08 34.063 34.05 34.1 34.18 34.202 34.2 34.198 34.21 34.255 34.32 34.388 34.458 34.532 34.592 34.607 34.565 34.503 34.493 34.56 34.66 34.773 34.9 35.035 35.167 35.262 35.35 35.467 35.592 35.72 35.845 35.932 35.95 35.93 35.913 35.903 35.937 35.905 36 36.292 36.427 36.42 36.382 36.348 36.44
34.993 35.47 36.005 36.577 37.12 37.648 38.21 38.818 39.435 40.05 40.625 41.175 41.738 42.3 42.83 43.322 43.782 44.182 44.522 44.832 45.12 45.37 45.585 45.782 45.962 46.105 46.19 46.24 46.272 46.272 46.21 46.115 46.037 45.965 45.88 45.775 45.67 45.477 45.142 44.76 44.415 44.24 44.24 44.207 44.062 43.87 43.683 43.538 43.447 43.352 43.228 43.125 43.062 43.017 42.892 42.682 42.473 42.272 42.068 41.878 41.73 41.597 41.44 41.247 41.032 40.813 40.628 40.47 40.32 40.19 40.075 39.947 39.8 39.635 39.443 39.283 39.21 39.167 39.06 38.882 38.675 38.463 38.278 38.135 38.048 37.982 37.862 37.692 37.515 37.335 37.18 37.05 36.928 36.833 36.765 36.7 36.612 36.495 36.373 36.258 36.145 36.035 35.945 35.862 35.747 35.613 35.49 35.377 35.263 35.148 35.048 34.968 34.893 34.815 34.745 34.683 34.623 34.57 34.52 34.55 34.68 34.76 34.76 34.745 34.727 34.705 34.655 34.568 34.47 34.38 34.315 34.303 34.33 34.37 34.405 34.407 34.347 34.255 34.198 34.185 34.193 34.21 34.235 34.265 34.293 34.315 34.32 34.315 34.317 34.322 34.322 34.32 34.317 34.317 34.307 34.285 34.27 34.255 34.31 34.437 34.532 34.565 34.557 34.545 34.558 34.608 34.673 34.745 34.825 34.892 34.892 34.843 34.805 34.823 34.905 35 35.095 35.195 35.305 35.425 35.533 35.655 35.792 35.92 36.047 36.172 36.285 36.327 36.315 36.305 36.315 36.375 36.437 36.525 36.68 36.765 36.757 36.733 36.733 36.858
34.815 35.29 35.805 36.342 36.865 37.388 37.953 38.565 39.185 39.8 40.382 40.945 41.515 42.08 42.61 43.113 43.612 44.062 44.422 44.735 45.042 45.327 45.56 45.758 45.957 46.135 46.235 46.285 46.332 46.36 46.315 46.23 46.157 46.087 46.035 45.96 45.82 45.55 45.172 44.787 44.425 44.265 44.305 44.247 44.067 43.88 43.705 43.582 43.502 43.42 43.355 43.317 43.28 43.247 43.155 42.97 42.76 42.552 42.363 42.202 42.06 41.92 41.752 41.545 41.325 41.112 40.933 40.775 40.615 40.465 40.32 40.165 40.008 39.845 39.703 39.62 39.572 39.517 39.385 39.175 38.957 38.752 38.57 38.4 38.255 38.138 37.998 37.83 37.658 37.485 37.335 37.205 37.075 36.958 36.875 36.815 36.75 36.657 36.545 36.432 36.32 36.21 36.105 35.99 35.855 35.72 35.598 35.483 35.368 35.253 35.155 35.08 35.008 34.935 34.868 34.805 34.75 34.7 34.65 34.69 34.827 34.912 34.922 34.915 34.907 34.897 34.855 34.765 34.657 34.55 34.465 34.455 34.51 34.577 34.597 34.54 34.445 34.358 34.32 34.328 34.345 34.368 34.395 34.433 34.48 34.49 34.44 34.417 34.445 34.472 34.51 34.532 34.525 34.52 34.51 34.492 34.477 34.463 34.51 34.635 34.772 34.87 34.9 34.895 34.887 34.905 34.96 35.035 35.115 35.182 35.187 35.153 35.125 35.158 35.255 35.35 35.445 35.54 35.635 35.735 35.843 35.975 36.115 36.245 36.355 36.445 36.535 36.585 36.595 36.64 36.722 36.81 36.9 36.987 37.062 37.095 37.09 37.075 37.12 37.273
34.622 35.097 35.59 36.108 36.63 37.15 37.715 38.33 38.95 39.557 40.142 40.715 41.285 41.852 42.405 42.93 43.438 43.922 44.327 44.655 44.965 45.272 45.545 45.763 45.963 46.147 46.247 46.287 46.332 46.375 46.352 46.27 46.187 46.13 46.152 46.152 45.925 45.517 45.105 44.725 44.433 44.35 44.365 44.212 43.983 43.807 43.665 43.57 43.485 43.415 43.377 43.352 43.33 43.342 43.345 43.222 43.015 42.818 42.64 42.477 42.325 42.172 41.995 41.785 41.573 41.383 41.23 41.085 40.925 40.765 40.6 40.43 40.263 40.095 39.98 39.915 39.85 39.777 39.627 39.415 39.208 39.015 38.842 38.675 38.507 38.338 38.165 37.995 37.823 37.658 37.515 37.385 37.255 37.123 37.023 36.963 36.897 36.802 36.687 36.572 36.46 36.352 36.242 36.117 35.98 35.843 35.718 35.603 35.488 35.373 35.288 35.228 35.16 35.093 35.025 34.958 34.898 34.843 34.793 34.818 34.927 35.015 35.04 35.04 35.042 35.045 35.025 34.947 34.835 34.723 34.62 34.565 34.578 34.645 34.652 34.565 34.503 34.493 34.5 34.51 34.52 34.545 34.598 34.665 34.735 34.667 34.448 34.355 34.423 34.538 34.66 34.717 34.722 34.717 34.705 34.69 34.678 34.675 34.715 34.813 34.942 35.067 35.135 35.147 35.15 35.203 35.298 35.383 35.46 35.505 35.503 35.475 35.445 35.493 35.605 35.7 35.8 35.908 36.015 36.128 36.235 36.322 36.39 36.447 36.493 36.535 36.59 36.635 36.728 36.923 37.1 37.212 37.31 37.4 37.447 37.448 37.44 37.443 37.598 37.91
34.42 34.89 35.38 35.893 36.41 36.93 37.495 38.107 38.715 39.305 39.887 40.47 41.045 41.615 42.19 42.755 43.282 43.775 44.212 44.58 44.905 45.215 45.52 45.782 45.995 46.162 46.237 46.26 46.3 46.342 46.322 46.245 46.163 46.143 46.23 46.32 46.027 45.433 44.968 44.668 44.505 44.48 44.397 44.13 43.87 43.695 43.583 43.507 43.425 43.355 43.32 43.3 43.293 43.363 43.49 43.445 43.24 43.068 42.895 42.705 42.54 42.387 42.207 41.998 41.805 41.645 41.512 41.385 41.237 41.08 40.915 40.742 40.56 40.375 40.235 40.143 40.068 39.992 39.842 39.635 39.443 39.265 39.097 38.93 38.752 38.56 38.375 38.203 38.028 37.863 37.72 37.59 37.458 37.32 37.218 37.15 37.05 36.917 36.793 36.68 36.573 36.47 36.365 36.247 36.117 35.98 35.853 35.737 35.622 35.505 35.433 35.4 35.345 35.275 35.205 35.135 35.07 35.007 34.955 34.953 35.02 35.105 35.14 35.14 35.148 35.157 35.15 35.097 35 34.89 34.79 34.705 34.643 34.625 34.615 34.595 34.623 34.69 34.725 34.728 34.73 34.748 34.808 34.907 35.02 34.855 34.425 34.275 34.428 34.627 34.782 34.865 34.907 34.91 34.895 34.883 34.885 34.905 34.938 34.995 35.103 35.222 35.285 35.308 35.383 35.55 35.702 35.787 35.837 35.847 35.832 35.803 35.77 35.835 35.97 36.08 36.195 36.315 36.435 36.55 36.632 36.667 36.67 36.655 36.645 36.653 36.685 36.76 36.965 37.257 37.457 37.58 37.692 37.79 37.837 37.835 37.845 37.893 38.155 38.587
34.238 34.685 35.175 35.685 36.198 36.713 37.273 37.872 38.46 39.04 39.625 40.215 40.8 41.375 41.95 42.535 43.105 43.622 44.07 44.467 44.83 45.155 45.47 45.77 46.02 46.18 46.235 46.248 46.275 46.31 46.292 46.22 46.143 46.16 46.27 46.252 45.872 45.29 44.9 44.735 44.635 44.56 44.372 44.05 43.77 43.598 43.51 43.44 43.363 43.295 43.263 43.26 43.278 43.393 43.605 43.64 43.48 43.33 43.167 42.965 42.77 42.603 42.423 42.23 42.068 41.923 41.788 41.667 41.542 41.395 41.23 41.047 40.842 40.645 40.5 40.395 40.3 40.21 40.062 39.87 39.693 39.52 39.347 39.17 38.98 38.78 38.593 38.417 38.245 38.078 37.93 37.797 37.662 37.525 37.415 37.315 37.177 37.028 36.9 36.793 36.69 36.59 36.485 36.37 36.247 36.115 35.988 35.872 35.755 35.635 35.563 35.545 35.517 35.46 35.39 35.32 35.232 35.135 35.09 35.103 35.138 35.2 35.24 35.245 35.257 35.267 35.257 35.227 35.162 35.06 34.96 34.875 34.795 34.728 34.708 34.76 34.845 34.917 34.952 34.955 34.955 34.96 35 35.087 35.21 34.945 34.423 34.33 34.55 34.757 34.885 34.98 35.062 35.095 35.09 35.093 35.115 35.145 35.175 35.213 35.28 35.375 35.453 35.55 35.735 35.965 36.117 36.17 36.18 36.175 36.165 36.147 36.12 36.16 36.31 36.482 36.625 36.745 36.862 36.95 36.987 37.002 37.003 36.988 36.985 37.01 37.063 37.163 37.375 37.632 37.81 37.937 38.06 38.172 38.235 38.265 38.325 38.415 38.642 38.917
34.085 34.498 34.97 35.48 35.99 36.498 37.043 37.623 38.2 38.78 39.365 39.955 40.545 41.13 41.71 42.295 42.882 43.437 43.905 44.312 44.71 45.072 45.402 45.722 46.02 46.197 46.237 46.245 46.26 46.282 46.265 46.195 46.14 46.17 46.14 45.835 45.393 45.055 44.893 44.815 44.727 44.535 44.225 43.9 43.6 43.467 43.44 43.37 43.297 43.235 43.215 43.235 43.285 43.443 43.69 43.802 43.71 43.56 43.41 43.227 43.022 42.83 42.653 42.492 42.345 42.197 42.062 41.942 41.825 41.692 41.527 41.33 41.117 40.918 40.773 40.667 40.56 40.445 40.292 40.115 39.942 39.767 39.585 39.392 39.197 39 38.81 38.632 38.457 38.282 38.122 37.982 37.847 37.712 37.582 37.445 37.295 37.148 37.023 36.918 36.815 36.715 36.607 36.49 36.37 36.245 36.122 36.005 35.885 35.763 35.675 35.655 35.662 35.635 35.542 35.415 35.282 35.198 35.2 35.24 35.273 35.315 35.347 35.358 35.373 35.378 35.365 35.343 35.305 35.227 35.133 35.058 34.993 34.94 34.92 34.965 35.057 35.137 35.172 35.175 35.175 35.175 35.18 35.185 35.215 35.005 34.693 34.658 34.758 34.88 34.99 35.09 35.193 35.272 35.308 35.33 35.358 35.385 35.415 35.453 35.5 35.575 35.705 35.9 36.127 36.34 36.467 36.495 36.492 36.49 36.49 36.477 36.438 36.413 36.533 36.763 36.965 37.142 37.262 37.305 37.322 37.338 37.348 37.373 37.425 37.502 37.592 37.68 37.818 38.002 38.16 38.29 38.415 38.537 38.63 38.705 38.795 38.885 39.015 39.108
33.895 34.298 34.758 35.265 35.775 36.278 36.81 37.38 37.955 38.533 39.115 39.705 40.298 40.905 41.478 42.035 42.622 43.195 43.68 44.09 44.507 44.907 45.26 45.587 45.907 46.117 46.177 46.195 46.215 46.227 46.217 46.167 46.112 46.012 45.717 45.315 45.025 44.91 44.872 44.82 44.675 44.272 43.822 43.497 43.135 42.967 43.025 43.072 43.117 43.165 43.22 43.293 43.44 43.63 43.797 43.885 43.805 43.662 43.557 43.427 43.245 43.045 42.868 42.72 42.577 42.432 42.297 42.175 42.055 41.93 41.767 41.567 41.362 41.18 41.048 40.942 40.827 40.687 40.522 40.347 40.172 39.987 39.79 39.592 39.397 39.202 39.007 38.82 38.64 38.46 38.288 38.132 37.99 37.855 37.715 37.565 37.418 37.288 37.178 37.073 36.97 36.855 36.73 36.607 36.485 36.365 36.245 36.125 36.005 35.867 35.728 35.675 35.7 35.677 35.547 35.375 35.275 35.278 35.32 35.36 35.403 35.445 35.475 35.49 35.505 35.52 35.51 35.478 35.443 35.39 35.325 35.273 35.225 35.18 35.15 35.163 35.24 35.322 35.352 35.355 35.355 35.355 35.33 35.278 35.233 35.165 35.087 35.035 35.005 35.045 35.143 35.248 35.358 35.478 35.555 35.583 35.607 35.625 35.66 35.725 35.783 35.853 36.013 36.235 36.445 36.617 36.722 36.765 36.775 36.775 36.79 36.795 36.755 36.738 36.873 37.12 37.365 37.542 37.61 37.63 37.65 37.703 37.755 37.81 37.897 37.982 38.065 38.147 38.253 38.393 38.52 38.635 38.76 38.885 38.995 39.085 39.167 39.23 39.332 39.44
33.668 34.083 34.545 35.048 35.552 36.05 36.58 37.15 37.722 38.295 38.875 39.468 40.085 40.732 41.292 41.788 42.345 42.922 43.41 43.825 44.26 44.687 45.052 45.377 45.695 45.93 46.025 46.055 46.072 46.052 46.045 46.022 45.882 45.585 45.23 44.995 44.905 44.877 44.847 44.8 44.515 43.9 43.308 42.913 42.478 42.153 42.183 42.345 42.507 42.827 43.23 43.462 43.622 43.76 43.847 43.88 43.798 43.69 43.625 43.545 43.412 43.232 43.058 42.905 42.76 42.62 42.487 42.365 42.245 42.122 41.962 41.765 41.583 41.44 41.325 41.212 41.077 40.915 40.745 40.57 40.38 40.175 39.97 39.775 39.58 39.385 39.185 38.985 38.8 38.62 38.445 38.278 38.12 37.978 37.835 37.69 37.56 37.453 37.353 37.25 37.135 36.987 36.845 36.722 36.6 36.48 36.36 36.237 36.102 35.94 35.76 35.65 35.645 35.6 35.458 35.353 35.35 35.395 35.443 35.485 35.53 35.577 35.617 35.64 35.66 35.695 35.695 35.653 35.613 35.58 35.548 35.51 35.467 35.423 35.39 35.378 35.42 35.477 35.495 35.503 35.505 35.505 35.482 35.433 35.388 35.362 35.325 35.268 35.235 35.258 35.338 35.443 35.573 35.725 35.815 35.84 35.855 35.855 35.898 36 36.087 36.158 36.308 36.52 36.695 36.827 36.925 36.995 37.035 37.045 37.07 37.122 37.123 37.188 37.413 37.667 37.855 37.92 37.93 37.95 38.025 38.173 38.242 38.253 38.318 38.4 38.48 38.573 38.69 38.82 38.913 38.99 39.1 39.225 39.335 39.42 39.48 39.515 39.635 39.827
33.455 33.875 34.333 34.827 35.325 35.82 36.35 36.92 37.487 38.055 38.638 39.255 39.913 40.582 41.145 41.605 42.1 42.65 43.142 43.573 44.025 44.47 44.845 45.162 45.475 45.73 45.845 45.865 45.842 45.773 45.72 45.627 45.403 45.138 44.965 44.9 44.87 44.843 44.815 44.72 44.297 43.598 42.908 42.37 41.858 41.45 41.395 41.485 41.598 42.055 42.865 43.445 43.635 43.71 43.807 43.857 43.81 43.738 43.677 43.612 43.53 43.402 43.25 43.095 42.942 42.8 42.67 42.552 42.435 42.312 42.153 41.973 41.83 41.715 41.602 41.47 41.31 41.14 40.965 40.777 40.57 40.355 40.15 39.955 39.762 39.57 39.367 39.158 38.96 38.778 38.605 38.435 38.265 38.105 37.96 37.833 37.728 37.63 37.53 37.415 37.267 37.1 36.955 36.835 36.717 36.597 36.475 36.337 36.172 35.998 35.82 35.66 35.598 35.533 35.435 35.433 35.478 35.523 35.57 35.618 35.665 35.712 35.757 35.788 35.82 35.872 35.882 35.845 35.815 35.795 35.772 35.745 35.71 35.667 35.635 35.615 35.618 35.633 35.64 35.65 35.655 35.657 35.638 35.598 35.575 35.565 35.53 35.485 35.47 35.475 35.535 35.655 35.815 35.985 36.07 36.082 36.08 36.07 36.118 36.237 36.362 36.455 36.595 36.775 36.907 37.02 37.115 37.195 37.265 37.305 37.347 37.425 37.493 37.668 37.955 38.157 38.232 38.24 38.248 38.323 38.525 38.732 38.775 38.733 38.748 38.815 38.903 39.01 39.135 39.257 39.335 39.385 39.458 39.565 39.672 39.737 39.77 39.795 39.915 40.122
33.253 33.67 34.12 34.603 35.095 35.59 36.118 36.685 37.253 37.82 38.425 39.083 39.757 40.43 40.995 41.455 41.92 42.41 42.885 43.332 43.79 44.245 44.63 44.942 45.25 45.527 45.655 45.635 45.575 45.508 45.433 45.293 45.098 44.973 44.933 44.905 44.867 44.825 44.782 44.602 44.082 43.358 42.628 41.96 41.423 41.095 41.015 41.035 41.075 41.305 42.03 42.92 43.447 43.655 43.757 43.84 43.837 43.787 43.732 43.67 43.607 43.525 43.402 43.257 43.115 42.977 42.852 42.737 42.62 42.497 42.357 42.215 42.09 41.97 41.842 41.695 41.532 41.362 41.172 40.965 40.752 40.537 40.332 40.135 39.937 39.742 39.537 39.327 39.122 38.935 38.765 38.592 38.418 38.248 38.098 37.985 37.897 37.807 37.697 37.55 37.38 37.21 37.065 36.945 36.83 36.71 36.572 36.41 36.23 36.055 35.88 35.7 35.578 35.52 35.518 35.563 35.61 35.658 35.705 35.753 35.8 35.848 35.895 35.938 35.985 36.042 36.065 36.047 36.022 36.002 35.987 35.967 35.94 35.907 35.88 35.86 35.84 35.828 35.825 35.825 35.823 35.82 35.805 35.785 35.775 35.765 35.74 35.715 35.708 35.703 35.75 35.888 36.07 36.237 36.31 36.305 36.292 36.28 36.335 36.463 36.603 36.73 36.857 36.987 37.1 37.21 37.305 37.385 37.465 37.532 37.587 37.665 37.835 38.147 38.432 38.532 38.545 38.55 38.595 38.777 39.067 39.275 39.31 39.262 39.225 39.245 39.332 39.447 39.56 39.67 39.75 39.8 39.85 39.923 39.995 40.03 40.053 40.078 40.193 40.4
33.078 33.493 33.938 34.418 34.905 35.398 35.92 36.48 37.053 37.625 38.248 38.923 39.6 40.247 40.797 41.27 41.732 42.19 42.63 43.07 43.525 43.982 44.372 44.69 45.002 45.305 45.452 45.425 45.375 45.33 45.265 45.17 45.07 44.995 44.942 44.9 44.85 44.792 44.735 44.51 43.952 43.223 42.483 41.788 41.28 40.993 40.9 40.923 40.95 40.985 41.263 42.003 42.88 43.462 43.712 43.827 43.86 43.817 43.775 43.73 43.675 43.607 43.502 43.37 43.242 43.12 43.002 42.885 42.765 42.642 42.532 42.42 42.29 42.16 42.02 41.867 41.712 41.542 41.342 41.127 40.915 40.692 40.47 40.26 40.055 39.855 39.65 39.445 39.24 39.067 38.917 38.747 38.575 38.405 38.24 38.113 38.025 37.942 37.83 37.672 37.5 37.33 37.193 37.08 36.965 36.84 36.678 36.495 36.315 36.14 35.965 35.785 35.63 35.603 35.677 35.735 35.78 35.83 35.88 35.925 35.97 36.02 36.07 36.1 36.133 36.187 36.215 36.205 36.182 36.162 36.15 36.135 36.117 36.105 36.105 36.1 36.08 36.063 36.05 36.043 36.035 36.018 35.998 35.985 35.975 35.965 35.972 35.983 35.978 35.973 36.003 36.12 36.3 36.465 36.53 36.52 36.508 36.508 36.58 36.715 36.858 36.987 37.097 37.203 37.31 37.433 37.548 37.625 37.683 37.738 37.788 37.905 38.173 38.54 38.74 38.77 38.8 38.802 38.818 38.978 39.297 39.552 39.61 39.567 39.527 39.557 39.667 39.782 39.882 40.007 40.112 40.165 40.217 40.292 40.353 40.368 40.378 40.395 40.495 40.698
32.923 33.338 33.785 34.27 34.76 35.255 35.775 36.323 36.89 37.465 38.085 38.76 39.407 39.992 40.53 41.032 41.505 41.96 42.385 42.795 43.233 43.687 44.077 44.402 44.72 45.017 45.207 45.262 45.255 45.205 45.122 45.017 44.982 44.997 44.935 44.848 44.785 44.727 44.657 44.407 43.842 43.123 42.405 41.775 41.265 40.903 40.785 40.813 40.85 40.895 40.953 41.405 42.373 43.225 43.635 43.802 43.86 43.832 43.8 43.775 43.737 43.68 43.582 43.458 43.34 43.23 43.115 42.992 42.867 42.738 42.637 42.555 42.44 42.31 42.17 42.015 41.855 41.682 41.482 41.267 41.045 40.805 40.563 40.335 40.125 39.925 39.72 39.515 39.313 39.158 39.04 38.897 38.735 38.563 38.388 38.228 38.115 38.032 37.927 37.79 37.627 37.46 37.335 37.237 37.127 36.992 36.813 36.615 36.43 36.253 36.075 35.903 35.755 35.73 35.817 35.9 35.972 36.04 36.092 36.138 36.185 36.235 36.277 36.278 36.273 36.312 36.335 36.317 36.295 36.275 36.26 36.25 36.245 36.255 36.29 36.322 36.32 36.3 36.285 36.277 36.265 36.235 36.205 36.19 36.18 36.17 36.205 36.27 36.295 36.293 36.31 36.38 36.518 36.677 36.745 36.735 36.74 36.773 36.858 36.995 37.127 37.23 37.33 37.438 37.558 37.713 37.865 37.97 38.025 38.06 38.105 38.235 38.508 38.85 38.952 38.91 38.97 39.008 39.008 39.06 39.298 39.602 39.702 39.653 39.623 39.695 39.87 40.015 40.128 40.3 40.435 40.488 40.558 40.667 40.757 40.778 40.783 40.813 40.895 41.04
32.77 33.185 33.635 34.123 34.623 35.125 35.645 36.185 36.738 37.305 37.922 38.562 39.147 39.697 40.235 40.76 41.262 41.73 42.152 42.548 42.955 43.392 43.782 44.1 44.405 44.68 44.89 45.033 45.095 45.043 44.92 44.78 44.805 44.992 45.002 44.865 44.75 44.665 44.572 44.295 43.743 43.068 42.41 41.823 41.29 40.845 40.678 40.738 40.83 40.88 40.965 41.333 42.202 43.035 43.465 43.737 43.847 43.847 43.818 43.795 43.772 43.737 43.662 43.555 43.447 43.34 43.22 43.09 42.957 42.823 42.725 42.66 42.575 42.46 42.32 42.162 41.995 41.82 41.62 41.392 41.15 40.9 40.658 40.425 40.203 39.993 39.787 39.585 39.385 39.228 39.122 39.015 38.88 38.717 38.542 38.368 38.223 38.12 38.012 37.887 37.745 37.59 37.473 37.385 37.285 37.147 36.96 36.753 36.553 36.368 36.193 36.035 35.905 35.86 35.92 36.013 36.11 36.2 36.275 36.345 36.405 36.452 36.477 36.46 36.43 36.443 36.455 36.432 36.408 36.385 36.37 36.365 36.375 36.4 36.443 36.497 36.535 36.537 36.522 36.505 36.48 36.445 36.413 36.395 36.385 36.378 36.423 36.517 36.59 36.622 36.652 36.7 36.778 36.897 36.965 36.975 37.01 37.063 37.148 37.265 37.37 37.463 37.563 37.685 37.843 38.022 38.19 38.332 38.44 38.5 38.553 38.658 38.85 39.137 39.187 39.125 39.228 39.258 39.343 39.455 39.513 39.698 39.81 39.803 39.908 40.098 40.273 40.43 40.53 40.63 40.747 40.823 40.928 41.06 41.167 41.213 41.248 41.31 41.385 41.473
32.62 33.033 33.488 33.985 34.49 34.995 35.515 36.055 36.597 37.147 37.725 38.3 38.853 39.403 39.938 40.465 40.987 41.485 41.92 42.315 42.71 43.117 43.485 43.785 44.078 44.373 44.655 44.923 45.16 45.032 44.7 44.543 44.603 44.84 44.94 44.847 44.705 44.597 44.485 44.257 43.785 43.15 42.535 41.955 41.398 40.865 40.678 40.765 40.828 40.918 41.08 41.368 42.045 42.77 43.205 43.59 43.82 43.862 43.833 43.81 43.8 43.787 43.732 43.64 43.537 43.43 43.307 43.175 43.042 42.91 42.815 42.75 42.68 42.595 42.465 42.3 42.13 41.952 41.742 41.497 41.245 40.995 40.755 40.522 40.29 40.065 39.855 39.658 39.46 39.298 39.19 39.095 38.987 38.857 38.697 38.525 38.358 38.218 38.095 37.97 37.842 37.705 37.595 37.512 37.422 37.292 37.107 36.9 36.69 36.493 36.343 36.235 36.143 36.07 36.083 36.168 36.255 36.343 36.433 36.522 36.597 36.655 36.67 36.64 36.6 36.585 36.575 36.548 36.523 36.498 36.485 36.495 36.52 36.55 36.59 36.645 36.705 36.745 36.745 36.72 36.69 36.655 36.62 36.6 36.59 36.585 36.635 36.732 36.825 36.895 36.947 37.002 37.057 37.132 37.2 37.245 37.297 37.353 37.425 37.515 37.605 37.698 37.812 37.967 38.15 38.335 38.502 38.655 38.8 38.915 39.007 39.125 39.268 39.447 39.505 39.515 39.612 39.663 39.768 39.942 39.99 39.975 40.045 40.218 40.527 40.852 40.992 41.047 41.067 41.045 41.09 41.188 41.32 41.46 41.582 41.662 41.73 41.807 41.885 41.965
32.465 32.87 33.323 33.827 34.332 34.837 35.345 35.87 36.41 36.947 37.488 38.035 38.585 39.13 39.66 40.185 40.71 41.22 41.675 42.08 42.475 42.865 43.215 43.518 43.808 44.128 44.497 44.88 45.18 44.992 44.643 44.535 44.49 44.54 44.645 44.672 44.575 44.493 44.418 44.325 43.96 43.32 42.705 42.125 41.555 40.963 40.703 40.748 40.818 41 41.233 41.468 41.92 42.473 42.905 43.34 43.712 43.867 43.87 43.873 43.877 43.85 43.78 43.692 43.595 43.492 43.375 43.245 43.112 42.985 42.893 42.827 42.76 42.692 42.575 42.405 42.232 42.052 41.835 41.582 41.332 41.087 40.847 40.612 40.383 40.165 39.95 39.743 39.548 39.388 39.275 39.175 39.075 38.967 38.825 38.655 38.482 38.32 38.183 38.057 37.92 37.757 37.63 37.55 37.49 37.407 37.245 37.04 36.83 36.625 36.535 36.525 36.472 36.385 36.333 36.375 36.455 36.535 36.62 36.705 36.777 36.83 36.835 36.802 36.765 36.73 36.7 36.67 36.645 36.625 36.63 36.663 36.695 36.725 36.753 36.793 36.85 36.905 36.937 36.93 36.9 36.868 36.838 36.82 36.803 36.795 36.843 36.925 37 37.072 37.147 37.215 37.275 37.342 37.432 37.512 37.57 37.625 37.685 37.765 37.855 37.96 38.01 38.105 38.32 38.545 38.777 38.967 39.115 39.262 39.397 39.527 39.662 39.787 39.875 39.925 39.975 40.085 40.152 40.21 40.415 40.46 40.455 40.727 41.095 41.397 41.52 41.507 41.477 41.43 41.448 41.565 41.702 41.84 41.967 42.065 42.145 42.225 42.305 42.382
32.297 32.69 33.135 33.64 34.147 34.652 35.148 35.645 36.168 36.703 37.245 37.792 38.337 38.875 39.4 39.922 40.437 40.935 41.4 41.827 42.232 42.617 42.97 43.29 43.59 43.915 44.27 44.572 44.715 44.57 44.645 44.807 44.66 44.54 44.503 44.483 44.42 44.38 44.378 44.397 44.115 43.493 42.873 42.283 41.688 41.09 40.758 40.835 41.068 41.3 41.535 41.733 41.975 42.343 42.76 43.195 43.63 43.902 43.97 43.987 43.97 43.902 43.818 43.732 43.642 43.545 43.43 43.295 43.158 43.043 42.96 42.893 42.83 42.77 42.655 42.485 42.31 42.127 41.91 41.658 41.41 41.17 40.93 40.7 40.49 40.295 40.075 39.845 39.648 39.495 39.38 39.27 39.165 39.06 38.92 38.753 38.585 38.418 38.275 38.142 37.965 37.745 37.59 37.523 37.515 37.502 37.37 37.167 36.96 36.753 36.7 36.772 36.787 36.732 36.625 36.595 36.665 36.745 36.83 36.902 36.947 36.977 36.977 36.95 36.912 36.868 36.83 36.803 36.783 36.77 36.793 36.847 36.89 36.92 36.938 36.953 36.993 37.048 37.097 37.125 37.115 37.083 37.06 37.055 37.038 37.015 37.028 37.075 37.135 37.205 37.292 37.375 37.44 37.513 37.627 37.75 37.827 37.883 37.948 38.03 38.135 38.27 38.313 38.21 38.255 38.66 39.07 39.265 39.415 39.565 39.712 39.852 39.987 40.112 40.207 40.272 40.32 40.415 40.443 40.465 40.81 40.997 40.918 41.105 41.422 41.65 41.755 41.775 41.767 41.74 41.793 41.93 42.068 42.205 42.327 42.417 42.495 42.575 42.655 42.73
