ncols         200
nrows         84
xllcorner     547000
yllcorner     260285
cellsize      5
NODATA_value  -9999.0
7.547 7.525 7.48 7.423 7.37 7.315 7.263 7.23 7.223 7.24 7.205 7.108 7.03 6.978 6.948 6.94 6.948 6.963 6.988 7.028 7.087 7.12 7.08 7.01 6.94 6.875 6.843 6.843 6.848 6.86 6.885 6.92 6.975 7.05 7.08 7.043 7.008 7.048 7.033 7.108 7.322 7.45 7.545 7.605 7.435 7.078 6.878 6.83 6.81 6.81 6.807 6.79 6.76 6.728 6.703 6.685 6.667 6.645 6.607 6.565 6.528 6.49 6.465 6.468 6.483 6.5 6.5 6.477 6.452 6.425 6.343 6.233 6.23 6.343 6.485 6.582 6.62 6.645 6.675 6.723 6.8 6.867 6.872 6.843 6.825 6.815 6.805 6.79 6.77 6.747 6.72 6.705 6.667 6.61 6.688 6.822 6.862 6.867 6.877 6.93 7.027 7.08 7.1 7.095 7.022 6.867 6.698 6.613 6.578 6.553 6.53 6.51 6.465 6.363 6.26 6.198 6.153 6.115 6.098 6.14 6.202 6.232 6.245 6.29 6.378 6.507 6.627 6.67 6.647 6.59 6.53 6.47 6.41 6.355 6.32 6.3 6.282 6.27 6.265 6.262 6.247 6.225 6.205 6.188 6.175 6.167 6.16 6.145 6.1 6.018 5.975 5.993 6.007 5.955 5.83 5.695 5.563 5.453 5.413 5.423 5.432 5.43 5.425 5.43 5.438 5.445 5.452 5.45 5.435 5.403 5.393 5.415 5.43 5.435 5.43 5.417 5.4 5.375 5.37 5.387 5.402 5.415 5.42 5.412 5.397 5.38 5.335 5.268 5.205 5.148 5.09 5.04 5.005 4.983 4.978 4.982 4.965 4.918 4.89 4.893
7.52 7.507 7.475 7.42 7.363 7.305 7.258 7.23 7.21 7.21 7.175 7.095 7.038 6.993 6.965 6.95 6.94 6.945 6.97 7.013 7.062 7.097 7.07 7 6.93 6.863 6.828 6.828 6.833 6.843 6.86 6.878 6.935 7.03 7.075 7.06 7.083 7.185 7.12 7.065 7.31 7.56 7.685 7.772 7.51 6.99 6.768 6.757 6.755 6.752 6.75 6.742 6.725 6.695 6.668 6.65 6.63 6.608 6.575 6.538 6.503 6.468 6.443 6.44 6.45 6.46 6.455 6.43 6.4 6.367 6.283 6.185 6.193 6.288 6.415 6.535 6.595 6.62 6.648 6.675 6.72 6.775 6.797 6.788 6.778 6.77 6.76 6.748 6.738 6.73 6.71 6.693 6.678 6.67 6.727 6.775 6.772 6.777 6.78 6.828 6.932 7.02 7.097 7.145 7.047 6.835 6.68 6.625 6.6 6.575 6.55 6.53 6.455 6.318 6.2 6.113 6.045 6.003 6.003 6.04 6.065 6.065 6.058 6.093 6.205 6.375 6.51 6.585 6.625 6.605 6.547 6.487 6.43 6.375 6.34 6.32 6.305 6.295 6.29 6.282 6.26 6.233 6.21 6.195 6.188 6.18 6.17 6.162 6.147 6.095 6.055 6.06 6.07 6.04 5.947 5.827 5.7 5.573 5.508 5.51 5.51 5.503 5.5 5.503 5.505 5.51 5.512 5.505 5.495 5.475 5.47 5.482 5.485 5.485 5.477 5.457 5.43 5.4 5.393 5.41 5.425 5.435 5.44 5.435 5.427 5.415 5.365 5.29 5.223 5.165 5.118 5.085 5.07 5.055 5.045 5.027 4.967 4.895 4.865 4.865
7.492 7.48 7.46 7.417 7.36 7.3 7.255 7.23 7.21 7.195 7.158 7.1 7.053 7.01 6.983 6.968 6.955 6.945 6.96 7.003 7.05 7.087 7.067 7 6.93 6.873 6.848 6.843 6.838 6.83 6.813 6.823 6.903 7.012 7.075 7.115 7.21 7.34 7.297 7.055 7.138 7.53 7.747 7.782 7.58 7.035 6.683 6.677 6.672 6.667 6.665 6.662 6.657 6.648 6.635 6.62 6.6 6.58 6.553 6.518 6.48 6.445 6.418 6.413 6.425 6.415 6.387 6.365 6.342 6.31 6.235 6.17 6.198 6.273 6.365 6.482 6.562 6.595 6.625 6.655 6.685 6.708 6.733 6.75 6.752 6.75 6.74 6.73 6.725 6.722 6.72 6.725 6.745 6.772 6.752 6.68 6.64 6.64 6.648 6.708 6.815 6.93 7.032 7.107 7.02 6.798 6.678 6.645 6.62 6.595 6.57 6.535 6.43 6.273 6.148 6.053 5.965 5.9 5.885 5.895 5.895 5.893 5.888 5.93 6.068 6.255 6.392 6.47 6.54 6.58 6.555 6.5 6.445 6.39 6.357 6.342 6.33 6.32 6.31 6.295 6.27 6.24 6.218 6.208 6.2 6.19 6.183 6.178 6.17 6.147 6.125 6.115 6.105 6.075 6.005 5.907 5.8 5.69 5.613 5.588 5.583 5.577 5.575 5.575 5.575 5.577 5.575 5.565 5.555 5.54 5.535 5.537 5.532 5.527 5.512 5.485 5.455 5.425 5.415 5.43 5.445 5.455 5.46 5.455 5.45 5.44 5.39 5.315 5.245 5.193 5.165 5.15 5.14 5.125 5.095 5.032 4.945 4.873 4.845 4.843
7.462 7.447 7.432 7.405 7.355 7.293 7.253 7.237 7.22 7.198 7.162 7.115 7.067 7.023 6.998 6.99 6.98 6.965 6.968 7 7.045 7.08 7.07 7.015 6.945 6.898 6.885 6.882 6.872 6.845 6.788 6.778 6.863 6.977 7.087 7.215 7.357 7.49 7.472 7.165 7.008 7.302 7.565 7.542 7.44 7.14 6.733 6.58 6.575 6.57 6.57 6.573 6.585 6.605 6.615 6.607 6.59 6.57 6.545 6.51 6.473 6.443 6.418 6.408 6.415 6.39 6.305 6.245 6.23 6.217 6.187 6.163 6.203 6.277 6.353 6.442 6.527 6.575 6.605 6.638 6.667 6.67 6.685 6.712 6.72 6.725 6.725 6.72 6.715 6.715 6.715 6.725 6.75 6.78 6.742 6.623 6.528 6.498 6.523 6.613 6.727 6.832 6.922 6.99 6.922 6.748 6.663 6.642 6.62 6.597 6.575 6.517 6.39 6.228 6.105 6.023 5.935 5.853 5.813 5.81 5.81 5.81 5.81 5.835 5.95 6.135 6.275 6.352 6.417 6.48 6.487 6.44 6.387 6.347 6.335 6.332 6.327 6.322 6.307 6.282 6.252 6.235 6.238 6.235 6.225 6.215 6.21 6.205 6.195 6.177 6.155 6.132 6.11 6.075 6.005 5.915 5.825 5.743 5.685 5.663 5.657 5.65 5.645 5.64 5.632 5.625 5.615 5.605 5.595 5.582 5.572 5.57 5.567 5.56 5.54 5.51 5.48 5.45 5.44 5.455 5.47 5.48 5.485 5.482 5.475 5.45 5.392 5.32 5.263 5.235 5.225 5.215 5.202 5.172 5.11 5.025 4.938 4.87 4.843 4.835
7.41 7.395 7.382 7.37 7.335 7.278 7.243 7.24 7.232 7.212 7.177 7.13 7.077 7.025 7.005 7.01 7.007 6.997 6.99 7.008 7.047 7.072 7.067 7.027 6.963 6.925 6.92 6.92 6.917 6.89 6.825 6.773 6.818 6.93 7.078 7.28 7.472 7.622 7.617 7.377 7.108 7.095 7.212 7.187 7.09 7 6.72 6.483 6.478 6.483 6.498 6.52 6.553 6.587 6.605 6.6 6.587 6.57 6.545 6.518 6.493 6.47 6.45 6.428 6.417 6.39 6.255 6.113 6.068 6.08 6.11 6.142 6.197 6.265 6.332 6.4 6.472 6.542 6.59 6.625 6.647 6.635 6.643 6.67 6.68 6.69 6.7 6.703 6.702 6.702 6.688 6.673 6.68 6.707 6.682 6.575 6.455 6.39 6.43 6.535 6.635 6.72 6.797 6.847 6.795 6.683 6.63 6.615 6.597 6.577 6.552 6.477 6.34 6.18 6.07 6.012 5.935 5.853 5.815 5.815 5.812 5.81 5.81 5.805 5.858 6.01 6.145 6.215 6.275 6.335 6.35 6.31 6.273 6.263 6.272 6.282 6.285 6.285 6.27 6.24 6.223 6.238 6.27 6.277 6.265 6.258 6.252 6.245 6.232 6.195 6.153 6.13 6.11 6.075 6.005 5.915 5.838 5.778 5.743 5.733 5.727 5.712 5.695 5.682 5.667 5.65 5.635 5.625 5.615 5.605 5.597 5.593 5.59 5.585 5.565 5.537 5.51 5.48 5.47 5.485 5.502 5.515 5.517 5.512 5.492 5.445 5.38 5.32 5.293 5.29 5.285 5.272 5.242 5.185 5.11 5.025 4.948 4.89 4.85 4.833
7.34 7.325 7.315 7.31 7.295 7.257 7.228 7.23 7.235 7.227 7.192 7.137 7.08 7.023 7.003 7.015 7.025 7.027 7.02 7.023 7.047 7.062 7.057 7.032 6.985 6.96 6.96 6.96 6.962 6.942 6.88 6.803 6.795 6.88 7.033 7.265 7.515 7.672 7.622 7.417 7.177 6.978 6.888 6.828 6.74 6.65 6.505 6.403 6.41 6.438 6.47 6.505 6.54 6.575 6.592 6.587 6.58 6.58 6.57 6.548 6.53 6.513 6.492 6.46 6.43 6.39 6.245 6.04 5.925 5.923 5.955 5.995 6.075 6.167 6.24 6.302 6.37 6.462 6.557 6.615 6.627 6.61 6.618 6.648 6.665 6.675 6.683 6.688 6.69 6.682 6.66 6.635 6.623 6.635 6.605 6.513 6.43 6.38 6.398 6.455 6.518 6.595 6.672 6.72 6.683 6.618 6.595 6.583 6.57 6.552 6.512 6.417 6.28 6.13 6.028 5.982 5.927 5.858 5.82 5.817 5.813 5.81 5.807 5.803 5.813 5.9 6.01 6.073 6.13 6.187 6.21 6.193 6.185 6.195 6.207 6.22 6.23 6.235 6.22 6.205 6.225 6.268 6.31 6.322 6.31 6.302 6.295 6.285 6.255 6.193 6.145 6.128 6.11 6.075 6.008 5.933 5.88 5.838 5.81 5.8 5.785 5.75 5.718 5.705 5.69 5.673 5.658 5.645 5.635 5.625 5.62 5.615 5.61 5.605 5.585 5.56 5.537 5.51 5.5 5.515 5.535 5.55 5.552 5.532 5.487 5.43 5.373 5.34 5.34 5.347 5.342 5.312 5.255 5.185 5.108 5.03 4.97 4.917 4.865 4.835
7.285 7.258 7.248 7.243 7.238 7.223 7.21 7.212 7.22 7.222 7.19 7.132 7.075 7.018 6.998 7.01 7.022 7.032 7.032 7.032 7.045 7.05 7.043 7.03 7.01 7.003 7.005 7.008 7.015 7.002 6.942 6.86 6.803 6.835 6.988 7.225 7.475 7.605 7.512 7.295 7.077 6.86 6.668 6.568 6.525 6.475 6.435 6.453 6.47 6.45 6.46 6.495 6.53 6.562 6.577 6.573 6.588 6.628 6.635 6.608 6.583 6.56 6.532 6.495 6.45 6.387 6.235 6.008 5.825 5.74 5.715 5.718 5.8 5.94 6.07 6.17 6.245 6.34 6.465 6.577 6.62 6.613 6.62 6.645 6.662 6.67 6.675 6.677 6.672 6.652 6.627 6.605 6.585 6.575 6.545 6.49 6.453 6.425 6.418 6.435 6.468 6.515 6.563 6.605 6.603 6.575 6.565 6.555 6.545 6.532 6.455 6.327 6.21 6.077 5.982 5.937 5.887 5.835 5.815 5.815 5.81 5.807 5.803 5.8 5.798 5.823 5.883 5.943 6 6.06 6.095 6.103 6.113 6.127 6.14 6.15 6.165 6.177 6.185 6.21 6.252 6.3 6.347 6.365 6.355 6.345 6.335 6.312 6.255 6.183 6.14 6.125 6.11 6.082 6.033 5.98 5.94 5.9 5.878 5.867 5.83 5.768 5.733 5.725 5.712 5.697 5.682 5.668 5.655 5.645 5.64 5.635 5.63 5.625 5.608 5.583 5.56 5.538 5.53 5.545 5.565 5.582 5.575 5.53 5.473 5.418 5.383 5.382 5.395 5.402 5.382 5.325 5.255 5.185 5.11 5.045 4.995 4.94 4.885 4.84
7.263 7.223 7.213 7.208 7.203 7.205 7.198 7.183 7.185 7.19 7.16 7.105 7.053 7.013 6.993 6.99 7 7.01 7.015 7.02 7.04 7.052 7.045 7.038 7.04 7.052 7.06 7.065 7.075 7.067 7.01 6.925 6.843 6.818 6.945 7.165 7.357 7.467 7.39 7.175 6.96 6.748 6.58 6.528 6.533 6.528 6.533 6.607 6.657 6.598 6.538 6.513 6.52 6.55 6.568 6.588 6.648 6.712 6.717 6.685 6.655 6.602 6.495 6.4 6.345 6.28 6.157 5.955 5.758 5.623 5.54 5.49 5.525 5.668 5.845 6.002 6.112 6.205 6.325 6.515 6.635 6.635 6.638 6.647 6.652 6.65 6.65 6.65 6.637 6.61 6.585 6.565 6.543 6.54 6.535 6.508 6.485 6.463 6.455 6.47 6.49 6.51 6.528 6.55 6.563 6.56 6.558 6.55 6.54 6.507 6.332 6.13 6.025 5.927 5.855 5.802 5.743 5.74 5.792 5.812 5.807 5.803 5.8 5.797 5.793 5.793 5.818 5.87 5.933 5.998 6.028 6.028 6.035 6.048 6.062 6.075 6.085 6.085 6.11 6.17 6.222 6.27 6.32 6.365 6.38 6.37 6.36 6.327 6.26 6.188 6.148 6.133 6.112 6.09 6.072 6.042 6 5.963 5.945 5.92 5.855 5.783 5.748 5.74 5.73 5.717 5.705 5.69 5.673 5.66 5.655 5.65 5.645 5.645 5.637 5.618 5.595 5.578 5.575 5.59 5.61 5.625 5.608 5.558 5.5 5.428 5.393 5.407 5.42 5.425 5.392 5.325 5.255 5.185 5.11 5.042 4.987 4.932 4.88 4.832
7.26 7.223 7.21 7.208 7.21 7.225 7.207 7.163 7.148 7.15 7.12 7.068 7.035 7.023 7 6.973 6.968 6.975 6.983 6.998 7.035 7.062 7.06 7.063 7.08 7.102 7.117 7.125 7.135 7.132 7.08 6.993 6.908 6.838 6.888 7.042 7.192 7.317 7.262 7.048 6.833 6.66 6.593 6.605 6.625 6.63 6.655 6.75 6.862 6.86 6.763 6.668 6.608 6.58 6.593 6.658 6.742 6.802 6.802 6.765 6.707 6.607 6.42 6.223 6.12 6.062 5.992 5.867 5.718 5.593 5.485 5.413 5.423 5.525 5.665 5.805 5.938 6.055 6.215 6.495 6.67 6.667 6.657 6.642 6.627 6.618 6.613 6.607 6.587 6.555 6.53 6.51 6.508 6.548 6.567 6.54 6.513 6.493 6.488 6.495 6.508 6.525 6.545 6.557 6.558 6.558 6.56 6.557 6.55 6.46 6.183 5.885 5.73 5.668 5.632 5.578 5.558 5.638 5.752 5.802 5.803 5.8 5.797 5.793 5.79 5.8 5.823 5.86 5.918 5.982 5.992 5.958 5.953 5.965 5.977 5.982 5.975 5.958 5.983 6.055 6.12 6.175 6.225 6.3 6.365 6.375 6.362 6.332 6.275 6.205 6.163 6.145 6.115 6.083 6.09 6.095 6.06 6.027 6 5.945 5.865 5.795 5.76 5.75 5.74 5.722 5.707 5.7 5.685 5.67 5.663 5.658 5.655 5.655 5.66 5.665 5.655 5.638 5.635 5.65 5.667 5.675 5.667 5.627 5.545 5.435 5.385 5.402 5.415 5.417 5.385 5.322 5.255 5.185 5.105 5.025 4.958 4.9 4.85 4.812
7.265 7.23 7.215 7.22 7.238 7.255 7.23 7.17 7.125 7.108 7.083 7.053 7.048 7.045 7.02 6.98 6.95 6.943 6.953 6.983 7.03 7.067 7.08 7.095 7.12 7.145 7.167 7.182 7.195 7.197 7.15 7.06 6.962 6.848 6.808 6.888 7.018 7.157 7.127 6.923 6.738 6.653 6.658 6.682 6.707 6.725 6.775 6.892 7.035 7.102 7.047 6.95 6.878 6.815 6.77 6.778 6.838 6.89 6.877 6.81 6.705 6.58 6.38 6.12 5.93 5.835 5.815 5.797 5.697 5.565 5.473 5.438 5.453 5.52 5.62 5.72 5.833 5.948 6.138 6.48 6.675 6.647 6.617 6.602 6.592 6.585 6.58 6.565 6.532 6.495 6.473 6.478 6.523 6.59 6.612 6.58 6.543 6.523 6.522 6.525 6.528 6.538 6.555 6.565 6.565 6.565 6.563 6.56 6.557 6.4 6.055 5.693 5.443 5.385 5.395 5.393 5.45 5.57 5.697 5.777 5.8 5.797 5.793 5.79 5.79 5.808 5.837 5.863 5.905 5.962 5.957 5.898 5.873 5.877 5.877 5.862 5.84 5.825 5.858 5.93 6 6.067 6.125 6.203 6.302 6.36 6.36 6.327 6.28 6.223 6.18 6.15 6.105 6.063 6.075 6.12 6.117 6.085 6.035 5.957 5.875 5.808 5.775 5.762 5.74 5.702 5.683 5.687 5.687 5.68 5.67 5.665 5.662 5.655 5.665 5.692 5.707 5.702 5.698 5.707 5.72 5.725 5.72 5.667 5.555 5.43 5.378 5.393 5.408 5.41 5.375 5.315 5.25 5.18 5.103 5.02 4.94 4.873 4.823 4.79
7.27 7.235 7.225 7.242 7.267 7.28 7.25 7.19 7.13 7.085 7.063 7.06 7.067 7.062 7.035 6.995 6.957 6.93 6.933 6.97 7.02 7.067 7.102 7.132 7.16 7.185 7.21 7.23 7.25 7.262 7.215 7.1 6.965 6.825 6.75 6.778 6.86 6.98 6.977 6.818 6.715 6.71 6.735 6.76 6.782 6.805 6.823 6.912 7.082 7.24 7.28 7.21 7.155 7.127 7.07 7.007 6.987 6.97 6.907 6.79 6.652 6.52 6.325 6.06 5.808 5.665 5.71 5.78 5.697 5.56 5.495 5.485 5.49 5.54 5.635 5.735 5.832 5.908 6.033 6.332 6.555 6.557 6.54 6.547 6.555 6.555 6.545 6.517 6.478 6.443 6.443 6.488 6.552 6.602 6.647 6.655 6.59 6.535 6.53 6.537 6.542 6.55 6.565 6.575 6.575 6.575 6.573 6.567 6.527 6.297 5.915 5.52 5.015 4.933 5.182 5.27 5.372 5.498 5.632 5.737 5.79 5.792 5.788 5.785 5.793 5.82 5.852 5.873 5.9 5.935 5.915 5.848 5.803 5.783 5.763 5.735 5.708 5.698 5.735 5.808 5.88 5.955 6.028 6.108 6.213 6.31 6.347 6.322 6.277 6.23 6.187 6.143 6.09 6.045 6.055 6.118 6.152 6.125 6.055 5.972 5.887 5.82 5.782 5.755 5.715 5.665 5.648 5.66 5.67 5.677 5.677 5.672 5.665 5.655 5.665 5.695 5.725 5.745 5.755 5.762 5.765 5.762 5.745 5.672 5.552 5.43 5.375 5.393 5.423 5.42 5.37 5.308 5.243 5.18 5.11 5.028 4.94 4.86 4.808 4.78
7.26 7.225 7.223 7.247 7.27 7.282 7.265 7.215 7.155 7.098 7.058 7.05 7.06 7.055 7.025 6.987 6.952 6.92 6.923 6.965 7.015 7.065 7.11 7.15 7.185 7.223 7.258 7.28 7.303 7.325 7.295 7.183 7.043 6.92 6.85 6.835 6.825 6.843 6.835 6.775 6.763 6.785 6.81 6.835 6.855 6.872 6.85 6.838 6.905 7.065 7.165 7.132 7.137 7.175 7.157 7.105 7.017 6.9 6.775 6.63 6.497 6.372 6.197 5.967 5.71 5.59 5.69 5.787 5.73 5.615 5.558 5.54 5.535 5.565 5.645 5.745 5.825 5.87 5.93 6.128 6.36 6.445 6.463 6.485 6.505 6.515 6.5 6.468 6.435 6.413 6.435 6.495 6.545 6.545 6.63 6.745 6.62 6.478 6.477 6.492 6.51 6.53 6.555 6.577 6.585 6.585 6.585 6.582 6.465 6.15 5.762 5.287 4.615 4.428 4.66 4.91 5.232 5.422 5.565 5.682 5.765 5.787 5.783 5.783 5.803 5.837 5.867 5.89 5.91 5.917 5.882 5.82 5.765 5.725 5.695 5.665 5.635 5.628 5.67 5.745 5.82 5.893 5.963 6.045 6.15 6.252 6.295 6.267 6.222 6.18 6.175 6.17 6.125 6.08 6.09 6.15 6.17 6.12 6.042 5.965 5.885 5.823 5.78 5.74 5.695 5.65 5.633 5.64 5.653 5.668 5.677 5.675 5.665 5.655 5.665 5.695 5.725 5.755 5.785 5.797 5.79 5.78 5.75 5.665 5.545 5.453 5.433 5.465 5.487 5.447 5.373 5.308 5.243 5.188 5.137 5.065 4.978 4.898 4.85 4.83
7.24 7.205 7.205 7.23 7.25 7.265 7.265 7.237 7.185 7.125 7.07 7.033 7.025 7.025 7 6.963 6.93 6.908 6.92 6.965 7.015 7.065 7.11 7.15 7.2 7.267 7.317 7.343 7.365 7.387 7.395 7.35 7.25 7.143 7.08 7.045 6.993 6.938 6.88 6.835 6.835 6.855 6.88 6.905 6.922 6.935 6.93 6.865 6.778 6.773 6.803 6.835 6.953 7.05 7.027 6.942 6.815 6.665 6.515 6.385 6.293 6.172 5.997 5.805 5.618 5.59 5.72 5.812 5.795 5.712 5.648 5.613 5.593 5.595 5.658 5.742 5.79 5.82 5.858 5.998 6.242 6.39 6.43 6.47 6.495 6.49 6.465 6.438 6.415 6.4 6.425 6.477 6.487 6.438 6.542 6.69 6.537 6.388 6.405 6.428 6.455 6.485 6.523 6.567 6.595 6.6 6.6 6.59 6.395 6.003 5.617 5 4.395 4.23 4.23 4.415 4.745 5.165 5.5 5.618 5.725 5.777 5.78 5.788 5.815 5.852 5.885 5.91 5.925 5.915 5.87 5.813 5.755 5.708 5.675 5.648 5.62 5.613 5.658 5.735 5.805 5.865 5.925 6.01 6.115 6.192 6.202 6.162 6.118 6.08 6.12 6.195 6.197 6.16 6.17 6.2 6.16 6.083 6.008 5.938 5.878 5.828 5.785 5.745 5.703 5.665 5.645 5.643 5.65 5.663 5.672 5.672 5.665 5.655 5.665 5.695 5.728 5.775 5.812 5.812 5.8 5.792 5.752 5.655 5.558 5.528 5.555 5.582 5.552 5.465 5.378 5.31 5.248 5.195 5.165 5.12 5.043 4.973 4.94 4.927
7.223 7.185 7.185 7.21 7.23 7.245 7.25 7.242 7.21 7.155 7.1 7.045 7.005 6.995 6.975 6.94 6.918 6.903 6.918 6.965 7.015 7.065 7.11 7.158 7.228 7.315 7.377 7.407 7.432 7.455 7.477 7.485 7.442 7.365 7.31 7.275 7.227 7.162 7.082 7.012 6.96 6.935 6.95 6.972 6.985 6.995 7.002 6.957 6.855 6.79 6.74 6.745 6.855 6.912 6.845 6.708 6.555 6.403 6.275 6.198 6.115 5.968 5.8 5.663 5.59 5.643 5.772 5.79 5.77 5.787 5.745 5.7 5.668 5.643 5.665 5.71 5.74 5.77 5.8 5.915 6.18 6.402 6.485 6.515 6.51 6.48 6.448 6.425 6.405 6.39 6.412 6.43 6.382 6.313 6.402 6.467 6.373 6.343 6.363 6.388 6.415 6.445 6.485 6.54 6.59 6.612 6.615 6.557 6.285 5.858 5.47 4.79 4.258 4.23 4.23 4.23 4.43 5.04 5.492 5.573 5.668 5.752 5.78 5.795 5.83 5.87 5.905 5.925 5.93 5.912 5.865 5.805 5.748 5.698 5.66 5.635 5.613 5.603 5.645 5.717 5.772 5.82 5.883 5.975 6.062 6.107 6.1 6.057 6.013 5.983 6.03 6.137 6.212 6.227 6.227 6.2 6.123 6.048 5.985 5.93 5.885 5.843 5.8 5.76 5.72 5.683 5.663 5.66 5.658 5.66 5.668 5.668 5.663 5.655 5.665 5.7 5.753 5.817 5.845 5.83 5.815 5.807 5.755 5.663 5.623 5.643 5.68 5.667 5.58 5.475 5.385 5.313 5.25 5.203 5.18 5.16 5.105 5.05 5.03 5.02
7.208 7.17 7.165 7.185 7.205 7.222 7.23 7.23 7.22 7.182 7.13 7.075 7.018 6.978 6.95 6.928 6.913 6.9 6.918 6.965 7.015 7.065 7.115 7.185 7.28 7.38 7.445 7.47 7.492 7.515 7.537 7.56 7.57 7.537 7.475 7.415 7.342 7.257 7.19 7.145 7.085 7.033 7.028 7.038 7.045 7.055 7.065 7.055 7.027 7.042 6.997 6.912 6.877 6.802 6.668 6.508 6.353 6.225 6.125 6.043 5.948 5.823 5.713 5.635 5.635 5.713 5.807 5.68 5.588 5.72 5.79 5.792 5.762 5.74 5.713 5.693 5.705 5.733 5.763 5.858 6.11 6.412 6.542 6.53 6.498 6.46 6.433 6.415 6.398 6.382 6.37 6.33 6.255 6.19 6.22 6.258 6.285 6.337 6.353 6.37 6.39 6.41 6.448 6.505 6.565 6.612 6.627 6.492 6.137 5.717 5.25 4.605 4.23 4.23 4.23 4.23 4.49 5.13 5.555 5.62 5.675 5.74 5.777 5.802 5.837 5.872 5.905 5.925 5.93 5.91 5.86 5.8 5.743 5.69 5.65 5.625 5.605 5.595 5.625 5.68 5.725 5.77 5.84 5.925 5.982 6.01 5.997 5.953 5.908 5.883 5.935 6.043 6.15 6.225 6.232 6.18 6.098 6.025 5.975 5.93 5.885 5.863 5.83 5.78 5.74 5.703 5.683 5.68 5.678 5.675 5.675 5.67 5.663 5.655 5.67 5.725 5.802 5.857 5.865 5.85 5.832 5.82 5.77 5.72 5.735 5.76 5.762 5.702 5.59 5.485 5.395 5.32 5.253 5.208 5.19 5.18 5.155 5.127 5.112 5.1
7.233 7.175 7.155 7.168 7.183 7.198 7.208 7.21 7.212 7.197 7.155 7.1 7.04 6.99 6.96 6.943 6.928 6.92 6.948 7 7.05 7.1 7.163 7.255 7.365 7.47 7.522 7.53 7.545 7.565 7.59 7.615 7.62 7.59 7.53 7.452 7.368 7.283 7.218 7.175 7.135 7.108 7.11 7.123 7.13 7.137 7.13 7.11 7.132 7.182 7.15 7.032 6.882 6.717 6.553 6.39 6.253 6.19 6.108 5.978 5.88 5.8 5.73 5.685 5.715 5.795 5.8 5.533 5.368 5.518 5.682 5.777 5.802 5.83 5.815 5.752 5.71 5.713 5.75 5.82 6.038 6.387 6.557 6.533 6.495 6.453 6.42 6.402 6.387 6.372 6.338 6.268 6.18 6.105 6.1 6.175 6.275 6.34 6.36 6.373 6.387 6.393 6.42 6.478 6.535 6.592 6.61 6.392 5.968 5.587 4.978 4.38 4.23 4.23 4.23 4.23 4.353 4.88 5.455 5.645 5.68 5.73 5.77 5.79 5.82 5.85 5.88 5.907 5.922 5.907 5.862 5.805 5.748 5.693 5.678 5.678 5.655 5.633 5.618 5.635 5.675 5.723 5.792 5.855 5.887 5.91 5.895 5.848 5.803 5.783 5.84 5.95 6.055 6.127 6.16 6.147 6.085 6.015 5.963 5.918 5.895 5.905 5.872 5.808 5.763 5.728 5.71 5.705 5.705 5.705 5.7 5.69 5.678 5.663 5.678 5.74 5.82 5.867 5.87 5.857 5.845 5.835 5.81 5.795 5.807 5.81 5.775 5.695 5.592 5.493 5.405 5.33 5.26 5.22 5.215 5.218 5.205 5.182 5.167 5.152
7.27 7.19 7.16 7.17 7.18 7.19 7.198 7.2 7.203 7.202 7.172 7.118 7.065 7.025 7 6.98 6.968 6.968 7.008 7.075 7.13 7.183 7.255 7.353 7.462 7.56 7.597 7.595 7.6 7.618 7.642 7.66 7.62 7.553 7.52 7.472 7.392 7.308 7.243 7.203 7.173 7.17 7.2 7.225 7.235 7.232 7.117 7.023 7.082 7.155 7.11 6.955 6.782 6.61 6.445 6.285 6.225 6.242 6.16 6.023 5.918 5.833 5.76 5.748 5.805 5.87 5.817 5.485 5.23 5.313 5.49 5.62 5.692 5.765 5.787 5.74 5.682 5.685 5.75 5.81 5.983 6.325 6.542 6.547 6.505 6.453 6.408 6.385 6.372 6.36 6.34 6.282 6.19 6.11 6.105 6.17 6.262 6.337 6.367 6.38 6.387 6.383 6.403 6.455 6.51 6.552 6.507 6.215 5.8 5.46 4.785 4.25 4.23 4.23 4.23 4.23 4.23 4.433 5.032 5.527 5.673 5.742 5.757 5.763 5.79 5.82 5.85 5.877 5.9 5.9 5.867 5.817 5.762 5.708 5.73 5.78 5.767 5.73 5.678 5.645 5.643 5.675 5.727 5.765 5.792 5.81 5.79 5.743 5.698 5.685 5.75 5.86 5.942 5.982 6.022 6.062 6.057 6.005 5.948 5.92 5.938 5.965 5.925 5.845 5.788 5.755 5.743 5.738 5.735 5.735 5.73 5.717 5.7 5.678 5.683 5.73 5.8 5.852 5.86 5.85 5.845 5.84 5.83 5.82 5.81 5.8 5.757 5.673 5.583 5.505 5.43 5.355 5.298 5.275 5.283 5.29 5.262 5.223 5.205 5.187
7.277 7.198 7.165 7.177 7.19 7.197 7.2 7.2 7.2 7.205 7.185 7.138 7.098 7.065 7.04 7.023 7.018 7.028 7.068 7.14 7.21 7.278 7.36 7.455 7.56 7.645 7.672 7.668 7.665 7.675 7.695 7.68 7.587 7.498 7.48 7.472 7.415 7.33 7.268 7.235 7.233 7.258 7.295 7.322 7.327 7.25 7.008 6.893 6.997 7.072 7.017 6.852 6.677 6.505 6.34 6.233 6.27 6.315 6.222 6.095 5.983 5.878 5.805 5.81 5.867 5.915 5.88 5.593 5.28 5.208 5.305 5.43 5.505 5.59 5.63 5.6 5.57 5.615 5.712 5.8 5.948 6.258 6.517 6.555 6.507 6.45 6.398 6.368 6.355 6.345 6.33 6.297 6.23 6.173 6.17 6.203 6.263 6.332 6.372 6.38 6.375 6.365 6.385 6.43 6.462 6.47 6.34 6.023 5.675 5.25 4.605 4.23 4.23 4.23 4.23 4.23 4.23 4.23 4.653 5.392 5.745 5.77 5.75 5.743 5.76 5.79 5.82 5.845 5.87 5.882 5.862 5.822 5.775 5.725 5.76 5.857 5.877 5.835 5.78 5.715 5.653 5.64 5.655 5.668 5.695 5.71 5.685 5.645 5.618 5.613 5.668 5.752 5.802 5.828 5.868 5.922 5.967 5.97 5.948 5.958 6 6.027 5.985 5.895 5.823 5.788 5.778 5.773 5.768 5.765 5.757 5.74 5.717 5.693 5.693 5.73 5.788 5.837 5.85 5.84 5.835 5.83 5.82 5.81 5.8 5.787 5.742 5.665 5.595 5.538 5.473 5.41 5.378 5.368 5.372 5.36 5.312 5.268 5.24 5.21
7.26 7.198 7.17 7.182 7.195 7.202 7.205 7.205 7.205 7.207 7.197 7.167 7.135 7.107 7.083 7.07 7.078 7.093 7.123 7.19 7.28 7.372 7.467 7.565 7.662 7.727 7.745 7.742 7.737 7.737 7.73 7.662 7.535 7.445 7.43 7.44 7.42 7.355 7.3 7.29 7.315 7.352 7.39 7.412 7.375 7.142 6.853 6.8 6.885 6.935 6.877 6.732 6.57 6.4 6.265 6.263 6.357 6.377 6.287 6.17 6.055 5.935 5.868 5.875 5.908 5.945 5.94 5.737 5.465 5.283 5.2 5.245 5.33 5.42 5.483 5.46 5.453 5.545 5.668 5.793 5.963 6.255 6.51 6.555 6.502 6.447 6.393 6.355 6.34 6.33 6.315 6.295 6.26 6.238 6.25 6.272 6.303 6.347 6.375 6.37 6.358 6.345 6.348 6.36 6.36 6.345 6.192 5.893 5.58 4.97 4.373 4.23 4.23 4.23 4.23 4.23 4.23 4.23 4.748 5.525 5.78 5.765 5.745 5.728 5.73 5.755 5.785 5.812 5.837 5.857 5.847 5.812 5.775 5.735 5.775 5.895 5.935 5.88 5.81 5.732 5.653 5.628 5.633 5.625 5.628 5.628 5.613 5.593 5.585 5.585 5.603 5.628 5.648 5.673 5.713 5.768 5.838 5.91 5.965 6.017 6.07 6.092 6.042 5.95 5.865 5.82 5.813 5.807 5.802 5.795 5.777 5.755 5.73 5.705 5.705 5.74 5.787 5.827 5.84 5.83 5.825 5.82 5.81 5.8 5.79 5.777 5.742 5.688 5.635 5.58 5.525 5.49 5.475 5.462 5.447 5.412 5.357 5.305 5.26 5.215
7.198 7.17 7.165 7.185 7.2 7.21 7.215 7.215 7.215 7.215 7.212 7.197 7.17 7.143 7.125 7.135 7.153 7.158 7.178 7.245 7.353 7.46 7.56 7.66 7.735 7.752 7.745 7.742 7.735 7.727 7.712 7.64 7.51 7.415 7.393 7.398 7.395 7.367 7.348 7.36 7.38 7.402 7.427 7.432 7.305 6.93 6.66 6.68 6.745 6.782 6.722 6.587 6.445 6.295 6.245 6.34 6.44 6.442 6.352 6.227 6.098 5.99 5.953 5.963 5.978 6 6.01 5.88 5.655 5.455 5.26 5.168 5.215 5.315 5.433 5.455 5.463 5.573 5.703 5.84 6.055 6.342 6.532 6.552 6.495 6.438 6.388 6.353 6.335 6.325 6.31 6.29 6.275 6.277 6.295 6.315 6.34 6.367 6.382 6.38 6.365 6.35 6.338 6.32 6.303 6.267 6.095 5.795 5.472 4.783 4.245 4.23 4.23 4.23 4.23 4.23 4.23 4.383 5.127 5.737 5.752 5.747 5.737 5.72 5.708 5.72 5.75 5.78 5.805 5.83 5.832 5.802 5.768 5.733 5.773 5.882 5.912 5.85 5.77 5.69 5.63 5.638 5.657 5.643 5.623 5.6 5.588 5.583 5.578 5.575 5.573 5.563 5.558 5.565 5.605 5.683 5.778 5.883 5.98 6.06 6.125 6.147 6.087 5.982 5.895 5.855 5.848 5.842 5.832 5.815 5.792 5.767 5.74 5.715 5.715 5.748 5.79 5.82 5.827 5.82 5.815 5.81 5.8 5.79 5.78 5.767 5.747 5.712 5.665 5.612 5.568 5.545 5.532 5.517 5.487 5.437 5.382 5.327 5.273 5.22
7.135 7.128 7.14 7.17 7.192 7.21 7.22 7.22 7.22 7.22 7.22 7.215 7.197 7.17 7.165 7.205 7.247 7.258 7.26 7.32 7.432 7.54 7.64 7.71 7.73 7.712 7.678 7.655 7.645 7.638 7.64 7.612 7.512 7.41 7.375 7.373 7.368 7.368 7.37 7.375 7.382 7.39 7.397 7.33 7.118 6.825 6.593 6.538 6.595 6.627 6.565 6.432 6.298 6.223 6.273 6.41 6.505 6.49 6.392 6.255 6.13 6.063 6.055 6.068 6.08 6.09 6.09 6.005 5.822 5.615 5.4 5.218 5.188 5.295 5.47 5.565 5.593 5.685 5.793 5.94 6.167 6.417 6.552 6.545 6.485 6.428 6.388 6.36 6.34 6.327 6.31 6.295 6.29 6.29 6.3 6.322 6.347 6.37 6.392 6.402 6.392 6.38 6.37 6.35 6.325 6.24 6.007 5.695 5.262 4.608 4.23 4.23 4.23 4.23 4.23 4.23 4.336 4.883 5.552 5.755 5.72 5.713 5.715 5.71 5.695 5.695 5.72 5.75 5.78 5.805 5.81 5.792 5.762 5.728 5.76 5.842 5.85 5.795 5.727 5.65 5.618 5.66 5.685 5.667 5.64 5.605 5.585 5.578 5.573 5.57 5.567 5.557 5.545 5.54 5.585 5.683 5.785 5.89 5.99 6.07 6.13 6.155 6.1 5.99 5.918 5.893 5.883 5.877 5.85 5.815 5.797 5.777 5.752 5.728 5.725 5.755 5.787 5.805 5.81 5.807 5.805 5.8 5.79 5.78 5.767 5.753 5.737 5.717 5.682 5.635 5.593 5.565 5.543 5.525 5.495 5.443 5.393 5.345 5.29 5.23
7.1 7.095 7.108 7.135 7.16 7.185 7.205 7.215 7.223 7.225 7.225 7.222 7.215 7.198 7.203 7.255 7.322 7.37 7.385 7.423 7.515 7.612 7.677 7.692 7.677 7.662 7.623 7.57 7.548 7.548 7.552 7.552 7.5 7.408 7.363 7.358 7.363 7.377 7.372 7.355 7.35 7.355 7.32 7.19 7.023 6.905 6.683 6.46 6.448 6.475 6.41 6.278 6.195 6.23 6.328 6.442 6.515 6.482 6.39 6.275 6.193 6.163 6.16 6.172 6.18 6.175 6.16 6.112 5.975 5.765 5.553 5.348 5.25 5.31 5.49 5.655 5.737 5.82 5.898 6.03 6.232 6.445 6.56 6.537 6.475 6.425 6.395 6.372 6.35 6.332 6.318 6.31 6.31 6.305 6.305 6.325 6.35 6.373 6.4 6.42 6.42 6.41 6.4 6.382 6.355 6.207 5.915 5.597 4.97 4.365 4.23 4.23 4.265 4.478 4.808 5.003 5.135 5.497 5.755 5.722 5.688 5.67 5.675 5.68 5.677 5.675 5.69 5.723 5.76 5.782 5.78 5.772 5.755 5.723 5.748 5.797 5.78 5.732 5.68 5.613 5.605 5.675 5.71 5.687 5.647 5.608 5.585 5.575 5.568 5.565 5.56 5.553 5.548 5.55 5.603 5.7 5.8 5.902 5.985 6.04 6.082 6.112 6.08 5.998 5.95 5.93 5.917 5.9 5.85 5.805 5.79 5.777 5.76 5.738 5.735 5.757 5.775 5.782 5.787 5.79 5.792 5.79 5.78 5.767 5.753 5.737 5.722 5.707 5.687 5.652 5.615 5.585 5.555 5.53 5.497 5.452 5.41 5.365 5.31 5.245
7.115 7.095 7.1 7.13 7.158 7.185 7.205 7.218 7.23 7.233 7.23 7.228 7.225 7.218 7.237 7.292 7.347 7.405 7.46 7.52 7.59 7.64 7.647 7.635 7.622 7.61 7.58 7.523 7.478 7.465 7.468 7.472 7.46 7.4 7.35 7.353 7.378 7.395 7.385 7.363 7.343 7.327 7.27 7.178 7.095 7.015 6.86 6.545 6.335 6.322 6.255 6.173 6.2 6.295 6.395 6.475 6.487 6.433 6.363 6.305 6.275 6.265 6.262 6.265 6.257 6.242 6.222 6.195 6.105 5.927 5.73 5.538 5.388 5.368 5.51 5.73 5.865 5.915 5.985 6.11 6.285 6.472 6.567 6.535 6.47 6.428 6.405 6.385 6.36 6.335 6.327 6.33 6.33 6.325 6.32 6.33 6.35 6.375 6.405 6.432 6.445 6.44 6.43 6.415 6.355 6.145 5.825 5.512 4.96 4.628 4.77 4.888 5.008 5.305 5.72 5.942 5.9 5.76 5.68 5.663 5.645 5.633 5.633 5.638 5.645 5.653 5.668 5.7 5.737 5.755 5.75 5.745 5.737 5.715 5.732 5.75 5.713 5.668 5.62 5.583 5.608 5.685 5.725 5.7 5.653 5.61 5.585 5.578 5.57 5.563 5.555 5.553 5.555 5.563 5.62 5.72 5.82 5.895 5.932 5.965 6.007 6.047 6.05 6.017 5.99 5.97 5.947 5.905 5.838 5.795 5.785 5.775 5.763 5.745 5.738 5.745 5.752 5.758 5.765 5.77 5.775 5.777 5.767 5.752 5.737 5.722 5.707 5.692 5.677 5.657 5.627 5.595 5.562 5.527 5.492 5.457 5.422 5.382 5.327 5.262
7.177 7.133 7.133 7.173 7.208 7.24 7.258 7.265 7.265 7.25 7.24 7.24 7.237 7.225 7.24 7.287 7.33 7.373 7.442 7.54 7.6 7.605 7.59 7.575 7.565 7.555 7.537 7.505 7.458 7.423 7.413 7.405 7.4 7.37 7.345 7.365 7.4 7.412 7.395 7.375 7.347 7.307 7.26 7.212 7.165 7.112 7.04 6.755 6.353 6.178 6.145 6.168 6.263 6.365 6.46 6.5 6.468 6.41 6.355 6.33 6.335 6.355 6.358 6.338 6.32 6.305 6.277 6.227 6.16 6.055 5.907 5.73 5.55 5.475 5.548 5.757 5.915 5.955 6.058 6.207 6.36 6.502 6.572 6.54 6.475 6.435 6.415 6.395 6.362 6.328 6.325 6.337 6.342 6.342 6.34 6.34 6.353 6.378 6.405 6.435 6.46 6.467 6.46 6.445 6.325 6.055 5.76 5.578 5.415 5.405 5.615 5.795 5.947 6.11 6.225 6.185 6.007 5.803 5.663 5.613 5.605 5.605 5.608 5.615 5.628 5.643 5.655 5.68 5.712 5.725 5.72 5.715 5.71 5.7 5.705 5.693 5.658 5.63 5.6 5.608 5.665 5.717 5.73 5.702 5.657 5.615 5.59 5.582 5.575 5.568 5.563 5.563 5.565 5.575 5.638 5.74 5.817 5.84 5.845 5.875 5.92 5.957 5.985 6.002 5.995 5.975 5.94 5.88 5.828 5.813 5.81 5.8 5.79 5.775 5.753 5.735 5.73 5.735 5.745 5.75 5.755 5.76 5.74 5.715 5.7 5.685 5.67 5.655 5.64 5.627 5.612 5.582 5.545 5.507 5.47 5.437 5.412 5.382 5.335 5.272
7.23 7.175 7.175 7.22 7.262 7.305 7.332 7.335 7.312 7.278 7.258 7.255 7.24 7.208 7.208 7.248 7.29 7.33 7.4 7.495 7.55 7.552 7.535 7.518 7.505 7.495 7.487 7.485 7.462 7.425 7.4 7.38 7.363 7.345 7.353 7.387 7.42 7.425 7.405 7.377 7.332 7.277 7.22 7.175 7.147 7.122 7.085 6.952 6.567 6.195 6.138 6.228 6.333 6.437 6.515 6.515 6.47 6.425 6.375 6.35 6.375 6.455 6.487 6.448 6.415 6.362 6.287 6.212 6.145 6.08 5.995 5.88 5.725 5.618 5.633 5.783 5.917 5.993 6.122 6.265 6.4 6.517 6.577 6.552 6.49 6.448 6.425 6.397 6.35 6.313 6.313 6.327 6.34 6.35 6.357 6.355 6.36 6.38 6.405 6.435 6.465 6.487 6.49 6.455 6.275 6.033 5.91 5.928 6.002 6.075 6.17 6.27 6.372 6.49 6.495 6.327 6.13 5.963 5.808 5.685 5.615 5.593 5.603 5.615 5.63 5.645 5.65 5.665 5.687 5.695 5.69 5.685 5.688 5.705 5.713 5.688 5.665 5.658 5.658 5.692 5.735 5.737 5.717 5.69 5.657 5.62 5.595 5.588 5.583 5.578 5.575 5.575 5.578 5.59 5.655 5.74 5.767 5.755 5.755 5.785 5.817 5.815 5.84 5.915 5.95 5.94 5.9 5.85 5.84 5.857 5.86 5.85 5.837 5.822 5.795 5.75 5.72 5.718 5.725 5.73 5.735 5.74 5.71 5.665 5.64 5.623 5.608 5.593 5.583 5.58 5.575 5.555 5.52 5.482 5.443 5.405 5.38 5.355 5.32 5.27
7.27 7.215 7.215 7.26 7.305 7.35 7.38 7.375 7.34 7.298 7.272 7.257 7.217 7.173 7.175 7.215 7.253 7.29 7.358 7.445 7.5 7.505 7.485 7.465 7.448 7.435 7.433 7.442 7.447 7.427 7.4 7.383 7.368 7.355 7.37 7.41 7.44 7.437 7.405 7.357 7.3 7.242 7.185 7.13 7.088 7.06 7.03 6.98 6.765 6.398 6.24 6.313 6.41 6.512 6.56 6.532 6.49 6.445 6.398 6.373 6.443 6.595 6.652 6.592 6.5 6.372 6.258 6.183 6.118 6.053 5.988 5.922 5.83 5.745 5.76 5.863 5.963 6.053 6.16 6.28 6.41 6.52 6.582 6.57 6.51 6.463 6.43 6.387 6.33 6.298 6.3 6.315 6.33 6.342 6.357 6.365 6.37 6.383 6.405 6.435 6.468 6.5 6.515 6.44 6.31 6.25 6.27 6.317 6.365 6.412 6.472 6.547 6.627 6.717 6.672 6.495 6.338 6.198 6.05 5.893 5.75 5.643 5.61 5.628 5.643 5.658 5.66 5.658 5.665 5.688 5.718 5.745 5.783 5.832 5.837 5.793 5.75 5.725 5.727 5.745 5.74 5.715 5.693 5.668 5.643 5.618 5.6 5.595 5.595 5.593 5.59 5.59 5.593 5.608 5.655 5.692 5.685 5.668 5.667 5.682 5.662 5.623 5.665 5.777 5.867 5.895 5.87 5.855 5.875 5.902 5.91 5.9 5.885 5.867 5.84 5.788 5.735 5.708 5.705 5.712 5.72 5.725 5.695 5.635 5.588 5.56 5.545 5.535 5.535 5.54 5.532 5.517 5.492 5.455 5.415 5.375 5.343 5.315 5.285 5.25
7.31 7.255 7.253 7.292 7.33 7.365 7.392 7.387 7.352 7.313 7.278 7.237 7.178 7.135 7.143 7.183 7.228 7.263 7.315 7.395 7.452 7.457 7.435 7.415 7.395 7.378 7.375 7.388 7.405 7.412 7.405 7.395 7.385 7.377 7.39 7.427 7.452 7.432 7.382 7.325 7.265 7.208 7.15 7.093 7.04 6.993 6.94 6.88 6.787 6.572 6.42 6.443 6.505 6.577 6.59 6.547 6.505 6.462 6.42 6.425 6.557 6.752 6.787 6.667 6.51 6.34 6.23 6.173 6.115 6.055 5.995 5.938 5.88 5.845 5.885 5.973 6.063 6.15 6.233 6.328 6.435 6.522 6.577 6.582 6.535 6.478 6.425 6.37 6.313 6.283 6.288 6.303 6.317 6.33 6.345 6.36 6.372 6.39 6.415 6.448 6.483 6.518 6.54 6.495 6.472 6.51 6.52 6.522 6.527 6.54 6.585 6.657 6.737 6.825 6.827 6.717 6.582 6.442 6.29 6.105 5.885 5.693 5.633 5.66 5.678 5.692 5.69 5.668 5.663 5.7 5.76 5.817 5.877 5.932 5.94 5.895 5.835 5.788 5.765 5.75 5.728 5.705 5.685 5.663 5.638 5.62 5.613 5.61 5.61 5.61 5.61 5.607 5.605 5.61 5.617 5.615 5.6 5.583 5.563 5.52 5.438 5.418 5.505 5.62 5.74 5.825 5.855 5.875 5.907 5.942 5.957 5.947 5.93 5.912 5.885 5.835 5.773 5.718 5.693 5.695 5.705 5.71 5.68 5.618 5.558 5.51 5.488 5.488 5.495 5.498 5.488 5.473 5.455 5.427 5.39 5.347 5.31 5.278 5.243 5.21
7.355 7.308 7.293 7.308 7.335 7.365 7.395 7.39 7.355 7.327 7.287 7.225 7.153 7.108 7.123 7.17 7.22 7.247 7.283 7.352 7.405 7.407 7.385 7.365 7.345 7.325 7.32 7.335 7.352 7.37 7.38 7.38 7.38 7.382 7.395 7.422 7.44 7.41 7.353 7.295 7.238 7.18 7.12 7.063 7.02 6.978 6.915 6.845 6.773 6.665 6.595 6.6 6.62 6.625 6.595 6.55 6.502 6.46 6.42 6.42 6.55 6.73 6.777 6.67 6.497 6.325 6.23 6.205 6.165 6.11 6.055 6.005 5.953 5.943 6.005 6.095 6.182 6.252 6.312 6.377 6.445 6.507 6.557 6.587 6.565 6.495 6.418 6.35 6.295 6.268 6.275 6.29 6.305 6.32 6.333 6.347 6.363 6.408 6.468 6.508 6.543 6.575 6.577 6.562 6.565 6.575 6.582 6.59 6.597 6.607 6.642 6.705 6.777 6.852 6.902 6.89 6.815 6.662 6.445 6.185 5.89 5.68 5.648 5.692 5.72 5.735 5.73 5.693 5.665 5.69 5.745 5.8 5.852 5.9 5.927 5.92 5.88 5.83 5.79 5.763 5.738 5.715 5.695 5.675 5.65 5.63 5.625 5.627 5.63 5.627 5.625 5.622 5.617 5.605 5.585 5.568 5.553 5.55 5.53 5.435 5.29 5.275 5.395 5.518 5.633 5.73 5.802 5.847 5.882 5.92 5.942 5.94 5.93 5.92 5.912 5.877 5.81 5.745 5.7 5.685 5.69 5.695 5.665 5.605 5.543 5.488 5.465 5.47 5.483 5.498 5.493 5.468 5.445 5.405 5.35 5.308 5.283 5.255 5.208 5.165
7.415 7.385 7.358 7.338 7.343 7.365 7.395 7.39 7.36 7.345 7.315 7.25 7.173 7.115 7.125 7.18 7.215 7.225 7.253 7.31 7.347 7.35 7.332 7.31 7.293 7.278 7.27 7.28 7.297 7.31 7.315 7.32 7.33 7.34 7.357 7.382 7.402 7.385 7.33 7.27 7.213 7.155 7.098 7.048 7.03 7.022 6.97 6.89 6.81 6.738 6.707 6.712 6.69 6.63 6.575 6.53 6.482 6.438 6.398 6.368 6.405 6.488 6.557 6.57 6.475 6.32 6.235 6.232 6.22 6.185 6.135 6.085 6.03 6.038 6.122 6.197 6.235 6.255 6.295 6.355 6.41 6.465 6.525 6.58 6.585 6.517 6.42 6.335 6.275 6.253 6.265 6.28 6.293 6.307 6.32 6.335 6.368 6.45 6.55 6.605 6.64 6.645 6.605 6.575 6.57 6.575 6.585 6.595 6.603 6.613 6.643 6.695 6.763 6.837 6.892 6.93 6.907 6.737 6.46 6.155 5.848 5.66 5.655 5.71 5.755 5.777 5.762 5.712 5.66 5.663 5.713 5.767 5.82 5.865 5.892 5.902 5.892 5.857 5.82 5.79 5.76 5.73 5.705 5.685 5.663 5.643 5.638 5.642 5.645 5.643 5.64 5.637 5.625 5.6 5.575 5.555 5.56 5.603 5.61 5.5 5.305 5.238 5.34 5.455 5.542 5.62 5.697 5.762 5.807 5.842 5.865 5.87 5.868 5.88 5.915 5.905 5.842 5.78 5.728 5.69 5.678 5.682 5.652 5.59 5.535 5.498 5.483 5.485 5.505 5.54 5.55 5.525 5.48 5.378 5.285 5.263 5.262 5.252 5.203 5.14
7.495 7.472 7.442 7.41 7.388 7.38 7.395 7.395 7.375 7.367 7.35 7.297 7.225 7.16 7.148 7.18 7.195 7.198 7.223 7.26 7.28 7.287 7.277 7.255 7.24 7.23 7.22 7.225 7.242 7.25 7.25 7.253 7.26 7.27 7.29 7.323 7.352 7.355 7.312 7.25 7.19 7.13 7.075 7.048 7.052 7.062 7.03 6.957 6.885 6.815 6.783 6.77 6.697 6.6 6.54 6.497 6.455 6.413 6.378 6.352 6.328 6.32 6.34 6.368 6.357 6.283 6.228 6.225 6.23 6.227 6.205 6.165 6.12 6.145 6.207 6.22 6.195 6.173 6.205 6.267 6.335 6.41 6.48 6.547 6.585 6.537 6.433 6.333 6.258 6.238 6.253 6.267 6.28 6.295 6.31 6.333 6.4 6.51 6.622 6.697 6.712 6.665 6.61 6.59 6.58 6.58 6.588 6.598 6.61 6.62 6.65 6.7 6.755 6.822 6.875 6.875 6.807 6.665 6.422 6.115 5.805 5.643 5.663 5.718 5.775 5.805 5.78 5.725 5.665 5.645 5.68 5.732 5.785 5.83 5.855 5.865 5.877 5.875 5.85 5.82 5.787 5.753 5.723 5.698 5.675 5.655 5.65 5.655 5.658 5.66 5.657 5.645 5.62 5.59 5.568 5.573 5.623 5.695 5.707 5.585 5.375 5.243 5.27 5.355 5.428 5.503 5.582 5.662 5.725 5.765 5.785 5.79 5.803 5.848 5.91 5.92 5.872 5.817 5.765 5.715 5.678 5.667 5.637 5.585 5.55 5.523 5.505 5.51 5.54 5.58 5.607 5.595 5.505 5.35 5.255 5.245 5.25 5.255 5.217 5.145
7.58 7.555 7.522 7.49 7.46 7.427 7.408 7.397 7.387 7.382 7.372 7.335 7.272 7.207 7.173 7.17 7.17 7.173 7.185 7.2 7.21 7.22 7.22 7.208 7.195 7.185 7.175 7.175 7.185 7.188 7.185 7.188 7.198 7.213 7.235 7.265 7.295 7.317 7.295 7.232 7.17 7.11 7.065 7.058 7.07 7.082 7.057 7.01 6.962 6.892 6.847 6.792 6.68 6.568 6.5 6.463 6.425 6.388 6.36 6.335 6.305 6.283 6.268 6.25 6.24 6.23 6.22 6.22 6.225 6.232 6.232 6.22 6.202 6.207 6.205 6.175 6.143 6.11 6.11 6.148 6.22 6.328 6.433 6.52 6.592 6.58 6.478 6.36 6.258 6.225 6.24 6.255 6.27 6.285 6.3 6.335 6.425 6.547 6.667 6.747 6.73 6.65 6.605 6.597 6.59 6.587 6.592 6.602 6.617 6.63 6.657 6.705 6.752 6.805 6.817 6.747 6.64 6.53 6.357 6.082 5.77 5.63 5.673 5.73 5.787 5.802 5.767 5.717 5.662 5.628 5.645 5.695 5.747 5.795 5.825 5.845 5.87 5.885 5.87 5.84 5.807 5.775 5.745 5.715 5.688 5.665 5.66 5.665 5.67 5.677 5.667 5.64 5.607 5.578 5.58 5.632 5.71 5.787 5.792 5.647 5.43 5.27 5.22 5.25 5.313 5.388 5.468 5.55 5.627 5.685 5.708 5.725 5.773 5.835 5.897 5.922 5.89 5.84 5.792 5.747 5.7 5.665 5.633 5.6 5.575 5.547 5.528 5.538 5.575 5.615 5.65 5.635 5.52 5.368 5.293 5.278 5.268 5.265 5.235 5.17
7.642 7.612 7.57 7.527 7.495 7.46 7.42 7.385 7.37 7.365 7.355 7.33 7.28 7.217 7.178 7.17 7.17 7.17 7.168 7.168 7.175 7.185 7.19 7.185 7.17 7.153 7.135 7.125 7.13 7.14 7.153 7.165 7.18 7.2 7.223 7.248 7.272 7.28 7.26 7.21 7.145 7.083 7.053 7.062 7.075 7.085 7.052 6.992 6.957 6.927 6.872 6.77 6.64 6.528 6.463 6.427 6.39 6.358 6.337 6.315 6.285 6.26 6.245 6.23 6.215 6.213 6.218 6.223 6.228 6.233 6.235 6.24 6.247 6.233 6.2 6.173 6.143 6.098 6.068 6.078 6.13 6.253 6.405 6.52 6.607 6.63 6.55 6.42 6.278 6.215 6.23 6.245 6.26 6.275 6.293 6.33 6.415 6.535 6.66 6.727 6.697 6.618 6.575 6.575 6.575 6.577 6.582 6.59 6.602 6.61 6.62 6.652 6.697 6.742 6.717 6.615 6.505 6.395 6.255 6.005 5.73 5.633 5.682 5.75 5.805 5.8 5.738 5.682 5.635 5.585 5.585 5.635 5.695 5.762 5.815 5.85 5.88 5.897 5.885 5.855 5.825 5.795 5.765 5.735 5.7 5.663 5.65 5.657 5.665 5.672 5.65 5.61 5.575 5.548 5.575 5.647 5.725 5.802 5.817 5.68 5.485 5.35 5.27 5.238 5.233 5.273 5.352 5.435 5.517 5.59 5.645 5.702 5.768 5.833 5.897 5.92 5.887 5.84 5.795 5.752 5.71 5.675 5.643 5.615 5.59 5.565 5.545 5.55 5.582 5.62 5.655 5.652 5.56 5.425 5.358 5.34 5.322 5.295 5.25 5.195
7.677 7.642 7.595 7.54 7.498 7.46 7.417 7.368 7.335 7.327 7.317 7.3 7.262 7.205 7.175 7.18 7.185 7.185 7.18 7.173 7.175 7.185 7.187 7.182 7.167 7.145 7.12 7.105 7.113 7.138 7.167 7.185 7.198 7.215 7.237 7.255 7.255 7.225 7.195 7.167 7.115 7.055 7.035 7.055 7.072 7.085 7.047 6.953 6.88 6.865 6.807 6.68 6.555 6.473 6.43 6.392 6.355 6.323 6.305 6.287 6.262 6.24 6.223 6.21 6.208 6.215 6.222 6.23 6.235 6.24 6.245 6.25 6.267 6.272 6.25 6.215 6.167 6.105 6.07 6.083 6.133 6.24 6.395 6.525 6.612 6.655 6.605 6.477 6.308 6.213 6.218 6.235 6.25 6.265 6.288 6.325 6.39 6.495 6.615 6.665 6.637 6.57 6.525 6.525 6.53 6.54 6.547 6.555 6.56 6.555 6.548 6.558 6.595 6.64 6.615 6.517 6.41 6.3 6.14 5.9 5.713 5.64 5.668 5.755 5.822 5.807 5.713 5.64 5.59 5.525 5.51 5.56 5.638 5.73 5.805 5.852 5.887 5.91 5.9 5.87 5.84 5.81 5.78 5.742 5.695 5.643 5.62 5.63 5.64 5.645 5.615 5.563 5.523 5.505 5.54 5.61 5.682 5.755 5.8 5.725 5.58 5.463 5.378 5.323 5.265 5.23 5.235 5.285 5.365 5.44 5.527 5.665 5.787 5.857 5.915 5.922 5.88 5.83 5.785 5.745 5.713 5.687 5.658 5.628 5.6 5.573 5.553 5.553 5.57 5.6 5.632 5.647 5.592 5.483 5.42 5.4 5.37 5.315 5.253 5.205
7.705 7.667 7.625 7.568 7.508 7.458 7.41 7.355 7.308 7.29 7.28 7.262 7.237 7.195 7.175 7.185 7.192 7.197 7.195 7.185 7.18 7.183 7.182 7.177 7.167 7.152 7.133 7.125 7.138 7.163 7.19 7.205 7.215 7.23 7.237 7.222 7.187 7.143 7.113 7.097 7.072 7.035 7.025 7.045 7.065 7.082 7.042 6.94 6.835 6.763 6.68 6.56 6.455 6.418 6.4 6.358 6.32 6.288 6.268 6.252 6.235 6.218 6.205 6.203 6.208 6.215 6.225 6.235 6.242 6.25 6.255 6.263 6.285 6.307 6.295 6.245 6.177 6.105 6.075 6.115 6.19 6.275 6.395 6.522 6.615 6.667 6.64 6.517 6.34 6.215 6.198 6.22 6.24 6.258 6.283 6.328 6.383 6.465 6.56 6.587 6.562 6.515 6.478 6.478 6.485 6.495 6.502 6.505 6.502 6.495 6.485 6.483 6.5 6.537 6.515 6.42 6.315 6.205 6.035 5.85 5.74 5.663 5.645 5.725 5.827 5.812 5.688 5.595 5.535 5.465 5.443 5.5 5.598 5.697 5.78 5.842 5.89 5.92 5.915 5.885 5.855 5.817 5.775 5.725 5.67 5.615 5.59 5.6 5.607 5.612 5.587 5.528 5.473 5.46 5.505 5.572 5.637 5.702 5.757 5.74 5.657 5.565 5.485 5.427 5.37 5.3 5.218 5.165 5.185 5.25 5.328 5.48 5.68 5.842 5.907 5.882 5.842 5.802 5.775 5.752 5.727 5.702 5.675 5.642 5.61 5.58 5.563 5.563 5.568 5.585 5.607 5.62 5.607 5.542 5.48 5.442 5.385 5.318 5.253 5.205
7.735 7.695 7.655 7.6 7.53 7.468 7.413 7.353 7.293 7.258 7.24 7.22 7.203 7.185 7.18 7.19 7.2 7.21 7.21 7.2 7.19 7.183 7.178 7.17 7.162 7.155 7.147 7.152 7.167 7.187 7.207 7.22 7.23 7.232 7.205 7.155 7.105 7.06 7.03 7.02 7.023 7.01 7.01 7.035 7.057 7.077 7.035 6.93 6.81 6.682 6.563 6.45 6.38 6.38 6.37 6.325 6.285 6.253 6.233 6.217 6.203 6.193 6.193 6.2 6.207 6.215 6.225 6.235 6.245 6.255 6.262 6.275 6.29 6.302 6.285 6.227 6.162 6.1 6.095 6.162 6.247 6.33 6.42 6.527 6.612 6.66 6.66 6.55 6.365 6.223 6.188 6.208 6.228 6.248 6.28 6.333 6.388 6.45 6.5 6.503 6.48 6.45 6.428 6.433 6.445 6.453 6.453 6.445 6.44 6.435 6.425 6.418 6.418 6.437 6.412 6.32 6.215 6.108 5.978 5.86 5.78 5.705 5.645 5.678 5.755 5.732 5.638 5.555 5.49 5.428 5.403 5.458 5.563 5.665 5.75 5.82 5.882 5.927 5.93 5.897 5.857 5.807 5.753 5.698 5.643 5.588 5.56 5.565 5.573 5.58 5.56 5.5 5.435 5.413 5.453 5.515 5.575 5.635 5.682 5.677 5.632 5.587 5.56 5.527 5.472 5.412 5.32 5.218 5.173 5.16 5.153 5.215 5.4 5.64 5.765 5.752 5.715 5.707 5.742 5.76 5.74 5.72 5.692 5.657 5.622 5.588 5.57 5.57 5.57 5.575 5.585 5.595 5.605 5.577 5.517 5.455 5.385 5.318 5.26 5.215
7.75 7.73 7.685 7.627 7.563 7.5 7.44 7.375 7.313 7.268 7.24 7.223 7.205 7.188 7.18 7.185 7.195 7.205 7.207 7.197 7.185 7.182 7.177 7.165 7.157 7.15 7.135 7.13 7.145 7.17 7.202 7.225 7.235 7.227 7.185 7.125 7.068 7.023 7.005 7.013 7.023 7.008 6.99 7 7.03 7.062 7.012 6.885 6.745 6.592 6.458 6.358 6.325 6.35 6.34 6.293 6.253 6.22 6.198 6.183 6.17 6.168 6.175 6.185 6.197 6.21 6.22 6.23 6.24 6.245 6.245 6.24 6.23 6.225 6.197 6.143 6.103 6.078 6.09 6.15 6.23 6.32 6.41 6.525 6.627 6.685 6.687 6.57 6.38 6.258 6.24 6.255 6.27 6.293 6.335 6.393 6.448 6.49 6.488 6.458 6.435 6.413 6.403 6.413 6.428 6.433 6.415 6.388 6.373 6.367 6.36 6.352 6.348 6.35 6.317 6.235 6.143 6.05 5.96 5.875 5.797 5.722 5.648 5.633 5.658 5.663 5.615 5.533 5.478 5.448 5.435 5.453 5.53 5.635 5.72 5.79 5.86 5.92 5.93 5.892 5.843 5.79 5.735 5.68 5.627 5.565 5.525 5.527 5.537 5.545 5.525 5.465 5.413 5.39 5.4 5.445 5.505 5.565 5.605 5.592 5.553 5.54 5.562 5.577 5.562 5.52 5.443 5.378 5.345 5.283 5.195 5.145 5.165 5.303 5.49 5.56 5.535 5.563 5.672 5.742 5.74 5.725 5.697 5.662 5.625 5.585 5.568 5.57 5.57 5.57 5.573 5.58 5.587 5.572 5.52 5.45 5.38 5.328 5.308 5.27
7.732 7.75 7.715 7.658 7.6 7.54 7.48 7.418 7.36 7.315 7.285 7.267 7.237 7.2 7.18 7.173 7.175 7.185 7.19 7.183 7.175 7.185 7.182 7.163 7.15 7.14 7.108 7.073 7.075 7.108 7.162 7.212 7.235 7.235 7.2 7.138 7.083 7.053 7.053 7.067 7.062 7.03 6.99 6.963 6.97 7.002 6.945 6.795 6.642 6.488 6.353 6.285 6.29 6.32 6.31 6.263 6.22 6.185 6.16 6.148 6.145 6.15 6.16 6.17 6.183 6.195 6.205 6.21 6.21 6.207 6.2 6.175 6.143 6.123 6.1 6.07 6.055 6.053 6.063 6.095 6.145 6.225 6.338 6.493 6.657 6.755 6.727 6.582 6.415 6.335 6.338 6.353 6.375 6.405 6.45 6.507 6.547 6.562 6.527 6.465 6.43 6.413 6.41 6.42 6.435 6.44 6.407 6.358 6.323 6.3 6.288 6.283 6.277 6.27 6.237 6.18 6.115 6.037 5.953 5.87 5.79 5.713 5.638 5.61 5.655 5.685 5.615 5.53 5.51 5.513 5.51 5.5 5.523 5.603 5.69 5.76 5.825 5.885 5.91 5.882 5.835 5.785 5.73 5.675 5.615 5.533 5.478 5.482 5.5 5.507 5.485 5.435 5.405 5.393 5.38 5.39 5.435 5.495 5.525 5.508 5.488 5.498 5.525 5.56 5.59 5.592 5.567 5.547 5.537 5.505 5.425 5.308 5.17 5.135 5.223 5.323 5.368 5.428 5.575 5.695 5.73 5.715 5.687 5.652 5.615 5.577 5.562 5.565 5.565 5.565 5.568 5.572 5.572 5.555 5.505 5.435 5.393 5.393 5.407 5.37
7.692 7.73 7.725 7.687 7.64 7.58 7.52 7.463 7.41 7.365 7.335 7.305 7.252 7.208 7.19 7.178 7.168 7.168 7.17 7.17 7.178 7.195 7.19 7.165 7.145 7.13 7.097 7.04 7.013 7.043 7.105 7.172 7.222 7.242 7.215 7.155 7.118 7.11 7.115 7.115 7.09 7.05 7.01 6.965 6.933 6.922 6.845 6.692 6.537 6.385 6.263 6.23 6.26 6.29 6.28 6.235 6.19 6.148 6.123 6.118 6.125 6.135 6.147 6.16 6.17 6.177 6.172 6.162 6.158 6.155 6.15 6.125 6.09 6.068 6.058 6.05 6.043 6.038 6.048 6.073 6.098 6.145 6.27 6.46 6.66 6.782 6.742 6.595 6.475 6.435 6.438 6.458 6.49 6.525 6.567 6.607 6.62 6.62 6.58 6.493 6.433 6.418 6.42 6.43 6.445 6.447 6.41 6.353 6.303 6.26 6.23 6.213 6.203 6.188 6.155 6.115 6.075 6.02 5.95 5.875 5.79 5.708 5.633 5.605 5.637 5.645 5.6 5.573 5.585 5.592 5.583 5.57 5.563 5.59 5.655 5.722 5.78 5.835 5.872 5.865 5.83 5.785 5.73 5.665 5.582 5.488 5.425 5.425 5.452 5.47 5.452 5.42 5.408 5.397 5.38 5.365 5.378 5.425 5.447 5.435 5.44 5.463 5.488 5.523 5.58 5.637 5.662 5.672 5.677 5.675 5.632 5.507 5.33 5.21 5.168 5.188 5.235 5.315 5.465 5.615 5.7 5.702 5.672 5.637 5.595 5.55 5.535 5.545 5.552 5.555 5.56 5.562 5.555 5.535 5.493 5.458 5.47 5.505 5.522 5.48
7.642 7.68 7.692 7.672 7.64 7.597 7.552 7.507 7.46 7.415 7.375 7.325 7.26 7.215 7.2 7.19 7.175 7.163 7.16 7.168 7.187 7.205 7.197 7.172 7.147 7.127 7.092 7.025 6.965 6.978 7.045 7.115 7.185 7.235 7.222 7.185 7.175 7.175 7.167 7.137 7.092 7.047 7 6.95 6.902 6.84 6.725 6.572 6.42 6.278 6.195 6.198 6.23 6.26 6.252 6.207 6.16 6.115 6.095 6.1 6.11 6.12 6.132 6.145 6.14 6.127 6.115 6.105 6.105 6.108 6.105 6.088 6.068 6.06 6.055 6.045 6.035 6.028 6.035 6.057 6.08 6.108 6.238 6.455 6.652 6.742 6.695 6.608 6.55 6.525 6.525 6.552 6.587 6.62 6.65 6.665 6.665 6.667 6.632 6.537 6.45 6.423 6.43 6.44 6.455 6.452 6.41 6.35 6.293 6.245 6.205 6.17 6.145 6.125 6.103 6.078 6.058 6.01 5.955 5.9 5.815 5.73 5.658 5.623 5.618 5.615 5.628 5.652 5.67 5.67 5.657 5.642 5.622 5.603 5.615 5.668 5.727 5.782 5.825 5.83 5.807 5.777 5.72 5.632 5.537 5.443 5.373 5.365 5.395 5.425 5.43 5.418 5.412 5.402 5.385 5.365 5.353 5.368 5.38 5.385 5.405 5.43 5.458 5.5 5.575 5.65 5.685 5.7 5.715 5.732 5.73 5.645 5.483 5.353 5.295 5.273 5.298 5.375 5.48 5.59 5.675 5.685 5.642 5.597 5.547 5.493 5.468 5.482 5.502 5.515 5.532 5.54 5.53 5.518 5.52 5.55 5.59 5.625 5.637 5.59
7.588 7.625 7.637 7.617 7.593 7.575 7.552 7.515 7.472 7.432 7.39 7.332 7.268 7.228 7.213 7.2 7.187 7.17 7.158 7.168 7.195 7.21 7.197 7.167 7.137 7.11 7.067 7.002 6.93 6.923 6.985 7.058 7.132 7.2 7.21 7.182 7.165 7.145 7.125 7.092 7.042 6.99 6.937 6.882 6.817 6.717 6.58 6.43 6.29 6.195 6.165 6.178 6.203 6.23 6.225 6.18 6.133 6.093 6.075 6.08 6.09 6.1 6.11 6.102 6.08 6.068 6.068 6.07 6.073 6.078 6.08 6.075 6.065 6.06 6.055 6.045 6.035 6.028 6.028 6.04 6.06 6.085 6.198 6.43 6.625 6.665 6.623 6.615 6.62 6.595 6.573 6.582 6.617 6.647 6.665 6.67 6.672 6.677 6.642 6.55 6.463 6.433 6.44 6.45 6.465 6.457 6.41 6.35 6.29 6.238 6.195 6.16 6.138 6.125 6.115 6.107 6.082 6.003 5.94 5.915 5.852 5.77 5.703 5.67 5.663 5.658 5.68 5.727 5.745 5.727 5.7 5.67 5.635 5.603 5.593 5.61 5.658 5.722 5.777 5.79 5.77 5.75 5.69 5.59 5.493 5.398 5.32 5.31 5.35 5.393 5.415 5.415 5.412 5.405 5.39 5.37 5.35 5.348 5.355 5.368 5.393 5.42 5.45 5.493 5.558 5.627 5.665 5.68 5.698 5.723 5.737 5.705 5.61 5.495 5.445 5.473 5.537 5.61 5.652 5.665 5.667 5.64 5.587 5.535 5.482 5.425 5.385 5.388 5.413 5.448 5.492 5.51 5.5 5.498 5.54 5.61 5.67 5.727 5.747 5.68
7.533 7.57 7.582 7.563 7.545 7.542 7.527 7.49 7.453 7.42 7.385 7.335 7.275 7.24 7.227 7.21 7.19 7.167 7.153 7.165 7.19 7.192 7.17 7.135 7.1 7.067 7.025 6.962 6.898 6.883 6.93 7.002 7.072 7.132 7.145 7.105 7.055 7.01 6.993 6.99 6.957 6.903 6.85 6.785 6.69 6.57 6.43 6.293 6.2 6.17 6.165 6.17 6.19 6.21 6.2 6.158 6.118 6.085 6.063 6.055 6.058 6.067 6.07 6.053 6.045 6.05 6.053 6.058 6.063 6.068 6.072 6.072 6.065 6.06 6.055 6.045 6.038 6.035 6.03 6.028 6.04 6.065 6.155 6.367 6.557 6.6 6.588 6.618 6.657 6.65 6.61 6.585 6.603 6.63 6.645 6.652 6.657 6.66 6.615 6.53 6.473 6.45 6.45 6.46 6.475 6.462 6.41 6.35 6.29 6.232 6.193 6.175 6.17 6.167 6.16 6.145 6.087 5.98 5.9 5.892 5.877 5.808 5.748 5.723 5.71 5.703 5.728 5.782 5.807 5.76 5.69 5.645 5.608 5.588 5.585 5.583 5.595 5.643 5.707 5.74 5.73 5.71 5.652 5.555 5.455 5.365 5.3 5.29 5.33 5.38 5.402 5.4 5.403 5.402 5.39 5.37 5.363 5.38 5.39 5.385 5.4 5.43 5.46 5.493 5.54 5.605 5.645 5.66 5.688 5.725 5.737 5.712 5.665 5.61 5.61 5.665 5.715 5.742 5.727 5.68 5.627 5.575 5.523 5.47 5.415 5.355 5.305 5.295 5.325 5.393 5.462 5.48 5.475 5.48 5.525 5.605 5.685 5.772 5.775 5.64
7.485 7.513 7.527 7.515 7.51 7.515 7.502 7.473 7.44 7.41 7.375 7.332 7.283 7.247 7.23 7.207 7.18 7.153 7.143 7.155 7.165 7.152 7.122 7.088 7.053 7.02 6.98 6.923 6.868 6.845 6.878 6.937 6.992 7.04 7.042 6.998 6.943 6.9 6.878 6.873 6.86 6.815 6.75 6.66 6.547 6.425 6.298 6.208 6.178 6.172 6.165 6.168 6.185 6.2 6.185 6.148 6.115 6.085 6.06 6.045 6.035 6.033 6.03 6.03 6.04 6.047 6.05 6.053 6.057 6.062 6.065 6.067 6.065 6.06 6.055 6.045 6.04 6.042 6.04 6.03 6.03 6.048 6.135 6.307 6.465 6.54 6.573 6.623 6.68 6.695 6.66 6.613 6.598 6.613 6.625 6.635 6.64 6.64 6.598 6.535 6.5 6.473 6.462 6.46 6.452 6.432 6.387 6.33 6.267 6.205 6.185 6.202 6.212 6.212 6.205 6.165 6.072 5.958 5.86 5.845 5.872 5.837 5.793 5.775 5.76 5.75 5.773 5.825 5.867 5.827 5.715 5.628 5.585 5.575 5.575 5.575 5.573 5.58 5.62 5.665 5.682 5.675 5.617 5.523 5.435 5.365 5.32 5.31 5.33 5.367 5.387 5.388 5.395 5.4 5.39 5.385 5.408 5.442 5.452 5.435 5.428 5.443 5.47 5.5 5.535 5.587 5.627 5.65 5.688 5.73 5.74 5.715 5.688 5.677 5.702 5.732 5.735 5.712 5.667 5.615 5.563 5.51 5.458 5.403 5.345 5.285 5.228 5.21 5.26 5.36 5.437 5.455 5.457 5.465 5.51 5.595 5.688 5.792 5.787 5.548
7.45 7.468 7.482 7.483 7.485 7.492 7.485 7.46 7.43 7.4 7.368 7.333 7.28 7.232 7.207 7.187 7.167 7.14 7.128 7.13 7.123 7.105 7.077 7.042 7.005 6.97 6.932 6.885 6.835 6.8 6.815 6.86 6.903 6.945 6.95 6.918 6.88 6.848 6.818 6.79 6.768 6.717 6.628 6.518 6.403 6.295 6.218 6.185 6.18 6.175 6.165 6.163 6.18 6.195 6.177 6.145 6.115 6.085 6.06 6.043 6.028 6.018 6.018 6.025 6.035 6.042 6.047 6.05 6.053 6.058 6.06 6.063 6.062 6.06 6.055 6.048 6.045 6.048 6.047 6.04 6.033 6.035 6.113 6.26 6.395 6.498 6.568 6.628 6.692 6.732 6.712 6.657 6.615 6.603 6.608 6.615 6.623 6.643 6.648 6.633 6.627 6.507 6.402 6.4 6.37 6.345 6.315 6.267 6.21 6.163 6.17 6.215 6.247 6.257 6.235 6.16 6.047 5.932 5.823 5.79 5.83 5.845 5.832 5.812 5.792 5.78 5.792 5.835 5.887 5.89 5.772 5.635 5.593 5.595 5.595 5.595 5.595 5.593 5.583 5.59 5.618 5.63 5.587 5.51 5.445 5.387 5.345 5.335 5.345 5.363 5.378 5.385 5.395 5.4 5.403 5.425 5.465 5.5 5.51 5.495 5.477 5.47 5.483 5.51 5.54 5.578 5.615 5.65 5.69 5.73 5.742 5.727 5.712 5.705 5.705 5.69 5.663 5.638 5.6 5.55 5.498 5.445 5.4 5.353 5.298 5.243 5.188 5.163 5.213 5.317 5.395 5.422 5.435 5.447 5.502 5.602 5.712 5.827 5.86 5.557
7.45 7.442 7.44 7.46 7.475 7.482 7.475 7.45 7.42 7.395 7.375 7.35 7.28 7.195 7.158 7.142 7.127 7.12 7.12 7.118 7.102 7.068 7.028 6.99 6.952 6.917 6.88 6.835 6.785 6.753 6.76 6.793 6.83 6.87 6.887 6.877 6.855 6.825 6.793 6.758 6.715 6.642 6.535 6.418 6.303 6.223 6.193 6.182 6.177 6.172 6.165 6.157 6.16 6.165 6.162 6.145 6.115 6.085 6.06 6.04 6.028 6.025 6.025 6.028 6.033 6.038 6.043 6.048 6.05 6.055 6.06 6.06 6.06 6.06 6.057 6.055 6.055 6.055 6.055 6.05 6.04 6.033 6.095 6.228 6.365 6.487 6.572 6.635 6.697 6.752 6.745 6.69 6.645 6.625 6.628 6.635 6.65 6.738 6.862 6.83 6.64 6.372 6.24 6.27 6.26 6.235 6.217 6.185 6.138 6.123 6.155 6.205 6.255 6.282 6.235 6.122 6.002 5.882 5.768 5.725 5.755 5.795 5.805 5.782 5.76 5.75 5.752 5.77 5.81 5.827 5.722 5.63 5.65 5.665 5.665 5.665 5.655 5.627 5.578 5.555 5.573 5.587 5.567 5.512 5.455 5.395 5.355 5.348 5.355 5.365 5.38 5.395 5.405 5.41 5.428 5.462 5.5 5.535 5.545 5.532 5.517 5.5 5.5 5.525 5.555 5.577 5.6 5.632 5.67 5.71 5.727 5.717 5.705 5.702 5.69 5.655 5.62 5.59 5.553 5.505 5.455 5.428 5.428 5.408 5.36 5.31 5.233 5.175 5.205 5.27 5.295 5.292 5.3 5.34 5.447 5.577 5.692 5.805 5.785 5.447
7.46 7.397 7.368 7.42 7.465 7.477 7.467 7.44 7.415 7.403 7.397 7.377 7.285 7.153 7.09 7.075 7.065 7.103 7.14 7.132 7.1 7.037 6.975 6.93 6.895 6.86 6.82 6.777 6.733 6.713 6.725 6.745 6.775 6.815 6.84 6.842 6.83 6.805 6.77 6.732 6.677 6.59 6.48 6.36 6.263 6.215 6.193 6.175 6.168 6.162 6.155 6.14 6.115 6.1 6.11 6.117 6.107 6.085 6.06 6.043 6.035 6.035 6.035 6.035 6.038 6.043 6.045 6.048 6.05 6.055 6.06 6.06 6.06 6.057 6.057 6.06 6.06 6.06 6.06 6.057 6.05 6.04 6.093 6.215 6.345 6.467 6.565 6.64 6.705 6.76 6.755 6.705 6.68 6.675 6.68 6.69 6.758 6.94 7.057 6.797 6.365 6.105 6.045 6.097 6.13 6.122 6.11 6.095 6.078 6.095 6.137 6.175 6.21 6.235 6.175 6.045 5.92 5.795 5.693 5.658 5.673 5.705 5.715 5.698 5.685 5.685 5.685 5.678 5.69 5.695 5.638 5.645 5.727 5.755 5.755 5.737 5.692 5.627 5.563 5.545 5.557 5.562 5.55 5.505 5.445 5.39 5.358 5.35 5.355 5.365 5.385 5.407 5.422 5.433 5.453 5.487 5.522 5.555 5.565 5.555 5.54 5.523 5.525 5.547 5.567 5.572 5.58 5.603 5.633 5.67 5.69 5.685 5.685 5.692 5.68 5.645 5.608 5.573 5.533 5.493 5.473 5.488 5.525 5.54 5.51 5.442 5.31 5.205 5.187 5.17 5.122 5.07 5.04 5.123 5.322 5.492 5.612 5.725 5.57 5.228
7.412 7.305 7.27 7.345 7.427 7.467 7.462 7.438 7.423 7.42 7.422 7.392 7.277 7.118 7.028 7.005 7.03 7.122 7.172 7.137 7.075 7.003 6.935 6.88 6.838 6.8 6.76 6.72 6.688 6.68 6.695 6.713 6.733 6.765 6.787 6.79 6.79 6.78 6.75 6.702 6.627 6.53 6.422 6.313 6.245 6.22 6.198 6.175 6.16 6.15 6.132 6.105 6.073 6.05 6.05 6.063 6.072 6.07 6.06 6.052 6.047 6.045 6.045 6.045 6.047 6.05 6.05 6.053 6.055 6.057 6.057 6.052 6.047 6.042 6.047 6.057 6.06 6.06 6.06 6.06 6.057 6.05 6.098 6.21 6.327 6.437 6.535 6.625 6.705 6.767 6.77 6.738 6.73 6.73 6.735 6.783 6.92 7.107 6.987 6.498 6.088 5.888 5.848 5.903 5.958 5.99 5.995 6.008 6.035 6.07 6.1 6.115 6.125 6.132 6.075 5.95 5.823 5.695 5.618 5.605 5.608 5.62 5.625 5.62 5.62 5.625 5.625 5.61 5.598 5.595 5.625 5.71 5.805 5.837 5.81 5.755 5.685 5.61 5.548 5.533 5.54 5.54 5.532 5.495 5.438 5.39 5.363 5.355 5.358 5.363 5.38 5.407 5.432 5.452 5.475 5.507 5.54 5.57 5.582 5.575 5.56 5.545 5.55 5.562 5.565 5.56 5.565 5.585 5.608 5.635 5.655 5.663 5.675 5.687 5.672 5.635 5.595 5.56 5.533 5.522 5.545 5.582 5.617 5.65 5.64 5.54 5.372 5.19 5.065 4.995 4.928 4.86 4.84 4.948 5.165 5.38 5.527 5.58 5.385 5.15
7.328 7.203 7.17 7.253 7.355 7.435 7.457 7.447 7.445 7.445 7.447 7.397 7.262 7.098 6.98 6.963 7.048 7.16 7.182 7.125 7.058 6.993 6.928 6.86 6.795 6.745 6.705 6.668 6.65 6.658 6.675 6.693 6.708 6.725 6.735 6.735 6.738 6.74 6.722 6.662 6.57 6.467 6.363 6.283 6.245 6.225 6.205 6.185 6.165 6.145 6.118 6.085 6.058 6.04 6.033 6.035 6.045 6.055 6.06 6.06 6.057 6.055 6.055 6.055 6.055 6.055 6.055 6.057 6.06 6.055 6.042 6.03 6.02 6.018 6.027 6.042 6.055 6.06 6.06 6.06 6.06 6.055 6.093 6.19 6.297 6.4 6.498 6.592 6.685 6.767 6.795 6.785 6.785 6.785 6.8 6.888 7.035 7.177 6.83 6.233 5.903 5.71 5.698 5.758 5.818 5.86 5.892 5.942 5.987 6.025 6.047 6.053 6.055 6.047 5.98 5.855 5.725 5.61 5.563 5.565 5.565 5.565 5.568 5.573 5.573 5.57 5.568 5.565 5.563 5.583 5.663 5.775 5.855 5.855 5.795 5.727 5.66 5.587 5.53 5.513 5.515 5.515 5.512 5.485 5.435 5.39 5.365 5.36 5.36 5.36 5.375 5.405 5.435 5.462 5.49 5.52 5.55 5.582 5.6 5.592 5.577 5.562 5.562 5.565 5.558 5.553 5.56 5.583 5.608 5.63 5.65 5.665 5.678 5.685 5.67 5.638 5.605 5.575 5.525 5.507 5.542 5.577 5.612 5.647 5.687 5.622 5.447 5.19 4.935 4.815 4.748 4.68 4.74 4.903 5.065 5.258 5.427 5.425 5.278 5.165
7.278 7.158 7.135 7.22 7.32 7.397 7.422 7.422 7.425 7.422 7.42 7.355 7.21 7.053 6.94 6.958 7.077 7.175 7.182 7.127 7.065 7.005 6.94 6.862 6.78 6.708 6.668 6.663 6.673 6.688 6.705 6.723 6.735 6.738 6.72 6.7 6.695 6.697 6.675 6.6 6.497 6.393 6.308 6.268 6.25 6.23 6.21 6.19 6.167 6.142 6.115 6.088 6.068 6.055 6.045 6.04 6.045 6.055 6.06 6.06 6.06 6.06 6.06 6.06 6.06 6.06 6.06 6.06 6.055 6.037 6.015 6 5.99 5.985 5.988 6 6.02 6.032 6.032 6.027 6.028 6.04 6.083 6.163 6.26 6.363 6.462 6.555 6.653 6.762 6.82 6.82 6.82 6.823 6.853 6.948 7.082 7.145 6.67 6.048 5.785 5.65 5.658 5.723 5.765 5.738 5.763 5.87 5.937 5.977 6 6.005 6.002 5.977 5.89 5.76 5.638 5.56 5.55 5.56 5.563 5.565 5.575 5.59 5.59 5.58 5.57 5.573 5.585 5.63 5.725 5.81 5.827 5.782 5.72 5.657 5.592 5.533 5.503 5.503 5.505 5.505 5.505 5.49 5.453 5.408 5.375 5.365 5.365 5.365 5.378 5.405 5.432 5.46 5.492 5.525 5.555 5.587 5.605 5.595 5.58 5.565 5.57 5.587 5.585 5.58 5.59 5.615 5.643 5.665 5.685 5.7 5.71 5.7 5.688 5.677 5.653 5.625 5.533 5.425 5.413 5.445 5.477 5.513 5.615 5.662 5.535 5.26 4.89 4.655 4.573 4.53 4.68 4.925 5.073 5.208 5.337 5.35 5.267 5.195
7.275 7.17 7.163 7.252 7.322 7.345 7.345 7.345 7.345 7.342 7.335 7.257 7.113 7 6.95 6.983 7.087 7.167 7.172 7.135 7.08 7.02 6.95 6.868 6.788 6.713 6.685 6.715 6.745 6.762 6.777 6.79 6.795 6.79 6.755 6.708 6.678 6.665 6.632 6.532 6.413 6.32 6.273 6.26 6.247 6.23 6.21 6.19 6.165 6.138 6.115 6.098 6.085 6.075 6.065 6.055 6.05 6.053 6.057 6.06 6.06 6.06 6.06 6.06 6.06 6.06 6.06 6.055 6.037 6.01 5.985 5.97 5.96 5.95 5.943 5.94 5.95 5.965 5.965 5.965 5.988 6.03 6.085 6.15 6.23 6.328 6.425 6.523 6.638 6.767 6.837 6.84 6.843 6.853 6.89 6.99 7.125 6.945 6.37 5.928 5.755 5.673 5.682 5.72 5.682 5.57 5.58 5.755 5.882 5.932 5.952 5.955 5.94 5.895 5.8 5.673 5.575 5.535 5.555 5.582 5.588 5.595 5.615 5.64 5.652 5.652 5.638 5.62 5.623 5.68 5.76 5.777 5.735 5.675 5.615 5.553 5.498 5.465 5.473 5.502 5.515 5.515 5.515 5.512 5.487 5.443 5.405 5.383 5.373 5.37 5.38 5.403 5.428 5.455 5.488 5.522 5.555 5.585 5.597 5.585 5.57 5.555 5.57 5.612 5.635 5.637 5.648 5.675 5.697 5.715 5.735 5.75 5.752 5.725 5.703 5.715 5.715 5.687 5.585 5.415 5.298 5.283 5.315 5.353 5.483 5.65 5.622 5.347 4.928 4.563 4.395 4.42 4.66 4.942 5.107 5.202 5.222 5.217 5.237 5.225
7.29 7.195 7.19 7.252 7.267 7.255 7.25 7.252 7.255 7.255 7.237 7.16 7.063 7.023 7.017 7.035 7.105 7.155 7.147 7.127 7.09 7.035 6.963 6.885 6.818 6.76 6.75 6.785 6.817 6.837 6.847 6.847 6.843 6.837 6.805 6.75 6.698 6.655 6.607 6.477 6.333 6.27 6.253 6.247 6.242 6.23 6.21 6.187 6.16 6.135 6.12 6.11 6.1 6.09 6.08 6.07 6.06 6.053 6.055 6.06 6.06 6.06 6.06 6.06 6.06 6.06 6.055 6.037 6.012 5.985 5.958 5.94 5.93 5.92 5.908 5.893 5.888 5.893 5.903 5.933 5.985 6.042 6.097 6.155 6.22 6.298 6.395 6.513 6.645 6.782 6.855 6.863 6.873 6.888 6.928 7.03 7.167 6.742 6.103 5.893 5.78 5.703 5.672 5.625 5.51 5.37 5.383 5.59 5.787 5.882 5.905 5.895 5.86 5.805 5.71 5.603 5.54 5.515 5.545 5.597 5.615 5.628 5.652 5.677 5.702 5.72 5.71 5.675 5.668 5.71 5.727 5.685 5.628 5.57 5.51 5.46 5.433 5.428 5.448 5.49 5.52 5.525 5.528 5.532 5.517 5.48 5.445 5.413 5.385 5.375 5.385 5.405 5.428 5.455 5.485 5.518 5.55 5.58 5.59 5.578 5.562 5.545 5.56 5.612 5.66 5.685 5.705 5.732 5.75 5.765 5.785 5.802 5.79 5.745 5.703 5.708 5.74 5.74 5.642 5.467 5.293 5.173 5.155 5.205 5.355 5.585 5.662 5.435 5.015 4.568 4.273 4.338 4.66 4.96 5.1 5.095 5.018 4.968 5.03 5.112
7.275 7.205 7.185 7.188 7.173 7.158 7.153 7.158 7.163 7.168 7.155 7.115 7.082 7.072 7.065 7.062 7.097 7.122 7.107 7.092 7.072 7.037 6.985 6.925 6.867 6.82 6.818 6.855 6.887 6.902 6.902 6.897 6.89 6.885 6.857 6.802 6.737 6.66 6.565 6.405 6.273 6.243 6.237 6.235 6.232 6.222 6.2 6.17 6.14 6.123 6.117 6.112 6.105 6.095 6.087 6.08 6.07 6.062 6.06 6.06 6.06 6.06 6.06 6.06 6.06 6.06 6.042 6.01 5.985 5.96 5.93 5.91 5.898 5.885 5.875 5.865 5.858 5.855 5.88 5.935 5.992 6.05 6.107 6.165 6.225 6.285 6.393 6.538 6.673 6.807 6.875 6.885 6.907 6.925 6.968 7.073 7.177 6.655 6.03 5.915 5.815 5.727 5.64 5.52 5.378 5.235 5.235 5.415 5.638 5.802 5.85 5.822 5.772 5.713 5.635 5.565 5.518 5.493 5.525 5.595 5.64 5.662 5.685 5.707 5.732 5.755 5.755 5.722 5.697 5.68 5.635 5.578 5.523 5.465 5.42 5.4 5.395 5.4 5.42 5.465 5.515 5.537 5.542 5.547 5.545 5.52 5.485 5.45 5.412 5.388 5.39 5.41 5.43 5.455 5.485 5.515 5.545 5.575 5.585 5.572 5.555 5.535 5.553 5.61 5.667 5.712 5.745 5.772 5.792 5.81 5.832 5.845 5.817 5.765 5.715 5.693 5.717 5.732 5.655 5.502 5.337 5.17 5.048 5.065 5.238 5.473 5.65 5.522 5.103 4.655 4.32 4.378 4.735 5.002 5.05 4.948 4.823 4.718 4.728 4.838
7.225 7.195 7.175 7.145 7.118 7.088 7.073 7.08 7.09 7.103 7.102 7.087 7.072 7.057 7.042 7.02 7.02 7.035 7.027 7.012 7.005 6.992 6.96 6.912 6.865 6.848 6.87 6.907 6.92 6.915 6.912 6.91 6.91 6.9 6.855 6.78 6.692 6.59 6.45 6.305 6.233 6.215 6.21 6.207 6.202 6.195 6.17 6.135 6.113 6.105 6.107 6.107 6.1 6.093 6.087 6.08 6.072 6.067 6.062 6.06 6.06 6.06 6.06 6.06 6.06 6.06 6.032 5.985 5.953 5.927 5.9 5.885 5.878 5.868 5.865 5.86 5.855 5.855 5.883 5.94 5.998 6.055 6.115 6.172 6.227 6.28 6.405 6.58 6.722 6.85 6.897 6.893 6.915 6.938 6.998 7.115 7.01 6.45 6.023 5.935 5.835 5.74 5.65 5.538 5.395 5.248 5.235 5.383 5.568 5.735 5.79 5.748 5.693 5.635 5.585 5.54 5.493 5.465 5.495 5.567 5.622 5.652 5.675 5.695 5.712 5.73 5.735 5.712 5.677 5.628 5.563 5.503 5.445 5.395 5.375 5.378 5.383 5.385 5.38 5.408 5.475 5.525 5.542 5.55 5.557 5.542 5.507 5.467 5.425 5.39 5.385 5.405 5.428 5.455 5.485 5.515 5.545 5.575 5.585 5.57 5.55 5.54 5.568 5.625 5.682 5.722 5.752 5.785 5.81 5.832 5.855 5.855 5.825 5.78 5.73 5.688 5.663 5.635 5.582 5.48 5.333 5.188 5.053 5.048 5.223 5.445 5.647 5.615 5.275 4.868 4.545 4.59 4.945 5.122 5.073 4.97 4.843 4.705 4.685 4.78
7.193 7.195 7.197 7.17 7.125 7.068 7.033 7.035 7.048 7.062 7.057 7.035 7.018 7.002 6.982 6.948 6.918 6.918 6.92 6.91 6.913 6.91 6.877 6.835 6.823 6.858 6.905 6.927 6.907 6.883 6.88 6.88 6.87 6.822 6.75 6.665 6.565 6.443 6.315 6.24 6.203 6.178 6.168 6.163 6.16 6.152 6.128 6.103 6.095 6.095 6.097 6.1 6.095 6.088 6.082 6.075 6.068 6.063 6.06 6.06 6.06 6.06 6.06 6.06 6.06 6.057 6.025 5.968 5.923 5.893 5.868 5.86 5.865 5.867 5.87 5.867 5.863 5.86 5.888 5.945 6.005 6.062 6.117 6.17 6.22 6.27 6.405 6.61 6.775 6.897 6.93 6.9 6.9 6.92 7.01 7.157 6.767 6.16 5.993 5.937 5.85 5.753 5.675 5.602 5.487 5.34 5.338 5.487 5.622 5.72 5.737 5.685 5.63 5.58 5.542 5.51 5.467 5.433 5.455 5.52 5.565 5.592 5.615 5.637 5.657 5.675 5.677 5.657 5.63 5.587 5.528 5.465 5.415 5.385 5.375 5.38 5.387 5.375 5.328 5.325 5.403 5.48 5.515 5.525 5.537 5.535 5.502 5.457 5.413 5.375 5.37 5.395 5.425 5.458 5.49 5.518 5.545 5.575 5.585 5.57 5.56 5.568 5.6 5.655 5.7 5.72 5.743 5.78 5.812 5.837 5.85 5.845 5.827 5.79 5.74 5.687 5.625 5.563 5.51 5.455 5.373 5.273 5.183 5.21 5.385 5.56 5.647 5.66 5.51 5.175 4.835 4.863 5.207 5.297 5.165 5.077 4.995 4.893 4.882 4.94
7.193 7.207 7.22 7.205 7.15 7.073 7.025 7.015 7.015 7.025 7.015 6.988 6.965 6.947 6.922 6.882 6.838 6.818 6.815 6.815 6.83 6.83 6.8 6.785 6.82 6.88 6.925 6.922 6.88 6.845 6.835 6.817 6.76 6.667 6.59 6.525 6.43 6.325 6.258 6.22 6.18 6.148 6.128 6.12 6.12 6.11 6.09 6.08 6.082 6.085 6.085 6.087 6.087 6.082 6.077 6.07 6.063 6.06 6.06 6.06 6.06 6.06 6.06 6.06 6.06 6.055 6.02 5.96 5.905 5.863 5.835 5.833 5.845 5.855 5.862 5.867 5.867 5.865 5.895 5.952 6.007 6.06 6.11 6.16 6.21 6.26 6.393 6.612 6.812 6.945 6.97 6.928 6.898 6.903 7.023 7.2 6.677 6.02 5.943 5.91 5.852 5.765 5.685 5.63 5.555 5.438 5.448 5.572 5.65 5.697 5.692 5.64 5.583 5.53 5.495 5.47 5.435 5.398 5.413 5.465 5.5 5.527 5.55 5.573 5.597 5.62 5.622 5.605 5.58 5.545 5.495 5.445 5.415 5.398 5.385 5.385 5.385 5.347 5.278 5.263 5.338 5.43 5.475 5.49 5.51 5.517 5.492 5.448 5.4 5.36 5.36 5.393 5.428 5.465 5.5 5.525 5.55 5.58 5.587 5.58 5.588 5.603 5.633 5.675 5.7 5.708 5.728 5.767 5.81 5.837 5.842 5.84 5.832 5.802 5.752 5.692 5.625 5.56 5.498 5.475 5.48 5.447 5.38 5.432 5.57 5.612 5.578 5.605 5.647 5.46 5.123 5.135 5.402 5.405 5.245 5.14 5.085 5.032 4.99 4.962
7.195 7.21 7.222 7.212 7.152 7.068 7.018 7.002 6.992 6.987 6.97 6.94 6.913 6.888 6.855 6.815 6.773 6.738 6.723 6.73 6.75 6.753 6.753 6.782 6.825 6.865 6.89 6.877 6.842 6.805 6.765 6.7 6.6 6.493 6.42 6.385 6.333 6.278 6.243 6.205 6.165 6.128 6.1 6.088 6.083 6.075 6.068 6.065 6.068 6.073 6.075 6.075 6.075 6.075 6.07 6.063 6.06 6.06 6.06 6.06 6.06 6.06 6.06 6.06 6.06 6.052 6.015 5.955 5.895 5.84 5.808 5.808 5.82 5.83 5.84 5.852 5.862 5.865 5.892 5.947 6 6.05 6.1 6.15 6.2 6.25 6.38 6.598 6.82 6.98 7.01 6.968 6.925 6.915 7.047 7.08 6.512 5.968 5.888 5.86 5.825 5.765 5.695 5.638 5.582 5.515 5.52 5.585 5.625 5.66 5.653 5.6 5.54 5.485 5.45 5.425 5.395 5.363 5.368 5.405 5.435 5.465 5.49 5.513 5.54 5.565 5.572 5.557 5.53 5.5 5.47 5.448 5.43 5.415 5.4 5.392 5.372 5.323 5.268 5.265 5.33 5.403 5.443 5.463 5.485 5.5 5.485 5.44 5.395 5.363 5.37 5.405 5.44 5.478 5.51 5.538 5.563 5.588 5.597 5.605 5.62 5.635 5.657 5.678 5.688 5.693 5.713 5.753 5.8 5.832 5.84 5.837 5.832 5.81 5.76 5.695 5.625 5.56 5.513 5.513 5.547 5.567 5.555 5.572 5.577 5.51 5.458 5.508 5.63 5.642 5.413 5.385 5.517 5.43 5.303 5.213 5.163 5.127 5.053 4.928
7.152 7.167 7.177 7.165 7.115 7.04 6.99 6.975 6.965 6.952 6.93 6.9 6.87 6.84 6.808 6.77 6.73 6.698 6.685 6.69 6.698 6.69 6.7 6.735 6.76 6.78 6.785 6.77 6.75 6.722 6.66 6.56 6.45 6.358 6.31 6.303 6.295 6.267 6.233 6.195 6.155 6.115 6.083 6.068 6.063 6.068 6.073 6.07 6.07 6.07 6.07 6.068 6.065 6.065 6.063 6.06 6.06 6.06 6.06 6.06 6.06 6.06 6.06 6.06 6.06 6.052 6.015 5.955 5.895 5.84 5.803 5.793 5.8 5.81 5.823 5.838 5.847 5.847 5.842 5.853 5.892 5.952 6.02 6.087 6.152 6.22 6.363 6.582 6.807 6.987 7.062 7.052 7.015 6.988 7.097 6.842 6.228 5.915 5.833 5.805 5.778 5.748 5.71 5.665 5.618 5.575 5.565 5.593 5.628 5.662 5.655 5.6 5.54 5.483 5.443 5.418 5.39 5.353 5.345 5.375 5.403 5.423 5.438 5.46 5.49 5.515 5.525 5.51 5.48 5.455 5.452 5.457 5.447 5.432 5.418 5.405 5.375 5.333 5.303 5.32 5.377 5.42 5.433 5.44 5.46 5.48 5.48 5.45 5.415 5.388 5.393 5.428 5.463 5.508 5.55 5.58 5.605 5.615 5.61 5.613 5.627 5.642 5.665 5.69 5.7 5.705 5.715 5.743 5.79 5.827 5.84 5.835 5.833 5.82 5.77 5.698 5.625 5.56 5.535 5.55 5.57 5.587 5.587 5.535 5.45 5.37 5.34 5.41 5.53 5.647 5.615 5.58 5.582 5.478 5.383 5.308 5.255 5.22 5.187 5.033
7.08 7.092 7.095 7.077 7.047 6.995 6.95 6.938 6.93 6.92 6.9 6.873 6.845 6.815 6.785 6.75 6.718 6.7 6.695 6.695 6.682 6.648 6.618 6.62 6.642 6.657 6.65 6.633 6.615 6.595 6.535 6.433 6.34 6.285 6.265 6.268 6.275 6.26 6.225 6.185 6.145 6.103 6.068 6.058 6.065 6.082 6.095 6.095 6.092 6.088 6.083 6.078 6.073 6.068 6.063 6.06 6.06 6.06 6.06 6.06 6.06 6.06 6.06 6.06 6.06 6.057 6.025 5.965 5.913 5.873 5.833 5.8 5.795 5.805 5.817 5.83 5.83 5.82 5.778 5.733 5.735 5.763 5.818 5.895 5.978 6.11 6.323 6.562 6.79 6.972 7.077 7.12 7.127 7.105 7.172 6.712 6.048 5.86 5.775 5.748 5.735 5.75 5.755 5.727 5.69 5.65 5.633 5.643 5.665 5.7 5.692 5.635 5.575 5.515 5.47 5.445 5.412 5.36 5.345 5.372 5.39 5.395 5.4 5.415 5.44 5.467 5.477 5.46 5.433 5.415 5.428 5.455 5.46 5.447 5.432 5.418 5.397 5.368 5.35 5.378 5.425 5.455 5.448 5.428 5.438 5.46 5.472 5.472 5.455 5.425 5.423 5.453 5.495 5.563 5.62 5.65 5.665 5.652 5.628 5.61 5.613 5.625 5.655 5.705 5.737 5.747 5.748 5.753 5.785 5.825 5.84 5.838 5.848 5.85 5.8 5.723 5.645 5.563 5.523 5.527 5.53 5.53 5.5 5.415 5.315 5.23 5.22 5.31 5.43 5.535 5.6 5.617 5.605 5.57 5.505 5.425 5.355 5.313 5.317 5.244
7.013 7.017 7.007 6.985 6.965 6.935 6.91 6.905 6.9 6.892 6.875 6.848 6.823 6.797 6.768 6.738 6.72 6.71 6.705 6.697 6.67 6.625 6.56 6.515 6.523 6.527 6.513 6.497 6.48 6.46 6.405 6.32 6.263 6.235 6.225 6.235 6.25 6.245 6.215 6.175 6.133 6.088 6.058 6.058 6.078 6.1 6.117 6.122 6.118 6.115 6.11 6.105 6.097 6.082 6.07 6.063 6.06 6.06 6.06 6.06 6.06 6.06 6.06 6.06 6.06 6.06 6.035 5.985 5.948 5.917 5.877 5.833 5.803 5.8 5.81 5.815 5.805 5.79 5.74 5.675 5.645 5.63 5.635 5.665 5.77 5.99 6.26 6.522 6.765 6.947 7.045 7.11 7.167 7.197 7.155 6.58 5.965 5.803 5.718 5.715 5.745 5.797 5.817 5.792 5.765 5.73 5.708 5.705 5.715 5.742 5.73 5.67 5.61 5.55 5.503 5.467 5.42 5.36 5.345 5.362 5.365 5.365 5.368 5.378 5.395 5.42 5.43 5.413 5.393 5.38 5.393 5.43 5.457 5.46 5.448 5.435 5.422 5.4 5.395 5.425 5.457 5.482 5.477 5.44 5.423 5.435 5.452 5.47 5.477 5.462 5.458 5.488 5.548 5.627 5.687 5.71 5.705 5.68 5.653 5.628 5.61 5.608 5.635 5.695 5.755 5.787 5.792 5.788 5.795 5.823 5.84 5.853 5.885 5.895 5.845 5.76 5.662 5.555 5.48 5.455 5.45 5.45 5.407 5.305 5.19 5.093 5.1 5.185 5.237 5.272 5.35 5.425 5.457 5.477 5.467 5.445 5.422 5.402 5.022 4.64
6.945 6.94 6.922 6.9 6.88 6.86 6.852 6.855 6.855 6.857 6.85 6.825 6.8 6.78 6.758 6.74 6.73 6.72 6.712 6.692 6.652 6.61 6.545 6.458 6.41 6.395 6.378 6.36 6.34 6.323 6.288 6.24 6.21 6.193 6.19 6.205 6.22 6.227 6.21 6.173 6.133 6.09 6.065 6.07 6.092 6.115 6.135 6.142 6.142 6.145 6.14 6.13 6.112 6.09 6.078 6.07 6.063 6.06 6.06 6.063 6.065 6.068 6.073 6.073 6.068 6.065 6.05 6.02 5.995 5.962 5.92 5.878 5.833 5.803 5.798 5.798 5.788 5.772 5.717 5.633 5.595 5.598 5.598 5.603 5.733 5.983 6.238 6.493 6.737 6.917 7.012 7.08 7.145 7.21 6.977 6.358 5.915 5.755 5.693 5.73 5.787 5.837 5.852 5.84 5.827 5.802 5.78 5.775 5.777 5.787 5.765 5.705 5.645 5.585 5.533 5.483 5.425 5.365 5.34 5.343 5.34 5.34 5.338 5.343 5.358 5.375 5.383 5.373 5.36 5.35 5.36 5.395 5.435 5.462 5.465 5.455 5.445 5.43 5.433 5.457 5.482 5.507 5.507 5.47 5.428 5.418 5.433 5.45 5.467 5.475 5.487 5.535 5.612 5.695 5.747 5.752 5.732 5.705 5.678 5.653 5.625 5.605 5.62 5.673 5.74 5.797 5.817 5.817 5.82 5.832 5.855 5.887 5.93 5.937 5.875 5.767 5.647 5.533 5.45 5.4 5.373 5.365 5.31 5.198 5.08 4.968 4.905 4.89 4.86 4.883 5.02 5.125 5.155 5.185 5.215 5.137 4.865 4.682 4.3 3.921
6.865 6.85 6.835 6.82 6.8 6.78 6.775 6.783 6.793 6.813 6.827 6.817 6.793 6.765 6.747 6.74 6.732 6.725 6.705 6.67 6.625 6.58 6.525 6.43 6.335 6.29 6.27 6.25 6.23 6.233 6.245 6.235 6.215 6.183 6.165 6.18 6.195 6.215 6.22 6.193 6.155 6.118 6.095 6.093 6.105 6.125 6.145 6.155 6.16 6.165 6.157 6.137 6.11 6.095 6.095 6.093 6.085 6.073 6.075 6.09 6.095 6.1 6.11 6.113 6.105 6.093 6.078 6.06 6.042 6.012 5.97 5.93 5.887 5.838 5.81 5.808 5.8 5.78 5.717 5.63 5.608 5.635 5.653 5.678 5.815 6.055 6.295 6.53 6.742 6.897 6.987 7.055 7.123 7.192 6.765 6.13 5.873 5.72 5.683 5.737 5.787 5.822 5.837 5.84 5.835 5.822 5.817 5.822 5.825 5.822 5.795 5.74 5.68 5.625 5.58 5.528 5.465 5.405 5.373 5.37 5.37 5.358 5.333 5.325 5.335 5.345 5.353 5.35 5.34 5.33 5.348 5.39 5.43 5.472 5.487 5.475 5.465 5.463 5.468 5.48 5.505 5.53 5.53 5.495 5.443 5.42 5.433 5.448 5.463 5.478 5.485 5.502 5.562 5.645 5.702 5.73 5.745 5.738 5.715 5.69 5.663 5.638 5.623 5.64 5.695 5.76 5.792 5.8 5.81 5.817 5.84 5.882 5.925 5.937 5.867 5.745 5.623 5.508 5.428 5.37 5.318 5.282 5.21 5.098 4.987 4.867 4.725 4.593 4.51 4.555 4.717 4.82 4.852 4.687 4.503 4.398 4.108 3.92 3.92 3.92
6.772 6.75 6.74 6.735 6.72 6.703 6.698 6.71 6.738 6.775 6.812 6.82 6.79 6.748 6.725 6.72 6.71 6.697 6.667 6.622 6.578 6.537 6.48 6.39 6.288 6.22 6.195 6.183 6.19 6.233 6.282 6.29 6.26 6.195 6.15 6.16 6.18 6.21 6.237 6.225 6.185 6.15 6.13 6.123 6.125 6.138 6.155 6.165 6.165 6.16 6.142 6.118 6.105 6.118 6.132 6.135 6.125 6.093 6.09 6.122 6.142 6.152 6.16 6.165 6.157 6.132 6.11 6.098 6.09 6.072 6.035 5.995 5.942 5.88 5.85 5.842 5.825 5.797 5.732 5.66 5.66 5.702 5.728 5.76 5.905 6.145 6.372 6.572 6.742 6.88 6.972 7.038 7.118 7.21 6.675 6.013 5.845 5.695 5.658 5.707 5.745 5.772 5.79 5.797 5.795 5.79 5.802 5.83 5.847 5.847 5.825 5.775 5.72 5.683 5.657 5.607 5.538 5.475 5.445 5.445 5.43 5.387 5.338 5.32 5.327 5.333 5.34 5.342 5.335 5.325 5.35 5.405 5.452 5.497 5.512 5.5 5.498 5.51 5.513 5.508 5.525 5.55 5.545 5.507 5.458 5.433 5.445 5.46 5.475 5.492 5.472 5.418 5.413 5.475 5.543 5.63 5.745 5.79 5.77 5.745 5.72 5.692 5.655 5.63 5.648 5.7 5.737 5.75 5.755 5.758 5.78 5.825 5.87 5.897 5.842 5.717 5.595 5.483 5.403 5.345 5.282 5.212 5.117 5.01 4.9 4.775 4.635 4.475 4.37 4.38 4.455 4.4 4.31 4.13 3.93 3.92 3.92 3.92 3.92 3.92
6.68 6.653 6.64 6.64 6.635 6.625 6.63 6.658 6.7 6.747 6.792 6.812 6.777 6.72 6.693 6.682 6.665 6.645 6.612 6.57 6.53 6.492 6.43 6.337 6.238 6.158 6.14 6.168 6.218 6.282 6.337 6.345 6.29 6.203 6.143 6.143 6.173 6.21 6.247 6.25 6.218 6.185 6.165 6.16 6.16 6.16 6.168 6.167 6.153 6.135 6.11 6.1 6.12 6.15 6.175 6.185 6.16 6.103 6.09 6.127 6.162 6.19 6.207 6.215 6.197 6.163 6.143 6.138 6.137 6.132 6.105 6.055 5.977 5.91 5.885 5.867 5.84 5.81 5.745 5.69 5.71 5.76 5.797 5.843 5.995 6.212 6.397 6.56 6.71 6.852 6.955 7.035 7.125 7.117 6.562 5.985 5.823 5.67 5.63 5.67 5.695 5.717 5.735 5.745 5.75 5.75 5.77 5.812 5.847 5.865 5.855 5.813 5.773 5.755 5.742 5.695 5.618 5.55 5.517 5.5 5.455 5.392 5.333 5.31 5.32 5.325 5.328 5.332 5.332 5.328 5.355 5.415 5.472 5.52 5.537 5.538 5.55 5.57 5.57 5.553 5.55 5.562 5.55 5.512 5.47 5.445 5.455 5.472 5.488 5.505 5.475 5.385 5.313 5.315 5.398 5.545 5.722 5.825 5.83 5.805 5.78 5.747 5.705 5.665 5.638 5.65 5.682 5.697 5.692 5.693 5.72 5.765 5.812 5.832 5.782 5.682 5.57 5.458 5.375 5.31 5.232 5.14 5.035 4.927 4.81 4.68 4.545 4.41 4.317 4.21 4.133 4.028 3.92 3.92 3.92 3.92 3.92 3.92 3.92 3.92
6.588 6.558 6.543 6.54 6.545 6.555 6.58 6.623 6.67 6.717 6.762 6.792 6.757 6.69 6.655 6.635 6.615 6.595 6.563 6.525 6.49 6.447 6.377 6.283 6.195 6.12 6.115 6.18 6.255 6.33 6.392 6.387 6.307 6.213 6.14 6.133 6.17 6.21 6.25 6.27 6.252 6.223 6.205 6.2 6.197 6.19 6.187 6.178 6.15 6.123 6.105 6.118 6.15 6.183 6.215 6.232 6.19 6.108 6.088 6.123 6.16 6.2 6.235 6.245 6.217 6.19 6.185 6.185 6.188 6.19 6.162 6.092 6 5.938 5.912 5.885 5.855 5.822 5.758 5.723 5.76 5.81 5.855 5.915 6.053 6.225 6.378 6.53 6.683 6.833 6.953 7.06 7.13 6.887 6.33 5.955 5.798 5.643 5.593 5.62 5.643 5.665 5.68 5.69 5.7 5.71 5.74 5.785 5.827 5.865 5.877 5.862 5.845 5.835 5.825 5.782 5.705 5.627 5.57 5.52 5.457 5.392 5.33 5.303 5.307 5.312 5.315 5.32 5.327 5.333 5.365 5.425 5.485 5.537 5.567 5.585 5.607 5.63 5.63 5.61 5.59 5.575 5.553 5.518 5.48 5.46 5.468 5.485 5.503 5.515 5.492 5.435 5.375 5.293 5.33 5.508 5.682 5.83 5.885 5.865 5.837 5.8 5.755 5.715 5.67 5.64 5.64 5.637 5.62 5.625 5.663 5.71 5.747 5.735 5.675 5.602 5.517 5.422 5.335 5.252 5.16 5.06 4.955 4.84 4.715 4.585 4.407 4.213 4.105 4 3.92 3.92 3.92 3.92 3.92 3.92 3.92 3.92 3.92 3.92
6.513 6.48 6.465 6.47 6.485 6.508 6.54 6.585 6.635 6.685 6.742 6.772 6.74 6.678 6.63 6.605 6.585 6.568 6.538 6.493 6.45 6.4 6.33 6.258 6.195 6.128 6.103 6.155 6.237 6.32 6.392 6.4 6.33 6.238 6.163 6.148 6.18 6.22 6.26 6.285 6.28 6.257 6.242 6.237 6.23 6.218 6.21 6.207 6.19 6.16 6.148 6.165 6.195 6.225 6.255 6.265 6.2 6.108 6.093 6.13 6.17 6.21 6.245 6.245 6.228 6.235 6.245 6.245 6.247 6.232 6.175 6.092 6.005 5.952 5.93 5.9 5.87 5.837 5.78 5.763 5.81 5.857 5.89 5.968 6.115 6.27 6.42 6.57 6.725 6.86 6.975 7.077 7.107 6.68 6.13 5.925 5.773 5.628 5.575 5.595 5.615 5.635 5.653 5.665 5.675 5.685 5.713 5.755 5.798 5.842 5.877 5.892 5.892 5.885 5.875 5.84 5.77 5.685 5.59 5.508 5.442 5.38 5.323 5.293 5.293 5.298 5.302 5.307 5.315 5.328 5.36 5.412 5.47 5.527 5.57 5.595 5.62 5.647 5.662 5.655 5.63 5.6 5.568 5.53 5.495 5.483 5.493 5.51 5.53 5.542 5.54 5.54 5.452 5.3 5.32 5.485 5.655 5.82 5.905 5.905 5.885 5.845 5.795 5.747 5.7 5.652 5.618 5.59 5.565 5.57 5.61 5.657 5.665 5.617 5.55 5.48 5.412 5.332 5.222 5.097 4.995 4.915 4.82 4.685 4.49 4.285 4.118 3.98 3.92 3.92 3.92 3.92 3.92 3.92 3.92 3.92 3.92 3.92 3.96 4.285
6.46 6.43 6.42 6.435 6.455 6.475 6.503 6.545 6.605 6.675 6.735 6.745 6.715 6.67 6.623 6.598 6.583 6.57 6.537 6.48 6.428 6.38 6.33 6.283 6.225 6.153 6.098 6.11 6.18 6.26 6.33 6.365 6.345 6.275 6.208 6.19 6.208 6.24 6.275 6.29 6.287 6.275 6.267 6.265 6.255 6.243 6.235 6.237 6.237 6.222 6.21 6.225 6.252 6.272 6.287 6.27 6.18 6.1 6.108 6.15 6.19 6.23 6.247 6.243 6.255 6.285 6.307 6.315 6.295 6.235 6.15 6.063 5.983 5.935 5.925 5.91 5.88 5.85 5.81 5.81 5.857 5.885 5.89 6 6.207 6.38 6.53 6.68 6.815 6.912 7.007 7.07 7.127 6.637 6.028 5.892 5.748 5.62 5.58 5.6 5.617 5.633 5.65 5.665 5.672 5.675 5.693 5.728 5.765 5.81 5.855 5.887 5.9 5.895 5.885 5.862 5.805 5.72 5.613 5.5 5.418 5.355 5.303 5.278 5.278 5.283 5.288 5.293 5.303 5.32 5.35 5.39 5.438 5.492 5.535 5.563 5.59 5.62 5.65 5.667 5.657 5.63 5.595 5.558 5.53 5.523 5.535 5.555 5.57 5.58 5.587 5.6 5.503 5.383 5.408 5.498 5.633 5.795 5.885 5.897 5.89 5.855 5.802 5.75 5.7 5.65 5.605 5.568 5.538 5.53 5.56 5.585 5.555 5.492 5.425 5.355 5.282 5.19 5.06 4.905 4.77 4.662 4.507 4.303 4.118 3.978 3.92 3.92 3.92 3.92 3.92 3.92 3.92 3.92 3.92 3.92 3.92 4.183 4.487 4.812
6.41 6.388 6.39 6.405 6.425 6.445 6.475 6.528 6.603 6.685 6.722 6.705 6.675 6.643 6.613 6.595 6.585 6.575 6.54 6.485 6.443 6.41 6.372 6.32 6.25 6.175 6.105 6.083 6.128 6.2 6.26 6.297 6.32 6.295 6.25 6.24 6.25 6.267 6.277 6.265 6.245 6.227 6.237 6.265 6.272 6.265 6.26 6.26 6.265 6.265 6.262 6.272 6.285 6.292 6.295 6.252 6.148 6.09 6.12 6.167 6.21 6.242 6.253 6.265 6.295 6.325 6.352 6.35 6.295 6.21 6.12 6.033 5.95 5.89 5.885 5.897 5.885 5.86 5.84 5.852 5.875 5.87 5.885 6.04 6.29 6.487 6.64 6.775 6.872 6.947 7.02 7.042 7.082 6.597 5.993 5.857 5.72 5.613 5.585 5.603 5.62 5.638 5.653 5.663 5.665 5.663 5.675 5.705 5.738 5.778 5.822 5.865 5.89 5.892 5.882 5.865 5.827 5.755 5.65 5.525 5.41 5.33 5.283 5.265 5.265 5.267 5.273 5.283 5.3 5.32 5.348 5.382 5.42 5.462 5.5 5.53 5.56 5.588 5.617 5.65 5.667 5.657 5.625 5.595 5.58 5.575 5.585 5.6 5.608 5.615 5.625 5.632 5.615 5.595 5.61 5.638 5.69 5.787 5.85 5.857 5.857 5.832 5.785 5.735 5.687 5.64 5.595 5.555 5.515 5.49 5.497 5.485 5.43 5.367 5.3 5.23 5.145 5.04 4.907 4.74 4.517 4.283 4.105 3.975 3.92 3.92 3.92 3.92 3.92 3.92 3.92 3.92 3.92 3.92 3.92 4.125 4.312 4.565 4.832 4.825
6.37 6.348 6.365 6.39 6.418 6.435 6.465 6.533 6.615 6.682 6.697 6.673 6.645 6.618 6.6 6.592 6.585 6.575 6.547 6.508 6.48 6.455 6.412 6.347 6.273 6.198 6.123 6.08 6.095 6.145 6.19 6.223 6.26 6.282 6.27 6.255 6.252 6.247 6.23 6.195 6.158 6.133 6.153 6.205 6.245 6.27 6.277 6.27 6.265 6.262 6.272 6.287 6.29 6.29 6.285 6.228 6.123 6.088 6.13 6.18 6.225 6.255 6.272 6.292 6.315 6.337 6.357 6.335 6.262 6.177 6.09 6.005 5.92 5.843 5.825 5.85 5.862 5.862 5.86 5.86 5.85 5.83 5.893 6.098 6.36 6.582 6.735 6.835 6.91 6.975 7.005 6.995 6.832 6.353 5.958 5.822 5.688 5.603 5.595 5.613 5.633 5.655 5.67 5.67 5.663 5.653 5.66 5.687 5.712 5.742 5.785 5.832 5.87 5.885 5.875 5.855 5.835 5.787 5.687 5.562 5.435 5.325 5.268 5.255 5.252 5.25 5.258 5.275 5.297 5.32 5.342 5.37 5.4 5.43 5.462 5.497 5.527 5.553 5.582 5.615 5.647 5.667 5.657 5.64 5.63 5.623 5.628 5.638 5.645 5.655 5.665 5.672 5.673 5.717 5.81 5.842 5.815 5.805 5.812 5.818 5.82 5.807 5.77 5.72 5.672 5.625 5.58 5.537 5.492 5.452 5.417 5.37 5.307 5.242 5.175 5.095 4.992 4.837 4.612 4.36 4.143 3.985 3.92 3.92 3.92 3.92 3.92 3.92 3.92 3.92 3.92 3.92 3.92 4.135 4.325 4.477 4.615 4.572 4.56 4.545
6.378 6.345 6.373 6.407 6.432 6.438 6.463 6.535 6.607 6.647 6.662 6.655 6.63 6.605 6.593 6.587 6.58 6.567 6.547 6.52 6.495 6.472 6.432 6.367 6.295 6.22 6.145 6.088 6.088 6.135 6.178 6.215 6.255 6.267 6.235 6.2 6.18 6.16 6.135 6.1 6.063 6.038 6.058 6.113 6.17 6.227 6.247 6.23 6.217 6.218 6.238 6.272 6.29 6.29 6.29 6.245 6.16 6.143 6.188 6.232 6.252 6.26 6.275 6.287 6.302 6.317 6.327 6.297 6.225 6.145 6.06 5.973 5.888 5.81 5.79 5.818 5.842 5.847 5.847 5.845 5.828 5.81 5.89 6.11 6.375 6.615 6.755 6.82 6.882 6.945 6.967 6.99 6.633 6.118 5.923 5.788 5.663 5.605 5.618 5.64 5.663 5.685 5.7 5.695 5.68 5.647 5.623 5.637 5.66 5.682 5.72 5.77 5.812 5.817 5.8 5.787 5.775 5.757 5.697 5.587 5.46 5.333 5.253 5.235 5.232 5.23 5.24 5.26 5.28 5.292 5.307 5.332 5.357 5.382 5.415 5.455 5.49 5.52 5.545 5.565 5.587 5.62 5.667 5.69 5.68 5.673 5.673 5.68 5.688 5.695 5.705 5.71 5.705 5.758 5.87 5.902 5.847 5.79 5.773 5.785 5.79 5.785 5.757 5.71 5.655 5.59 5.532 5.485 5.44 5.395 5.292 5.195 5.152 5.107 5.032 4.88 4.67 4.403 4.158 3.995 3.92 3.92 3.92 3.92 3.92 3.92 3.92 3.92 3.92 3.92 3.92 4.133 4.342 4.545 4.7 4.597 4.5 4.433 4.4 4.385
6.438 6.39 6.407 6.432 6.437 6.428 6.458 6.525 6.56 6.572 6.595 6.615 6.612 6.595 6.585 6.577 6.565 6.552 6.532 6.508 6.485 6.462 6.425 6.37 6.305 6.232 6.16 6.115 6.128 6.18 6.232 6.27 6.277 6.235 6.17 6.12 6.085 6.063 6.037 6.003 5.975 5.965 5.988 6.04 6.1 6.155 6.17 6.155 6.155 6.168 6.193 6.24 6.28 6.29 6.3 6.302 6.263 6.253 6.285 6.292 6.27 6.253 6.26 6.268 6.278 6.292 6.292 6.252 6.185 6.11 6.027 5.94 5.86 5.805 5.798 5.825 5.832 5.8 5.798 5.825 5.822 5.808 5.89 6.093 6.34 6.567 6.687 6.742 6.803 6.867 6.908 7.05 6.637 6.023 5.883 5.753 5.66 5.628 5.647 5.675 5.695 5.717 5.732 5.725 5.695 5.625 5.565 5.56 5.575 5.598 5.633 5.682 5.7 5.662 5.632 5.627 5.625 5.632 5.625 5.57 5.465 5.335 5.245 5.213 5.205 5.205 5.215 5.232 5.24 5.235 5.245 5.275 5.302 5.328 5.36 5.402 5.442 5.46 5.465 5.477 5.49 5.53 5.625 5.71 5.732 5.727 5.725 5.728 5.733 5.74 5.747 5.747 5.74 5.76 5.82 5.842 5.8 5.745 5.73 5.75 5.765 5.767 5.742 5.685 5.61 5.525 5.45 5.4 5.357 5.312 5.128 4.955 4.935 4.867 4.697 4.42 4.175 4.008 3.92 3.92 3.92 3.92 3.92 3.92 3.92 3.92 3.92 3.92 4.018 4.215 4.313 4.525 4.732 4.707 4.642 4.548 4.455 4.38 4.343 4.328
6.497 6.443 6.433 6.437 6.428 6.418 6.445 6.48 6.48 6.478 6.498 6.532 6.56 6.572 6.572 6.56 6.545 6.535 6.517 6.495 6.475 6.447 6.405 6.357 6.305 6.24 6.19 6.188 6.212 6.25 6.287 6.285 6.24 6.175 6.11 6.055 6.008 5.973 5.943 5.925 5.93 5.945 5.963 5.99 6.04 6.085 6.095 6.095 6.108 6.123 6.15 6.198 6.25 6.282 6.3 6.332 6.35 6.342 6.33 6.295 6.258 6.245 6.25 6.255 6.26 6.27 6.257 6.208 6.143 6.072 5.993 5.913 5.853 5.82 5.82 5.825 5.787 5.73 5.733 5.782 5.807 5.805 5.9 6.1 6.315 6.5 6.6 6.66 6.725 6.79 6.845 7.052 6.645 5.98 5.838 5.735 5.675 5.65 5.67 5.702 5.727 5.752 5.765 5.745 5.68 5.58 5.515 5.5 5.498 5.513 5.548 5.585 5.557 5.48 5.44 5.44 5.453 5.468 5.475 5.467 5.427 5.332 5.245 5.205 5.183 5.178 5.185 5.19 5.182 5.17 5.18 5.213 5.245 5.273 5.305 5.345 5.377 5.382 5.37 5.368 5.378 5.438 5.55 5.667 5.755 5.78 5.775 5.775 5.778 5.785 5.787 5.782 5.775 5.77 5.775 5.77 5.742 5.703 5.69 5.71 5.73 5.727 5.692 5.625 5.535 5.445 5.36 5.305 5.27 5.222 4.952 4.7 4.62 4.405 4.183 4.013 3.92 3.92 3.92 3.92 3.92 3.92 3.92 3.92 3.92 3.92 3.92 4.12 4.387 4.547 4.642 4.652 4.66 4.647 4.59 4.5 4.41 4.328 4.285 4.29
6.538 6.48 6.45 6.438 6.42 6.405 6.405 6.403 6.39 6.383 6.403 6.445 6.49 6.532 6.545 6.532 6.517 6.502 6.487 6.475 6.462 6.435 6.387 6.337 6.287 6.245 6.235 6.255 6.28 6.307 6.315 6.268 6.198 6.128 6.058 6.003 5.955 5.91 5.888 5.903 5.935 5.96 5.97 5.975 5.995 6.02 6.035 6.048 6.062 6.078 6.108 6.155 6.21 6.26 6.292 6.325 6.36 6.357 6.32 6.275 6.243 6.238 6.245 6.25 6.255 6.26 6.242 6.185 6.108 6.035 5.96 5.9 5.868 5.843 5.82 5.78 5.715 5.66 5.668 5.72 5.765 5.798 5.915 6.12 6.322 6.495 6.595 6.653 6.713 6.775 6.833 6.85 6.417 5.925 5.815 5.75 5.697 5.668 5.687 5.725 5.757 5.787 5.787 5.732 5.635 5.528 5.465 5.45 5.438 5.435 5.462 5.462 5.39 5.303 5.27 5.285 5.305 5.32 5.325 5.325 5.325 5.292 5.24 5.205 5.175 5.155 5.148 5.138 5.123 5.11 5.12 5.153 5.185 5.218 5.25 5.278 5.303 5.32 5.31 5.285 5.288 5.36 5.48 5.598 5.715 5.8 5.825 5.825 5.825 5.827 5.82 5.805 5.792 5.775 5.74 5.7 5.675 5.65 5.643 5.66 5.665 5.61 5.517 5.45 5.397 5.345 5.277 5.212 5.175 5.052 4.695 4.343 4.175 4.015 3.92 3.92 3.92 3.92 3.92 3.92 3.92 3.92 3.92 3.92 3.92 4.135 4.325 4.465 4.58 4.528 4.535 4.555 4.575 4.582 4.54 4.455 4.365 4.278 4.245 4.288
6.573 6.515 6.48 6.46 6.435 6.395 6.365 6.35 6.333 6.328 6.343 6.383 6.438 6.487 6.505 6.495 6.48 6.455 6.438 6.432 6.425 6.4 6.352 6.297 6.253 6.258 6.275 6.28 6.3 6.325 6.33 6.285 6.213 6.138 6.06 5.99 5.935 5.89 5.88 5.91 5.947 5.972 5.98 5.977 5.973 5.975 5.988 6 6.015 6.03 6.063 6.115 6.167 6.22 6.257 6.287 6.315 6.32 6.295 6.253 6.233 6.238 6.245 6.253 6.257 6.26 6.245 6.197 6.12 6.035 5.96 5.915 5.895 5.87 5.843 5.793 5.713 5.645 5.645 5.698 5.753 5.818 5.95 6.145 6.348 6.542 6.667 6.728 6.785 6.84 6.92 6.632 6.11 5.875 5.792 5.735 5.68 5.655 5.66 5.687 5.735 5.785 5.777 5.69 5.58 5.475 5.415 5.4 5.385 5.373 5.373 5.345 5.28 5.223 5.208 5.225 5.245 5.263 5.27 5.27 5.268 5.25 5.227 5.207 5.177 5.148 5.128 5.11 5.095 5.093 5.113 5.145 5.175 5.205 5.23 5.25 5.273 5.295 5.293 5.268 5.263 5.328 5.445 5.56 5.675 5.777 5.82 5.817 5.812 5.815 5.817 5.805 5.785 5.762 5.722 5.66 5.613 5.59 5.585 5.587 5.537 5.415 5.27 5.175 5.142 5.127 5.097 4.992 4.815 4.528 4.225 4.018 3.92 3.92 3.92 3.92 3.92 3.92 3.92 3.92 3.92 3.92 4.07 4.28 4.333 4.532 4.687 4.567 4.483 4.473 4.49 4.513 4.522 4.505 4.475 4.415 4.328 4.245 4.228 4.282
6.605 6.553 6.52 6.492 6.45 6.393 6.348 6.328 6.318 6.325 6.335 6.35 6.39 6.44 6.462 6.455 6.435 6.403 6.383 6.377 6.367 6.34 6.295 6.24 6.233 6.295 6.32 6.3 6.303 6.325 6.34 6.322 6.265 6.19 6.11 6.025 5.95 5.893 5.88 5.907 5.937 5.955 5.962 5.962 5.955 5.95 5.953 5.958 5.968 5.983 6.02 6.075 6.122 6.165 6.195 6.225 6.26 6.28 6.265 6.233 6.23 6.242 6.25 6.257 6.26 6.257 6.242 6.212 6.16 6.078 5.998 5.95 5.925 5.903 5.895 5.882 5.817 5.733 5.713 5.755 5.81 5.89 6.023 6.198 6.383 6.58 6.735 6.815 6.87 6.915 7.062 6.617 5.973 5.838 5.74 5.673 5.635 5.635 5.625 5.618 5.648 5.702 5.692 5.602 5.505 5.42 5.373 5.353 5.338 5.323 5.313 5.303 5.275 5.245 5.235 5.243 5.26 5.28 5.287 5.285 5.27 5.233 5.208 5.2 5.18 5.153 5.13 5.11 5.105 5.12 5.15 5.185 5.212 5.235 5.255 5.273 5.293 5.315 5.315 5.293 5.275 5.323 5.435 5.552 5.657 5.727 5.747 5.742 5.738 5.745 5.767 5.78 5.77 5.747 5.717 5.652 5.573 5.528 5.51 5.46 5.342 5.195 5.045 4.91 4.835 4.812 4.725 4.473 4.213 4.023 3.92 3.92 3.92 3.92 3.92 3.92 3.92 3.92 3.92 3.92 4.133 4.332 4.465 4.662 4.702 4.675 4.602 4.505 4.47 4.48 4.495 4.5 4.46 4.398 4.38 4.362 4.292 4.225 4.22 4.263
6.635 6.588 6.552 6.507 6.45 6.388 6.333 6.313 6.32 6.335 6.345 6.345 6.36 6.395 6.417 6.41 6.382 6.35 6.33 6.32 6.305 6.28 6.238 6.208 6.255 6.345 6.37 6.34 6.32 6.328 6.34 6.337 6.305 6.24 6.16 6.072 5.987 5.91 5.878 5.89 5.905 5.915 5.925 5.932 5.935 5.932 5.93 5.93 5.933 5.943 5.978 6.03 6.075 6.102 6.12 6.153 6.197 6.232 6.23 6.215 6.225 6.242 6.255 6.26 6.26 6.255 6.237 6.212 6.18 6.117 6.045 5.993 5.958 5.935 5.93 5.94 5.925 5.865 5.835 5.86 5.898 5.978 6.115 6.28 6.45 6.628 6.797 6.9 6.945 6.985 7.175 6.657 5.925 5.807 5.69 5.62 5.61 5.63 5.62 5.593 5.58 5.592 5.568 5.505 5.45 5.405 5.373 5.343 5.318 5.288 5.282 5.3 5.295 5.275 5.265 5.27 5.283 5.297 5.3 5.285 5.25 5.205 5.18 5.175 5.17 5.152 5.13 5.12 5.135 5.16 5.19 5.22 5.24 5.26 5.28 5.297 5.32 5.345 5.345 5.32 5.293 5.325 5.428 5.537 5.612 5.65 5.662 5.658 5.663 5.68 5.705 5.732 5.745 5.735 5.71 5.652 5.563 5.47 5.38 5.26 5.115 4.97 4.82 4.672 4.552 4.395 4.208 4.025 3.92 3.92 3.92 3.92 3.92 3.92 3.92 3.92 3.92 3.92 4.133 4.332 4.517 4.692 4.66 4.637 4.615 4.59 4.53 4.48 4.48 4.49 4.477 4.422 4.33 4.263 4.268 4.287 4.252 4.21 4.223 4.258
6.65 6.615 6.568 6.513 6.458 6.398 6.34 6.32 6.33 6.343 6.353 6.357 6.363 6.373 6.378 6.36 6.33 6.298 6.273 6.255 6.235 6.215 6.195 6.22 6.308 6.397 6.42 6.392 6.365 6.348 6.345 6.343 6.33 6.282 6.2 6.107 6.015 5.923 5.868 5.865 5.875 5.883 5.89 5.9 5.907 5.91 5.91 5.907 5.905 5.908 5.933 5.98 6.025 6.04 6.045 6.078 6.125 6.17 6.192 6.202 6.217 6.232 6.245 6.255 6.26 6.252 6.232 6.207 6.182 6.145 6.095 6.043 5.995 5.968 5.965 5.975 5.985 5.972 5.96 5.972 5.988 6.058 6.202 6.367 6.535 6.7 6.865 6.972 7.015 7.055 7.062 6.472 5.868 5.77 5.653 5.593 5.6 5.625 5.615 5.582 5.545 5.513 5.485 5.465 5.455 5.44 5.412 5.365 5.305 5.245 5.23 5.26 5.285 5.295 5.297 5.302 5.307 5.312 5.3 5.265 5.22 5.175 5.153 5.148 5.145 5.14 5.132 5.142 5.17 5.197 5.222 5.242 5.26 5.28 5.297 5.317 5.345 5.37 5.372 5.35 5.32 5.335 5.415 5.495 5.537 5.565 5.58 5.58 5.593 5.615 5.64 5.67 5.697 5.71 5.697 5.647 5.565 5.377 5.153 4.997 4.852 4.705 4.557 4.345 4.17 4.028 3.92 3.92 3.92 3.92 3.92 3.92 3.92 3.92 3.92 3.92 4.135 4.35 4.55 4.72 4.66 4.608 4.578 4.56 4.54 4.518 4.495 4.493 4.505 4.505 4.465 4.368 4.243 4.17 4.173 4.198 4.198 4.198 4.228 4.263
6.66 6.64 6.593 6.54 6.488 6.433 6.383 6.355 6.353 6.36 6.365 6.367 6.37 6.37 6.358 6.328 6.293 6.258 6.24 6.243 6.233 6.21 6.223 6.295 6.385 6.45 6.465 6.442 6.415 6.388 6.373 6.368 6.357 6.302 6.205 6.105 6.005 5.905 5.85 5.85 5.86 5.865 5.87 5.878 5.883 5.888 5.89 5.883 5.875 5.875 5.89 5.93 5.97 5.975 5.973 6.003 6.05 6.11 6.157 6.17 6.175 6.185 6.195 6.21 6.23 6.235 6.217 6.19 6.165 6.14 6.13 6.105 6.048 6.005 5.995 6.005 6.012 6.02 6.025 6.03 6.035 6.098 6.262 6.447 6.612 6.777 6.932 7.035 7.085 7.125 6.762 6.1 5.793 5.712 5.615 5.575 5.597 5.607 5.58 5.535 5.485 5.443 5.425 5.425 5.427 5.425 5.402 5.34 5.255 5.178 5.158 5.192 5.23 5.265 5.285 5.29 5.292 5.295 5.275 5.235 5.19 5.145 5.125 5.122 5.117 5.112 5.115 5.132 5.16 5.19 5.2 5.202 5.22 5.24 5.257 5.29 5.335 5.365 5.37 5.355 5.337 5.34 5.38 5.425 5.455 5.482 5.497 5.508 5.525 5.548 5.573 5.6 5.632 5.662 5.675 5.642 5.525 5.207 4.875 4.702 4.555 4.34 4.165 4.025 3.92 3.92 3.92 3.92 3.92 3.92 3.92 3.92 3.92 3.92 4.135 4.35 4.562 4.775 4.75 4.69 4.628 4.575 4.553 4.55 4.535 4.518 4.52 4.532 4.532 4.517 4.48 4.4 4.273 4.178 4.163 4.178 4.183 4.198 4.233 4.267
6.68 6.662 6.632 6.59 6.535 6.48 6.435 6.4 6.388 6.392 6.387 6.378 6.375 6.375 6.357 6.315 6.27 6.235 6.233 6.267 6.295 6.295 6.325 6.395 6.45 6.487 6.505 6.49 6.46 6.435 6.42 6.415 6.385 6.302 6.19 6.08 5.98 5.883 5.835 5.84 5.847 5.852 5.857 5.863 5.868 5.873 5.877 5.87 5.855 5.848 5.85 5.878 5.905 5.9 5.898 5.93 5.988 6.08 6.137 6.123 6.108 6.108 6.123 6.15 6.188 6.212 6.197 6.163 6.135 6.11 6.13 6.157 6.12 6.063 6.025 6.02 6.025 6.03 6.035 6.04 6.045 6.098 6.275 6.502 6.687 6.852 6.995 7.095 7.155 7.207 6.628 5.88 5.71 5.65 5.588 5.565 5.58 5.56 5.512 5.458 5.405 5.365 5.35 5.35 5.353 5.355 5.342 5.28 5.188 5.105 5.083 5.115 5.15 5.187 5.215 5.23 5.237 5.24 5.227 5.2 5.16 5.115 5.095 5.095 5.087 5.075 5.073 5.088 5.113 5.14 5.14 5.12 5.125 5.143 5.163 5.215 5.287 5.332 5.34 5.33 5.32 5.31 5.313 5.335 5.365 5.395 5.417 5.438 5.46 5.482 5.505 5.533 5.567 5.6 5.627 5.625 5.422 4.98 4.602 4.34 4.163 4.023 3.92 3.92 3.92 3.92 3.92 3.92 3.92 3.92 3.92 3.92 4.138 4.36 4.577 4.782 4.772 4.767 4.74 4.683 4.625 4.578 4.563 4.575 4.577 4.572 4.57 4.56 4.54 4.52 4.487 4.435 4.345 4.245 4.215 4.225 4.215 4.213 4.238 4.272
6.7 6.68 6.66 6.63 6.582 6.53 6.485 6.445 6.425 6.422 6.412 6.398 6.388 6.382 6.36 6.31 6.258 6.218 6.218 6.265 6.32 6.355 6.385 6.425 6.467 6.51 6.54 6.537 6.51 6.485 6.47 6.45 6.392 6.302 6.19 6.068 5.958 5.863 5.823 5.83 5.835 5.838 5.842 5.847 5.852 5.86 5.87 5.867 5.85 5.833 5.82 5.83 5.84 5.825 5.823 5.86 5.975 6.097 6.12 6.093 6.068 6.058 6.078 6.118 6.165 6.197 6.185 6.143 6.105 6.078 6.105 6.18 6.192 6.14 6.08 6.04 6.033 6.04 6.045 6.048 6.053 6.095 6.263 6.515 6.745 6.925 7.055 7.157 7.225 7.327 6.677 5.81 5.633 5.59 5.57 5.55 5.535 5.5 5.45 5.388 5.328 5.285 5.273 5.275 5.28 5.285 5.282 5.23 5.13 5.038 5.01 5.04 5.07 5.102 5.135 5.162 5.18 5.185 5.175 5.152 5.122 5.088 5.068 5.06 5.047 5.033 5.028 5.043 5.068 5.092 5.09 5.06 5.043 5.048 5.073 5.135 5.22 5.287 5.307 5.29 5.27 5.25 5.24 5.248 5.265 5.292 5.327 5.365 5.395 5.415 5.438 5.467 5.5 5.53 5.495 5.332 4.977 4.498 4.193 4.023 3.92 3.92 3.92 3.92 3.92 3.92 3.92 3.92 3.92 3.92 4.135 4.355 4.582 4.817 4.82 4.795 4.773 4.762 4.732 4.678 4.628 4.583 4.565 4.58 4.59 4.605 4.6 4.567 4.545 4.522 4.49 4.445 4.387 4.305 4.263 4.262 4.242 4.228 4.243 4.275
6.715 6.695 6.675 6.652 6.622 6.58 6.537 6.5 6.465 6.445 6.432 6.417 6.405 6.392 6.362 6.313 6.258 6.208 6.203 6.247 6.297 6.342 6.362 6.375 6.417 6.467 6.51 6.542 6.55 6.535 6.515 6.467 6.39 6.305 6.195 6.068 5.945 5.845 5.81 5.817 5.82 5.823 5.827 5.83 5.835 5.847 5.86 5.865 5.852 5.83 5.81 5.798 5.78 5.755 5.753 5.843 6.022 6.112 6.093 6.07 6.045 6.038 6.06 6.098 6.142 6.177 6.17 6.128 6.085 6.05 6.075 6.17 6.232 6.212 6.152 6.09 6.053 6.048 6.052 6.055 6.058 6.09 6.248 6.503 6.767 6.98 7.11 7.217 7.29 7.225 6.505 5.735 5.553 5.525 5.533 5.505 5.478 5.448 5.4 5.338 5.275 5.23 5.218 5.218 5.218 5.218 5.215 5.177 5.085 4.98 4.955 4.995 5.003 5.013 5.047 5.082 5.112 5.127 5.12 5.098 5.075 5.055 5.037 5.02 5.005 4.99 4.988 5.005 5.03 5.05 5.04 5.01 4.978 4.96 4.988 5.06 5.148 5.232 5.265 5.24 5.213 5.187 5.172 5.17 5.17 5.163 5.192 5.262 5.312 5.345 5.372 5.4 5.385 5.262 5.005 4.608 4.258 4.03 3.92 3.92 3.92 3.92 3.92 3.92 3.92 3.92 3.92 3.92 4.098 4.31 4.56 4.78 4.8 4.83 4.832 4.805 4.777 4.76 4.727 4.675 4.627 4.582 4.56 4.562 4.56 4.572 4.58 4.565 4.55 4.527 4.492 4.447 4.402 4.342 4.302 4.287 4.262 4.242 4.248 4.275
6.71 6.69 6.67 6.652 6.635 6.597 6.547 6.5 6.452 6.43 6.422 6.407 6.395 6.382 6.372 6.345 6.29 6.235 6.205 6.223 6.265 6.31 6.325 6.313 6.323 6.36 6.413 6.485 6.537 6.545 6.535 6.482 6.4 6.317 6.21 6.085 5.958 5.845 5.8 5.8 5.803 5.807 5.81 5.813 5.82 5.835 5.85 5.86 5.852 5.83 5.81 5.785 5.75 5.718 5.72 5.852 6.017 6.072 6.07 6.047 6.023 6.023 6.053 6.088 6.125 6.16 6.155 6.118 6.085 6.053 6.075 6.17 6.237 6.227 6.18 6.127 6.08 6.058 6.06 6.065 6.065 6.085 6.233 6.49 6.792 7 7.125 7.27 7.35 6.885 6.095 5.66 5.47 5.49 5.55 5.523 5.49 5.44 5.385 5.333 5.275 5.23 5.218 5.215 5.21 5.205 5.198 5.157 5.065 4.96 4.94 4.965 4.935 4.918 4.945 4.985 5.022 5.05 5.06 5.052 5.035 5.02 5.005 4.985 4.975 4.975 4.988 5.01 5.025 5.017 4.99 4.96 4.928 4.903 4.925 5 5.09 5.18 5.215 5.19 5.157 5.11 5.075 5.067 5.052 5.008 4.985 5.042 5.127 5.202 5.252 5.175 4.95 4.595 4.268 4.04 3.92 3.92 3.92 3.92 3.92 3.92 3.92 3.92 3.92 3.92 4.015 4.23 4.525 4.735 4.767 4.765 4.778 4.807 4.815 4.792 4.767 4.745 4.707 4.655 4.605 4.557 4.528 4.517 4.51 4.508 4.52 4.535 4.537 4.527 4.497 4.45 4.397 4.345 4.307 4.282 4.257 4.235 4.238 4.267
6.69 6.665 6.645 6.63 6.607 6.557 6.495 6.44 6.395 6.375 6.377 6.372 6.358 6.35 6.367 6.382 6.35 6.295 6.245 6.218 6.235 6.28 6.297 6.278 6.258 6.263 6.31 6.402 6.477 6.502 6.51 6.49 6.43 6.35 6.245 6.115 5.978 5.86 5.803 5.785 5.785 5.79 5.79 5.795 5.808 5.823 5.837 5.85 5.85 5.832 5.81 5.785 5.75 5.715 5.71 5.817 5.935 5.995 6.035 6.022 6.003 6.013 6.047 6.082 6.112 6.132 6.14 6.127 6.102 6.075 6.103 6.182 6.212 6.187 6.15 6.11 6.08 6.073 6.075 6.075 6.075 6.085 6.22 6.553 6.887 7.007 7.093 7.28 7.41 6.718 5.855 5.585 5.555 5.66 5.645 5.602 5.537 5.458 5.393 5.352 5.305 5.258 5.245 5.25 5.25 5.245 5.222 5.157 5.06 4.97 4.93 4.905 4.855 4.823 4.835 4.875 4.912 4.942 4.965 4.977 4.98 4.982 4.98 4.975 4.983 5 5.022 5.035 5.02 4.982 4.945 4.915 4.89 4.88 4.903 4.96 5.04 5.13 5.165 5.14 5.09 5.01 4.955 4.932 4.897 4.84 4.773 4.758 4.828 4.92 4.87 4.568 4.258 4.04 3.92 3.92 3.92 3.92 3.92 3.92 3.92 3.92 3.92 3.92 3.92 4.125 4.42 4.64 4.767 4.765 4.76 4.755 4.758 4.777 4.785 4.765 4.74 4.715 4.672 4.613 4.56 4.513 4.48 4.465 4.455 4.45 4.46 4.48 4.497 4.5 4.482 4.44 4.38 4.323 4.28 4.255 4.23 4.205 4.21 4.245
6.675 6.64 6.615 6.592 6.55 6.488 6.428 6.38 6.34 6.31 6.313 6.327 6.322 6.32 6.343 6.377 6.387 6.352 6.302 6.255 6.228 6.25 6.27 6.25 6.22 6.2 6.223 6.31 6.407 6.447 6.455 6.46 6.442 6.385 6.277 6.137 5.993 5.88 5.82 5.785 5.77 5.77 5.773 5.78 5.795 5.81 5.823 5.837 5.847 5.837 5.812 5.782 5.748 5.715 5.69 5.753 5.835 5.885 5.962 5.995 5.99 6.007 6.037 6.057 6.067 6.07 6.09 6.117 6.12 6.1 6.125 6.17 6.167 6.145 6.11 6.08 6.075 6.09 6.1 6.098 6.093 6.09 6.28 6.722 7.002 7.023 7.043 7.218 7.44 6.715 6.075 6.077 5.96 5.87 5.712 5.64 5.55 5.463 5.398 5.362 5.327 5.283 5.265 5.275 5.282 5.28 5.232 5.137 5.035 4.942 4.875 4.825 4.775 4.73 4.73 4.767 4.797 4.82 4.84 4.86 4.88 4.91 4.942 4.972 5.007 5.035 5.042 5.022 4.982 4.938 4.9 4.88 4.875 4.88 4.903 4.943 5 5.08 5.115 5.075 4.995 4.895 4.823 4.777 4.73 4.67 4.6 4.537 4.525 4.442 4.248 4.035 3.92 3.92 3.92 3.92 3.92 3.92 3.92 3.92 3.92 3.92 4.135 4.337 4.315 4.497 4.692 4.715 4.742 4.752 4.75 4.745 4.745 4.755 4.755 4.735 4.71 4.685 4.64 4.575 4.518 4.47 4.44 4.42 4.403 4.395 4.403 4.417 4.425 4.42 4.41 4.39 4.35 4.297 4.255 4.228 4.203 4.178 4.183 4.24
6.665 6.625 6.588 6.545 6.485 6.423 6.37 6.325 6.285 6.248 6.24 6.26 6.275 6.29 6.318 6.353 6.387 6.392 6.357 6.312 6.265 6.243 6.24 6.222 6.195 6.168 6.175 6.253 6.347 6.377 6.375 6.382 6.39 6.37 6.285 6.15 6.005 5.898 5.84 5.8 5.768 5.755 5.758 5.768 5.783 5.798 5.81 5.825 5.84 5.837 5.812 5.778 5.745 5.715 5.683 5.693 5.725 5.755 5.845 5.94 5.972 5.982 5.995 5.997 5.995 5.993 6.01 6.052 6.09 6.11 6.13 6.135 6.12 6.102 6.078 6.07 6.087 6.11 6.127 6.14 6.165 6.205 6.48 6.897 7.052 7.037 7.023 7.125 7.39 7.027 6.627 6.569 6.095 5.695 5.588 5.57 5.535 5.467 5.403 5.365 5.337 5.305 5.288 5.295 5.305 5.297 5.215 5.09 4.98 4.875 4.798 4.745 4.695 4.643 4.628 4.655 4.68 4.7 4.72 4.743 4.775 4.825 4.882 4.935 4.985 5.022 5.02 4.982 4.938 4.893 4.865 4.865 4.875 4.885 4.902 4.937 4.985 5.042 5.047 4.97 4.867 4.76 4.673 4.615 4.562 4.5 4.38 4.23 4.153 4.03 3.92 3.92 3.92 3.92 3.92 3.92 3.92 3.92 3.92 3.92 4.058 4.273 4.552 4.73 4.685 4.642 4.638 4.673 4.707 4.727 4.727 4.725 4.725 4.735 4.73 4.705 4.68 4.655 4.61 4.545 4.485 4.435 4.405 4.385 4.365 4.35 4.343 4.338 4.325 4.308 4.298 4.295 4.285 4.263 4.235 4.205 4.18 4.155 4.185 4.297
6.655 6.615 6.573 6.523 6.463 6.403 6.348 6.298 6.253 6.208 6.188 6.205 6.238 6.27 6.3 6.333 6.37 6.4 6.39 6.347 6.3 6.252 6.22 6.197 6.172 6.145 6.158 6.237 6.305 6.3 6.273 6.27 6.28 6.277 6.217 6.102 5.98 5.898 5.855 5.817 5.78 5.75 5.745 5.758 5.773 5.788 5.803 5.818 5.833 5.837 5.82 5.79 5.763 5.738 5.71 5.695 5.693 5.698 5.77 5.887 5.937 5.928 5.92 5.92 5.92 5.918 5.933 5.97 6.015 6.062 6.09 6.087 6.075 6.06 6.043 6.042 6.062 6.085 6.107 6.168 6.275 6.395 6.705 7.022 7.072 7.05 7.035 7.05 7.113 7.037 6.812 6.32 5.688 5.413 5.408 5.443 5.463 5.445 5.402 5.368 5.342 5.315 5.305 5.315 5.325 5.31 5.205 5.05 4.92 4.808 4.725 4.668 4.615 4.575 4.573 4.595 4.61 4.623 4.633 4.65 4.698 4.76 4.82 4.875 4.925 4.957 4.957 4.933 4.903 4.873 4.86 4.87 4.872 4.85 4.825 4.842 4.89 4.937 4.917 4.822 4.712 4.605 4.522 4.46 4.307 4.168 4.083 3.968 3.92 3.92 3.92 3.92 3.92 3.92 3.92 3.92 3.92 3.92 4.13 4.337 4.482 4.707 4.762 4.715 4.668 4.623 4.62 4.658 4.685 4.68 4.665 4.665 4.673 4.738 4.773 4.73 4.685 4.635 4.582 4.528 4.473 4.425 4.395 4.375 4.355 4.333 4.31 4.29 4.27 4.25 4.238 4.235 4.235 4.235 4.22 4.19 4.165 4.148 4.195 4.305
