ncols         200
nrows         82
xllcorner     547000
yllcorner     256410
cellsize      5
NODATA_value  -9999.0
9.22 9.195 9.193 9.222 9.245 9.257 9.255 9.23 9.192 9.147 9.1 9.062 9.022 8.98 8.942 8.907 8.872 8.835 8.79 8.74 8.698 8.68 8.683 8.698 8.735 8.765 8.76 8.74 8.712 8.673 8.65 8.65 8.65 8.653 8.665 8.693 8.735 8.785 8.82 8.825 8.833 8.86 8.892 8.91 8.897 8.878 8.862 8.848 8.835 8.82 8.802 8.782 8.758 8.743 8.763 8.81 8.86 8.892 8.897 8.89 8.882 8.875 8.837 8.765 8.698 8.67 8.675 8.688 8.72 8.77 8.83 8.88 8.923 8.99 9.017 8.992 8.968 8.968 9 9.037 9.065 9.075 9.077 9.08 9.082 9.08 9.025 8.91 8.793 8.705 8.653 8.633 8.635 8.653 8.68 8.71 8.74 8.77 8.788 8.795 8.81 8.83 8.865 8.907 8.935 8.952 8.95 8.928 8.913 8.915 8.927 8.94 8.955 8.975 9.01 9.047 9.055 9.042 9.02 8.99 8.965 8.948 8.928 8.908 8.905 8.905 8.895 8.88 8.855 8.825 8.833 8.852 8.837 8.813 8.788 8.763 8.738 8.715 8.715 8.738 8.77 8.81 8.84 8.855 8.85 8.835 8.82 8.8 8.785 8.78 8.775 8.775 8.785 8.792 8.792 8.787 8.78 8.773 8.775 8.782 8.757 8.713 8.7 8.707 8.712 8.715 8.712 8.7 8.673 8.645 8.653 8.688 8.72 8.742 8.75 8.75 8.75 8.75 8.697 8.595 8.533 8.525 8.535 8.545 8.575 8.685 8.81 8.875 8.872 8.818 8.763 8.723 8.74 8.823 8.915 9.013 9.1 9.158 9.225 9.313
9.213 9.203 9.2 9.207 9.215 9.222 9.217 9.19 9.155 9.122 9.09 9.06 9.022 8.982 8.957 8.932 8.9 8.865 8.815 8.75 8.7 8.69 8.698 8.703 8.723 8.735 8.72 8.7 8.68 8.653 8.635 8.64 8.65 8.66 8.673 8.698 8.713 8.74 8.797 8.842 8.875 8.905 8.927 8.925 8.903 8.88 8.865 8.852 8.837 8.813 8.798 8.795 8.775 8.758 8.778 8.823 8.87 8.9 8.902 8.897 8.89 8.875 8.83 8.755 8.675 8.615 8.613 8.655 8.718 8.793 8.86 8.905 8.932 8.962 8.97 8.947 8.92 8.92 8.958 9.005 9.052 9.082 9.087 9.085 9.087 9.09 9.055 8.957 8.835 8.72 8.655 8.653 8.668 8.685 8.705 8.73 8.758 8.777 8.787 8.8 8.822 8.845 8.875 8.905 8.925 8.945 8.957 8.955 8.95 8.957 8.972 8.985 8.995 9.007 9.025 9.032 9.022 9.01 9.01 9.022 9.035 9.037 9.017 8.967 8.918 8.893 8.88 8.868 8.852 8.83 8.823 8.82 8.8 8.78 8.76 8.743 8.723 8.703 8.713 8.745 8.778 8.81 8.822 8.815 8.8 8.783 8.765 8.753 8.753 8.762 8.772 8.777 8.785 8.795 8.797 8.793 8.788 8.785 8.777 8.75 8.7 8.658 8.65 8.66 8.67 8.685 8.695 8.673 8.625 8.583 8.585 8.625 8.668 8.705 8.718 8.715 8.715 8.715 8.69 8.648 8.635 8.645 8.655 8.665 8.68 8.75 8.85 8.925 8.947 8.905 8.863 8.878 8.945 9 9.025 9.073 9.145 9.198 9.263 9.363
9.235 9.235 9.21 9.18 9.18 9.19 9.182 9.15 9.118 9.092 9.062 9.03 8.977 8.93 8.947 8.96 8.927 8.892 8.84 8.773 8.73 8.723 8.73 8.735 8.738 8.73 8.71 8.693 8.675 8.655 8.65 8.665 8.685 8.705 8.718 8.732 8.74 8.733 8.743 8.803 8.89 8.942 8.947 8.93 8.907 8.883 8.865 8.855 8.835 8.803 8.785 8.792 8.79 8.775 8.793 8.837 8.882 8.91 8.91 8.902 8.89 8.86 8.802 8.725 8.65 8.603 8.62 8.685 8.755 8.83 8.892 8.92 8.925 8.92 8.915 8.9 8.873 8.875 8.915 8.965 9.025 9.077 9.082 9.065 9.06 9.06 9.03 8.95 8.84 8.72 8.665 8.69 8.72 8.74 8.76 8.782 8.792 8.777 8.765 8.777 8.805 8.832 8.862 8.892 8.915 8.935 8.952 8.952 8.947 8.957 8.967 8.975 8.985 8.997 9 8.99 8.975 8.96 8.965 8.995 9.032 9.057 9.062 9.025 8.953 8.9 8.88 8.865 8.85 8.833 8.82 8.813 8.798 8.783 8.77 8.758 8.743 8.73 8.738 8.765 8.795 8.82 8.82 8.803 8.788 8.765 8.73 8.71 8.715 8.727 8.74 8.747 8.755 8.78 8.805 8.808 8.805 8.805 8.785 8.73 8.658 8.613 8.613 8.63 8.65 8.673 8.69 8.682 8.64 8.585 8.585 8.63 8.668 8.697 8.705 8.698 8.695 8.693 8.693 8.71 8.732 8.747 8.76 8.767 8.78 8.817 8.887 8.965 9.01 9.003 9.015 9.102 9.187 9.225 9.237 9.242 9.247 9.263 9.328 9.435
9.272 9.285 9.25 9.183 9.15 9.155 9.145 9.113 9.085 9.065 9.035 8.985 8.895 8.835 8.89 8.957 8.952 8.915 8.86 8.81 8.788 8.78 8.783 8.785 8.777 8.76 8.74 8.723 8.705 8.688 8.69 8.712 8.737 8.76 8.765 8.765 8.792 8.805 8.825 8.885 8.96 8.957 8.91 8.915 8.91 8.887 8.868 8.852 8.825 8.79 8.768 8.773 8.79 8.79 8.808 8.852 8.895 8.915 8.905 8.885 8.857 8.817 8.755 8.685 8.645 8.648 8.69 8.75 8.813 8.875 8.9 8.885 8.86 8.843 8.847 8.847 8.828 8.833 8.875 8.935 9.018 9.085 9.085 9.05 9.028 9.015 8.977 8.907 8.817 8.705 8.665 8.717 8.77 8.8 8.815 8.812 8.782 8.735 8.715 8.735 8.765 8.798 8.835 8.872 8.902 8.925 8.94 8.923 8.9 8.905 8.91 8.915 8.928 8.947 8.955 8.942 8.925 8.91 8.908 8.928 8.96 8.987 9.012 9.02 8.98 8.923 8.893 8.875 8.855 8.83 8.82 8.825 8.82 8.81 8.8 8.785 8.773 8.765 8.765 8.785 8.815 8.84 8.84 8.82 8.797 8.765 8.715 8.67 8.655 8.66 8.67 8.68 8.71 8.775 8.822 8.832 8.835 8.835 8.802 8.733 8.66 8.615 8.608 8.623 8.645 8.665 8.68 8.685 8.675 8.645 8.645 8.677 8.695 8.702 8.7 8.69 8.683 8.678 8.695 8.742 8.79 8.82 8.835 8.827 8.815 8.833 8.897 8.985 9.057 9.105 9.167 9.262 9.335 9.367 9.37 9.355 9.34 9.348 9.413 9.517
9.282 9.322 9.31 9.23 9.148 9.123 9.11 9.083 9.058 9.035 8.995 8.91 8.79 8.735 8.803 8.907 8.957 8.935 8.893 8.868 8.853 8.843 8.84 8.835 8.82 8.8 8.78 8.76 8.74 8.723 8.725 8.753 8.785 8.812 8.812 8.798 8.818 8.925 9.082 9.127 9.105 8.962 8.833 8.867 8.89 8.887 8.87 8.845 8.813 8.778 8.748 8.748 8.773 8.793 8.823 8.868 8.907 8.915 8.885 8.843 8.803 8.763 8.718 8.69 8.695 8.723 8.77 8.83 8.882 8.917 8.902 8.848 8.79 8.763 8.773 8.785 8.778 8.788 8.845 8.928 9.025 9.095 9.095 9.055 9.012 8.975 8.925 8.855 8.782 8.69 8.665 8.73 8.795 8.835 8.827 8.785 8.733 8.68 8.668 8.698 8.733 8.768 8.805 8.845 8.882 8.91 8.925 8.902 8.86 8.848 8.853 8.863 8.88 8.902 8.91 8.895 8.875 8.86 8.853 8.858 8.875 8.893 8.915 8.95 8.967 8.94 8.905 8.882 8.852 8.82 8.81 8.82 8.83 8.835 8.83 8.817 8.807 8.8 8.795 8.81 8.84 8.862 8.857 8.83 8.795 8.755 8.707 8.653 8.608 8.593 8.603 8.635 8.705 8.795 8.845 8.855 8.862 8.86 8.817 8.75 8.698 8.66 8.638 8.633 8.64 8.655 8.67 8.675 8.68 8.68 8.682 8.695 8.7 8.7 8.695 8.685 8.673 8.665 8.693 8.752 8.817 8.87 8.885 8.852 8.808 8.81 8.88 8.97 9.047 9.117 9.185 9.257 9.322 9.37 9.402 9.415 9.41 9.425 9.492 9.577
9.28 9.335 9.347 9.282 9.183 9.113 9.078 9.055 9.03 9 8.932 8.815 8.685 8.638 8.713 8.827 8.922 8.952 8.94 8.93 8.917 8.905 8.895 8.88 8.86 8.84 8.82 8.8 8.777 8.755 8.758 8.79 8.825 8.857 8.86 8.835 8.885 9.057 9.207 9.177 9.057 8.895 8.8 8.828 8.855 8.872 8.865 8.838 8.803 8.768 8.733 8.73 8.763 8.8 8.843 8.887 8.917 8.917 8.887 8.838 8.788 8.745 8.73 8.745 8.765 8.798 8.85 8.897 8.925 8.94 8.925 8.857 8.76 8.713 8.718 8.723 8.723 8.755 8.838 8.935 9.035 9.105 9.097 9.037 8.972 8.932 8.895 8.828 8.753 8.678 8.675 8.745 8.805 8.837 8.82 8.765 8.703 8.64 8.628 8.665 8.705 8.742 8.778 8.815 8.855 8.89 8.907 8.885 8.838 8.81 8.81 8.823 8.84 8.86 8.865 8.858 8.853 8.848 8.838 8.825 8.82 8.818 8.823 8.85 8.895 8.917 8.907 8.882 8.845 8.81 8.8 8.813 8.83 8.847 8.85 8.842 8.835 8.827 8.822 8.835 8.865 8.88 8.862 8.827 8.79 8.75 8.702 8.645 8.585 8.55 8.57 8.64 8.73 8.812 8.857 8.872 8.885 8.88 8.842 8.79 8.745 8.708 8.68 8.665 8.658 8.655 8.66 8.665 8.67 8.677 8.682 8.687 8.692 8.697 8.695 8.682 8.668 8.658 8.683 8.742 8.807 8.87 8.885 8.847 8.805 8.795 8.845 8.92 8.985 9.045 9.108 9.18 9.247 9.302 9.36 9.407 9.437 9.477 9.537 9.595
9.28 9.315 9.322 9.282 9.197 9.11 9.053 9.023 8.995 8.965 8.885 8.755 8.64 8.6 8.638 8.713 8.817 8.895 8.912 8.907 8.902 8.91 8.91 8.89 8.87 8.847 8.825 8.805 8.783 8.778 8.788 8.81 8.845 8.88 8.885 8.853 8.878 8.995 9.11 9.075 8.913 8.795 8.775 8.795 8.818 8.85 8.862 8.842 8.813 8.778 8.74 8.735 8.775 8.82 8.865 8.905 8.92 8.917 8.905 8.87 8.818 8.775 8.778 8.81 8.835 8.87 8.912 8.93 8.922 8.907 8.9 8.852 8.75 8.693 8.69 8.688 8.693 8.748 8.845 8.945 9.035 9.08 9.045 8.96 8.895 8.88 8.875 8.83 8.75 8.685 8.7 8.765 8.807 8.822 8.817 8.782 8.718 8.643 8.618 8.645 8.68 8.718 8.753 8.79 8.83 8.867 8.897 8.887 8.848 8.823 8.82 8.83 8.843 8.858 8.865 8.87 8.875 8.87 8.857 8.84 8.82 8.8 8.788 8.8 8.84 8.885 8.905 8.89 8.855 8.82 8.81 8.825 8.845 8.86 8.86 8.85 8.84 8.835 8.833 8.845 8.872 8.88 8.857 8.822 8.785 8.745 8.695 8.645 8.605 8.578 8.613 8.7 8.777 8.792 8.785 8.805 8.827 8.855 8.867 8.84 8.793 8.75 8.723 8.708 8.695 8.675 8.655 8.653 8.657 8.663 8.667 8.673 8.68 8.69 8.69 8.677 8.662 8.645 8.65 8.693 8.75 8.805 8.815 8.785 8.77 8.78 8.815 8.873 8.938 9 9.058 9.115 9.173 9.228 9.285 9.343 9.4 9.46 9.517 9.575
9.257 9.257 9.25 9.24 9.182 9.103 9.043 8.995 8.958 8.93 8.86 8.74 8.663 8.645 8.645 8.663 8.71 8.775 8.808 8.815 8.84 8.88 8.892 8.868 8.845 8.82 8.795 8.78 8.78 8.808 8.822 8.823 8.845 8.88 8.885 8.847 8.808 8.815 8.91 8.962 8.86 8.748 8.73 8.75 8.783 8.837 8.865 8.85 8.827 8.797 8.763 8.76 8.798 8.843 8.887 8.915 8.917 8.913 8.907 8.892 8.852 8.81 8.818 8.86 8.89 8.892 8.877 8.857 8.822 8.79 8.8 8.807 8.74 8.678 8.67 8.673 8.693 8.76 8.86 8.937 8.98 8.987 8.94 8.863 8.825 8.828 8.832 8.82 8.76 8.705 8.73 8.777 8.792 8.795 8.795 8.787 8.747 8.678 8.643 8.653 8.673 8.698 8.73 8.77 8.81 8.845 8.885 8.907 8.887 8.868 8.87 8.88 8.89 8.9 8.91 8.912 8.905 8.89 8.875 8.86 8.842 8.823 8.808 8.813 8.838 8.877 8.905 8.902 8.88 8.85 8.84 8.855 8.87 8.875 8.872 8.858 8.838 8.828 8.83 8.845 8.862 8.867 8.85 8.815 8.778 8.748 8.718 8.693 8.675 8.658 8.695 8.775 8.785 8.692 8.635 8.655 8.7 8.775 8.84 8.865 8.84 8.795 8.768 8.752 8.732 8.7 8.663 8.643 8.643 8.648 8.653 8.66 8.67 8.68 8.68 8.67 8.65 8.62 8.61 8.63 8.673 8.715 8.718 8.71 8.735 8.778 8.818 8.858 8.915 8.98 9.032 9.073 9.113 9.163 9.22 9.28 9.34 9.4 9.46 9.525
9.197 9.183 9.173 9.18 9.157 9.095 9.038 8.985 8.935 8.895 8.83 8.75 8.72 8.72 8.72 8.715 8.708 8.723 8.745 8.773 8.82 8.867 8.875 8.845 8.818 8.79 8.773 8.783 8.815 8.852 8.865 8.855 8.858 8.882 8.882 8.842 8.798 8.753 8.75 8.805 8.78 8.7 8.69 8.72 8.77 8.832 8.86 8.847 8.83 8.807 8.783 8.785 8.823 8.867 8.905 8.917 8.913 8.907 8.903 8.897 8.877 8.845 8.853 8.892 8.91 8.877 8.808 8.73 8.658 8.638 8.675 8.72 8.707 8.663 8.653 8.665 8.7 8.77 8.84 8.865 8.863 8.857 8.825 8.78 8.77 8.775 8.78 8.785 8.757 8.728 8.745 8.765 8.765 8.768 8.77 8.772 8.76 8.71 8.678 8.683 8.69 8.703 8.723 8.753 8.79 8.825 8.865 8.91 8.92 8.913 8.92 8.93 8.94 8.947 8.95 8.94 8.925 8.91 8.895 8.88 8.862 8.845 8.833 8.838 8.853 8.878 8.905 8.907 8.892 8.875 8.868 8.877 8.885 8.887 8.887 8.87 8.843 8.823 8.825 8.837 8.845 8.852 8.84 8.805 8.778 8.768 8.765 8.765 8.76 8.745 8.77 8.782 8.69 8.55 8.485 8.518 8.593 8.683 8.76 8.825 8.86 8.842 8.813 8.792 8.76 8.72 8.68 8.645 8.63 8.633 8.64 8.65 8.66 8.672 8.675 8.657 8.627 8.595 8.585 8.595 8.615 8.643 8.663 8.695 8.745 8.795 8.835 8.865 8.905 8.96 9.007 9.04 9.073 9.115 9.165 9.22 9.28 9.34 9.403 9.473
9.123 9.108 9.098 9.113 9.125 9.092 9.038 8.985 8.933 8.88 8.825 8.79 8.78 8.772 8.767 8.757 8.745 8.733 8.743 8.778 8.818 8.855 8.855 8.825 8.795 8.775 8.783 8.82 8.865 8.9 8.91 8.9 8.89 8.892 8.877 8.835 8.79 8.745 8.7 8.685 8.68 8.653 8.66 8.71 8.77 8.83 8.855 8.843 8.827 8.81 8.793 8.8 8.843 8.89 8.912 8.913 8.908 8.903 8.898 8.892 8.885 8.873 8.88 8.905 8.905 8.875 8.802 8.693 8.593 8.568 8.6 8.63 8.643 8.64 8.648 8.668 8.695 8.733 8.755 8.753 8.748 8.748 8.738 8.725 8.728 8.73 8.735 8.74 8.735 8.73 8.732 8.735 8.738 8.743 8.745 8.745 8.747 8.73 8.713 8.717 8.725 8.733 8.74 8.755 8.778 8.805 8.845 8.895 8.932 8.95 8.96 8.967 8.972 8.972 8.962 8.947 8.935 8.92 8.905 8.892 8.875 8.86 8.855 8.865 8.88 8.893 8.91 8.912 8.9 8.89 8.88 8.88 8.887 8.895 8.897 8.88 8.847 8.818 8.813 8.822 8.83 8.84 8.83 8.805 8.795 8.795 8.8 8.81 8.817 8.817 8.792 8.697 8.553 8.41 8.355 8.418 8.513 8.608 8.69 8.758 8.82 8.852 8.847 8.82 8.78 8.743 8.705 8.663 8.628 8.62 8.63 8.64 8.653 8.667 8.665 8.635 8.6 8.57 8.56 8.578 8.608 8.643 8.68 8.72 8.763 8.81 8.853 8.885 8.918 8.96 8.99 9.01 9.04 9.078 9.123 9.17 9.223 9.285 9.355 9.43
9.083 9.065 9.058 9.083 9.112 9.102 9.055 9 8.95 8.898 8.855 8.828 8.807 8.795 8.785 8.772 8.757 8.745 8.758 8.792 8.827 8.847 8.835 8.805 8.788 8.8 8.835 8.878 8.92 8.937 8.925 8.907 8.89 8.877 8.865 8.832 8.788 8.743 8.695 8.65 8.625 8.625 8.658 8.713 8.77 8.83 8.855 8.84 8.822 8.805 8.8 8.82 8.86 8.907 8.922 8.913 8.905 8.9 8.895 8.89 8.885 8.883 8.895 8.905 8.892 8.865 8.812 8.72 8.623 8.588 8.6 8.613 8.628 8.65 8.675 8.695 8.705 8.708 8.71 8.713 8.715 8.713 8.71 8.713 8.715 8.718 8.723 8.725 8.72 8.71 8.71 8.715 8.718 8.72 8.72 8.723 8.727 8.727 8.735 8.75 8.76 8.767 8.775 8.783 8.79 8.8 8.825 8.87 8.92 8.955 8.967 8.972 8.97 8.952 8.94 8.935 8.925 8.91 8.895 8.885 8.87 8.853 8.857 8.885 8.905 8.915 8.925 8.925 8.912 8.897 8.88 8.87 8.875 8.885 8.887 8.87 8.835 8.803 8.795 8.805 8.815 8.827 8.83 8.825 8.822 8.82 8.825 8.835 8.845 8.845 8.767 8.623 8.475 8.36 8.33 8.375 8.46 8.56 8.647 8.715 8.77 8.82 8.847 8.837 8.805 8.77 8.732 8.687 8.64 8.618 8.625 8.635 8.647 8.657 8.645 8.61 8.575 8.55 8.56 8.603 8.655 8.707 8.745 8.773 8.803 8.843 8.89 8.94 8.99 9.028 9.033 9.028 9.03 9.048 9.09 9.143 9.2 9.265 9.333 9.4
9.08 9.06 9.058 9.085 9.11 9.11 9.08 9.03 8.978 8.938 8.912 8.865 8.825 8.815 8.802 8.785 8.763 8.753 8.773 8.807 8.832 8.837 8.818 8.798 8.813 8.855 8.9 8.942 8.975 8.957 8.9 8.858 8.837 8.828 8.83 8.825 8.792 8.747 8.7 8.658 8.64 8.66 8.705 8.755 8.802 8.84 8.85 8.835 8.815 8.805 8.82 8.85 8.883 8.925 8.94 8.923 8.91 8.903 8.898 8.893 8.888 8.888 8.9 8.9 8.875 8.845 8.81 8.742 8.655 8.623 8.635 8.653 8.678 8.705 8.73 8.742 8.74 8.735 8.735 8.737 8.735 8.717 8.708 8.72 8.73 8.732 8.735 8.737 8.715 8.683 8.685 8.697 8.702 8.705 8.705 8.707 8.71 8.713 8.737 8.772 8.79 8.8 8.81 8.815 8.812 8.805 8.815 8.848 8.89 8.935 8.955 8.96 8.947 8.908 8.903 8.915 8.905 8.89 8.875 8.862 8.845 8.828 8.833 8.875 8.917 8.937 8.947 8.942 8.925 8.905 8.885 8.868 8.86 8.865 8.862 8.84 8.808 8.783 8.78 8.79 8.803 8.82 8.837 8.847 8.847 8.843 8.845 8.855 8.857 8.837 8.745 8.598 8.485 8.438 8.423 8.42 8.448 8.52 8.612 8.685 8.74 8.78 8.81 8.83 8.825 8.797 8.757 8.712 8.66 8.625 8.625 8.635 8.642 8.645 8.627 8.593 8.565 8.555 8.595 8.667 8.727 8.78 8.82 8.848 8.878 8.923 8.983 9.048 9.11 9.14 9.13 9.107 9.078 9.06 9.085 9.143 9.21 9.275 9.337 9.4
9.088 9.065 9.065 9.085 9.1 9.105 9.095 9.057 9.008 8.987 8.972 8.912 8.853 8.83 8.815 8.792 8.768 8.763 8.787 8.812 8.82 8.82 8.813 8.823 8.865 8.915 8.962 9 9.01 8.97 8.888 8.81 8.773 8.768 8.775 8.785 8.782 8.752 8.71 8.688 8.703 8.742 8.78 8.81 8.832 8.842 8.84 8.825 8.815 8.828 8.853 8.88 8.91 8.945 8.96 8.942 8.923 8.908 8.9 8.897 8.895 8.895 8.897 8.885 8.855 8.825 8.797 8.752 8.685 8.658 8.675 8.7 8.73 8.762 8.787 8.787 8.773 8.763 8.76 8.752 8.735 8.71 8.703 8.725 8.742 8.745 8.747 8.74 8.692 8.648 8.65 8.667 8.682 8.69 8.69 8.69 8.69 8.698 8.73 8.775 8.81 8.83 8.837 8.835 8.82 8.805 8.815 8.84 8.87 8.912 8.94 8.942 8.917 8.87 8.86 8.882 8.885 8.87 8.853 8.835 8.818 8.803 8.798 8.84 8.91 8.955 8.967 8.952 8.93 8.91 8.89 8.87 8.853 8.845 8.835 8.81 8.78 8.763 8.768 8.783 8.803 8.825 8.842 8.855 8.862 8.865 8.867 8.87 8.855 8.817 8.72 8.608 8.568 8.56 8.55 8.535 8.52 8.535 8.59 8.655 8.705 8.735 8.76 8.79 8.812 8.812 8.782 8.732 8.675 8.63 8.62 8.627 8.63 8.63 8.613 8.588 8.578 8.58 8.63 8.717 8.792 8.852 8.895 8.93 8.978 9.037 9.105 9.17 9.23 9.247 9.217 9.182 9.142 9.108 9.12 9.173 9.232 9.292 9.34 9.377
9.1 9.073 9.067 9.08 9.09 9.095 9.097 9.077 9.043 9.02 8.985 8.932 8.878 8.843 8.822 8.798 8.773 8.773 8.792 8.8 8.803 8.808 8.825 8.87 8.927 8.98 9.025 9.042 9.03 8.98 8.892 8.798 8.728 8.71 8.72 8.733 8.748 8.745 8.735 8.745 8.767 8.795 8.812 8.817 8.822 8.827 8.827 8.823 8.832 8.86 8.887 8.912 8.935 8.957 8.97 8.957 8.935 8.915 8.902 8.897 8.895 8.895 8.887 8.865 8.835 8.808 8.783 8.75 8.71 8.7 8.725 8.755 8.785 8.815 8.832 8.825 8.805 8.788 8.773 8.753 8.728 8.7 8.698 8.725 8.747 8.757 8.757 8.725 8.658 8.615 8.62 8.64 8.66 8.673 8.672 8.67 8.67 8.68 8.715 8.76 8.805 8.845 8.855 8.84 8.82 8.805 8.813 8.838 8.865 8.895 8.922 8.92 8.888 8.85 8.833 8.853 8.865 8.853 8.835 8.815 8.798 8.783 8.773 8.808 8.885 8.955 8.982 8.968 8.945 8.925 8.905 8.885 8.865 8.843 8.818 8.79 8.76 8.748 8.763 8.785 8.807 8.83 8.845 8.858 8.87 8.88 8.885 8.872 8.84 8.795 8.733 8.695 8.692 8.687 8.68 8.665 8.65 8.635 8.628 8.64 8.665 8.693 8.72 8.75 8.783 8.817 8.807 8.75 8.69 8.635 8.613 8.615 8.615 8.615 8.61 8.605 8.605 8.61 8.66 8.75 8.837 8.917 8.975 9.017 9.07 9.125 9.18 9.235 9.28 9.285 9.252 9.22 9.185 9.155 9.17 9.212 9.252 9.295 9.32 9.33
9.097 9.065 9.045 9.05 9.06 9.067 9.075 9.082 9.07 9.033 8.988 8.945 8.898 8.855 8.828 8.802 8.778 8.775 8.79 8.798 8.805 8.815 8.833 8.88 8.947 9.01 9.05 9.047 9.022 8.967 8.877 8.783 8.72 8.71 8.723 8.738 8.753 8.755 8.76 8.78 8.792 8.795 8.795 8.797 8.802 8.807 8.81 8.81 8.82 8.842 8.867 8.89 8.907 8.932 8.95 8.937 8.915 8.895 8.877 8.867 8.865 8.865 8.867 8.857 8.83 8.803 8.775 8.745 8.72 8.725 8.752 8.78 8.81 8.837 8.847 8.835 8.82 8.833 8.83 8.795 8.76 8.713 8.698 8.725 8.752 8.77 8.755 8.713 8.668 8.645 8.655 8.675 8.687 8.67 8.65 8.65 8.65 8.66 8.695 8.74 8.788 8.842 8.86 8.84 8.82 8.805 8.81 8.835 8.863 8.888 8.917 8.917 8.885 8.855 8.843 8.853 8.857 8.857 8.85 8.83 8.81 8.795 8.788 8.808 8.873 8.955 8.997 8.995 8.98 8.96 8.94 8.92 8.895 8.863 8.828 8.798 8.773 8.758 8.768 8.79 8.812 8.832 8.848 8.862 8.875 8.887 8.892 8.867 8.825 8.785 8.765 8.772 8.785 8.797 8.797 8.775 8.75 8.725 8.69 8.65 8.64 8.665 8.695 8.728 8.773 8.83 8.83 8.773 8.715 8.658 8.63 8.63 8.63 8.625 8.628 8.635 8.638 8.643 8.69 8.777 8.865 8.942 9 9.045 9.09 9.135 9.18 9.222 9.247 9.247 9.23 9.207 9.182 9.17 9.185 9.212 9.24 9.267 9.287 9.3
9.075 9.027 8.988 8.985 8.998 9.02 9.05 9.085 9.092 9.06 9.02 8.975 8.917 8.863 8.83 8.805 8.788 8.79 8.803 8.815 8.825 8.835 8.838 8.858 8.915 8.98 9.012 9.005 8.98 8.927 8.843 8.768 8.748 8.762 8.778 8.792 8.797 8.78 8.77 8.78 8.785 8.78 8.773 8.773 8.778 8.782 8.782 8.77 8.763 8.773 8.79 8.813 8.843 8.887 8.917 8.9 8.868 8.845 8.828 8.818 8.813 8.81 8.825 8.842 8.832 8.805 8.775 8.745 8.718 8.72 8.745 8.77 8.8 8.83 8.842 8.83 8.838 8.902 8.942 8.912 8.852 8.758 8.713 8.738 8.762 8.782 8.775 8.753 8.74 8.735 8.745 8.755 8.727 8.655 8.615 8.625 8.63 8.64 8.675 8.725 8.783 8.842 8.86 8.84 8.82 8.803 8.808 8.835 8.863 8.893 8.925 8.93 8.905 8.875 8.865 8.86 8.843 8.86 8.882 8.87 8.85 8.835 8.833 8.843 8.885 8.962 9.01 9.017 9.015 9 8.977 8.952 8.922 8.888 8.855 8.83 8.813 8.795 8.785 8.795 8.818 8.837 8.852 8.868 8.88 8.895 8.895 8.862 8.82 8.785 8.768 8.775 8.8 8.83 8.842 8.83 8.805 8.77 8.73 8.68 8.64 8.648 8.68 8.72 8.788 8.857 8.855 8.8 8.748 8.695 8.67 8.67 8.665 8.65 8.648 8.66 8.67 8.675 8.718 8.802 8.875 8.925 8.97 9.017 9.063 9.108 9.152 9.185 9.2 9.2 9.185 9.163 9.148 9.155 9.17 9.185 9.208 9.233 9.255 9.278
9.035 8.965 8.915 8.92 8.955 9 9.05 9.092 9.112 9.097 9.055 9 8.935 8.87 8.83 8.813 8.81 8.82 8.828 8.837 8.847 8.855 8.855 8.853 8.885 8.93 8.945 8.942 8.93 8.887 8.823 8.79 8.798 8.815 8.832 8.84 8.822 8.79 8.778 8.78 8.777 8.77 8.763 8.758 8.755 8.758 8.752 8.73 8.708 8.703 8.715 8.748 8.798 8.855 8.89 8.87 8.825 8.795 8.78 8.77 8.76 8.755 8.77 8.8 8.817 8.805 8.775 8.745 8.715 8.713 8.735 8.763 8.795 8.825 8.837 8.838 8.883 8.972 9.05 9.042 8.937 8.798 8.738 8.757 8.772 8.787 8.802 8.812 8.82 8.825 8.82 8.787 8.713 8.62 8.578 8.59 8.605 8.62 8.658 8.718 8.785 8.847 8.862 8.84 8.82 8.8 8.805 8.837 8.872 8.91 8.937 8.937 8.92 8.895 8.877 8.855 8.818 8.83 8.885 8.905 8.89 8.88 8.885 8.895 8.915 8.97 9.015 9.025 9.032 9.03 9.01 8.977 8.945 8.915 8.89 8.873 8.86 8.845 8.825 8.815 8.825 8.843 8.858 8.875 8.893 8.907 8.897 8.86 8.82 8.788 8.77 8.763 8.77 8.795 8.815 8.822 8.82 8.802 8.77 8.717 8.655 8.638 8.67 8.728 8.815 8.887 8.885 8.835 8.785 8.735 8.708 8.702 8.69 8.673 8.668 8.68 8.695 8.703 8.743 8.812 8.86 8.895 8.94 8.99 9.035 9.08 9.12 9.14 9.147 9.15 9.14 9.123 9.125 9.145 9.162 9.175 9.188 9.205 9.228 9.273
8.972 8.9 8.87 8.898 8.953 9.007 9.06 9.097 9.117 9.117 9.077 9.015 8.95 8.882 8.84 8.832 8.837 8.845 8.85 8.857 8.867 8.872 8.87 8.86 8.865 8.877 8.878 8.875 8.87 8.85 8.83 8.835 8.852 8.867 8.877 8.867 8.835 8.8 8.78 8.775 8.77 8.763 8.758 8.753 8.745 8.743 8.733 8.705 8.675 8.653 8.66 8.705 8.765 8.822 8.86 8.845 8.793 8.755 8.74 8.73 8.72 8.718 8.725 8.745 8.777 8.792 8.775 8.745 8.715 8.708 8.728 8.758 8.792 8.825 8.835 8.863 8.942 9.027 9.095 9.085 8.962 8.813 8.75 8.76 8.77 8.78 8.8 8.825 8.85 8.875 8.867 8.805 8.718 8.63 8.575 8.573 8.585 8.603 8.65 8.723 8.797 8.857 8.865 8.84 8.82 8.8 8.802 8.832 8.87 8.907 8.927 8.922 8.91 8.897 8.877 8.845 8.805 8.793 8.845 8.912 8.93 8.93 8.94 8.95 8.96 8.99 9.02 9.025 9.025 9.022 9.012 8.99 8.965 8.947 8.93 8.915 8.905 8.89 8.87 8.847 8.84 8.853 8.87 8.89 8.91 8.917 8.897 8.86 8.82 8.79 8.775 8.763 8.755 8.763 8.775 8.785 8.795 8.802 8.797 8.755 8.685 8.64 8.663 8.737 8.822 8.89 8.895 8.855 8.812 8.767 8.74 8.727 8.71 8.695 8.69 8.698 8.712 8.728 8.76 8.805 8.843 8.873 8.913 8.965 9.01 9.052 9.08 9.088 9.093 9.1 9.098 9.095 9.113 9.135 9.155 9.17 9.18 9.19 9.215 9.28
8.898 8.865 8.863 8.898 8.952 9.007 9.062 9.072 9.06 9.065 9.04 8.985 8.92 8.855 8.82 8.82 8.825 8.832 8.85 8.852 8.847 8.852 8.847 8.835 8.83 8.83 8.825 8.82 8.818 8.815 8.825 8.845 8.862 8.887 8.887 8.855 8.822 8.787 8.76 8.75 8.747 8.755 8.765 8.765 8.76 8.755 8.74 8.71 8.678 8.645 8.645 8.68 8.73 8.787 8.83 8.82 8.773 8.743 8.73 8.723 8.718 8.725 8.71 8.69 8.713 8.74 8.737 8.712 8.693 8.695 8.72 8.752 8.787 8.822 8.852 8.892 8.942 8.982 9.02 9.035 8.95 8.808 8.748 8.753 8.76 8.77 8.788 8.813 8.843 8.882 8.902 8.857 8.775 8.693 8.625 8.598 8.595 8.613 8.67 8.75 8.82 8.867 8.865 8.833 8.81 8.79 8.778 8.79 8.822 8.857 8.875 8.87 8.862 8.865 8.855 8.825 8.79 8.758 8.788 8.872 8.925 8.942 8.955 8.967 8.98 8.995 9.005 9 8.99 8.98 8.977 8.975 8.962 8.95 8.937 8.922 8.91 8.895 8.872 8.85 8.853 8.875 8.895 8.915 8.927 8.917 8.89 8.857 8.82 8.79 8.775 8.773 8.773 8.765 8.765 8.778 8.79 8.803 8.81 8.787 8.73 8.665 8.66 8.725 8.802 8.87 8.88 8.845 8.81 8.778 8.76 8.745 8.728 8.715 8.71 8.715 8.73 8.75 8.778 8.813 8.842 8.858 8.895 8.955 9 9.037 9.055 9.058 9.06 9.063 9.065 9.078 9.102 9.125 9.147 9.165 9.175 9.185 9.215 9.288
8.865 8.868 8.873 8.895 8.945 9 9.05 9.027 8.965 8.953 8.945 8.907 8.848 8.79 8.768 8.773 8.785 8.81 8.845 8.84 8.803 8.795 8.79 8.78 8.785 8.79 8.785 8.78 8.78 8.783 8.795 8.813 8.845 8.885 8.87 8.823 8.788 8.753 8.723 8.71 8.715 8.738 8.767 8.787 8.79 8.785 8.767 8.735 8.7 8.665 8.66 8.683 8.715 8.758 8.8 8.797 8.765 8.753 8.745 8.738 8.748 8.772 8.742 8.675 8.65 8.663 8.665 8.653 8.658 8.68 8.71 8.742 8.775 8.81 8.825 8.825 8.83 8.845 8.89 8.945 8.91 8.793 8.74 8.745 8.75 8.76 8.775 8.803 8.84 8.885 8.922 8.91 8.845 8.765 8.695 8.645 8.628 8.65 8.71 8.782 8.835 8.872 8.867 8.828 8.798 8.775 8.75 8.735 8.75 8.785 8.802 8.798 8.803 8.817 8.812 8.79 8.762 8.728 8.74 8.802 8.855 8.892 8.92 8.937 8.95 8.96 8.96 8.95 8.94 8.933 8.933 8.937 8.932 8.92 8.907 8.892 8.877 8.86 8.838 8.835 8.868 8.902 8.925 8.94 8.935 8.91 8.88 8.85 8.823 8.813 8.82 8.825 8.817 8.798 8.79 8.805 8.82 8.822 8.812 8.795 8.762 8.708 8.683 8.713 8.775 8.847 8.86 8.825 8.798 8.783 8.772 8.758 8.745 8.738 8.735 8.738 8.75 8.77 8.8 8.83 8.84 8.84 8.885 8.952 8.997 9.03 9.042 9.05 9.052 9.05 9.053 9.065 9.088 9.11 9.135 9.16 9.175 9.185 9.215 9.29
8.878 8.882 8.885 8.898 8.938 8.992 9.032 8.995 8.903 8.85 8.838 8.82 8.775 8.73 8.723 8.74 8.77 8.81 8.845 8.832 8.778 8.745 8.735 8.735 8.745 8.75 8.747 8.745 8.745 8.75 8.765 8.8 8.867 8.895 8.85 8.798 8.755 8.718 8.685 8.67 8.685 8.715 8.747 8.782 8.805 8.81 8.792 8.757 8.72 8.685 8.683 8.707 8.73 8.753 8.785 8.79 8.773 8.768 8.76 8.765 8.798 8.83 8.797 8.713 8.64 8.605 8.603 8.615 8.64 8.67 8.7 8.73 8.76 8.792 8.765 8.695 8.675 8.71 8.77 8.83 8.845 8.778 8.73 8.737 8.743 8.75 8.768 8.8 8.843 8.89 8.927 8.94 8.907 8.837 8.768 8.705 8.67 8.688 8.742 8.797 8.84 8.877 8.875 8.833 8.793 8.763 8.738 8.71 8.695 8.713 8.728 8.733 8.753 8.772 8.767 8.745 8.723 8.698 8.695 8.725 8.765 8.81 8.852 8.882 8.9 8.91 8.912 8.905 8.895 8.888 8.888 8.895 8.9 8.892 8.875 8.858 8.84 8.82 8.818 8.848 8.89 8.927 8.952 8.952 8.93 8.897 8.865 8.848 8.858 8.887 8.905 8.892 8.865 8.838 8.825 8.832 8.837 8.827 8.81 8.79 8.77 8.74 8.725 8.738 8.768 8.825 8.84 8.813 8.803 8.797 8.788 8.775 8.768 8.765 8.765 8.765 8.773 8.792 8.815 8.825 8.822 8.818 8.84 8.917 8.99 9.015 9.025 9.035 9.042 9.045 9.048 9.058 9.075 9.095 9.12 9.147 9.17 9.185 9.215 9.288
8.892 8.895 8.898 8.905 8.933 8.985 9.012 8.96 8.86 8.795 8.773 8.745 8.7 8.68 8.7 8.735 8.775 8.815 8.84 8.817 8.763 8.715 8.698 8.703 8.708 8.71 8.71 8.713 8.715 8.723 8.758 8.828 8.897 8.895 8.833 8.773 8.725 8.685 8.65 8.638 8.658 8.692 8.725 8.757 8.79 8.807 8.8 8.775 8.74 8.708 8.708 8.73 8.747 8.762 8.785 8.805 8.803 8.788 8.785 8.815 8.862 8.89 8.852 8.767 8.68 8.6 8.575 8.6 8.63 8.66 8.69 8.72 8.747 8.772 8.737 8.63 8.57 8.598 8.653 8.71 8.762 8.752 8.723 8.73 8.732 8.735 8.75 8.787 8.842 8.895 8.932 8.955 8.955 8.91 8.842 8.78 8.728 8.723 8.762 8.805 8.845 8.885 8.882 8.838 8.795 8.758 8.728 8.7 8.67 8.655 8.663 8.683 8.708 8.728 8.723 8.705 8.693 8.68 8.673 8.683 8.71 8.745 8.78 8.813 8.843 8.863 8.868 8.86 8.85 8.84 8.84 8.85 8.862 8.862 8.845 8.825 8.805 8.8 8.828 8.87 8.91 8.952 8.97 8.95 8.918 8.883 8.865 8.875 8.902 8.935 8.937 8.915 8.895 8.877 8.862 8.852 8.84 8.822 8.805 8.785 8.765 8.745 8.737 8.752 8.775 8.81 8.825 8.815 8.815 8.812 8.805 8.798 8.795 8.795 8.795 8.795 8.797 8.807 8.813 8.805 8.8 8.795 8.79 8.88 8.98 8.995 9.005 9.018 9.03 9.037 9.04 9.047 9.065 9.082 9.105 9.133 9.158 9.18 9.215 9.28
8.905 8.908 8.912 8.915 8.933 8.977 8.99 8.922 8.835 8.79 8.785 8.768 8.715 8.683 8.7 8.743 8.785 8.825 8.84 8.805 8.753 8.715 8.703 8.708 8.705 8.69 8.68 8.685 8.693 8.72 8.788 8.87 8.91 8.88 8.815 8.75 8.698 8.655 8.618 8.605 8.625 8.658 8.69 8.717 8.745 8.762 8.76 8.745 8.725 8.715 8.723 8.737 8.752 8.765 8.788 8.827 8.847 8.833 8.833 8.87 8.92 8.937 8.895 8.815 8.725 8.635 8.583 8.59 8.62 8.65 8.677 8.702 8.725 8.745 8.71 8.608 8.54 8.545 8.585 8.635 8.688 8.712 8.71 8.71 8.71 8.715 8.725 8.753 8.807 8.872 8.92 8.945 8.962 8.955 8.91 8.847 8.785 8.753 8.77 8.81 8.85 8.89 8.887 8.845 8.805 8.765 8.73 8.7 8.67 8.653 8.665 8.688 8.708 8.72 8.71 8.698 8.693 8.69 8.683 8.68 8.698 8.723 8.748 8.773 8.803 8.83 8.833 8.818 8.803 8.793 8.793 8.803 8.82 8.83 8.82 8.8 8.785 8.803 8.845 8.887 8.93 8.972 8.98 8.95 8.918 8.898 8.883 8.875 8.887 8.905 8.902 8.885 8.875 8.865 8.857 8.85 8.832 8.81 8.79 8.77 8.75 8.733 8.725 8.733 8.752 8.78 8.795 8.795 8.803 8.817 8.822 8.82 8.82 8.82 8.82 8.82 8.8 8.792 8.822 8.835 8.828 8.82 8.813 8.895 8.985 8.995 9.005 9.018 9.032 9.027 9.01 9.015 9.035 9.063 9.095 9.125 9.15 9.175 9.205 9.255
8.92 8.923 8.925 8.928 8.938 8.972 8.97 8.898 8.838 8.803 8.803 8.835 8.825 8.773 8.745 8.758 8.79 8.83 8.837 8.8 8.763 8.745 8.74 8.74 8.72 8.68 8.66 8.668 8.695 8.753 8.83 8.905 8.915 8.86 8.795 8.73 8.673 8.625 8.598 8.61 8.633 8.638 8.645 8.663 8.69 8.7 8.695 8.698 8.708 8.725 8.735 8.738 8.748 8.763 8.79 8.837 8.882 8.892 8.895 8.925 8.965 8.962 8.91 8.84 8.76 8.675 8.6 8.585 8.615 8.642 8.66 8.675 8.695 8.715 8.682 8.603 8.553 8.543 8.568 8.61 8.65 8.677 8.682 8.68 8.685 8.695 8.705 8.718 8.753 8.817 8.87 8.897 8.907 8.915 8.917 8.887 8.835 8.783 8.778 8.815 8.855 8.895 8.895 8.855 8.815 8.775 8.738 8.705 8.685 8.695 8.725 8.752 8.772 8.775 8.753 8.723 8.71 8.71 8.7 8.685 8.693 8.717 8.742 8.765 8.798 8.83 8.83 8.81 8.79 8.775 8.768 8.77 8.785 8.802 8.8 8.785 8.783 8.81 8.855 8.9 8.945 8.985 8.99 8.965 8.953 8.96 8.933 8.875 8.85 8.855 8.852 8.833 8.82 8.81 8.813 8.822 8.815 8.795 8.775 8.755 8.735 8.718 8.71 8.71 8.715 8.733 8.75 8.765 8.793 8.825 8.84 8.84 8.84 8.84 8.84 8.822 8.755 8.733 8.807 8.88 8.9 8.89 8.905 8.962 9.002 9.01 9.022 9.035 9.032 8.995 8.963 8.968 8.995 9.045 9.092 9.125 9.15 9.165 9.173 9.21
8.935 8.938 8.94 8.943 8.945 8.967 8.952 8.893 8.853 8.818 8.798 8.835 8.89 8.89 8.855 8.823 8.813 8.835 8.837 8.808 8.793 8.785 8.777 8.757 8.712 8.663 8.643 8.67 8.73 8.8 8.872 8.925 8.905 8.84 8.778 8.713 8.65 8.6 8.598 8.65 8.695 8.693 8.67 8.663 8.665 8.665 8.675 8.698 8.725 8.75 8.755 8.747 8.748 8.758 8.79 8.843 8.897 8.937 8.962 8.987 9 8.97 8.91 8.845 8.777 8.707 8.628 8.59 8.613 8.642 8.655 8.66 8.67 8.685 8.66 8.608 8.578 8.555 8.558 8.59 8.627 8.65 8.653 8.655 8.665 8.675 8.685 8.695 8.71 8.753 8.802 8.822 8.812 8.813 8.842 8.862 8.86 8.822 8.798 8.825 8.865 8.902 8.902 8.865 8.825 8.783 8.743 8.718 8.72 8.75 8.785 8.82 8.85 8.855 8.822 8.773 8.74 8.728 8.717 8.698 8.69 8.71 8.735 8.765 8.812 8.847 8.845 8.825 8.805 8.785 8.77 8.765 8.77 8.78 8.78 8.778 8.788 8.82 8.865 8.91 8.957 8.997 9.008 9.005 9.02 9.042 9.017 8.94 8.87 8.828 8.805 8.785 8.767 8.76 8.77 8.785 8.792 8.785 8.765 8.745 8.725 8.705 8.695 8.695 8.698 8.71 8.735 8.77 8.81 8.842 8.855 8.855 8.855 8.855 8.842 8.782 8.675 8.648 8.735 8.845 8.927 8.957 8.99 9.02 9.02 9.025 9.037 9.035 8.997 8.94 8.913 8.93 8.975 9.037 9.092 9.127 9.145 9.142 9.133 9.157
8.947 8.952 8.955 8.957 8.96 8.965 8.945 8.905 8.87 8.835 8.803 8.818 8.885 8.915 8.897 8.87 8.845 8.847 8.847 8.83 8.822 8.817 8.797 8.752 8.698 8.648 8.643 8.698 8.77 8.842 8.915 8.94 8.898 8.835 8.773 8.708 8.645 8.6 8.615 8.68 8.745 8.775 8.757 8.722 8.685 8.675 8.7 8.725 8.75 8.762 8.755 8.75 8.75 8.758 8.795 8.852 8.908 8.962 9.005 9.027 9.01 8.955 8.897 8.837 8.775 8.715 8.647 8.6 8.613 8.647 8.66 8.66 8.66 8.665 8.653 8.625 8.603 8.578 8.56 8.575 8.605 8.62 8.628 8.635 8.645 8.655 8.665 8.673 8.678 8.698 8.727 8.73 8.708 8.708 8.738 8.772 8.807 8.817 8.815 8.835 8.867 8.897 8.897 8.867 8.832 8.79 8.753 8.748 8.772 8.807 8.842 8.877 8.91 8.92 8.887 8.837 8.792 8.757 8.735 8.713 8.695 8.703 8.735 8.783 8.837 8.865 8.855 8.835 8.815 8.793 8.778 8.775 8.775 8.778 8.78 8.785 8.8 8.835 8.883 8.928 8.975 9.015 9.04 9.067 9.097 9.125 9.1 9.01 8.91 8.812 8.75 8.725 8.705 8.698 8.715 8.74 8.757 8.765 8.752 8.73 8.71 8.693 8.688 8.693 8.7 8.713 8.74 8.782 8.825 8.86 8.877 8.878 8.875 8.865 8.82 8.733 8.63 8.598 8.67 8.78 8.892 8.98 9.02 9.035 9.04 9.045 9.04 9.002 8.945 8.885 8.868 8.908 8.968 9.033 9.092 9.125 9.125 9.112 9.098 9.1
8.952 8.955 8.955 8.957 8.96 8.96 8.96 8.942 8.903 8.86 8.82 8.813 8.838 8.85 8.85 8.85 8.852 8.86 8.852 8.835 8.825 8.817 8.785 8.73 8.683 8.65 8.665 8.725 8.795 8.867 8.937 8.952 8.91 8.855 8.79 8.725 8.66 8.613 8.638 8.71 8.777 8.825 8.822 8.78 8.73 8.71 8.73 8.755 8.767 8.747 8.72 8.717 8.723 8.748 8.803 8.865 8.923 8.977 9.02 9.027 8.985 8.92 8.862 8.805 8.747 8.69 8.633 8.595 8.61 8.647 8.662 8.665 8.665 8.665 8.67 8.67 8.648 8.618 8.588 8.575 8.59 8.608 8.62 8.63 8.64 8.65 8.658 8.663 8.67 8.675 8.663 8.633 8.6 8.6 8.633 8.67 8.705 8.74 8.777 8.81 8.837 8.862 8.867 8.847 8.82 8.785 8.765 8.78 8.812 8.845 8.877 8.91 8.932 8.922 8.88 8.832 8.792 8.767 8.76 8.75 8.723 8.718 8.76 8.82 8.872 8.887 8.87 8.848 8.825 8.803 8.79 8.79 8.793 8.798 8.8 8.805 8.825 8.865 8.913 8.958 9.002 9.035 9.062 9.1 9.137 9.155 9.107 8.997 8.875 8.755 8.675 8.648 8.63 8.618 8.62 8.64 8.665 8.685 8.682 8.658 8.66 8.683 8.693 8.7 8.71 8.72 8.745 8.788 8.832 8.875 8.907 8.92 8.917 8.895 8.83 8.745 8.673 8.63 8.653 8.74 8.85 8.95 9.002 9.017 9.03 9.04 9.017 8.96 8.9 8.848 8.858 8.92 8.983 9.045 9.097 9.112 9.095 9.078 9.06 9.04
8.937 8.94 8.94 8.94 8.94 8.943 8.967 8.99 8.965 8.918 8.873 8.843 8.825 8.818 8.828 8.84 8.853 8.867 8.857 8.825 8.805 8.792 8.758 8.713 8.688 8.68 8.7 8.75 8.815 8.885 8.945 8.955 8.922 8.877 8.817 8.755 8.668 8.605 8.645 8.732 8.81 8.862 8.862 8.825 8.783 8.753 8.76 8.775 8.755 8.705 8.668 8.663 8.683 8.735 8.807 8.877 8.94 8.995 9.027 9.007 8.942 8.878 8.82 8.76 8.708 8.658 8.605 8.575 8.595 8.637 8.662 8.672 8.675 8.675 8.69 8.715 8.715 8.688 8.653 8.605 8.588 8.61 8.627 8.64 8.65 8.66 8.668 8.675 8.677 8.665 8.625 8.568 8.52 8.508 8.535 8.575 8.613 8.65 8.693 8.737 8.777 8.807 8.822 8.812 8.785 8.768 8.775 8.8 8.83 8.86 8.89 8.92 8.91 8.857 8.808 8.77 8.755 8.76 8.78 8.797 8.785 8.775 8.81 8.87 8.912 8.915 8.895 8.87 8.845 8.823 8.81 8.81 8.815 8.82 8.823 8.833 8.86 8.903 8.948 8.992 9.03 9.05 9.068 9.1 9.13 9.11 9.025 8.907 8.785 8.665 8.588 8.565 8.55 8.535 8.52 8.515 8.528 8.543 8.553 8.57 8.63 8.692 8.71 8.713 8.72 8.73 8.755 8.795 8.84 8.885 8.925 8.96 8.972 8.95 8.888 8.815 8.763 8.72 8.698 8.73 8.82 8.912 8.957 8.973 8.99 9.007 8.985 8.925 8.873 8.838 8.87 8.955 9.027 9.087 9.115 9.095 9.065 9.045 9.035 9.02
8.893 8.905 8.915 8.92 8.92 8.92 8.948 9 9.025 9.002 8.958 8.92 8.893 8.87 8.86 8.858 8.86 8.872 8.867 8.833 8.798 8.773 8.745 8.725 8.72 8.72 8.74 8.785 8.84 8.905 8.955 8.955 8.925 8.89 8.842 8.785 8.66 8.583 8.648 8.742 8.832 8.895 8.897 8.865 8.83 8.792 8.78 8.765 8.715 8.655 8.615 8.62 8.668 8.738 8.812 8.885 8.952 9.01 9.022 8.972 8.898 8.833 8.78 8.728 8.68 8.635 8.588 8.56 8.578 8.622 8.655 8.672 8.682 8.685 8.703 8.74 8.77 8.767 8.735 8.66 8.605 8.615 8.632 8.647 8.66 8.67 8.68 8.685 8.67 8.64 8.595 8.538 8.488 8.468 8.48 8.503 8.53 8.565 8.608 8.655 8.703 8.742 8.772 8.772 8.755 8.763 8.787 8.812 8.84 8.87 8.9 8.905 8.85 8.783 8.753 8.748 8.758 8.77 8.79 8.82 8.84 8.845 8.87 8.912 8.942 8.945 8.925 8.9 8.875 8.85 8.835 8.835 8.838 8.84 8.845 8.863 8.898 8.94 8.985 9.022 9.045 9.06 9.073 9.095 9.09 9.025 8.923 8.808 8.693 8.575 8.503 8.485 8.47 8.455 8.445 8.44 8.44 8.445 8.483 8.56 8.655 8.72 8.735 8.735 8.738 8.743 8.765 8.805 8.85 8.895 8.935 8.98 9.015 9.007 8.96 8.905 8.858 8.815 8.78 8.768 8.808 8.875 8.912 8.93 8.95 8.97 8.952 8.903 8.868 8.843 8.875 8.972 9.067 9.125 9.122 9.083 9.043 9.023 9.038 9.057
8.86 8.88 8.885 8.88 8.885 8.893 8.925 8.983 9.035 9.06 9.045 9.015 8.987 8.962 8.937 8.915 8.9 8.892 8.88 8.847 8.802 8.763 8.745 8.745 8.747 8.75 8.77 8.817 8.87 8.927 8.965 8.955 8.925 8.895 8.86 8.792 8.635 8.563 8.65 8.745 8.837 8.91 8.917 8.882 8.847 8.81 8.772 8.725 8.665 8.605 8.573 8.6 8.668 8.742 8.815 8.888 8.96 9.015 9.005 8.938 8.865 8.808 8.765 8.72 8.673 8.628 8.583 8.558 8.573 8.613 8.645 8.665 8.683 8.695 8.718 8.755 8.795 8.822 8.802 8.715 8.635 8.623 8.638 8.655 8.67 8.683 8.687 8.675 8.648 8.615 8.573 8.52 8.475 8.46 8.47 8.483 8.498 8.515 8.548 8.593 8.635 8.678 8.715 8.733 8.745 8.767 8.795 8.82 8.845 8.872 8.89 8.85 8.778 8.743 8.74 8.755 8.77 8.78 8.8 8.83 8.86 8.88 8.902 8.932 8.962 8.972 8.955 8.93 8.905 8.88 8.865 8.865 8.863 8.863 8.87 8.893 8.935 8.98 9.017 9.04 9.055 9.07 9.08 9.08 9.043 8.97 8.868 8.745 8.628 8.523 8.465 8.455 8.453 8.45 8.453 8.46 8.465 8.468 8.505 8.588 8.682 8.745 8.76 8.76 8.76 8.763 8.788 8.828 8.865 8.905 8.945 8.99 9.042 9.052 9.02 8.987 8.95 8.91 8.875 8.847 8.833 8.845 8.87 8.89 8.91 8.93 8.925 8.897 8.875 8.85 8.878 8.972 9.072 9.13 9.12 9.077 9.033 9.025 9.063 9.105
8.86 8.86 8.835 8.818 8.828 8.86 8.933 9.008 9.06 9.105 9.102 9.057 9.02 8.995 8.972 8.95 8.927 8.905 8.882 8.847 8.8 8.753 8.733 8.735 8.743 8.768 8.795 8.823 8.867 8.925 8.93 8.87 8.822 8.8 8.777 8.702 8.56 8.535 8.637 8.727 8.815 8.895 8.902 8.857 8.822 8.782 8.73 8.67 8.612 8.555 8.54 8.595 8.672 8.745 8.818 8.892 8.965 9.012 8.99 8.92 8.855 8.808 8.777 8.74 8.693 8.648 8.603 8.583 8.6 8.633 8.66 8.68 8.7 8.72 8.748 8.783 8.82 8.852 8.845 8.772 8.693 8.673 8.69 8.705 8.708 8.707 8.702 8.68 8.65 8.62 8.58 8.53 8.49 8.483 8.5 8.518 8.525 8.523 8.54 8.58 8.62 8.66 8.698 8.713 8.722 8.747 8.772 8.797 8.825 8.855 8.857 8.795 8.743 8.743 8.753 8.767 8.78 8.793 8.815 8.842 8.867 8.872 8.88 8.912 8.93 8.937 8.955 8.96 8.942 8.918 8.9 8.895 8.893 8.89 8.897 8.925 8.965 9.002 9.032 9.052 9.067 9.08 9.092 9.077 9.033 8.977 8.882 8.755 8.628 8.56 8.543 8.525 8.525 8.533 8.54 8.55 8.555 8.555 8.568 8.62 8.707 8.77 8.785 8.785 8.788 8.795 8.823 8.867 8.908 8.94 8.975 9.025 9.07 9.065 9.032 9.01 8.987 8.955 8.915 8.877 8.84 8.825 8.84 8.86 8.88 8.887 8.875 8.855 8.835 8.825 8.868 8.957 9.055 9.122 9.117 9.073 9.03 9.038 9.092 9.142
8.835 8.805 8.768 8.753 8.77 8.838 8.952 9.06 9.13 9.162 9.137 9.073 9.015 8.97 8.94 8.92 8.9 8.88 8.855 8.822 8.782 8.738 8.71 8.713 8.75 8.802 8.825 8.828 8.848 8.892 8.865 8.748 8.643 8.59 8.57 8.5 8.413 8.455 8.585 8.69 8.78 8.865 8.872 8.818 8.777 8.732 8.675 8.615 8.558 8.5 8.505 8.585 8.67 8.747 8.822 8.895 8.962 9.007 8.985 8.915 8.858 8.813 8.782 8.762 8.727 8.68 8.643 8.635 8.65 8.675 8.7 8.72 8.74 8.76 8.79 8.825 8.847 8.857 8.852 8.817 8.772 8.757 8.76 8.757 8.747 8.732 8.72 8.705 8.68 8.65 8.61 8.565 8.538 8.54 8.557 8.565 8.56 8.55 8.558 8.595 8.64 8.68 8.715 8.705 8.685 8.705 8.73 8.758 8.793 8.827 8.82 8.77 8.755 8.765 8.77 8.78 8.79 8.805 8.83 8.852 8.857 8.835 8.833 8.855 8.835 8.825 8.872 8.922 8.947 8.952 8.94 8.93 8.925 8.907 8.905 8.932 8.967 9 9.032 9.062 9.08 9.093 9.107 9.09 9.05 9.007 8.917 8.793 8.69 8.678 8.705 8.673 8.633 8.628 8.635 8.642 8.645 8.645 8.648 8.673 8.738 8.795 8.81 8.813 8.82 8.83 8.858 8.907 8.96 9.002 9.038 9.08 9.09 9.055 9.02 8.995 8.972 8.935 8.885 8.838 8.808 8.805 8.82 8.84 8.85 8.827 8.79 8.765 8.758 8.78 8.845 8.935 9.035 9.117 9.12 9.073 9.03 9.043 9.112 9.175
8.775 8.738 8.703 8.685 8.728 8.833 8.96 9.085 9.185 9.22 9.182 9.117 9.05 8.983 8.93 8.89 8.86 8.84 8.815 8.785 8.75 8.713 8.695 8.728 8.8 8.847 8.855 8.855 8.857 8.872 8.817 8.68 8.535 8.418 8.345 8.283 8.265 8.345 8.483 8.617 8.735 8.832 8.847 8.788 8.733 8.68 8.62 8.562 8.505 8.45 8.473 8.565 8.657 8.747 8.825 8.892 8.955 9 8.98 8.915 8.863 8.818 8.778 8.76 8.747 8.713 8.69 8.695 8.705 8.723 8.745 8.763 8.78 8.8 8.822 8.842 8.847 8.843 8.837 8.822 8.802 8.787 8.775 8.767 8.76 8.747 8.735 8.722 8.705 8.68 8.643 8.61 8.595 8.597 8.605 8.6 8.59 8.58 8.575 8.603 8.655 8.7 8.722 8.695 8.658 8.665 8.695 8.728 8.765 8.802 8.793 8.768 8.78 8.792 8.795 8.798 8.805 8.818 8.837 8.845 8.822 8.788 8.782 8.772 8.72 8.698 8.738 8.8 8.862 8.912 8.942 8.95 8.93 8.895 8.888 8.918 8.953 8.988 9.022 9.057 9.085 9.105 9.12 9.102 9.07 9.037 8.952 8.833 8.785 8.825 8.88 8.86 8.78 8.735 8.73 8.735 8.735 8.735 8.735 8.748 8.783 8.82 8.838 8.845 8.855 8.865 8.893 8.943 8.997 9.052 9.097 9.115 9.092 9.048 9.01 8.985 8.952 8.9 8.843 8.795 8.778 8.785 8.798 8.812 8.797 8.745 8.7 8.685 8.708 8.755 8.823 8.913 9.015 9.11 9.125 9.075 9.033 9.05 9.125 9.197
8.7 8.67 8.635 8.633 8.713 8.84 8.97 9.097 9.217 9.26 9.212 9.15 9.087 9.022 8.96 8.9 8.847 8.808 8.775 8.745 8.715 8.695 8.713 8.787 8.84 8.842 8.845 8.845 8.842 8.835 8.775 8.648 8.5 8.353 8.243 8.21 8.24 8.318 8.433 8.558 8.68 8.787 8.82 8.765 8.703 8.64 8.568 8.508 8.45 8.41 8.45 8.545 8.64 8.748 8.835 8.89 8.943 8.987 8.972 8.918 8.87 8.823 8.778 8.755 8.755 8.748 8.745 8.755 8.765 8.778 8.795 8.807 8.817 8.825 8.827 8.83 8.83 8.827 8.822 8.807 8.79 8.775 8.763 8.755 8.747 8.742 8.735 8.725 8.715 8.702 8.68 8.657 8.647 8.645 8.64 8.63 8.62 8.61 8.6 8.61 8.657 8.715 8.727 8.685 8.635 8.63 8.665 8.703 8.74 8.78 8.785 8.78 8.8 8.817 8.825 8.825 8.827 8.832 8.83 8.81 8.775 8.74 8.71 8.662 8.6 8.57 8.6 8.663 8.733 8.813 8.885 8.92 8.907 8.87 8.868 8.905 8.94 8.975 9.01 9.045 9.08 9.107 9.127 9.12 9.095 9.067 8.988 8.9 8.91 8.977 9.035 9.032 8.955 8.87 8.83 8.825 8.825 8.825 8.823 8.828 8.845 8.863 8.875 8.885 8.895 8.905 8.93 8.978 9.033 9.087 9.115 9.097 9.067 9.035 9 8.967 8.92 8.86 8.8 8.76 8.755 8.768 8.78 8.772 8.725 8.658 8.62 8.633 8.678 8.733 8.8 8.893 8.998 9.097 9.122 9.075 9.035 9.058 9.135 9.21
8.59 8.568 8.568 8.623 8.73 8.863 8.995 9.117 9.207 9.225 9.18 9.12 9.06 9 8.94 8.88 8.825 8.78 8.745 8.718 8.703 8.72 8.773 8.86 8.872 8.81 8.79 8.79 8.775 8.752 8.732 8.645 8.495 8.345 8.26 8.268 8.303 8.365 8.465 8.573 8.678 8.772 8.8 8.748 8.7 8.647 8.563 8.483 8.405 8.378 8.468 8.623 8.768 8.862 8.898 8.92 8.95 8.982 8.972 8.925 8.882 8.835 8.79 8.775 8.783 8.79 8.8 8.81 8.82 8.832 8.835 8.83 8.835 8.825 8.798 8.79 8.797 8.805 8.807 8.795 8.78 8.765 8.748 8.733 8.72 8.713 8.708 8.705 8.7 8.695 8.682 8.66 8.647 8.645 8.645 8.642 8.64 8.637 8.627 8.62 8.653 8.722 8.74 8.693 8.64 8.618 8.64 8.68 8.72 8.76 8.787 8.805 8.825 8.842 8.85 8.85 8.845 8.827 8.805 8.782 8.75 8.713 8.648 8.555 8.478 8.438 8.46 8.563 8.665 8.73 8.795 8.86 8.88 8.85 8.855 8.892 8.925 8.955 8.995 9.037 9.073 9.105 9.13 9.135 9.12 9.097 9.038 9.008 9.047 9.087 9.122 9.132 9.075 8.983 8.935 8.93 8.93 8.93 8.925 8.918 8.92 8.928 8.925 8.923 8.93 8.943 8.97 9.015 9.067 9.102 9.087 9.045 9.015 8.995 8.98 8.95 8.898 8.843 8.79 8.76 8.763 8.778 8.79 8.76 8.69 8.618 8.59 8.628 8.68 8.735 8.805 8.898 8.998 9.09 9.135 9.118 9.083 9.07 9.118 9.2
8.458 8.483 8.563 8.655 8.768 8.902 9.022 9.105 9.14 9.137 9.1 9.04 8.98 8.92 8.868 8.823 8.785 8.755 8.728 8.715 8.733 8.783 8.845 8.93 8.92 8.798 8.735 8.725 8.68 8.648 8.687 8.645 8.495 8.36 8.303 8.328 8.368 8.42 8.508 8.615 8.722 8.79 8.78 8.73 8.702 8.677 8.605 8.508 8.438 8.508 8.708 8.882 8.987 9.01 8.985 8.983 8.998 9.002 8.977 8.937 8.9 8.857 8.818 8.813 8.827 8.838 8.85 8.86 8.873 8.892 8.877 8.84 8.832 8.815 8.768 8.738 8.74 8.755 8.767 8.765 8.757 8.747 8.732 8.72 8.705 8.69 8.68 8.673 8.668 8.665 8.647 8.618 8.603 8.605 8.615 8.623 8.63 8.635 8.633 8.63 8.658 8.732 8.76 8.715 8.668 8.628 8.625 8.66 8.698 8.74 8.787 8.827 8.855 8.87 8.875 8.865 8.835 8.788 8.76 8.757 8.745 8.712 8.63 8.51 8.405 8.363 8.41 8.52 8.605 8.643 8.698 8.785 8.837 8.833 8.843 8.872 8.897 8.92 8.965 9.025 9.067 9.102 9.127 9.135 9.127 9.115 9.095 9.095 9.115 9.13 9.16 9.185 9.142 9.068 9.043 9.047 9.05 9.05 9.045 9.028 9.008 9.003 8.993 8.973 8.968 8.978 9.005 9.052 9.087 9.08 9.04 8.995 8.955 8.93 8.93 8.932 8.91 8.865 8.825 8.803 8.8 8.81 8.815 8.775 8.698 8.623 8.605 8.655 8.712 8.768 8.838 8.93 9.017 9.087 9.165 9.205 9.182 9.125 9.1 9.16
8.405 8.513 8.627 8.708 8.812 8.93 9.002 9.035 9.05 9.055 9.025 8.965 8.91 8.863 8.825 8.795 8.765 8.738 8.725 8.748 8.8 8.86 8.92 8.992 8.96 8.813 8.705 8.642 8.56 8.538 8.645 8.645 8.495 8.39 8.36 8.385 8.432 8.478 8.553 8.657 8.75 8.782 8.75 8.713 8.698 8.69 8.642 8.553 8.583 8.8 9.01 9.097 9.105 9.082 9.058 9.048 9.052 9.027 8.98 8.945 8.91 8.87 8.845 8.855 8.872 8.885 8.903 8.918 8.935 8.957 8.937 8.875 8.838 8.807 8.755 8.705 8.68 8.685 8.705 8.712 8.71 8.705 8.697 8.69 8.68 8.67 8.658 8.645 8.638 8.633 8.615 8.593 8.59 8.6 8.61 8.62 8.63 8.638 8.645 8.653 8.675 8.747 8.78 8.738 8.693 8.648 8.623 8.638 8.675 8.723 8.777 8.83 8.875 8.9 8.89 8.85 8.792 8.733 8.705 8.708 8.713 8.712 8.665 8.568 8.463 8.425 8.478 8.523 8.535 8.548 8.6 8.695 8.777 8.81 8.823 8.842 8.86 8.88 8.925 8.995 9.055 9.097 9.12 9.125 9.122 9.12 9.12 9.12 9.13 9.16 9.197 9.23 9.205 9.16 9.158 9.162 9.167 9.17 9.162 9.14 9.11 9.088 9.073 9.05 9.025 9.018 9.04 9.072 9.07 9.035 8.99 8.945 8.9 8.863 8.86 8.89 8.912 8.9 8.877 8.86 8.845 8.845 8.84 8.787 8.705 8.63 8.623 8.682 8.745 8.803 8.875 8.957 9.022 9.073 9.165 9.267 9.285 9.22 9.14 9.133
8.44 8.592 8.697 8.762 8.837 8.9 8.928 8.943 8.958 8.97 8.952 8.908 8.868 8.835 8.808 8.78 8.75 8.733 8.753 8.81 8.875 8.937 9 9.047 8.99 8.848 8.713 8.563 8.425 8.428 8.6 8.642 8.5 8.425 8.42 8.445 8.495 8.538 8.603 8.697 8.752 8.75 8.723 8.703 8.695 8.69 8.668 8.655 8.767 8.96 9.077 9.115 9.125 9.125 9.122 9.115 9.09 9.035 8.977 8.935 8.892 8.86 8.863 8.89 8.915 8.937 8.96 8.98 9 9.022 9.005 8.935 8.862 8.802 8.745 8.688 8.64 8.623 8.645 8.665 8.665 8.663 8.658 8.653 8.648 8.643 8.635 8.628 8.623 8.615 8.605 8.603 8.615 8.63 8.64 8.65 8.66 8.67 8.68 8.682 8.693 8.76 8.8 8.765 8.72 8.673 8.633 8.623 8.655 8.708 8.765 8.82 8.872 8.902 8.87 8.803 8.738 8.678 8.65 8.663 8.688 8.725 8.74 8.69 8.603 8.568 8.587 8.588 8.57 8.545 8.573 8.658 8.738 8.785 8.798 8.805 8.82 8.84 8.885 8.955 9.025 9.085 9.112 9.115 9.117 9.12 9.12 9.13 9.16 9.197 9.232 9.27 9.275 9.262 9.27 9.275 9.28 9.285 9.275 9.25 9.22 9.187 9.157 9.13 9.097 9.072 9.067 9.057 9.027 8.987 8.94 8.895 8.853 8.815 8.818 8.855 8.898 8.92 8.917 8.907 8.895 8.89 8.867 8.802 8.717 8.643 8.643 8.707 8.77 8.833 8.898 8.953 9 9.048 9.138 9.28 9.362 9.32 9.215 9.13
8.488 8.617 8.715 8.775 8.83 8.86 8.875 8.89 8.903 8.91 8.903 8.88 8.85 8.82 8.795 8.77 8.745 8.748 8.795 8.867 8.937 9.007 9.077 9.102 9.032 8.913 8.765 8.53 8.31 8.315 8.532 8.62 8.52 8.475 8.48 8.505 8.555 8.6 8.655 8.717 8.74 8.733 8.72 8.708 8.703 8.698 8.69 8.732 8.835 8.947 9.03 9.065 9.085 9.105 9.122 9.125 9.085 9.012 8.95 8.9 8.86 8.855 8.88 8.902 8.917 8.942 8.972 9 9.03 9.065 9.05 8.97 8.875 8.793 8.73 8.67 8.615 8.588 8.608 8.635 8.643 8.648 8.65 8.65 8.648 8.643 8.638 8.633 8.63 8.625 8.62 8.628 8.647 8.665 8.675 8.685 8.695 8.705 8.71 8.705 8.705 8.765 8.81 8.78 8.737 8.692 8.65 8.62 8.635 8.69 8.747 8.8 8.852 8.88 8.842 8.77 8.7 8.638 8.62 8.655 8.705 8.76 8.8 8.797 8.742 8.703 8.702 8.687 8.645 8.605 8.63 8.7 8.768 8.815 8.825 8.818 8.815 8.813 8.843 8.91 8.98 9.042 9.07 9.07 9.075 9.087 9.105 9.132 9.17 9.207 9.242 9.28 9.307 9.315 9.32 9.325 9.33 9.332 9.31 9.272 9.237 9.2 9.162 9.145 9.13 9.1 9.065 9.023 8.983 8.945 8.908 8.875 8.848 8.82 8.825 8.868 8.907 8.93 8.932 8.927 8.922 8.917 8.865 8.772 8.685 8.635 8.665 8.732 8.795 8.863 8.93 8.98 9.023 9.078 9.178 9.323 9.412 9.36 9.222 9.093
8.533 8.6 8.68 8.742 8.805 8.847 8.867 8.882 8.89 8.882 8.875 8.865 8.84 8.813 8.788 8.763 8.753 8.78 8.84 8.912 8.985 9.06 9.135 9.167 9.115 9.015 8.845 8.555 8.25 8.21 8.445 8.577 8.55 8.535 8.54 8.565 8.615 8.66 8.71 8.75 8.763 8.763 8.75 8.735 8.728 8.72 8.715 8.735 8.803 8.905 8.982 9.015 9.032 9.047 9.06 9.062 9.032 8.965 8.903 8.86 8.848 8.865 8.88 8.885 8.885 8.9 8.932 8.97 9.015 9.072 9.06 8.965 8.868 8.78 8.71 8.65 8.598 8.575 8.593 8.615 8.625 8.635 8.645 8.652 8.657 8.66 8.66 8.657 8.652 8.645 8.638 8.65 8.68 8.7 8.71 8.72 8.73 8.737 8.735 8.725 8.718 8.762 8.8 8.775 8.74 8.7 8.66 8.625 8.63 8.673 8.723 8.775 8.827 8.86 8.83 8.76 8.69 8.635 8.635 8.68 8.738 8.8 8.84 8.857 8.85 8.822 8.8 8.757 8.678 8.648 8.7 8.77 8.842 8.892 8.89 8.86 8.827 8.79 8.798 8.857 8.92 8.967 8.985 8.985 9.003 9.043 9.085 9.118 9.148 9.185 9.22 9.255 9.285 9.297 9.302 9.307 9.307 9.297 9.26 9.208 9.163 9.12 9.09 9.095 9.107 9.09 9.048 9 8.968 8.943 8.923 8.905 8.882 8.853 8.858 8.897 8.925 8.937 8.937 8.932 8.927 8.922 8.83 8.695 8.623 8.623 8.688 8.76 8.825 8.893 8.98 9.055 9.108 9.185 9.308 9.422 9.427 9.31 9.15 9.018
8.57 8.59 8.648 8.708 8.77 8.825 8.86 8.875 8.872 8.855 8.845 8.84 8.825 8.805 8.78 8.765 8.775 8.818 8.885 8.955 9.025 9.098 9.172 9.22 9.202 9.125 8.927 8.62 8.31 8.215 8.393 8.555 8.592 8.595 8.6 8.625 8.675 8.73 8.787 8.82 8.822 8.81 8.79 8.773 8.76 8.75 8.748 8.758 8.79 8.868 8.935 8.96 8.972 8.98 8.99 8.987 8.962 8.912 8.86 8.838 8.845 8.855 8.855 8.855 8.855 8.863 8.888 8.935 9.003 9.072 9.055 8.958 8.863 8.77 8.693 8.63 8.585 8.568 8.578 8.595 8.605 8.615 8.625 8.635 8.645 8.655 8.665 8.672 8.673 8.665 8.658 8.675 8.71 8.732 8.745 8.755 8.76 8.76 8.755 8.745 8.735 8.757 8.777 8.762 8.737 8.7 8.66 8.638 8.648 8.673 8.708 8.755 8.805 8.842 8.82 8.753 8.698 8.66 8.663 8.71 8.775 8.837 8.875 8.893 8.91 8.91 8.867 8.785 8.7 8.7 8.77 8.845 8.927 8.955 8.915 8.865 8.818 8.77 8.758 8.8 8.847 8.88 8.9 8.92 8.965 9.025 9.075 9.105 9.128 9.158 9.19 9.222 9.25 9.267 9.275 9.272 9.262 9.242 9.2 9.145 9.093 9.043 9.02 9.035 9.062 9.067 9.043 9.013 8.995 8.98 8.962 8.945 8.915 8.883 8.89 8.917 8.932 8.942 8.942 8.938 8.932 8.92 8.797 8.628 8.585 8.635 8.71 8.787 8.855 8.92 9.013 9.12 9.218 9.328 9.45 9.48 9.377 9.227 9.07 8.943
8.603 8.605 8.645 8.698 8.753 8.808 8.852 8.862 8.845 8.825 8.815 8.81 8.803 8.792 8.78 8.785 8.81 8.86 8.93 9 9.07 9.14 9.207 9.245 9.247 9.205 9.025 8.748 8.488 8.345 8.428 8.587 8.647 8.655 8.66 8.69 8.75 8.817 8.872 8.885 8.87 8.85 8.833 8.815 8.798 8.783 8.778 8.787 8.805 8.845 8.882 8.897 8.905 8.91 8.917 8.907 8.883 8.853 8.825 8.82 8.825 8.825 8.825 8.825 8.822 8.823 8.853 8.922 9.01 9.075 9.047 8.952 8.857 8.765 8.68 8.615 8.58 8.565 8.57 8.585 8.595 8.608 8.62 8.633 8.645 8.658 8.673 8.688 8.702 8.695 8.683 8.703 8.737 8.765 8.78 8.787 8.785 8.78 8.775 8.765 8.755 8.755 8.755 8.743 8.725 8.695 8.663 8.655 8.67 8.69 8.715 8.748 8.785 8.825 8.812 8.758 8.72 8.69 8.693 8.745 8.815 8.875 8.91 8.93 8.95 8.96 8.907 8.8 8.735 8.77 8.855 8.942 9.007 8.985 8.918 8.863 8.813 8.763 8.723 8.733 8.768 8.798 8.84 8.895 8.955 9.015 9.065 9.095 9.115 9.137 9.162 9.187 9.21 9.23 9.232 9.215 9.197 9.177 9.135 9.08 9.025 8.973 8.96 8.988 9.023 9.047 9.042 9.022 9.007 8.99 8.97 8.952 8.93 8.908 8.91 8.927 8.94 8.947 8.947 8.942 8.937 8.91 8.77 8.6 8.583 8.655 8.73 8.81 8.882 8.95 9.04 9.183 9.342 9.482 9.535 9.445 9.295 9.145 8.993 8.87
8.645 8.64 8.67 8.72 8.77 8.818 8.855 8.855 8.825 8.8 8.79 8.788 8.785 8.783 8.793 8.815 8.848 8.905 8.975 9.04 9.1 9.16 9.21 9.225 9.222 9.21 9.127 8.937 8.693 8.49 8.513 8.652 8.695 8.705 8.71 8.725 8.775 8.845 8.907 8.932 8.92 8.903 8.888 8.87 8.85 8.828 8.798 8.785 8.8 8.817 8.828 8.833 8.835 8.84 8.843 8.835 8.83 8.83 8.815 8.798 8.795 8.792 8.79 8.79 8.787 8.783 8.803 8.867 8.955 9.017 8.992 8.905 8.817 8.732 8.66 8.613 8.585 8.573 8.58 8.598 8.61 8.623 8.638 8.653 8.668 8.682 8.698 8.713 8.74 8.74 8.723 8.738 8.768 8.797 8.812 8.813 8.808 8.808 8.808 8.805 8.805 8.79 8.763 8.738 8.715 8.688 8.67 8.678 8.693 8.71 8.735 8.76 8.785 8.817 8.812 8.773 8.74 8.71 8.713 8.772 8.85 8.912 8.95 8.967 8.985 9 8.947 8.835 8.8 8.868 8.963 9.05 9.062 8.995 8.925 8.87 8.817 8.763 8.728 8.703 8.7 8.733 8.785 8.852 8.925 9 9.055 9.085 9.1 9.112 9.127 9.142 9.16 9.182 9.18 9.15 9.125 9.102 9.062 9.01 8.96 8.928 8.935 8.97 9.01 9.045 9.037 9.008 8.99 8.97 8.95 8.935 8.923 8.925 8.93 8.933 8.945 8.95 8.95 8.947 8.942 8.897 8.758 8.623 8.62 8.688 8.758 8.833 8.905 8.975 9.078 9.255 9.462 9.575 9.515 9.365 9.215 9.065 8.915 8.798
8.69 8.678 8.7 8.75 8.797 8.84 8.865 8.855 8.83 8.81 8.788 8.775 8.775 8.775 8.798 8.835 8.872 8.925 8.985 9.04 9.09 9.14 9.18 9.175 9.153 9.15 9.137 9.057 8.882 8.658 8.62 8.717 8.74 8.75 8.752 8.74 8.753 8.81 8.89 8.962 8.982 8.967 8.95 8.932 8.912 8.88 8.825 8.775 8.763 8.773 8.78 8.78 8.78 8.8 8.818 8.823 8.843 8.865 8.842 8.793 8.768 8.758 8.755 8.755 8.75 8.745 8.748 8.773 8.838 8.9 8.88 8.8 8.728 8.68 8.66 8.628 8.59 8.585 8.603 8.625 8.64 8.65 8.663 8.677 8.693 8.707 8.722 8.738 8.77 8.787 8.783 8.795 8.815 8.832 8.85 8.86 8.86 8.865 8.873 8.878 8.88 8.852 8.808 8.775 8.743 8.705 8.69 8.703 8.717 8.733 8.753 8.778 8.805 8.817 8.807 8.782 8.75 8.72 8.72 8.775 8.857 8.935 8.982 9.002 9.018 9.035 8.987 8.905 8.913 8.988 9.08 9.132 9.09 9.005 8.935 8.877 8.823 8.805 8.807 8.75 8.683 8.678 8.72 8.785 8.86 8.938 9.007 9.05 9.06 9.065 9.075 9.085 9.103 9.13 9.135 9.1 9.058 9.028 8.99 8.948 8.92 8.913 8.933 8.97 9.012 9.05 9.04 8.998 8.97 8.95 8.933 8.918 8.923 8.96 8.967 8.948 8.95 8.955 8.955 8.952 8.947 8.892 8.785 8.69 8.678 8.738 8.803 8.87 8.937 9.003 9.118 9.302 9.487 9.567 9.472 9.295 9.135 8.985 8.835 8.723
8.745 8.718 8.73 8.775 8.817 8.855 8.872 8.865 8.863 8.85 8.813 8.778 8.765 8.768 8.793 8.832 8.87 8.912 8.96 9.01 9.06 9.11 9.15 9.14 9.098 9.075 9.058 9.032 8.967 8.825 8.753 8.777 8.787 8.795 8.792 8.773 8.758 8.783 8.858 8.955 9.022 9.03 9.013 8.997 8.97 8.925 8.867 8.803 8.75 8.735 8.738 8.755 8.793 8.845 8.883 8.888 8.898 8.912 8.885 8.82 8.768 8.735 8.725 8.72 8.708 8.705 8.71 8.715 8.743 8.782 8.765 8.713 8.688 8.688 8.7 8.667 8.608 8.598 8.625 8.65 8.667 8.68 8.69 8.703 8.718 8.733 8.748 8.765 8.8 8.83 8.842 8.855 8.857 8.858 8.88 8.912 8.935 8.947 8.955 8.962 8.952 8.91 8.863 8.83 8.792 8.745 8.723 8.73 8.743 8.757 8.773 8.795 8.812 8.802 8.79 8.78 8.757 8.728 8.728 8.77 8.84 8.922 8.98 9.02 9.05 9.067 9.033 9.005 9.05 9.115 9.18 9.177 9.1 9.015 8.943 8.883 8.863 8.91 8.915 8.83 8.73 8.663 8.675 8.745 8.82 8.89 8.945 8.97 8.988 9.002 9.013 9.028 9.05 9.082 9.097 9.065 9.008 8.963 8.93 8.913 8.91 8.91 8.928 8.97 9.02 9.06 9.05 9 8.958 8.933 8.918 8.918 8.955 9.01 9.015 8.98 8.963 8.96 8.96 8.958 8.955 8.922 8.86 8.783 8.745 8.79 8.855 8.915 8.962 8.998 9.1 9.257 9.38 9.47 9.462 9.312 9.118 8.935 8.763 8.648
8.84 8.783 8.765 8.793 8.832 8.867 8.89 8.902 8.907 8.885 8.845 8.803 8.77 8.763 8.785 8.817 8.848 8.888 8.935 8.983 9.03 9.08 9.12 9.112 9.068 9.025 8.99 8.963 8.935 8.885 8.832 8.82 8.827 8.832 8.825 8.805 8.783 8.775 8.828 8.923 9.015 9.072 9.077 9.055 9.017 8.97 8.912 8.842 8.765 8.718 8.728 8.785 8.862 8.937 8.982 8.982 8.97 8.96 8.922 8.857 8.795 8.738 8.7 8.678 8.663 8.665 8.673 8.683 8.695 8.71 8.713 8.71 8.725 8.74 8.752 8.727 8.65 8.62 8.65 8.675 8.695 8.71 8.72 8.73 8.745 8.76 8.773 8.793 8.83 8.872 8.887 8.88 8.865 8.873 8.913 8.955 8.992 9.017 9.035 9.047 9.025 8.968 8.918 8.88 8.835 8.785 8.758 8.76 8.77 8.782 8.795 8.805 8.8 8.783 8.773 8.765 8.755 8.733 8.735 8.775 8.828 8.89 8.945 9 9.05 9.087 9.1 9.122 9.177 9.23 9.245 9.195 9.11 9.025 8.95 8.92 8.97 9.035 9.005 8.9 8.792 8.703 8.693 8.765 8.853 8.917 8.935 8.928 8.933 8.94 8.953 8.978 9.005 9.037 9.06 9.035 8.975 8.92 8.893 8.895 8.902 8.908 8.928 8.975 9.032 9.072 9.06 9.01 8.96 8.923 8.913 8.945 9.005 9.06 9.065 9.025 8.99 8.973 8.97 8.973 8.967 8.942 8.905 8.855 8.818 8.837 8.88 8.91 8.93 8.938 9.01 9.13 9.225 9.317 9.395 9.365 9.195 8.978 8.773 8.63
8.957 8.873 8.818 8.818 8.85 8.887 8.917 8.94 8.942 8.915 8.875 8.835 8.795 8.765 8.773 8.8 8.825 8.865 8.912 8.958 9.005 9.052 9.09 9.092 9.06 9.01 8.958 8.918 8.885 8.855 8.822 8.805 8.81 8.825 8.84 8.832 8.81 8.79 8.825 8.913 9 9.085 9.122 9.092 9.037 8.98 8.91 8.827 8.75 8.713 8.745 8.82 8.9 8.98 9.032 9.04 9.025 8.997 8.947 8.882 8.817 8.75 8.695 8.66 8.648 8.658 8.67 8.685 8.698 8.705 8.718 8.735 8.76 8.785 8.805 8.79 8.71 8.658 8.675 8.702 8.722 8.737 8.75 8.76 8.773 8.787 8.8 8.82 8.852 8.887 8.892 8.868 8.863 8.9 8.955 9.002 9.04 9.07 9.1 9.117 9.087 9.02 8.967 8.925 8.875 8.828 8.788 8.773 8.78 8.79 8.8 8.807 8.8 8.783 8.77 8.76 8.753 8.74 8.75 8.79 8.833 8.883 8.935 8.988 9.045 9.11 9.16 9.195 9.24 9.285 9.275 9.205 9.12 9.035 8.973 8.988 9.072 9.115 9.052 8.937 8.833 8.763 8.763 8.83 8.91 8.952 8.955 8.945 8.93 8.918 8.925 8.945 8.965 8.99 9.017 9.002 8.945 8.89 8.865 8.87 8.88 8.893 8.925 8.98 9.04 9.08 9.065 9.015 8.965 8.915 8.905 8.952 9.012 9.065 9.092 9.075 9.035 9.008 9 9.005 8.982 8.928 8.89 8.867 8.847 8.85 8.862 8.87 8.88 8.888 8.935 9.018 9.093 9.17 9.255 9.317 9.262 9.087 8.898 8.745
9.042 8.958 8.895 8.868 8.875 8.91 8.94 8.96 8.965 8.94 8.9 8.86 8.82 8.783 8.768 8.78 8.805 8.843 8.888 8.935 8.982 9.027 9.062 9.072 9.052 9.007 8.95 8.893 8.85 8.817 8.78 8.748 8.74 8.768 8.82 8.847 8.832 8.813 8.85 8.935 9.015 9.097 9.13 9.075 8.997 8.93 8.85 8.765 8.718 8.72 8.753 8.815 8.895 8.98 9.037 9.05 9.045 9.017 8.96 8.892 8.825 8.758 8.705 8.678 8.673 8.685 8.7 8.712 8.72 8.723 8.728 8.738 8.765 8.8 8.827 8.83 8.772 8.708 8.703 8.727 8.747 8.765 8.78 8.79 8.8 8.812 8.807 8.815 8.847 8.87 8.87 8.858 8.883 8.938 8.993 9.047 9.09 9.12 9.15 9.157 9.112 9.047 9.002 8.962 8.917 8.872 8.82 8.778 8.768 8.775 8.785 8.802 8.812 8.8 8.785 8.775 8.763 8.75 8.765 8.805 8.848 8.898 8.953 9.013 9.085 9.165 9.215 9.23 9.255 9.295 9.285 9.215 9.135 9.068 9.028 9.033 9.095 9.132 9.065 8.958 8.88 8.835 8.835 8.895 8.957 8.98 8.977 8.965 8.952 8.938 8.935 8.945 8.955 8.965 8.975 8.962 8.915 8.86 8.835 8.84 8.85 8.865 8.908 8.972 9.037 9.085 9.075 9.022 8.967 8.91 8.88 8.91 8.965 9.015 9.065 9.092 9.08 9.05 9.038 9.032 8.985 8.913 8.87 8.85 8.84 8.84 8.843 8.85 8.86 8.873 8.913 8.975 9.035 9.095 9.165 9.232 9.25 9.195 9.08 8.94
9.087 9.035 8.985 8.945 8.92 8.933 8.96 8.977 8.982 8.962 8.925 8.885 8.845 8.81 8.785 8.778 8.79 8.82 8.865 8.912 8.958 9.005 9.037 9.045 9.037 9.005 8.95 8.885 8.825 8.78 8.74 8.7 8.678 8.703 8.77 8.835 8.852 8.84 8.88 8.965 9.045 9.125 9.13 9.038 8.935 8.858 8.78 8.723 8.72 8.74 8.763 8.813 8.893 8.985 9.042 9.047 9.04 9.015 8.962 8.897 8.83 8.763 8.715 8.703 8.705 8.713 8.725 8.735 8.74 8.74 8.743 8.745 8.76 8.79 8.82 8.83 8.802 8.755 8.74 8.758 8.775 8.795 8.81 8.82 8.815 8.792 8.755 8.76 8.815 8.85 8.858 8.873 8.92 8.975 9.03 9.087 9.137 9.175 9.202 9.182 9.11 9.053 9.02 8.985 8.947 8.907 8.86 8.807 8.768 8.755 8.763 8.785 8.81 8.815 8.805 8.792 8.778 8.765 8.78 8.82 8.863 8.915 8.983 9.063 9.148 9.232 9.285 9.29 9.29 9.31 9.295 9.235 9.18 9.138 9.108 9.085 9.095 9.125 9.08 8.998 8.95 8.915 8.908 8.95 8.992 9.005 9.002 8.988 8.975 8.96 8.943 8.932 8.927 8.92 8.91 8.897 8.872 8.83 8.805 8.81 8.823 8.838 8.88 8.952 9.025 9.087 9.087 9.03 8.967 8.905 8.858 8.86 8.905 8.955 9.005 9.055 9.087 9.085 9.072 9.042 8.975 8.898 8.853 8.843 8.84 8.84 8.842 8.847 8.853 8.865 8.905 8.955 8.995 9.035 9.08 9.115 9.14 9.165 9.147 9.092
9.12 9.115 9.072 9.03 8.987 8.968 8.98 8.995 8.992 8.97 8.94 8.91 8.875 8.84 8.817 8.802 8.79 8.803 8.843 8.888 8.935 8.985 9.012 9.015 9.015 8.997 8.947 8.87 8.793 8.748 8.713 8.665 8.625 8.64 8.71 8.79 8.85 8.868 8.908 8.99 9.07 9.147 9.132 9.02 8.9 8.798 8.733 8.72 8.74 8.76 8.78 8.82 8.898 8.995 9.04 9.027 9.01 8.987 8.95 8.895 8.832 8.765 8.728 8.727 8.732 8.737 8.745 8.755 8.76 8.76 8.76 8.76 8.765 8.783 8.805 8.805 8.793 8.78 8.78 8.795 8.808 8.822 8.825 8.807 8.768 8.715 8.678 8.7 8.77 8.825 8.86 8.902 8.957 9.012 9.07 9.125 9.18 9.227 9.242 9.192 9.107 9.045 9.002 8.965 8.927 8.89 8.855 8.817 8.777 8.748 8.743 8.765 8.795 8.812 8.81 8.8 8.792 8.785 8.798 8.832 8.87 8.937 9.035 9.13 9.215 9.3 9.355 9.36 9.35 9.34 9.32 9.29 9.257 9.222 9.192 9.167 9.145 9.142 9.115 9.065 9.03 8.995 8.98 8.995 9.015 9.025 9.025 9.01 8.995 8.982 8.953 8.91 8.868 8.835 8.82 8.81 8.8 8.783 8.773 8.78 8.795 8.813 8.855 8.927 9 9.062 9.062 9.007 8.95 8.892 8.84 8.823 8.848 8.89 8.94 8.99 9.04 9.077 9.087 9.05 8.978 8.905 8.863 8.85 8.84 8.835 8.837 8.842 8.845 8.845 8.852 8.863 8.875 8.895 8.917 8.942 8.97 9 9.03 9.06
9.155 9.152 9.11 9.065 9.022 8.995 8.998 9.005 8.985 8.95 8.925 8.905 8.88 8.85 8.83 8.815 8.79 8.785 8.818 8.865 8.915 8.962 8.985 8.985 8.985 8.962 8.897 8.8 8.733 8.727 8.71 8.655 8.605 8.62 8.69 8.76 8.83 8.88 8.935 9.015 9.095 9.16 9.125 9.005 8.888 8.783 8.738 8.75 8.77 8.79 8.81 8.84 8.908 8.997 9.025 8.998 8.973 8.95 8.925 8.882 8.822 8.763 8.738 8.742 8.75 8.757 8.765 8.775 8.78 8.78 8.78 8.78 8.78 8.785 8.793 8.79 8.788 8.8 8.82 8.835 8.845 8.85 8.837 8.798 8.745 8.698 8.673 8.698 8.76 8.823 8.868 8.907 8.95 9.002 9.067 9.13 9.192 9.252 9.237 9.15 9.085 9.027 8.963 8.913 8.87 8.83 8.8 8.775 8.75 8.743 8.738 8.743 8.77 8.787 8.787 8.785 8.785 8.787 8.795 8.815 8.845 8.917 9.032 9.145 9.25 9.352 9.41 9.4 9.372 9.345 9.33 9.325 9.307 9.282 9.255 9.225 9.195 9.162 9.127 9.095 9.062 9.03 9.005 9.002 9.02 9.037 9.042 9.032 9.018 9.005 8.975 8.92 8.858 8.813 8.775 8.748 8.74 8.735 8.74 8.753 8.768 8.785 8.833 8.9 8.957 9.002 8.995 8.945 8.897 8.85 8.805 8.788 8.795 8.823 8.87 8.92 8.967 9.015 9.057 9.057 9.005 8.938 8.898 8.872 8.838 8.823 8.825 8.827 8.83 8.82 8.795 8.77 8.758 8.753 8.753 8.768 8.798 8.833 8.875 8.923
9.177 9.142 9.097 9.053 9.02 9.01 9.012 9 8.96 8.918 8.89 8.87 8.847 8.82 8.805 8.797 8.777 8.765 8.79 8.842 8.892 8.932 8.952 8.955 8.932 8.872 8.79 8.7 8.668 8.7 8.705 8.663 8.63 8.67 8.743 8.8 8.855 8.903 8.963 9.04 9.12 9.165 9.11 8.995 8.895 8.81 8.778 8.795 8.815 8.835 8.855 8.878 8.928 8.995 9.01 8.978 8.945 8.915 8.89 8.86 8.808 8.76 8.748 8.755 8.765 8.775 8.785 8.795 8.8 8.798 8.798 8.8 8.8 8.798 8.795 8.798 8.81 8.835 8.86 8.875 8.885 8.882 8.865 8.837 8.797 8.753 8.73 8.75 8.8 8.853 8.885 8.908 8.935 8.973 9.018 9.065 9.125 9.195 9.172 9.09 9.058 9.015 8.943 8.873 8.818 8.775 8.743 8.72 8.728 8.78 8.788 8.745 8.743 8.755 8.755 8.76 8.768 8.777 8.78 8.78 8.798 8.86 8.97 9.092 9.212 9.322 9.39 9.38 9.338 9.315 9.31 9.312 9.31 9.295 9.27 9.235 9.195 9.145 9.1 9.07 9.04 9.01 8.98 8.975 8.997 9.025 9.045 9.05 9.04 9.025 8.995 8.94 8.893 8.867 8.808 8.735 8.713 8.708 8.71 8.725 8.743 8.76 8.803 8.855 8.895 8.93 8.92 8.87 8.828 8.793 8.765 8.755 8.755 8.765 8.798 8.845 8.89 8.933 8.987 9.037 9.032 8.975 8.933 8.895 8.835 8.808 8.81 8.812 8.815 8.803 8.775 8.745 8.718 8.695 8.68 8.683 8.708 8.745 8.798 8.86
9.17 9.128 9.083 9.045 9.028 9.025 9.015 8.98 8.93 8.885 8.855 8.83 8.8 8.77 8.76 8.762 8.755 8.743 8.76 8.815 8.867 8.902 8.915 8.892 8.828 8.75 8.685 8.643 8.635 8.66 8.687 8.67 8.673 8.75 8.825 8.872 8.91 8.94 8.99 9.065 9.142 9.167 9.102 9.005 8.923 8.85 8.825 8.845 8.865 8.885 8.905 8.925 8.955 8.995 8.997 8.962 8.927 8.893 8.86 8.832 8.793 8.76 8.76 8.77 8.782 8.795 8.805 8.815 8.817 8.813 8.813 8.815 8.815 8.81 8.808 8.82 8.842 8.87 8.897 8.917 8.922 8.91 8.892 8.875 8.847 8.808 8.788 8.813 8.868 8.92 8.945 8.955 8.973 8.995 9.015 9.038 9.073 9.118 9.108 9.065 9.045 9.007 8.94 8.86 8.788 8.728 8.7 8.72 8.788 8.88 8.882 8.795 8.738 8.73 8.737 8.747 8.76 8.77 8.77 8.76 8.76 8.805 8.905 9.017 9.122 9.22 9.302 9.322 9.298 9.29 9.29 9.295 9.297 9.287 9.262 9.22 9.167 9.113 9.07 9.04 9.007 8.975 8.945 8.94 8.96 8.995 9.027 9.042 9.047 9.042 9.017 8.978 8.955 8.947 8.885 8.775 8.705 8.68 8.683 8.698 8.718 8.748 8.78 8.805 8.83 8.858 8.85 8.81 8.775 8.75 8.733 8.725 8.725 8.733 8.758 8.783 8.808 8.845 8.9 8.97 9.02 9.007 8.965 8.912 8.84 8.798 8.79 8.795 8.8 8.8 8.79 8.77 8.753 8.74 8.73 8.73 8.753 8.788 8.828 8.875
9.155 9.115 9.075 9.05 9.04 9.037 9.015 8.965 8.915 8.868 8.83 8.795 8.76 8.73 8.718 8.72 8.72 8.715 8.733 8.785 8.842 8.87 8.852 8.803 8.738 8.683 8.658 8.67 8.675 8.67 8.678 8.673 8.72 8.822 8.89 8.922 8.947 8.972 9.015 9.085 9.16 9.177 9.12 9.04 8.96 8.89 8.87 8.89 8.912 8.935 8.955 8.975 8.995 9 8.977 8.942 8.907 8.875 8.84 8.807 8.778 8.763 8.772 8.785 8.797 8.81 8.82 8.83 8.833 8.83 8.83 8.828 8.828 8.825 8.823 8.84 8.865 8.89 8.917 8.942 8.947 8.932 8.917 8.9 8.88 8.853 8.85 8.898 8.975 9.037 9.055 9.055 9.06 9.073 9.085 9.095 9.11 9.133 9.123 9.083 9.048 9.005 8.94 8.863 8.788 8.723 8.723 8.798 8.892 8.977 8.957 8.842 8.75 8.71 8.71 8.722 8.737 8.755 8.757 8.745 8.735 8.76 8.843 8.94 9.033 9.125 9.215 9.265 9.27 9.27 9.273 9.278 9.28 9.277 9.25 9.195 9.135 9.078 9.035 9.005 8.973 8.94 8.91 8.903 8.923 8.965 9.002 9.02 9.035 9.045 9.047 9.042 9.035 9.03 8.972 8.855 8.743 8.668 8.655 8.685 8.728 8.77 8.795 8.805 8.818 8.833 8.823 8.785 8.748 8.715 8.698 8.7 8.708 8.73 8.77 8.788 8.788 8.795 8.83 8.893 8.96 9.005 8.99 8.928 8.853 8.793 8.77 8.77 8.775 8.797 8.822 8.832 8.832 8.825 8.815 8.82 8.847 8.88 8.91 8.925
9.145 9.103 9.068 9.05 9.043 9.057 9.052 9.005 8.955 8.905 8.86 8.82 8.785 8.75 8.723 8.715 8.715 8.715 8.725 8.76 8.815 8.837 8.805 8.758 8.715 8.698 8.715 8.747 8.762 8.75 8.725 8.705 8.763 8.867 8.922 8.947 8.97 8.972 8.985 9.042 9.11 9.13 9.09 9.025 8.957 8.907 8.907 8.935 8.957 8.98 8.997 9.015 9.032 9.015 8.96 8.913 8.877 8.845 8.812 8.778 8.755 8.758 8.772 8.787 8.8 8.81 8.822 8.84 8.865 8.878 8.88 8.885 8.882 8.86 8.823 8.815 8.837 8.865 8.89 8.917 8.94 8.94 8.925 8.905 8.89 8.883 8.91 9.005 9.117 9.177 9.19 9.19 9.19 9.192 9.195 9.192 9.192 9.2 9.177 9.122 9.07 9.023 8.963 8.888 8.818 8.775 8.808 8.9 8.992 9.04 8.98 8.85 8.758 8.71 8.683 8.675 8.688 8.712 8.717 8.705 8.708 8.753 8.835 8.925 9.015 9.105 9.195 9.248 9.253 9.255 9.265 9.27 9.27 9.267 9.232 9.17 9.107 9.045 9 8.97 8.94 8.91 8.88 8.868 8.89 8.94 8.98 8.997 9.012 9.028 9.06 9.097 9.107 9.105 9.047 8.93 8.805 8.705 8.675 8.715 8.78 8.822 8.84 8.85 8.858 8.865 8.855 8.815 8.77 8.718 8.683 8.688 8.71 8.75 8.8 8.84 8.845 8.825 8.843 8.9 8.963 9.027 9.027 8.96 8.877 8.788 8.743 8.738 8.75 8.785 8.822 8.855 8.877 8.887 8.892 8.902 8.907 8.905 8.905 8.885
9.135 9.09 9.055 9.04 9.043 9.077 9.107 9.085 9.033 8.983 8.94 8.903 8.867 8.827 8.78 8.75 8.745 8.745 8.745 8.755 8.79 8.817 8.797 8.755 8.738 8.758 8.792 8.825 8.85 8.85 8.822 8.785 8.813 8.895 8.94 8.957 8.955 8.92 8.903 8.945 9 9.017 8.99 8.937 8.885 8.853 8.887 8.957 8.995 9.015 9.033 9.047 9.055 9.035 8.97 8.893 8.843 8.808 8.775 8.743 8.73 8.745 8.76 8.773 8.787 8.8 8.813 8.845 8.915 8.965 8.98 8.982 8.955 8.9 8.83 8.778 8.775 8.805 8.833 8.863 8.895 8.915 8.915 8.91 8.913 8.923 8.95 9.052 9.205 9.285 9.295 9.292 9.285 9.277 9.272 9.262 9.25 9.24 9.205 9.148 9.098 9.055 9.002 8.933 8.875 8.858 8.905 8.997 9.055 9.047 8.965 8.845 8.77 8.73 8.69 8.655 8.638 8.645 8.653 8.658 8.698 8.78 8.875 8.967 9.06 9.15 9.24 9.275 9.245 9.233 9.247 9.257 9.265 9.265 9.225 9.147 9.06 8.987 8.952 8.935 8.907 8.875 8.845 8.833 8.86 8.917 8.957 8.972 8.987 9 9.04 9.112 9.16 9.165 9.1 8.988 8.888 8.813 8.765 8.778 8.837 8.872 8.885 8.895 8.9 8.905 8.905 8.875 8.827 8.747 8.685 8.69 8.725 8.775 8.825 8.875 8.902 8.895 8.915 8.977 9.042 9.095 9.07 8.982 8.885 8.775 8.71 8.705 8.73 8.77 8.807 8.845 8.88 8.907 8.92 8.897 8.855 8.82 8.79 8.755
9.123 9.078 9.045 9.035 9.053 9.095 9.155 9.165 9.11 9.06 9.02 8.985 8.95 8.91 8.858 8.803 8.778 8.775 8.775 8.775 8.785 8.805 8.795 8.778 8.798 8.833 8.868 8.903 8.935 8.945 8.917 8.873 8.873 8.92 8.947 8.937 8.9 8.853 8.823 8.845 8.887 8.902 8.88 8.83 8.78 8.748 8.798 8.905 8.99 9.042 9.07 9.08 9.072 9.055 9 8.905 8.825 8.773 8.735 8.713 8.715 8.733 8.748 8.76 8.773 8.785 8.795 8.843 8.945 9.042 9.077 9.05 8.995 8.93 8.86 8.785 8.738 8.745 8.775 8.808 8.845 8.885 8.912 8.932 8.955 8.975 8.993 9.05 9.192 9.297 9.31 9.307 9.297 9.287 9.28 9.27 9.26 9.247 9.215 9.167 9.125 9.085 9.037 8.985 8.953 8.953 9.005 9.062 9.057 9.025 8.947 8.848 8.79 8.75 8.71 8.67 8.63 8.605 8.605 8.645 8.725 8.82 8.915 9.01 9.105 9.195 9.285 9.312 9.25 9.205 9.213 9.227 9.237 9.225 9.162 9.062 8.955 8.885 8.87 8.87 8.86 8.837 8.81 8.798 8.83 8.892 8.932 8.948 8.96 8.973 9.013 9.095 9.18 9.21 9.16 9.08 9.017 8.965 8.908 8.873 8.893 8.917 8.925 8.935 8.94 8.945 8.952 8.935 8.872 8.763 8.688 8.7 8.745 8.795 8.848 8.9 8.945 8.96 8.985 9.05 9.107 9.125 9.07 8.967 8.862 8.755 8.68 8.675 8.71 8.75 8.79 8.83 8.867 8.9 8.892 8.825 8.745 8.693 8.658 8.623
9.11 9.063 9.033 9.038 9.068 9.11 9.185 9.225 9.187 9.14 9.1 9.065 9.03 8.99 8.94 8.878 8.83 8.815 8.813 8.81 8.81 8.818 8.825 8.845 8.88 8.915 8.95 8.985 9.02 9.03 9.002 8.957 8.933 8.932 8.92 8.88 8.833 8.788 8.748 8.745 8.77 8.788 8.773 8.725 8.683 8.663 8.715 8.823 8.933 9.03 9.087 9.1 9.087 9.072 9.022 8.932 8.84 8.758 8.703 8.69 8.705 8.723 8.74 8.755 8.763 8.77 8.78 8.833 8.932 9.037 9.072 9.027 8.972 8.92 8.862 8.792 8.723 8.703 8.735 8.778 8.825 8.872 8.91 8.942 8.975 9.002 9.027 9.06 9.158 9.252 9.27 9.267 9.262 9.26 9.255 9.25 9.245 9.235 9.21 9.172 9.135 9.097 9.065 9.047 9.04 9.045 9.072 9.07 9.035 9.005 8.935 8.855 8.81 8.77 8.73 8.69 8.647 8.6 8.58 8.65 8.762 8.86 8.955 9.05 9.145 9.237 9.33 9.35 9.27 9.195 9.177 9.177 9.162 9.12 9.032 8.92 8.818 8.77 8.77 8.775 8.78 8.778 8.768 8.765 8.805 8.87 8.91 8.925 8.938 8.953 8.99 9.068 9.165 9.232 9.207 9.15 9.117 9.085 9.052 9 8.96 8.957 8.962 8.97 8.977 8.985 8.993 8.982 8.913 8.793 8.71 8.715 8.765 8.817 8.872 8.925 8.975 9.012 9.047 9.095 9.13 9.107 9.032 8.937 8.832 8.728 8.65 8.635 8.66 8.695 8.735 8.775 8.812 8.845 8.825 8.752 8.667 8.588 8.53 8.503
9.1 9.05 9.028 9.05 9.085 9.125 9.2 9.27 9.265 9.22 9.183 9.147 9.11 9.072 9.022 8.96 8.903 8.873 8.868 8.865 8.865 8.883 8.918 8.953 8.988 9.025 9.06 9.085 9.097 9.087 9.055 9.015 8.972 8.93 8.888 8.843 8.798 8.755 8.723 8.7 8.698 8.713 8.71 8.683 8.653 8.64 8.695 8.803 8.908 9.015 9.09 9.105 9.095 9.08 9.03 8.945 8.855 8.765 8.703 8.693 8.71 8.73 8.75 8.765 8.773 8.78 8.78 8.803 8.875 8.965 8.987 8.94 8.895 8.862 8.822 8.763 8.713 8.7 8.728 8.775 8.822 8.865 8.9 8.935 8.972 9.005 9.035 9.065 9.13 9.205 9.23 9.225 9.22 9.22 9.215 9.207 9.202 9.197 9.175 9.14 9.107 9.08 9.068 9.075 9.085 9.087 9.077 9.047 9.015 8.985 8.932 8.873 8.827 8.785 8.742 8.697 8.65 8.582 8.543 8.625 8.77 8.892 8.995 9.087 9.182 9.277 9.365 9.367 9.275 9.175 9.115 9.082 9.047 8.99 8.895 8.79 8.73 8.725 8.73 8.733 8.735 8.74 8.745 8.758 8.803 8.87 8.915 8.93 8.945 8.965 8.998 9.055 9.138 9.227 9.225 9.153 9.098 9.065 9.05 9.002 8.95 8.94 8.947 8.953 8.973 9.01 9.048 9.08 9.05 8.943 8.828 8.765 8.78 8.832 8.887 8.94 8.99 9.037 9.075 9.102 9.11 9.065 8.987 8.9 8.797 8.693 8.623 8.605 8.61 8.625 8.645 8.668 8.698 8.722 8.697 8.633 8.56 8.483 8.423 8.423
9.1 9.053 9.04 9.068 9.103 9.143 9.215 9.307 9.335 9.3 9.265 9.23 9.193 9.157 9.107 9.043 8.98 8.943 8.935 8.935 8.95 8.995 9.045 9.08 9.115 9.147 9.162 9.16 9.145 9.12 9.085 9.042 8.987 8.928 8.88 8.838 8.798 8.77 8.752 8.715 8.688 8.693 8.698 8.695 8.677 8.663 8.715 8.825 8.93 9.035 9.1 9.105 9.095 9.082 9.032 8.945 8.86 8.785 8.738 8.73 8.743 8.755 8.773 8.79 8.8 8.8 8.782 8.77 8.808 8.885 8.9 8.855 8.82 8.795 8.767 8.735 8.722 8.725 8.737 8.772 8.815 8.855 8.89 8.925 8.965 9 9.032 9.063 9.1 9.157 9.19 9.185 9.18 9.177 9.17 9.163 9.157 9.15 9.127 9.095 9.07 9.058 9.055 9.065 9.077 9.072 9.052 9.025 8.995 8.968 8.93 8.882 8.835 8.787 8.74 8.69 8.627 8.535 8.485 8.57 8.748 8.915 9.03 9.12 9.21 9.287 9.35 9.337 9.24 9.13 9.03 8.963 8.925 8.862 8.768 8.71 8.72 8.75 8.76 8.76 8.76 8.765 8.773 8.79 8.828 8.89 8.942 8.96 8.98 9.013 9.045 9.078 9.128 9.207 9.237 9.167 9.068 8.99 8.94 8.893 8.868 8.888 8.928 8.968 9.018 9.088 9.16 9.235 9.267 9.19 9.045 8.91 8.833 8.84 8.892 8.945 8.995 9.037 9.07 9.095 9.08 9.015 8.94 8.86 8.762 8.658 8.6 8.595 8.595 8.595 8.595 8.598 8.608 8.62 8.6 8.55 8.498 8.445 8.413 8.445
9.117 9.075 9.068 9.093 9.123 9.16 9.23 9.33 9.39 9.38 9.345 9.31 9.275 9.24 9.19 9.128 9.065 9.02 9.005 9.018 9.063 9.125 9.175 9.207 9.225 9.227 9.215 9.195 9.175 9.15 9.112 9.06 8.998 8.933 8.878 8.84 8.818 8.805 8.79 8.745 8.698 8.688 8.692 8.697 8.695 8.685 8.735 8.845 8.95 9.052 9.107 9.105 9.095 9.085 9.035 8.953 8.883 8.823 8.785 8.783 8.795 8.8 8.808 8.82 8.82 8.8 8.778 8.76 8.76 8.802 8.812 8.778 8.755 8.738 8.712 8.687 8.682 8.687 8.695 8.74 8.8 8.84 8.877 8.915 8.955 8.992 9.027 9.055 9.078 9.12 9.15 9.145 9.137 9.13 9.123 9.117 9.11 9.1 9.083 9.063 9.053 9.048 9.045 9.052 9.057 9.045 9.027 9.005 8.978 8.963 8.935 8.883 8.83 8.78 8.73 8.67 8.582 8.475 8.425 8.515 8.745 8.952 9.057 9.132 9.197 9.252 9.295 9.275 9.185 9.08 8.965 8.863 8.805 8.743 8.685 8.695 8.738 8.777 8.797 8.8 8.803 8.81 8.82 8.84 8.873 8.92 8.967 8.995 9.025 9.067 9.102 9.128 9.155 9.2 9.245 9.205 9.098 8.993 8.91 8.868 8.875 8.93 9.003 9.075 9.145 9.22 9.295 9.367 9.397 9.335 9.23 9.12 8.992 8.898 8.898 8.95 8.995 9.03 9.06 9.077 9.042 8.965 8.89 8.815 8.725 8.63 8.585 8.585 8.585 8.582 8.577 8.572 8.563 8.595 8.615 8.578 8.54 8.5 8.498 8.56
9.122 9.085 9.085 9.115 9.145 9.178 9.243 9.34 9.417 9.427 9.397 9.367 9.335 9.307 9.267 9.212 9.152 9.098 9.088 9.128 9.187 9.25 9.287 9.292 9.28 9.26 9.237 9.215 9.195 9.175 9.137 9.078 9.015 8.95 8.9 8.88 8.868 8.855 8.835 8.785 8.72 8.688 8.688 8.695 8.7 8.7 8.755 8.865 8.972 9.067 9.107 9.1 9.093 9.087 9.047 8.98 8.923 8.868 8.833 8.835 8.85 8.857 8.86 8.86 8.845 8.813 8.785 8.765 8.745 8.745 8.743 8.723 8.71 8.692 8.65 8.598 8.575 8.58 8.593 8.67 8.77 8.82 8.863 8.905 8.945 8.985 9.02 9.045 9.067 9.095 9.107 9.1 9.09 9.083 9.077 9.07 9.06 9.055 9.05 9.045 9.045 9.042 9.04 9.037 9.03 9.015 8.998 8.98 8.97 8.977 8.957 8.895 8.83 8.775 8.715 8.63 8.528 8.42 8.368 8.5 8.785 8.977 9.047 9.102 9.15 9.2 9.235 9.205 9.122 9.027 8.913 8.79 8.703 8.663 8.673 8.718 8.763 8.808 8.835 8.842 8.85 8.86 8.87 8.892 8.927 8.962 9 9.04 9.08 9.122 9.157 9.182 9.207 9.233 9.267 9.25 9.17 9.09 9.02 8.97 8.975 9.04 9.115 9.185 9.255 9.33 9.405 9.445 9.395 9.295 9.227 9.17 9.085 8.985 8.938 8.958 8.99 9.02 9.05 9.052 8.998 8.918 8.843 8.765 8.683 8.608 8.575 8.57 8.562 8.555 8.542 8.53 8.53 8.617 8.68 8.642 8.602 8.57 8.6 8.685
9.105 9.075 9.085 9.117 9.152 9.19 9.248 9.332 9.412 9.432 9.41 9.388 9.368 9.357 9.33 9.28 9.222 9.173 9.183 9.237 9.29 9.322 9.315 9.287 9.265 9.242 9.217 9.195 9.167 9.157 9.155 9.115 9.055 8.993 8.958 8.952 8.943 8.93 8.9 8.84 8.775 8.738 8.735 8.743 8.748 8.748 8.788 8.885 8.995 9.08 9.11 9.11 9.113 9.112 9.08 9.023 8.967 8.91 8.875 8.883 8.902 8.915 8.92 8.912 8.89 8.855 8.82 8.795 8.767 8.728 8.7 8.69 8.675 8.64 8.58 8.515 8.475 8.47 8.49 8.583 8.72 8.802 8.847 8.89 8.93 8.985 9.02 9.028 9.047 9.065 9.062 9.053 9.045 9.037 9.03 9.02 9.013 9.018 9.03 9.037 9.037 9.035 9.035 9.025 9.01 8.998 8.98 8.97 8.98 9 8.98 8.915 8.855 8.805 8.73 8.623 8.513 8.4 8.338 8.495 8.8 8.96 9 9.05 9.1 9.15 9.177 9.137 9.055 8.983 8.888 8.765 8.685 8.688 8.735 8.785 8.83 8.862 8.87 8.872 8.887 8.9 8.91 8.93 8.955 8.977 9.012 9.06 9.112 9.162 9.202 9.23 9.255 9.28 9.292 9.282 9.28 9.26 9.2 9.14 9.105 9.14 9.215 9.285 9.355 9.43 9.485 9.445 9.317 9.183 9.103 9.065 9.028 8.992 8.96 8.96 8.99 9.023 9.055 9.077 9.04 8.953 8.865 8.775 8.685 8.605 8.558 8.538 8.523 8.51 8.497 8.483 8.515 8.64 8.705 8.67 8.635 8.633 8.705 8.807
9.08 9.06 9.08 9.115 9.158 9.205 9.257 9.322 9.392 9.427 9.422 9.41 9.405 9.405 9.38 9.33 9.285 9.253 9.27 9.312 9.327 9.315 9.278 9.24 9.213 9.188 9.163 9.14 9.083 9.083 9.142 9.145 9.105 9.045 9.018 9.025 9.025 9.015 8.977 8.915 8.865 8.84 8.838 8.842 8.84 8.825 8.845 8.92 9.017 9.102 9.142 9.155 9.165 9.16 9.122 9.067 9.01 8.953 8.92 8.93 8.955 8.97 8.975 8.962 8.935 8.903 8.87 8.84 8.79 8.718 8.673 8.657 8.627 8.572 8.508 8.445 8.388 8.363 8.388 8.488 8.642 8.765 8.83 8.87 8.91 9.01 9.06 9.015 9.013 9.027 9.02 9.008 9 8.99 8.983 8.975 8.975 8.988 9.005 9.022 9.03 9.03 9.027 9.017 9.005 8.993 8.978 8.978 8.997 9.015 9.01 8.987 8.975 8.957 8.875 8.738 8.593 8.455 8.408 8.518 8.743 8.917 8.973 9.005 9.048 9.095 9.117 9.07 9 8.962 8.895 8.79 8.75 8.785 8.835 8.885 8.93 8.927 8.893 8.89 8.91 8.92 8.92 8.927 8.942 8.96 8.995 9.053 9.122 9.182 9.227 9.267 9.297 9.32 9.302 9.253 9.282 9.35 9.357 9.32 9.263 9.258 9.315 9.385 9.455 9.517 9.5 9.372 9.22 9.103 9.04 9.01 8.983 8.958 8.945 8.965 9.002 9.038 9.073 9.122 9.142 9.08 8.98 8.878 8.773 8.668 8.588 8.543 8.505 8.47 8.45 8.438 8.5 8.64 8.692 8.663 8.645 8.675 8.785 8.912
9.053 9.045 9.08 9.125 9.17 9.21 9.252 9.3 9.355 9.402 9.422 9.43 9.44 9.447 9.432 9.395 9.365 9.34 9.332 9.332 9.307 9.275 9.24 9.2 9.163 9.133 9.107 9.06 8.983 9.015 9.11 9.14 9.14 9.1 9.075 9.09 9.102 9.092 9.053 9.005 8.97 8.948 8.942 8.94 8.92 8.895 8.915 8.978 9.053 9.14 9.195 9.21 9.22 9.207 9.165 9.11 9.052 8.998 8.968 8.98 9.005 9.022 9.025 9.007 8.98 8.95 8.915 8.865 8.79 8.705 8.65 8.615 8.565 8.5 8.435 8.372 8.308 8.263 8.283 8.393 8.547 8.697 8.8 8.85 8.91 9.06 9.12 9.025 8.988 8.992 8.98 8.963 8.95 8.943 8.938 8.938 8.948 8.963 8.98 8.997 9.012 9.022 9.02 9.01 9.002 8.99 8.978 8.985 9.005 9.015 9.022 9.042 9.067 9.08 9.015 8.862 8.688 8.573 8.583 8.658 8.768 8.91 8.98 8.988 9.005 9.04 9.055 9.015 8.975 8.952 8.9 8.84 8.843 8.888 8.935 8.982 9.005 8.96 8.908 8.907 8.917 8.917 8.91 8.908 8.918 8.94 8.988 9.063 9.14 9.195 9.24 9.29 9.332 9.36 9.307 9.183 9.175 9.29 9.39 9.445 9.435 9.398 9.418 9.485 9.555 9.552 9.43 9.27 9.148 9.078 9.038 9.003 8.968 8.94 8.94 8.97 9.012 9.052 9.088 9.135 9.2 9.2 9.112 9.005 8.892 8.777 8.685 8.62 8.56 8.503 8.46 8.443 8.503 8.63 8.685 8.67 8.675 8.715 8.83 8.985
9.028 9.038 9.075 9.115 9.152 9.185 9.217 9.253 9.3 9.35 9.38 9.4 9.42 9.435 9.432 9.41 9.382 9.355 9.325 9.297 9.267 9.235 9.2 9.16 9.12 9.083 9.035 8.94 8.888 8.972 9.07 9.105 9.127 9.132 9.132 9.15 9.167 9.165 9.14 9.11 9.08 9.052 9.037 9.02 8.99 8.965 8.985 9.045 9.11 9.187 9.242 9.26 9.267 9.245 9.195 9.142 9.087 9.032 9 9.005 9.022 9.052 9.062 9.04 9.015 8.99 8.942 8.862 8.778 8.695 8.63 8.573 8.505 8.433 8.363 8.298 8.235 8.175 8.183 8.298 8.453 8.61 8.75 8.83 8.938 9.122 9.165 9.055 8.98 8.955 8.94 8.923 8.908 8.898 8.898 8.908 8.923 8.938 8.955 8.973 8.993 9.013 9.02 9.013 9 8.988 8.983 8.99 8.997 9.003 9.01 9.028 9.052 9.072 9.027 8.902 8.77 8.733 8.782 8.837 8.89 8.95 8.987 8.992 8.995 9.01 9.015 8.99 8.965 8.94 8.905 8.902 8.945 8.99 9.035 9.067 9.045 8.97 8.92 8.915 8.91 8.905 8.9 8.895 8.895 8.928 9.003 9.087 9.157 9.205 9.248 9.297 9.35 9.375 9.295 9.135 9.083 9.17 9.295 9.42 9.502 9.527 9.54 9.585 9.602 9.495 9.325 9.198 9.125 9.078 9.037 9 8.96 8.928 8.935 8.975 9.017 9.062 9.102 9.15 9.22 9.25 9.195 9.095 8.98 8.862 8.767 8.717 8.677 8.622 8.59 8.592 8.615 8.66 8.692 8.695 8.715 8.76 8.868 9.037
9 9.018 9.045 9.075 9.108 9.142 9.175 9.203 9.245 9.292 9.32 9.34 9.357 9.367 9.365 9.35 9.325 9.295 9.265 9.24 9.215 9.19 9.167 9.135 9.095 9.055 8.978 8.863 8.83 8.903 8.975 9.02 9.06 9.102 9.15 9.185 9.202 9.21 9.2 9.175 9.147 9.125 9.11 9.09 9.06 9.035 9.055 9.115 9.18 9.242 9.277 9.287 9.285 9.25 9.195 9.145 9.087 9.01 8.952 8.945 8.975 9.045 9.075 9.05 9.03 9.017 8.96 8.855 8.765 8.683 8.623 8.58 8.515 8.438 8.363 8.29 8.223 8.16 8.173 8.288 8.428 8.568 8.71 8.83 9 9.177 9.187 9.085 8.985 8.928 8.905 8.89 8.875 8.863 8.868 8.883 8.9 8.918 8.938 8.963 8.988 9.012 9.032 9.035 9.02 9.003 8.99 8.985 8.985 8.99 8.998 9.01 9.035 9.052 9.007 8.908 8.835 8.84 8.882 8.915 8.945 8.967 8.98 8.99 8.995 9 9.005 8.995 8.973 8.948 8.92 8.923 8.972 9.032 9.092 9.11 9.052 8.965 8.908 8.892 8.887 8.885 8.897 8.915 8.92 8.955 9.035 9.112 9.168 9.213 9.258 9.297 9.315 9.305 9.24 9.105 9.008 9.05 9.175 9.3 9.425 9.537 9.612 9.63 9.535 9.37 9.245 9.175 9.125 9.075 9.033 8.995 8.958 8.93 8.938 8.973 9.012 9.06 9.105 9.14 9.177 9.205 9.175 9.092 8.997 8.897 8.8 8.76 8.752 8.722 8.705 8.707 8.695 8.682 8.695 8.725 8.773 8.83 8.928 9.088
8.977 8.993 9.01 9.035 9.065 9.098 9.13 9.155 9.193 9.235 9.26 9.277 9.287 9.29 9.287 9.28 9.262 9.235 9.205 9.18 9.16 9.145 9.135 9.117 9.087 9.05 8.968 8.885 8.865 8.868 8.888 8.933 8.988 9.045 9.112 9.177 9.215 9.227 9.217 9.193 9.17 9.155 9.155 9.152 9.13 9.105 9.125 9.185 9.242 9.282 9.292 9.292 9.277 9.23 9.175 9.117 9.035 8.92 8.838 8.85 8.93 9.035 9.075 9.053 9.045 9.045 8.985 8.865 8.76 8.67 8.623 8.62 8.582 8.51 8.435 8.355 8.29 8.255 8.295 8.42 8.555 8.68 8.805 8.915 9.08 9.197 9.167 9.087 8.988 8.913 8.88 8.863 8.848 8.84 8.845 8.865 8.898 8.92 8.938 8.965 8.992 9.017 9.04 9.055 9.055 9.04 9.013 8.988 8.978 8.978 8.983 8.995 9.015 9.027 8.985 8.903 8.855 8.858 8.885 8.915 8.942 8.96 8.97 8.98 8.987 8.993 9.002 9.01 8.995 8.97 8.94 8.91 8.925 8.987 9.06 9.085 9.03 8.94 8.878 8.853 8.845 8.848 8.88 8.932 8.972 9.01 9.068 9.133 9.19 9.253 9.3 9.302 9.253 9.183 9.13 9.052 8.938 8.935 9.055 9.18 9.305 9.41 9.467 9.435 9.33 9.235 9.185 9.157 9.12 9.075 9.028 8.988 8.958 8.94 8.945 8.968 9 9.045 9.09 9.102 9.095 9.107 9.087 9.017 8.945 8.87 8.793 8.748 8.738 8.727 8.705 8.68 8.66 8.663 8.703 8.78 8.86 8.925 9.008 9.14
8.96 8.975 8.985 9.003 9.028 9.055 9.083 9.108 9.142 9.177 9.197 9.207 9.21 9.21 9.21 9.205 9.192 9.172 9.145 9.123 9.11 9.1 9.09 9.08 9.065 9.042 8.987 8.932 8.9 8.867 8.865 8.893 8.938 8.993 9.058 9.137 9.207 9.24 9.232 9.21 9.193 9.178 9.18 9.192 9.19 9.175 9.195 9.247 9.282 9.3 9.3 9.297 9.272 9.213 9.145 9.058 8.945 8.828 8.768 8.818 8.925 9.035 9.08 9.068 9.07 9.075 9.015 8.89 8.77 8.665 8.615 8.632 8.632 8.58 8.505 8.44 8.41 8.41 8.463 8.595 8.752 8.89 8.997 9.05 9.125 9.165 9.115 9.057 8.977 8.9 8.86 8.84 8.823 8.818 8.833 8.87 8.92 8.947 8.953 8.968 8.995 9.02 9.04 9.062 9.08 9.075 9.047 9.015 8.99 8.973 8.968 8.98 8.995 9.005 8.97 8.913 8.88 8.868 8.885 8.915 8.937 8.95 8.96 8.97 8.98 8.987 8.997 9.01 9.01 8.992 8.96 8.92 8.893 8.92 8.977 9.007 8.985 8.913 8.855 8.825 8.803 8.8 8.838 8.902 8.967 9.027 9.105 9.193 9.27 9.33 9.345 9.307 9.222 9.118 9.033 8.963 8.87 8.843 8.935 9.055 9.127 9.18 9.225 9.208 9.165 9.14 9.123 9.105 9.085 9.057 9.02 8.988 8.965 8.95 8.955 8.975 8.998 9.03 9.062 9.057 9.023 9.01 8.99 8.93 8.863 8.82 8.808 8.785 8.728 8.683 8.663 8.64 8.633 8.673 8.76 8.87 8.96 9.028 9.103 9.195
8.943 8.958 8.97 8.982 8.998 9.018 9.04 9.063 9.093 9.118 9.128 9.13 9.13 9.13 9.13 9.125 9.115 9.103 9.088 9.078 9.07 9.063 9.058 9.05 9.043 9.03 8.99 8.927 8.865 8.838 8.85 8.873 8.903 8.943 9.003 9.08 9.165 9.235 9.25 9.232 9.217 9.2 9.2 9.215 9.227 9.235 9.252 9.282 9.3 9.307 9.308 9.3 9.27 9.205 9.128 9.033 8.923 8.82 8.788 8.855 8.955 9.05 9.095 9.095 9.1 9.107 9.047 8.923 8.798 8.678 8.615 8.628 8.655 8.64 8.593 8.568 8.57 8.58 8.63 8.76 8.93 9.085 9.16 9.155 9.142 9.113 9.058 9.005 8.945 8.878 8.838 8.82 8.8 8.805 8.843 8.895 8.95 8.987 8.98 8.973 8.998 9.023 9.045 9.067 9.09 9.097 9.082 9.052 9.02 8.99 8.968 8.965 8.975 8.985 8.968 8.935 8.91 8.888 8.893 8.915 8.93 8.94 8.95 8.96 8.97 8.98 8.99 9.002 9.015 9.012 8.982 8.94 8.895 8.875 8.893 8.913 8.917 8.882 8.835 8.805 8.775 8.763 8.8 8.87 8.943 9.02 9.13 9.265 9.357 9.377 9.355 9.3 9.205 9.1 8.995 8.895 8.808 8.758 8.8 8.9 8.96 9.02 9.12 9.16 9.13 9.093 9.065 9.053 9.048 9.04 9.025 9.003 8.98 8.963 8.965 8.985 9.005 9.027 9.037 9.01 8.965 8.933 8.9 8.863 8.838 8.845 8.875 8.887 8.813 8.7 8.635 8.613 8.648 8.74 8.855 8.97 9.06 9.13 9.205 9.278
8.932 8.942 8.947 8.955 8.973 9 9.023 9.04 9.06 9.07 9.068 9.063 9.058 9.055 9.055 9.058 9.063 9.068 9.07 9.068 9.063 9.06 9.058 9.053 9.047 9.02 8.957 8.883 8.825 8.815 8.835 8.857 8.88 8.908 8.953 9.023 9.107 9.192 9.237 9.24 9.23 9.212 9.207 9.217 9.235 9.247 9.255 9.27 9.29 9.31 9.327 9.33 9.29 9.208 9.138 9.072 8.98 8.883 8.858 8.928 9.017 9.09 9.122 9.128 9.133 9.14 9.08 8.958 8.84 8.725 8.663 8.663 8.685 8.697 8.697 8.707 8.722 8.738 8.783 8.89 9.032 9.17 9.225 9.195 9.145 9.085 9.028 8.973 8.915 8.87 8.848 8.833 8.818 8.833 8.875 8.925 8.98 9.03 9.02 8.988 9.003 9.027 9.05 9.07 9.09 9.105 9.1 9.072 9.04 9.01 8.98 8.96 8.96 8.97 8.982 8.98 8.955 8.925 8.908 8.91 8.923 8.935 8.945 8.955 8.965 8.967 8.975 8.992 9.007 9.015 8.995 8.952 8.905 8.865 8.863 8.873 8.873 8.858 8.828 8.803 8.778 8.765 8.793 8.86 8.94 9.018 9.128 9.282 9.382 9.385 9.355 9.29 9.187 9.083 8.977 8.873 8.778 8.715 8.723 8.8 8.9 9 9.097 9.137 9.11 9.07 9.05 9.055 9.06 9.06 9.055 9.035 9.008 8.983 8.98 9 9.02 9.03 9.027 9 8.953 8.908 8.848 8.845 8.895 8.927 8.96 8.99 8.945 8.813 8.693 8.665 8.733 8.838 8.953 9.067 9.16 9.232 9.307 9.382
8.927 8.922 8.915 8.928 8.963 9.005 9.03 9.042 9.052 9.053 9.045 9.035 9.028 9.028 9.033 9.045 9.065 9.082 9.087 9.083 9.08 9.077 9.073 9.07 9.052 8.997 8.92 8.84 8.795 8.8 8.82 8.84 8.86 8.88 8.908 8.965 9.045 9.125 9.18 9.2 9.205 9.205 9.2 9.202 9.215 9.215 9.213 9.223 9.242 9.272 9.31 9.337 9.302 9.21 9.145 9.107 9.04 8.948 8.928 9 9.077 9.135 9.16 9.163 9.168 9.172 9.122 9.015 8.905 8.8 8.75 8.75 8.755 8.765 8.785 8.815 8.845 8.875 8.908 8.953 9.035 9.145 9.202 9.185 9.135 9.078 9.023 8.968 8.925 8.913 8.905 8.888 8.875 8.89 8.927 8.967 9.013 9.065 9.067 9.018 9.008 9.03 9.05 9.07 9.09 9.105 9.1 9.075 9.045 9.015 8.99 8.968 8.955 8.96 8.992 9.03 9.022 8.988 8.953 8.93 8.928 8.935 8.945 8.955 8.96 8.948 8.95 8.975 8.992 8.997 8.985 8.952 8.905 8.875 8.892 8.91 8.898 8.88 8.855 8.83 8.81 8.798 8.813 8.865 8.938 9.013 9.125 9.27 9.37 9.385 9.35 9.275 9.17 9.065 8.96 8.878 8.828 8.785 8.76 8.8 8.885 8.978 9.072 9.117 9.095 9.07 9.073 9.087 9.097 9.1 9.092 9.07 9.04 9.008 9 9.02 9.03 9.02 9.015 9.012 8.98 8.927 8.838 8.81 8.892 8.985 9.045 9.075 9.06 8.958 8.86 8.86 8.918 8.993 9.077 9.17 9.26 9.33 9.39 9.447
8.91 8.9 8.895 8.918 8.965 9.01 9.035 9.042 9.048 9.048 9.045 9.045 9.048 9.055 9.065 9.078 9.092 9.102 9.102 9.1 9.1 9.095 9.09 9.077 9.032 8.962 8.885 8.818 8.783 8.78 8.79 8.803 8.82 8.837 8.863 8.908 8.975 9.055 9.11 9.13 9.145 9.16 9.167 9.177 9.182 9.175 9.17 9.175 9.185 9.203 9.235 9.27 9.272 9.212 9.148 9.12 9.085 9.01 8.993 9.06 9.12 9.17 9.197 9.2 9.205 9.21 9.17 9.082 8.982 8.885 8.843 8.845 8.84 8.83 8.855 8.915 8.965 9.005 9.032 9.038 9.06 9.125 9.182 9.175 9.123 9.07 9.02 8.985 8.975 8.98 8.975 8.952 8.922 8.913 8.945 8.992 9.04 9.095 9.107 9.04 9.003 9.027 9.05 9.067 9.085 9.102 9.1 9.075 9.048 9.023 9.005 8.982 8.955 8.953 8.988 9.045 9.077 9.065 9.03 8.995 8.968 8.95 8.948 8.955 8.947 8.92 8.92 8.952 8.975 8.972 8.96 8.94 8.903 8.885 8.92 8.96 8.962 8.942 8.91 8.878 8.853 8.835 8.845 8.883 8.938 9.01 9.125 9.25 9.342 9.375 9.337 9.257 9.153 9.055 8.985 8.953 8.945 8.91 8.838 8.83 8.895 8.968 9.052 9.102 9.095 9.088 9.098 9.113 9.127 9.137 9.13 9.102 9.067 9.033 9.023 9.03 9.02 9 8.993 9.005 9 8.947 8.84 8.735 8.773 8.92 9.04 9.13 9.175 9.122 9.085 9.127 9.165 9.177 9.177 9.21 9.282 9.34 9.38 9.42
8.9 8.898 8.89 8.91 8.962 9.002 9.02 9.03 9.048 9.07 9.083 9.088 9.09 9.095 9.102 9.107 9.115 9.12 9.12 9.12 9.117 9.112 9.102 9.065 9 8.933 8.87 8.825 8.793 8.773 8.77 8.773 8.778 8.79 8.818 8.855 8.91 8.987 9.042 9.06 9.075 9.093 9.113 9.137 9.145 9.133 9.128 9.132 9.138 9.145 9.163 9.185 9.207 9.195 9.15 9.117 9.095 9.052 9.05 9.105 9.155 9.202 9.23 9.237 9.242 9.247 9.21 9.13 9.045 8.967 8.93 8.92 8.907 8.89 8.918 8.995 9.065 9.122 9.165 9.175 9.165 9.17 9.187 9.167 9.118 9.07 9.038 9.032 9.037 9.045 9.032 8.99 8.938 8.905 8.915 8.955 9.01 9.07 9.09 9.025 8.985 9.015 9.04 9.06 9.08 9.1 9.097 9.075 9.055 9.038 9.022 8.997 8.965 8.953 8.983 9.04 9.095 9.122 9.107 9.072 9.037 9.002 8.978 8.962 8.933 8.895 8.898 8.935 8.96 8.955 8.935 8.915 8.893 8.895 8.94 8.992 9.017 9.005 8.97 8.935 8.903 8.875 8.883 8.915 8.953 9.01 9.112 9.22 9.305 9.355 9.325 9.24 9.155 9.103 9.085 9.083 9.08 9.035 8.928 8.883 8.93 8.99 9.058 9.102 9.11 9.113 9.125 9.14 9.155 9.17 9.157 9.122 9.085 9.05 9.032 9.02 9 8.98 8.97 8.985 9.002 8.955 8.835 8.695 8.653 8.76 8.915 9.067 9.185 9.2 9.175 9.175 9.16 9.117 9.092 9.132 9.21 9.267 9.303 9.34
8.917 8.91 8.888 8.903 8.955 8.985 8.995 9.01 9.055 9.127 9.177 9.188 9.182 9.132 9.082 9.085 9.102 9.117 9.12 9.122 9.122 9.115 9.1 9.055 8.988 8.925 8.878 8.845 8.81 8.783 8.772 8.767 8.76 8.76 8.778 8.81 8.855 8.922 8.975 8.99 9.008 9.033 9.063 9.095 9.102 9.088 9.083 9.088 9.092 9.098 9.108 9.12 9.138 9.15 9.132 9.097 9.067 9.04 9.047 9.092 9.137 9.165 9.167 9.17 9.177 9.215 9.217 9.145 9.062 9.005 8.99 8.98 8.962 8.945 8.968 9.04 9.12 9.187 9.23 9.24 9.225 9.21 9.197 9.172 9.135 9.09 9.065 9.067 9.075 9.067 9.04 8.992 8.935 8.905 8.9 8.908 8.935 8.985 9.017 8.985 8.965 8.995 9.02 9.045 9.07 9.1 9.105 9.085 9.07 9.055 9.037 9.01 8.98 8.963 8.99 9.05 9.107 9.147 9.142 9.107 9.072 9.035 9.005 8.983 8.958 8.925 8.91 8.935 8.962 8.96 8.938 8.915 8.908 8.933 8.983 9.033 9.067 9.075 9.055 9.025 8.995 8.968 8.965 8.985 9.005 9.03 9.093 9.183 9.268 9.335 9.322 9.26 9.228 9.218 9.215 9.215 9.215 9.162 9.04 8.955 8.97 9.03 9.087 9.127 9.14 9.145 9.16 9.177 9.19 9.195 9.17 9.12 9.078 9.045 9.02 9 8.98 8.96 8.95 8.955 8.957 8.907 8.805 8.682 8.575 8.608 8.755 8.9 9.015 9.047 9.01 8.955 8.9 8.883 8.93 9.018 9.112 9.185 9.227 9.263
8.935 8.915 8.885 8.898 8.94 8.96 8.97 9.005 9.083 9.18 9.265 9.31 9.267 9.112 9.008 9.02 9.055 9.087 9.1 9.102 9.102 9.082 9.065 9.047 9 8.94 8.893 8.86 8.82 8.782 8.765 8.757 8.75 8.745 8.755 8.78 8.81 8.86 8.905 8.925 8.953 8.985 9.02 9.055 9.06 9.058 9.06 9.05 9.045 9.05 9.06 9.072 9.077 9.072 9.062 9.035 9 8.975 8.985 9.025 9.05 9.042 9.02 9.01 9.045 9.142 9.182 9.125 9.048 9.003 9.012 9.025 9.017 9 9.015 9.08 9.15 9.192 9.212 9.222 9.215 9.2 9.19 9.175 9.152 9.117 9.088 9.085 9.077 9.035 9.01 8.985 8.933 8.905 8.9 8.895 8.895 8.915 8.945 8.945 8.945 8.975 9.013 9.06 9.105 9.158 9.163 9.118 9.09 9.075 9.055 9.025 9.003 8.995 9.02 9.075 9.127 9.152 9.135 9.1 9.068 9.038 9.02 9.01 9.002 8.987 8.96 8.958 8.982 8.985 8.963 8.953 8.97 9.01 9.058 9.1 9.12 9.127 9.135 9.132 9.13 9.122 9.11 9.1 9.087 9.078 9.1 9.175 9.265 9.34 9.36 9.345 9.345 9.345 9.345 9.345 9.345 9.262 9.085 8.98 9.003 9.065 9.12 9.16 9.177 9.185 9.2 9.215 9.217 9.212 9.182 9.12 9.063 9.025 9 8.977 8.95 8.92 8.887 8.87 8.855 8.8 8.72 8.627 8.523 8.495 8.58 8.682 8.752 8.772 8.737 8.685 8.673 8.73 8.82 8.91 9.005 9.092 9.15 9.185
8.942 8.915 8.885 8.89 8.92 8.935 8.96 9.03 9.125 9.22 9.315 9.365 9.24 9.018 8.935 8.965 9.005 9.047 9.075 9.077 9.057 9.02 9.003 9.005 8.992 8.952 8.905 8.862 8.81 8.763 8.743 8.74 8.735 8.73 8.74 8.76 8.78 8.81 8.843 8.873 8.91 8.945 8.98 9.015 9.035 9.072 9.087 9.05 9.02 9.008 9.005 9.002 8.987 8.965 8.955 8.942 8.913 8.893 8.912 8.94 8.933 8.915 8.913 8.918 8.985 9.105 9.137 9.09 9.028 8.998 9.017 9.04 9.052 9.05 9.065 9.115 9.155 9.167 9.178 9.192 9.197 9.19 9.18 9.167 9.152 9.132 9.11 9.09 9.047 8.988 8.973 8.967 8.93 8.905 8.9 8.895 8.89 8.888 8.898 8.925 8.965 9.015 9.075 9.143 9.207 9.272 9.265 9.188 9.125 9.093 9.075 9.058 9.048 9.045 9.063 9.105 9.14 9.147 9.127 9.095 9.07 9.055 9.045 9.038 9.03 9.025 9.012 8.998 9.007 9.01 9 9.018 9.055 9.1 9.142 9.165 9.157 9.153 9.17 9.19 9.21 9.22 9.207 9.177 9.142 9.125 9.133 9.188 9.282 9.375 9.427 9.43 9.412 9.387 9.36 9.332 9.305 9.187 9.003 8.95 9.022 9.095 9.15 9.19 9.212 9.225 9.235 9.237 9.233 9.227 9.197 9.135 9.068 9.008 8.955 8.912 8.875 8.827 8.752 8.71 8.742 8.727 8.645 8.563 8.483 8.418 8.395 8.42 8.47 8.497 8.475 8.468 8.528 8.62 8.71 8.8 8.895 8.995 9.067 9.108
8.945 8.915 8.885 8.88 8.898 8.923 8.98 9.07 9.165 9.26 9.33 9.32 9.127 8.91 8.875 8.918 8.963 9.01 9.047 9.05 9.013 8.973 8.96 8.96 8.965 8.952 8.907 8.85 8.79 8.74 8.723 8.728 8.73 8.73 8.738 8.755 8.775 8.795 8.81 8.833 8.87 8.907 8.943 8.98 9.027 9.09 9.11 9.07 9.025 8.988 8.955 8.92 8.885 8.855 8.84 8.838 8.82 8.81 8.823 8.838 8.858 8.865 8.863 8.883 8.965 9.072 9.092 9.047 9 8.99 9.015 9.035 9.055 9.07 9.092 9.12 9.132 9.135 9.143 9.158 9.17 9.175 9.17 9.163 9.155 9.148 9.13 9.073 8.995 8.938 8.928 8.942 8.927 8.905 8.9 8.898 8.895 8.895 8.9 8.938 9.007 9.082 9.157 9.23 9.302 9.372 9.36 9.265 9.17 9.115 9.103 9.1 9.097 9.095 9.103 9.123 9.142 9.145 9.128 9.105 9.09 9.08 9.07 9.065 9.06 9.055 9.05 9.04 9.038 9.043 9.065 9.105 9.145 9.187 9.212 9.205 9.185 9.178 9.19 9.21 9.232 9.25 9.24 9.205 9.173 9.165 9.173 9.198 9.275 9.385 9.452 9.432 9.358 9.27 9.195 9.138 9.083 8.973 8.89 8.938 9.032 9.117 9.18 9.217 9.242 9.257 9.257 9.253 9.248 9.242 9.212 9.15 9.082 9.015 8.93 8.833 8.765 8.697 8.583 8.53 8.63 8.692 8.63 8.545 8.458 8.383 8.318 8.273 8.258 8.253 8.268 8.33 8.42 8.51 8.6 8.69 8.785 8.89 8.977 9.03
8.935 8.905 8.88 8.878 8.888 8.93 9.015 9.11 9.2 9.262 9.28 9.22 9.01 8.853 8.873 8.92 8.97 9.012 9.037 9.037 9.008 8.973 8.96 8.96 8.96 8.952 8.91 8.845 8.785 8.745 8.743 8.753 8.76 8.768 8.768 8.773 8.79 8.81 8.813 8.81 8.833 8.87 8.907 8.948 9.005 9.062 9.09 9.072 9.03 8.985 8.935 8.885 8.84 8.803 8.775 8.755 8.73 8.743 8.788 8.823 8.852 8.852 8.828 8.848 8.945 9.037 9.045 9.003 8.963 8.953 8.972 8.995 9.015 9.04 9.07 9.09 9.1 9.105 9.113 9.128 9.143 9.158 9.175 9.195 9.205 9.203 9.182 9.1 8.98 8.898 8.885 8.91 8.915 8.91 8.91 8.913 8.915 8.92 8.933 8.965 9.03 9.11 9.19 9.27 9.342 9.395 9.367 9.267 9.178 9.138 9.135 9.135 9.135 9.135 9.137 9.143 9.153 9.155 9.143 9.13 9.12 9.11 9.1 9.095 9.09 9.085 9.08 9.08 9.085 9.098 9.132 9.177 9.22 9.25 9.252 9.235 9.213 9.2 9.21 9.23 9.255 9.277 9.267 9.233 9.21 9.21 9.22 9.23 9.273 9.367 9.437 9.415 9.32 9.203 9.1 9.01 8.925 8.84 8.84 8.932 9.027 9.12 9.197 9.24 9.265 9.28 9.275 9.27 9.265 9.257 9.225 9.16 9.095 9.035 8.96 8.84 8.715 8.575 8.405 8.37 8.515 8.642 8.63 8.545 8.458 8.39 8.337 8.275 8.203 8.155 8.18 8.253 8.328 8.405 8.49 8.58 8.675 8.78 8.882 8.952
8.915 8.888 8.878 8.898 8.918 8.963 9.052 9.137 9.19 9.2 9.19 9.112 8.943 8.87 8.92 8.97 9.007 9.025 9.03 9.03 9.02 8.992 8.975 8.975 8.97 8.957 8.917 8.855 8.8 8.78 8.792 8.805 8.815 8.825 8.823 8.808 8.81 8.827 8.827 8.813 8.81 8.833 8.87 8.913 8.97 9.02 9.05 9.06 9.032 8.985 8.935 8.888 8.845 8.813 8.783 8.745 8.73 8.775 8.83 8.845 8.832 8.807 8.783 8.815 8.917 8.995 8.995 8.955 8.915 8.89 8.9 8.925 8.95 8.988 9.025 9.047 9.062 9.073 9.085 9.103 9.12 9.14 9.175 9.22 9.252 9.275 9.272 9.185 9.033 8.918 8.895 8.923 8.943 8.948 8.94 8.938 8.943 8.948 8.963 8.995 9.05 9.125 9.205 9.277 9.325 9.345 9.307 9.218 9.16 9.155 9.162 9.165 9.165 9.165 9.17 9.175 9.18 9.183 9.173 9.16 9.15 9.14 9.13 9.125 9.12 9.12 9.13 9.145 9.158 9.165 9.188 9.227 9.27 9.285 9.275 9.26 9.238 9.22 9.228 9.25 9.275 9.3 9.292 9.263 9.253 9.26 9.27 9.278 9.293 9.358 9.417 9.417 9.365 9.265 9.15 9.03 8.925 8.86 8.863 8.92 9.003 9.097 9.185 9.247 9.285 9.3 9.295 9.287 9.28 9.27 9.235 9.172 9.11 9.05 8.99 8.897 8.757 8.545 8.308 8.258 8.41 8.585 8.625 8.545 8.463 8.4 8.35 8.297 8.233 8.18 8.19 8.243 8.298 8.358 8.428 8.503 8.58 8.673 8.78 8.873
8.9 8.875 8.883 8.925 8.965 9.01 9.072 9.115 9.12 9.11 9.1 9.013 8.913 8.92 8.965 9 9.015 9.015 9.015 9.015 9.012 9 8.987 8.982 8.975 8.962 8.925 8.87 8.83 8.823 8.838 8.855 8.87 8.882 8.887 8.865 8.843 8.843 8.84 8.827 8.813 8.81 8.835 8.88 8.935 8.975 9 9.025 9.022 8.985 8.935 8.893 8.86 8.833 8.808 8.793 8.812 8.84 8.832 8.807 8.785 8.762 8.738 8.783 8.885 8.95 8.947 8.905 8.865 8.83 8.83 8.863 8.9 8.945 8.982 9.003 9.02 9.04 9.06 9.08 9.1 9.123 9.158 9.202 9.245 9.287 9.315 9.252 9.105 8.978 8.948 8.982 9.012 9.025 9.013 8.993 8.98 8.975 8.993 9.028 9.073 9.14 9.207 9.25 9.272 9.285 9.25 9.185 9.168 9.18 9.188 9.192 9.195 9.198 9.203 9.208 9.215 9.222 9.215 9.198 9.183 9.168 9.158 9.158 9.165 9.183 9.21 9.232 9.24 9.24 9.248 9.275 9.307 9.307 9.29 9.278 9.262 9.245 9.248 9.27 9.295 9.322 9.32 9.3 9.3 9.307 9.315 9.322 9.33 9.363 9.395 9.397 9.38 9.317 9.21 9.1 9.018 8.965 8.943 8.953 8.99 9.063 9.15 9.23 9.292 9.317 9.315 9.302 9.29 9.28 9.245 9.185 9.125 9.065 9.005 8.935 8.822 8.61 8.388 8.303 8.353 8.502 8.595 8.545 8.47 8.415 8.365 8.315 8.257 8.208 8.215 8.265 8.315 8.37 8.43 8.49 8.548 8.625 8.748 8.9
8.885 8.87 8.895 8.945 8.992 9.035 9.055 9.048 9.033 9.02 9.01 8.955 8.928 8.965 8.987 8.997 9 9 9 9 8.997 8.995 8.992 8.985 8.975 8.965 8.935 8.89 8.865 8.868 8.885 8.902 8.917 8.935 8.947 8.932 8.895 8.868 8.853 8.84 8.827 8.813 8.818 8.855 8.898 8.928 8.953 8.978 8.995 8.98 8.938 8.903 8.88 8.855 8.83 8.827 8.85 8.837 8.793 8.763 8.738 8.715 8.698 8.753 8.85 8.905 8.902 8.858 8.815 8.783 8.785 8.82 8.86 8.903 8.938 8.96 8.983 9.01 9.035 9.055 9.078 9.105 9.132 9.167 9.207 9.242 9.28 9.277 9.175 9.035 8.995 9.032 9.067 9.1 9.105 9.07 9.022 8.998 9.015 9.055 9.097 9.145 9.18 9.195 9.208 9.22 9.203 9.183 9.193 9.208 9.215 9.22 9.227 9.232 9.238 9.245 9.255 9.265 9.26 9.24 9.22 9.203 9.203 9.22 9.245 9.275 9.302 9.317 9.32 9.32 9.32 9.332 9.34 9.323 9.31 9.303 9.285 9.268 9.27 9.29 9.315 9.345 9.35 9.34 9.345 9.352 9.36 9.365 9.367 9.382 9.385 9.373 9.37 9.347 9.277 9.195 9.127 9.07 9.04 9.032 9.028 9.053 9.12 9.203 9.282 9.325 9.325 9.312 9.3 9.287 9.255 9.2 9.14 9.08 9.02 8.96 8.872 8.728 8.597 8.51 8.445 8.46 8.543 8.547 8.48 8.43 8.38 8.33 8.278 8.233 8.243 8.298 8.353 8.408 8.463 8.518 8.568 8.663 8.835 9.045
