ncols         200
nrows         76
xllcorner     547000
yllcorner     259110
cellsize      5
NODATA_value  -9999.0
9.625 9.698 9.798 9.95 10.14 10.257 10.275 10.28 10.29 10.295 10.292 10.288 10.288 10.297 10.122 9.767 9.442 9.135 8.837 7.915 7.013 6.805 6.68 6.6 6.54 6.47 6.368 6.856 8.215 9.112 8.552 7.793 7.628 7.537 7.435 7.337 7.25 7.162 7.04 6.877 6.712 6.54 6.385 6.26 6.102 5.505 5.315 5.83 6.077 6.16 6.238 6.383 6.575 6.76 6.988 7.258 7.547 7.82 7.98 8.05 8.133 8.25 8.393 8.54 8.685 8.83 8.973 9.135 9.325 9.513 9.68 9.827 9.952 10.045 10.075 10.175 10.375 10.54 10.667 10.745 10.752 10.72 10.687 10.653 10.663 10.732 10.815 10.885 10.94 10.998 11.108 11.25 11.337 11.342 11.297 11.245 11.192 11.15 11.145 11.165 11.185 11.192 11.18 11.155 11.125 11.1 11.072 11.02 10.945 10.87 10.843 10.863 10.888 10.902 10.887 10.833 10.75 10.665 10.588 10.515 10.46 10.418 10.44 10.535 10.63 10.723 10.78 10.802 10.81 10.803 10.843 10.93 10.997 11.045 11.093 11.14 11.19 11.232 11.26 11.285 11.315 11.345 11.39 11.457 11.527 11.585 11.632 11.66 11.668 11.675 11.655 11.605 11.555 11.528 11.54 11.57 11.6 11.625 11.632 11.625 11.615 11.615 11.635 11.668 11.703 11.75 11.83 11.915 11.983 12.05 12.11 12.155 12.21 12.275 12.352 12.435 12.5 12.547 12.573 12.593 12.615 12.63 12.635 12.637 12.645 12.678 12.758 12.865 12.977 13.07 13.127 13.167 13.202 13.245 13.3 13.355 13.405 13.455 13.507 13.56
9.63 9.705 9.8 9.92 10.078 10.217 10.267 10.273 10.28 10.283 10.28 10.29 10.315 10.342 10.147 9.753 9.393 9.113 8.722 7.768 7.005 6.823 6.678 6.59 6.517 6.428 6.513 7.585 9.084 9.464 8.505 7.685 7.595 7.5 7.385 7.265 7.165 7.077 6.96 6.802 6.63 6.443 6.27 6.17 5.935 5.166 5.328 6.085 6.155 6.222 6.29 6.458 6.725 6.893 7.015 7.245 7.53 7.797 7.95 8.018 8.125 8.285 8.447 8.593 8.738 8.893 9.068 9.268 9.48 9.687 9.89 10.085 10.257 10.38 10.382 10.378 10.462 10.545 10.625 10.737 10.83 10.842 10.812 10.778 10.758 10.8 10.882 10.957 11.025 11.09 11.19 11.3 11.372 11.397 11.38 11.34 11.288 11.243 11.235 11.255 11.275 11.285 11.275 11.252 11.225 11.2 11.175 11.137 11.075 11.003 10.983 11.007 11.025 11.03 11.02 10.992 10.935 10.838 10.76 10.72 10.677 10.628 10.635 10.733 10.847 10.947 10.992 10.985 10.96 10.92 10.968 11.105 11.222 11.302 11.352 11.377 11.387 11.382 11.388 11.412 11.432 11.43 11.435 11.485 11.54 11.578 11.64 11.71 11.747 11.762 11.74 11.693 11.65 11.623 11.63 11.66 11.69 11.715 11.725 11.72 11.718 11.73 11.755 11.785 11.825 11.883 11.978 12.092 12.18 12.245 12.29 12.32 12.363 12.42 12.483 12.54 12.595 12.645 12.67 12.682 12.687 12.687 12.69 12.69 12.698 12.723 12.783 12.875 12.983 13.08 13.142 13.187 13.23 13.272 13.322 13.375 13.422 13.47 13.52 13.57
9.635 9.71 9.805 9.918 10.043 10.185 10.262 10.265 10.27 10.278 10.293 10.325 10.365 10.397 10.2 9.79 9.428 9.215 8.575 7.515 6.978 6.842 6.692 6.578 6.49 6.38 6.951 8.597 9.834 9.627 8.458 7.658 7.558 7.46 7.345 7.215 7.095 6.993 6.877 6.722 6.537 6.338 6.235 6.237 5.797 5.046 5.433 6.155 6.213 6.278 6.345 6.523 6.857 7.132 7.23 7.305 7.49 7.737 7.895 7.998 8.155 8.332 8.497 8.648 8.81 9.003 9.22 9.44 9.653 9.862 10.065 10.265 10.45 10.587 10.6 10.53 10.5 10.51 10.565 10.678 10.812 10.907 10.93 10.905 10.868 10.88 10.948 11.023 11.098 11.168 11.245 11.325 11.39 11.427 11.432 11.417 11.38 11.335 11.325 11.345 11.365 11.375 11.365 11.345 11.322 11.297 11.272 11.245 11.2 11.143 11.128 11.145 11.15 11.15 11.14 11.12 11.097 11.047 10.985 10.935 10.885 10.833 10.83 10.918 11.04 11.125 11.135 11.1 11.06 11.028 11.088 11.232 11.37 11.477 11.53 11.532 11.515 11.495 11.5 11.517 11.51 11.483 11.468 11.495 11.53 11.553 11.61 11.697 11.775 11.83 11.83 11.79 11.75 11.72 11.723 11.75 11.78 11.805 11.817 11.82 11.83 11.85 11.873 11.908 11.96 12.018 12.11 12.237 12.355 12.447 12.492 12.51 12.533 12.568 12.62 12.67 12.713 12.757 12.78 12.77 12.742 12.725 12.728 12.735 12.748 12.778 12.835 12.91 12.995 13.09 13.16 13.203 13.247 13.29 13.338 13.39 13.437 13.483 13.53 13.58
9.638 9.715 9.81 9.922 10.035 10.162 10.245 10.258 10.27 10.298 10.335 10.375 10.415 10.45 10.255 9.88 9.638 9.53 8.842 7.6 6.943 6.805 6.665 6.547 6.445 6.566 7.725 9.569 10.417 9.885 8.52 7.62 7.522 7.42 7.302 7.175 7.045 6.925 6.8 6.632 6.432 6.225 6.373 6.515 5.74 5.171 5.737 6.23 6.275 6.333 6.4 6.588 6.933 7.302 7.477 7.485 7.568 7.723 7.87 8.025 8.202 8.377 8.55 8.73 8.935 9.157 9.387 9.612 9.827 10.035 10.23 10.407 10.557 10.67 10.712 10.682 10.625 10.57 10.563 10.643 10.773 10.903 11 11.025 10.995 10.978 11.025 11.113 11.198 11.263 11.295 11.34 11.407 11.45 11.462 11.465 11.455 11.425 11.415 11.435 11.455 11.465 11.455 11.435 11.415 11.393 11.37 11.345 11.315 11.28 11.265 11.27 11.273 11.275 11.265 11.245 11.223 11.205 11.185 11.142 11.09 11.04 11.028 11.1 11.19 11.212 11.195 11.172 11.145 11.13 11.193 11.317 11.435 11.535 11.59 11.602 11.605 11.602 11.602 11.595 11.573 11.548 11.528 11.528 11.538 11.545 11.585 11.657 11.737 11.82 11.86 11.845 11.815 11.79 11.795 11.825 11.855 11.885 11.91 11.927 11.945 11.962 11.987 12.035 12.095 12.152 12.24 12.362 12.485 12.592 12.65 12.675 12.7 12.725 12.762 12.802 12.835 12.867 12.867 12.825 12.78 12.763 12.773 12.788 12.803 12.835 12.895 12.965 13.033 13.11 13.178 13.22 13.263 13.308 13.355 13.403 13.45 13.497 13.543 13.59
9.655 9.723 9.815 9.925 10.035 10.15 10.23 10.255 10.275 10.315 10.362 10.41 10.457 10.5 10.352 10.058 9.883 9.805 9.487 8.098 6.881 6.69 6.578 6.475 6.418 7.161 8.865 10.334 10.765 10.297 8.88 7.678 7.45 7.338 7.18 7.017 6.872 6.717 6.585 6.477 6.315 6.355 6.765 6.837 5.788 5.356 6.035 6.31 6.35 6.395 6.455 6.653 7.003 7.372 7.567 7.602 7.652 7.718 7.843 8.02 8.203 8.4 8.608 8.822 9.05 9.277 9.515 9.76 9.992 10.192 10.357 10.5 10.627 10.73 10.787 10.795 10.755 10.69 10.643 10.69 10.815 10.94 11.06 11.135 11.13 11.098 11.138 11.24 11.337 11.387 11.373 11.37 11.42 11.47 11.487 11.492 11.497 11.495 11.503 11.525 11.545 11.557 11.55 11.53 11.51 11.49 11.467 11.448 11.433 11.413 11.398 11.395 11.397 11.4 11.39 11.37 11.35 11.343 11.347 11.335 11.297 11.25 11.223 11.255 11.285 11.273 11.258 11.243 11.228 11.225 11.265 11.353 11.457 11.555 11.61 11.63 11.65 11.677 11.692 11.68 11.663 11.645 11.625 11.615 11.613 11.605 11.583 11.603 11.68 11.76 11.827 11.847 11.83 11.805 11.815 11.855 11.887 11.922 11.965 12.002 12.025 12.042 12.075 12.13 12.19 12.255 12.342 12.452 12.565 12.672 12.74 12.775 12.81 12.835 12.857 12.885 12.915 12.937 12.917 12.865 12.833 12.83 12.843 12.855 12.865 12.895 12.958 13.03 13.098 13.165 13.22 13.26 13.298 13.333 13.373 13.418 13.465 13.512 13.558 13.603
9.688 9.73 9.813 9.925 10.035 10.14 10.212 10.247 10.275 10.315 10.365 10.42 10.477 10.532 10.47 10.265 10.068 9.968 9.924 8.708 7.061 6.58 6.497 6.344 7.409 9.177 10.234 10.82 10.927 10.752 9.867 8.783 8.228 7.751 7.168 6.714 6.471 6.188 6.005 6.138 6.288 6.803 7.277 7.115 5.983 5.598 6.287 6.39 6.43 6.47 6.518 6.713 7.063 7.42 7.605 7.625 7.65 7.688 7.8 7.995 8.213 8.445 8.68 8.903 9.123 9.35 9.595 9.855 10.102 10.292 10.432 10.565 10.692 10.79 10.837 10.86 10.852 10.8 10.748 10.79 10.913 11.037 11.147 11.225 11.255 11.238 11.278 11.385 11.48 11.51 11.475 11.443 11.448 11.487 11.512 11.518 11.525 11.543 11.577 11.612 11.635 11.65 11.645 11.625 11.605 11.585 11.56 11.555 11.575 11.577 11.553 11.528 11.52 11.52 11.51 11.493 11.485 11.488 11.497 11.507 11.495 11.455 11.403 11.375 11.368 11.355 11.345 11.335 11.325 11.328 11.348 11.395 11.48 11.575 11.63 11.65 11.683 11.735 11.77 11.775 11.772 11.76 11.74 11.728 11.725 11.71 11.633 11.575 11.618 11.695 11.777 11.83 11.825 11.793 11.805 11.855 11.892 11.93 11.985 12.045 12.08 12.1 12.135 12.193 12.258 12.33 12.418 12.52 12.627 12.735 12.807 12.842 12.87 12.885 12.9 12.925 12.952 12.97 12.952 12.915 12.908 12.922 12.932 12.935 12.933 12.96 13.028 13.1 13.17 13.24 13.292 13.325 13.35 13.365 13.39 13.435 13.485 13.53 13.575 13.625
9.722 9.74 9.805 9.92 10.035 10.122 10.178 10.225 10.273 10.32 10.373 10.43 10.49 10.55 10.532 10.4 10.23 10.145 10.357 10.174 8.105 6.438 6.363 7.463 9.764 10.939 10.992 10.97 10.94 10.925 10.737 10.324 9.84 9.322 8.78 8.367 7.85 6.506 5.699 6.131 6.681 7.352 7.677 7.482 6.153 5.773 6.612 6.625 6.635 6.643 6.66 6.818 7.13 7.465 7.64 7.66 7.688 7.723 7.835 8.048 8.288 8.532 8.767 8.985 9.197 9.42 9.66 9.907 10.147 10.335 10.477 10.62 10.757 10.85 10.885 10.907 10.922 10.9 10.855 10.895 11.015 11.135 11.23 11.295 11.352 11.373 11.423 11.53 11.612 11.625 11.585 11.543 11.51 11.518 11.537 11.545 11.56 11.585 11.63 11.685 11.722 11.74 11.735 11.715 11.695 11.672 11.648 11.655 11.7 11.732 11.73 11.695 11.658 11.643 11.633 11.625 11.63 11.635 11.645 11.662 11.67 11.645 11.57 11.495 11.465 11.455 11.445 11.433 11.428 11.438 11.455 11.475 11.518 11.595 11.653 11.688 11.743 11.805 11.84 11.85 11.86 11.862 11.852 11.84 11.83 11.802 11.715 11.605 11.575 11.63 11.712 11.782 11.797 11.773 11.793 11.852 11.895 11.94 12.005 12.075 12.13 12.16 12.198 12.263 12.335 12.41 12.49 12.585 12.69 12.795 12.87 12.9 12.915 12.925 12.94 12.962 12.985 13 12.99 12.98 12.992 13.007 13.012 13.005 12.998 13.03 13.1 13.17 13.24 13.31 13.36 13.38 13.39 13.395 13.413 13.455 13.505 13.553 13.598 13.663
9.74 9.745 9.79 9.898 10.03 10.125 10.183 10.243 10.303 10.355 10.408 10.463 10.518 10.573 10.605 10.612 10.615 10.67 11.02 11.411 8.86 6.201 6.126 8.652 11.245 11.197 11.09 11.008 10.958 10.915 10.852 10.725 10.527 10.317 10.102 9.956 9.606 8.397 7.59 7.755 7.982 8.167 8.14 7.819 6.243 5.933 6.939 6.92 6.9 6.878 6.893 7.035 7.29 7.552 7.692 7.728 7.77 7.82 7.943 8.153 8.383 8.622 8.852 9.057 9.247 9.445 9.672 9.917 10.16 10.34 10.465 10.592 10.722 10.827 10.897 10.947 10.975 10.982 10.96 11 11.117 11.227 11.31 11.37 11.432 11.482 11.56 11.672 11.74 11.732 11.69 11.647 11.605 11.578 11.573 11.585 11.605 11.628 11.673 11.737 11.795 11.83 11.827 11.805 11.782 11.757 11.733 11.737 11.772 11.805 11.827 11.817 11.785 11.765 11.762 11.77 11.78 11.785 11.79 11.775 11.74 11.735 11.71 11.625 11.568 11.552 11.54 11.53 11.535 11.55 11.565 11.582 11.6 11.64 11.695 11.755 11.82 11.88 11.915 11.925 11.935 11.943 11.945 11.945 11.93 11.887 11.795 11.67 11.578 11.573 11.63 11.688 11.723 11.738 11.778 11.843 11.898 11.955 12.025 12.095 12.163 12.213 12.265 12.338 12.412 12.487 12.563 12.655 12.763 12.867 12.93 12.945 12.955 12.965 12.98 13 13.018 13.033 13.04 13.052 13.07 13.08 13.08 13.07 13.075 13.12 13.19 13.26 13.33 13.387 13.415 13.42 13.423 13.428 13.445 13.485 13.535 13.583 13.638 13.725
9.732 9.743 9.77 9.86 10.03 10.17 10.245 10.312 10.367 10.413 10.463 10.515 10.565 10.615 10.683 10.79 10.925 11.097 11.307 11.458 8.732 5.946 6.079 8.119 10.532 11.212 11.267 11.14 11.083 10.985 10.818 10.618 10.423 10.193 9.868 9.66 9.625 9.489 9.254 9.032 8.832 8.665 8.465 7.787 6.506 6.473 7.155 7.125 7.103 7.08 7.135 7.315 7.502 7.66 7.775 7.83 7.88 7.93 8.058 8.27 8.495 8.71 8.892 9.06 9.225 9.4 9.62 9.875 10.082 10.207 10.31 10.417 10.547 10.677 10.782 10.875 10.945 11.005 11.037 11.098 11.207 11.307 11.387 11.45 11.51 11.568 11.66 11.797 11.862 11.83 11.782 11.735 11.687 11.638 11.615 11.63 11.65 11.673 11.718 11.783 11.847 11.88 11.882 11.875 11.85 11.822 11.797 11.79 11.807 11.83 11.845 11.847 11.84 11.822 11.812 11.822 11.835 11.815 11.762 11.69 11.635 11.66 11.737 11.742 11.68 11.648 11.635 11.633 11.645 11.66 11.675 11.675 11.675 11.71 11.77 11.84 11.908 11.983 12.028 12.035 12.043 12.048 12.055 12.06 12.04 12 11.95 11.863 11.75 11.713 11.753 11.798 11.825 11.838 11.875 11.94 11.985 12.03 12.098 12.163 12.228 12.28 12.338 12.413 12.487 12.56 12.638 12.738 12.85 12.942 12.982 12.988 12.995 13.008 13.023 13.045 13.065 13.08 13.1 13.12 13.137 13.15 13.15 13.145 13.17 13.23 13.3 13.37 13.43 13.457 13.462 13.465 13.465 13.468 13.493 13.545 13.6 13.648 13.72 13.823
9.71 9.727 9.753 9.84 10.04 10.225 10.32 10.385 10.432 10.47 10.518 10.57 10.623 10.678 10.74 10.82 10.94 11.138 11.063 10.347 7.811 5.819 7.46 9.642 10.723 11.41 11.48 11.348 11.255 11.095 10.89 10.655 10.408 10.152 9.803 9.53 9.407 9.225 9.01 8.828 8.665 8.55 8.487 7.478 6.838 7.295 7.38 7.335 7.308 7.288 7.38 7.54 7.595 7.705 7.867 7.94 7.99 8.04 8.17 8.387 8.595 8.76 8.887 9.013 9.16 9.333 9.552 9.77 9.89 9.965 10.063 10.185 10.342 10.48 10.58 10.685 10.79 10.9 11.035 11.172 11.285 11.382 11.465 11.53 11.587 11.64 11.72 11.855 11.93 11.9 11.85 11.795 11.74 11.683 11.658 11.675 11.695 11.72 11.765 11.83 11.862 11.84 11.84 11.867 11.877 11.867 11.845 11.825 11.825 11.847 11.862 11.86 11.845 11.815 11.78 11.77 11.745 11.66 11.548 11.47 11.473 11.52 11.63 11.76 11.782 11.75 11.738 11.74 11.755 11.75 11.717 11.703 11.73 11.79 11.86 11.93 12.01 12.115 12.175 12.178 12.18 12.185 12.192 12.185 12.157 12.13 12.15 12.147 12.073 12.053 12.09 12.107 12.1 12.08 12.095 12.145 12.155 12.168 12.225 12.285 12.337 12.375 12.42 12.488 12.56 12.633 12.715 12.823 12.937 13.007 13.027 13.033 13.04 13.052 13.068 13.093 13.12 13.14 13.16 13.182 13.205 13.22 13.22 13.23 13.278 13.345 13.415 13.475 13.507 13.51 13.508 13.51 13.51 13.51 13.543 13.622 13.695 13.75 13.833 13.932
9.68 9.698 9.753 9.863 10.058 10.267 10.39 10.452 10.495 10.53 10.575 10.625 10.68 10.74 10.838 11.065 11.4 11.725 11.642 10.249 7.443 5.842 8.805 11.753 11.784 11.772 11.67 11.527 11.39 11.222 11.015 10.73 10.415 10.117 9.754 9.407 9.19 9.002 8.825 8.67 8.515 8.37 8.379 7.008 6.705 7.762 7.622 7.55 7.515 7.515 7.582 7.592 7.57 7.735 7.95 8.047 8.1 8.153 8.285 8.48 8.64 8.77 8.883 8.99 9.11 9.265 9.452 9.587 9.653 9.723 9.828 9.975 10.142 10.277 10.38 10.483 10.615 10.798 11.02 11.212 11.345 11.455 11.542 11.607 11.66 11.708 11.768 11.865 11.937 11.937 11.9 11.845 11.787 11.725 11.7 11.722 11.745 11.77 11.815 11.845 11.81 11.75 11.745 11.787 11.83 11.865 11.88 11.867 11.853 11.863 11.877 11.87 11.842 11.802 11.747 11.702 11.628 11.503 11.393 11.345 11.355 11.39 11.47 11.63 11.787 11.84 11.842 11.827 11.79 11.74 11.708 11.74 11.81 11.882 11.955 12.028 12.125 12.247 12.317 12.325 12.322 12.325 12.325 12.305 12.275 12.248 12.292 12.375 12.385 12.377 12.382 12.365 12.34 12.32 12.322 12.34 12.325 12.318 12.357 12.407 12.442 12.47 12.51 12.568 12.635 12.708 12.795 12.91 13.017 13.067 13.075 13.08 13.087 13.095 13.113 13.14 13.172 13.2 13.22 13.245 13.27 13.287 13.298 13.33 13.393 13.46 13.525 13.56 13.562 13.558 13.555 13.553 13.55 13.55 13.588 13.687 13.785 13.86 13.942 14.025
9.668 9.723 9.828 9.955 10.113 10.312 10.457 10.517 10.558 10.593 10.635 10.695 10.768 11.09 11.555 11.935 12.24 12.427 12.521 10.274 6.941 6.684 9.671 11.85 11.869 11.879 11.812 11.562 11.174 10.837 10.534 10.174 9.774 9.434 8.275 8.028 8.734 8.597 8.472 8.352 8.232 8.128 8.127 6.506 6.321 7.814 7.787 7.732 7.707 7.68 7.615 7.495 7.538 7.795 8.032 8.152 8.207 8.265 8.375 8.517 8.645 8.77 8.883 8.988 9.093 9.22 9.328 9.375 9.413 9.483 9.61 9.775 9.94 10.075 10.188 10.335 10.548 10.805 11.052 11.237 11.38 11.512 11.615 11.68 11.727 11.772 11.822 11.88 11.925 11.947 11.94 11.895 11.832 11.762 11.737 11.765 11.79 11.815 11.827 11.79 11.72 11.66 11.655 11.695 11.748 11.822 11.875 11.887 11.885 11.885 11.892 11.875 11.825 11.757 11.677 11.635 11.577 11.455 11.373 11.38 11.385 11.358 11.353 11.448 11.643 11.802 11.852 11.797 11.728 11.71 11.755 11.83 11.9 11.975 12.05 12.132 12.24 12.355 12.425 12.442 12.445 12.452 12.45 12.425 12.395 12.365 12.395 12.49 12.56 12.575 12.565 12.552 12.542 12.535 12.53 12.515 12.48 12.455 12.472 12.51 12.537 12.565 12.603 12.655 12.718 12.783 12.873 12.995 13.087 13.117 13.123 13.128 13.133 13.138 13.158 13.19 13.223 13.255 13.283 13.308 13.333 13.358 13.39 13.443 13.507 13.57 13.612 13.62 13.613 13.608 13.605 13.6 13.593 13.59 13.633 13.74 13.86 13.955 14.03 14.1
9.755 9.85 9.975 10.103 10.228 10.38 10.517 10.588 10.64 10.695 10.753 10.993 11.518 12.167 12.564 12.622 12.602 12.614 12.637 9.342 5.992 6.858 8.752 9.882 10.202 10.36 10.315 10.005 9.47 9.045 8.74 8.418 8.105 7.427 6.079 6.461 7.607 7.53 7.505 7.56 7.698 7.902 7.659 6.326 6.576 7.822 7.827 7.81 7.782 7.68 7.5 7.405 7.56 7.855 8.115 8.255 8.307 8.363 8.433 8.535 8.658 8.78 8.895 9 9.1 9.192 9.285 9.34 9.353 9.373 9.45 9.588 9.74 9.9 10.08 10.31 10.575 10.845 11.085 11.26 11.402 11.542 11.655 11.727 11.775 11.82 11.867 11.9 11.923 11.948 11.962 11.91 11.805 11.712 11.695 11.737 11.767 11.787 11.765 11.7 11.628 11.565 11.563 11.613 11.69 11.785 11.84 11.865 11.887 11.902 11.89 11.835 11.757 11.665 11.575 11.56 11.552 11.455 11.408 11.502 11.552 11.488 11.423 11.44 11.535 11.64 11.708 11.708 11.715 11.77 11.84 11.91 11.98 12.055 12.13 12.215 12.317 12.422 12.49 12.507 12.515 12.527 12.545 12.54 12.51 12.477 12.458 12.495 12.575 12.615 12.615 12.617 12.622 12.627 12.63 12.605 12.557 12.525 12.54 12.582 12.617 12.65 12.69 12.745 12.805 12.865 12.958 13.077 13.152 13.175 13.185 13.19 13.195 13.2 13.215 13.245 13.278 13.313 13.357 13.397 13.423 13.453 13.5 13.56 13.62 13.665 13.677 13.673 13.67 13.665 13.658 13.65 13.64 13.633 13.673 13.768 13.923 14.082 14.158 14.195
9.935 10.028 10.143 10.265 10.385 10.508 10.613 10.688 10.76 10.87 11.265 11.77 12.27 12.739 12.794 12.622 12.579 11.641 10.059 7.82 6.188 6.341 6.871 7.496 7.998 8.258 8.258 8.061 7.728 7.481 7.258 6.945 6.533 5.716 5.476 6.208 6.653 6.745 6.828 7.01 7.36 7.777 7.005 6.418 7.327 7.852 7.832 7.807 7.74 7.592 7.415 7.453 7.723 8.025 8.27 8.37 8.4 8.45 8.505 8.578 8.68 8.8 8.915 9.017 9.1 9.158 9.322 9.47 9.452 9.393 9.4 9.498 9.643 9.845 10.088 10.35 10.615 10.885 11.115 11.28 11.417 11.545 11.652 11.735 11.797 11.847 11.89 11.92 11.94 11.957 11.972 11.862 11.678 11.57 11.575 11.64 11.675 11.682 11.65 11.597 11.532 11.47 11.473 11.545 11.645 11.745 11.802 11.827 11.84 11.832 11.802 11.737 11.647 11.553 11.475 11.473 11.51 11.458 11.445 11.595 11.705 11.68 11.638 11.64 11.653 11.645 11.648 11.698 11.77 11.837 11.905 11.975 12.048 12.122 12.198 12.278 12.368 12.47 12.542 12.555 12.553 12.563 12.602 12.632 12.615 12.577 12.52 12.498 12.553 12.602 12.61 12.613 12.618 12.63 12.642 12.62 12.57 12.548 12.58 12.635 12.68 12.715 12.765 12.835 12.9 12.965 13.062 13.157 13.205 13.235 13.26 13.27 13.275 13.283 13.293 13.31 13.34 13.378 13.435 13.5 13.535 13.565 13.617 13.672 13.712 13.735 13.735 13.73 13.727 13.72 13.71 13.702 13.688 13.68 13.72 13.803 14.005 14.257 14.35 14.345
10.125 10.21 10.315 10.435 10.552 10.667 10.745 10.805 11.085 11.4 11.795 12.125 12.112 12.277 12.139 11.27 10.565 9.098 7.014 6.279 6.367 6.497 6.723 7.01 7.318 7.568 7.615 7.445 7.203 7.005 6.755 6.465 5.82 5.293 5.695 6.215 6.465 6.697 6.857 7.025 7.315 7.404 6.158 6.276 7.714 7.867 7.83 7.77 7.667 7.51 7.45 7.668 8.01 8.33 8.52 8.52 8.498 8.538 8.593 8.648 8.718 8.823 8.935 9.02 9.077 9.123 9.37 9.59 9.53 9.423 9.415 9.528 9.71 9.943 10.18 10.423 10.668 10.925 11.142 11.29 11.415 11.532 11.635 11.72 11.8 11.867 11.91 11.935 11.952 11.965 11.975 11.822 11.56 11.423 11.448 11.532 11.57 11.562 11.52 11.475 11.428 11.378 11.398 11.495 11.605 11.705 11.75 11.74 11.708 11.658 11.623 11.592 11.527 11.44 11.378 11.39 11.45 11.44 11.483 11.665 11.837 11.885 11.855 11.84 11.812 11.765 11.71 11.735 11.82 11.89 11.963 12.038 12.115 12.19 12.265 12.345 12.428 12.52 12.592 12.607 12.598 12.603 12.645 12.702 12.715 12.677 12.615 12.555 12.548 12.585 12.605 12.608 12.62 12.645 12.66 12.632 12.58 12.57 12.615 12.675 12.73 12.775 12.838 12.922 12.997 13.075 13.157 13.212 13.245 13.28 13.315 13.337 13.352 13.365 13.375 13.385 13.405 13.44 13.5 13.577 13.637 13.68 13.722 13.757 13.777 13.792 13.795 13.79 13.785 13.775 13.757 13.74 13.733 13.745 13.79 13.895 14.14 14.38 14.445 14.432
10.307 10.395 10.49 10.602 10.715 10.822 10.883 11.05 11.472 11.782 11.872 11.949 11.207 10.525 10.307 9.393 8.274 7.278 6.543 6.323 6.418 6.57 6.76 6.95 7.155 7.365 7.355 7.108 6.828 6.58 6.375 6.082 5.458 5.35 5.9 6.235 6.457 6.685 6.865 7 7.19 6.685 5.768 6.453 7.602 7.807 7.8 7.7 7.583 7.498 7.623 7.952 8.302 8.635 8.772 8.695 8.623 8.635 8.69 8.743 8.795 8.863 8.94 8.997 9.042 9.09 9.422 9.692 9.59 9.46 9.453 9.618 9.85 10.098 10.332 10.552 10.765 10.985 11.165 11.288 11.405 11.517 11.612 11.695 11.777 11.857 11.907 11.93 11.95 11.967 11.975 11.815 11.505 11.303 11.31 11.415 11.457 11.435 11.398 11.368 11.348 11.375 11.465 11.575 11.685 11.768 11.768 11.695 11.605 11.518 11.44 11.403 11.38 11.32 11.28 11.31 11.37 11.428 11.56 11.773 11.975 12.065 12.035 11.978 11.91 11.843 11.778 11.803 11.905 11.988 12.06 12.133 12.205 12.265 12.33 12.412 12.495 12.575 12.642 12.662 12.65 12.648 12.685 12.755 12.802 12.782 12.715 12.645 12.59 12.583 12.598 12.61 12.635 12.665 12.677 12.65 12.608 12.615 12.67 12.73 12.785 12.833 12.902 12.995 13.082 13.162 13.215 13.25 13.285 13.318 13.352 13.385 13.415 13.44 13.455 13.465 13.477 13.503 13.557 13.632 13.705 13.765 13.8 13.82 13.835 13.847 13.852 13.847 13.832 13.8 13.775 13.775 13.795 13.828 13.875 14.015 14.275 14.43 14.432 14.425
10.412 10.52 10.625 10.735 10.845 10.952 11.053 11.3 11.567 11.687 11.38 10.825 9.825 8.976 8.903 8.735 7.91 6.873 6.425 6.365 6.518 6.69 6.84 7.03 7.215 7.312 7.177 6.888 6.593 6.33 6.2 5.708 5.243 5.57 5.975 6.167 6.382 6.597 6.742 6.837 6.914 5.943 5.818 6.957 7.395 7.682 7.742 7.625 7.523 7.565 7.82 8.16 8.497 8.82 8.93 8.83 8.77 8.795 8.85 8.9 8.95 8.945 8.925 8.958 9.005 9.053 9.455 9.782 9.665 9.533 9.558 9.775 10.025 10.277 10.482 10.655 10.85 11.035 11.177 11.29 11.4 11.502 11.58 11.65 11.73 11.81 11.865 11.892 11.917 11.942 11.947 11.777 11.463 11.25 11.243 11.343 11.388 11.373 11.355 11.358 11.418 11.56 11.705 11.815 11.902 11.942 11.93 11.85 11.73 11.618 11.53 11.46 11.383 11.28 11.248 11.333 11.445 11.58 11.77 11.987 12.125 12.162 12.175 12.147 12.08 12.01 11.94 11.935 12.033 12.132 12.2 12.27 12.322 12.335 12.368 12.45 12.537 12.62 12.692 12.725 12.72 12.715 12.743 12.805 12.865 12.87 12.815 12.745 12.675 12.623 12.61 12.633 12.665 12.695 12.715 12.708 12.688 12.713 12.77 12.812 12.842 12.873 12.94 13.037 13.132 13.207 13.25 13.285 13.32 13.352 13.387 13.42 13.452 13.485 13.505 13.515 13.533 13.563 13.593 13.638 13.707 13.772 13.815 13.845 13.875 13.9 13.9 13.87 13.833 13.805 13.81 13.843 13.875 13.91 13.96 14.135 14.367 14.44 14.42 14.412
10.468 10.563 10.682 10.792 10.9 11.01 11.147 11.33 11.472 11.08 10.235 9.548 9.118 8.848 8.7 8.49 7.657 6.695 6.378 6.515 6.802 6.882 6.913 7.1 7.225 7.225 7.047 6.753 6.47 6.23 5.905 5.333 5.353 5.792 5.915 6.055 6.235 6.415 6.528 6.6 6.382 5.626 6.063 7.085 7.288 7.56 7.67 7.563 7.54 7.688 7.955 8.275 8.6 8.902 9.007 8.94 8.943 9.007 9.065 9.115 9.115 9.005 8.913 8.92 8.958 9.038 9.49 9.85 9.767 9.665 9.733 9.983 10.238 10.48 10.63 10.73 10.895 11.06 11.182 11.29 11.39 11.487 11.555 11.605 11.673 11.75 11.807 11.838 11.865 11.905 11.9 11.712 11.438 11.27 11.265 11.345 11.387 11.395 11.413 11.493 11.655 11.842 11.985 12.07 12.107 12.122 12.132 12.092 11.99 11.898 11.855 11.805 11.683 11.525 11.483 11.57 11.708 11.875 12.07 12.217 12.23 12.21 12.26 12.312 12.295 12.235 12.17 12.14 12.19 12.28 12.355 12.405 12.41 12.375 12.383 12.458 12.545 12.637 12.717 12.77 12.8 12.807 12.82 12.87 12.917 12.925 12.9 12.845 12.775 12.71 12.68 12.688 12.71 12.74 12.77 12.787 12.793 12.815 12.85 12.87 12.88 12.898 12.96 13.06 13.155 13.232 13.282 13.317 13.35 13.385 13.417 13.445 13.475 13.505 13.525 13.54 13.583 13.632 13.64 13.64 13.68 13.735 13.782 13.822 13.86 13.895 13.887 13.853 13.84 13.855 13.89 13.925 13.955 13.99 14.055 14.257 14.43 14.43 14.408 14.398
10.56 10.605 10.707 10.807 10.908 11.015 11.132 10.925 10.65 10.158 9.598 9.385 9.09 8.78 8.527 8.055 7.21 6.588 6.423 6.682 7.05 7.095 7.06 7.13 7.142 7.082 6.917 6.633 6.368 6.137 5.563 5.191 5.597 5.872 5.878 5.99 6.135 6.275 6.368 6.415 5.808 5.72 6.615 7.055 7.23 7.447 7.57 7.568 7.67 7.865 8.09 8.378 8.687 8.977 9.095 9.088 9.143 9.217 9.28 9.285 9.185 9.018 8.918 8.903 8.913 9.245 9.742 9.892 9.838 9.805 9.933 10.197 10.46 10.675 10.79 10.858 10.958 11.073 11.178 11.278 11.375 11.472 11.54 11.58 11.628 11.693 11.75 11.788 11.833 11.895 11.862 11.678 11.473 11.325 11.308 11.377 11.415 11.445 11.543 11.73 11.94 12.122 12.237 12.275 12.285 12.3 12.315 12.31 12.25 12.185 12.162 12.145 12.077 11.972 11.943 11.98 12.05 12.18 12.31 12.332 12.28 12.25 12.29 12.38 12.44 12.44 12.402 12.38 12.392 12.44 12.487 12.485 12.445 12.395 12.4 12.47 12.553 12.642 12.72 12.78 12.837 12.877 12.897 12.935 12.965 12.96 12.95 12.925 12.872 12.818 12.79 12.782 12.785 12.797 12.82 12.858 12.902 12.915 12.898 12.898 12.91 12.925 12.983 13.08 13.175 13.257 13.315 13.35 13.38 13.412 13.44 13.465 13.495 13.525 13.55 13.59 13.663 13.717 13.72 13.7 13.695 13.713 13.745 13.78 13.813 13.845 13.86 13.875 13.905 13.938 13.972 14.005 14.038 14.075 14.173 14.357 14.45 14.42 14.395 14.383
10.672 10.66 10.72 10.817 10.912 10.91 10.727 10.265 9.893 9.8 9.622 9.34 9.03 8.72 8.417 7.702 6.865 6.54 6.493 6.682 6.935 7.057 7.09 7.052 6.965 6.902 6.785 6.532 6.275 5.94 5.353 5.413 5.827 5.81 5.85 5.933 6.045 6.195 6.302 6.167 5.523 5.898 6.85 7.025 7.2 7.375 7.53 7.678 7.857 8.052 8.25 8.49 8.77 9.052 9.215 9.272 9.345 9.417 9.452 9.37 9.203 9.03 8.93 8.905 8.898 9.452 9.98 9.925 9.903 9.953 10.128 10.395 10.665 10.845 10.912 10.965 11.028 11.105 11.195 11.283 11.368 11.458 11.525 11.565 11.605 11.65 11.703 11.76 11.825 11.897 11.862 11.705 11.535 11.38 11.35 11.41 11.443 11.525 11.715 11.95 12.175 12.347 12.417 12.432 12.445 12.457 12.472 12.487 12.475 12.447 12.432 12.417 12.39 12.352 12.345 12.362 12.38 12.427 12.447 12.4 12.343 12.298 12.325 12.415 12.505 12.575 12.592 12.577 12.565 12.565 12.552 12.51 12.46 12.41 12.415 12.485 12.565 12.645 12.715 12.778 12.84 12.9 12.947 12.982 12.997 12.99 12.982 12.975 12.952 12.92 12.89 12.865 12.842 12.817 12.855 12.945 13.037 13.067 13.023 12.993 12.975 12.963 13.005 13.1 13.195 13.285 13.347 13.38 13.408 13.435 13.463 13.49 13.52 13.553 13.598 13.67 13.757 13.805 13.8 13.77 13.73 13.723 13.745 13.765 13.795 13.83 13.873 13.935 13.985 14.02 14.055 14.085 14.12 14.16 14.292 14.43 14.44 14.41 14.385 14.37
10.692 10.647 10.678 10.775 10.85 10.707 10.253 9.918 9.83 9.73 9.515 9.205 8.895 8.61 8.225 7.45 6.775 6.568 6.498 6.52 6.63 6.732 6.652 6.39 6.125 6.052 6.105 6.07 5.895 5.508 5.26 5.645 5.885 5.79 5.845 5.853 5.925 6.122 6.272 5.775 5.575 6.32 6.82 7.015 7.248 7.438 7.615 7.827 8.027 8.222 8.415 8.62 8.863 9.135 9.332 9.425 9.497 9.54 9.532 9.457 9.303 9.123 9.023 9.005 9.02 9.538 10.01 9.993 10.045 10.14 10.313 10.572 10.815 10.94 10.977 11.025 11.095 11.178 11.26 11.338 11.41 11.483 11.525 11.55 11.59 11.628 11.68 11.753 11.825 11.897 11.885 11.757 11.595 11.43 11.39 11.443 11.505 11.66 11.885 12.12 12.335 12.48 12.532 12.547 12.562 12.575 12.59 12.612 12.625 12.62 12.605 12.59 12.575 12.557 12.55 12.55 12.555 12.56 12.54 12.495 12.44 12.383 12.398 12.485 12.575 12.64 12.66 12.652 12.63 12.602 12.567 12.52 12.47 12.428 12.445 12.52 12.598 12.665 12.72 12.778 12.84 12.9 12.96 12.995 12.997 12.99 12.985 12.98 12.977 12.96 12.907 12.845 12.793 12.768 12.855 13.015 13.135 13.18 13.152 13.107 13.062 13.018 13.043 13.138 13.233 13.337 13.4 13.42 13.448 13.475 13.505 13.535 13.57 13.62 13.68 13.755 13.845 13.877 13.845 13.797 13.745 13.75 13.79 13.805 13.823 13.845 13.883 13.958 14.037 14.095 14.135 14.168 14.203 14.243 14.37 14.46 14.43 14.4 14.373 14.358
10.623 10.568 10.593 10.677 10.68 10.48 10.085 9.798 9.697 9.572 9.335 9.038 8.77 8.542 7.932 7.098 6.695 6.562 6.425 6.333 6.362 6.267 5.828 5.345 5.093 5.048 5.138 5.283 5.4 5.4 5.463 5.732 5.84 5.813 5.827 5.773 5.848 6.067 6.065 5.483 5.783 6.672 6.915 7.178 7.417 7.557 7.715 7.955 8.18 8.38 8.575 8.77 8.983 9.232 9.432 9.53 9.57 9.547 9.527 9.535 9.462 9.3 9.205 9.103 9.333 9.867 10.085 10.143 10.24 10.34 10.5 10.747 10.925 10.982 11.025 11.088 11.168 11.253 11.337 11.42 11.497 11.552 11.558 11.55 11.575 11.615 11.673 11.75 11.825 11.887 11.875 11.78 11.647 11.485 11.433 11.498 11.628 11.83 12.055 12.28 12.45 12.56 12.62 12.642 12.658 12.675 12.698 12.72 12.732 12.73 12.717 12.702 12.685 12.663 12.643 12.635 12.638 12.642 12.63 12.595 12.55 12.495 12.5 12.575 12.637 12.655 12.645 12.64 12.63 12.607 12.573 12.533 12.498 12.47 12.503 12.58 12.645 12.7 12.745 12.793 12.845 12.903 12.965 12.992 12.978 12.96 12.955 12.953 12.965 12.952 12.883 12.8 12.728 12.728 12.85 13.03 13.157 13.22 13.22 13.175 13.13 13.078 13.098 13.193 13.298 13.42 13.482 13.485 13.505 13.532 13.56 13.598 13.653 13.725 13.778 13.835 13.907 13.915 13.858 13.795 13.76 13.785 13.84 13.865 13.875 13.885 13.923 13.983 14.055 14.137 14.202 14.25 14.285 14.343 14.425 14.45 14.42 14.39 14.36 14.343
10.57 10.488 10.51 10.532 10.427 10.22 9.918 9.685 9.572 9.415 9.185 8.948 8.738 8.502 7.715 6.878 6.633 6.517 6.358 6.227 6.092 5.677 5.13 4.835 4.78 4.78 4.78 4.845 5.013 5.285 5.525 5.737 5.85 5.822 5.8 5.765 5.88 6.107 5.693 5.521 6.295 6.885 7.187 7.425 7.555 7.625 7.783 8.052 8.317 8.537 8.737 8.935 9.135 9.352 9.532 9.597 9.57 9.51 9.49 9.53 9.552 9.472 9.322 9.06 9.523 10.185 10.248 10.342 10.44 10.54 10.688 10.887 11 11.028 11.083 11.16 11.242 11.327 11.41 11.485 11.557 11.607 11.607 11.585 11.578 11.605 11.667 11.745 11.822 11.875 11.85 11.767 11.67 11.538 11.485 11.593 11.785 12 12.222 12.412 12.535 12.632 12.705 12.737 12.755 12.783 12.815 12.832 12.837 12.837 12.83 12.815 12.795 12.77 12.745 12.728 12.723 12.727 12.715 12.682 12.645 12.603 12.595 12.625 12.64 12.635 12.628 12.625 12.623 12.615 12.593 12.565 12.548 12.533 12.565 12.632 12.685 12.733 12.778 12.823 12.865 12.915 12.972 12.992 12.965 12.938 12.928 12.935 12.965 12.957 12.888 12.815 12.798 12.83 12.923 13.068 13.18 13.262 13.285 13.24 13.185 13.13 13.153 13.258 13.38 13.51 13.58 13.573 13.568 13.588 13.623 13.68 13.755 13.835 13.875 13.9 13.932 13.937 13.887 13.805 13.778 13.82 13.885 13.922 13.935 13.96 14.035 14.095 14.12 14.173 14.243 14.312 14.363 14.427 14.465 14.44 14.41 14.38 14.348 14.328
10.54 10.425 10.375 10.292 10.135 9.96 9.75 9.58 9.473 9.323 9.128 8.935 8.742 8.212 7.33 6.763 6.593 6.455 6.27 6.087 5.712 5.16 4.84 4.78 4.78 4.78 4.78 4.78 4.783 4.888 5.133 5.445 5.675 5.74 5.782 5.82 5.957 6.002 5.488 5.868 6.857 7.195 7.427 7.545 7.615 7.685 7.848 8.14 8.427 8.66 8.86 9.047 9.242 9.437 9.547 9.547 9.517 9.47 9.45 9.492 9.547 9.525 9.245 8.926 9.553 10.32 10.43 10.535 10.637 10.74 10.87 10.99 11.042 11.075 11.132 11.207 11.28 11.355 11.427 11.49 11.567 11.635 11.645 11.625 11.6 11.593 11.635 11.707 11.775 11.81 11.78 11.707 11.635 11.55 11.56 11.733 11.955 12.17 12.365 12.505 12.602 12.697 12.78 12.832 12.865 12.9 12.93 12.94 12.94 12.942 12.942 12.927 12.905 12.88 12.855 12.83 12.813 12.81 12.797 12.77 12.735 12.703 12.678 12.663 12.66 12.658 12.655 12.655 12.655 12.66 12.66 12.643 12.62 12.603 12.623 12.673 12.72 12.768 12.813 12.855 12.898 12.943 12.99 13 12.963 12.925 12.913 12.935 12.972 12.962 12.913 12.915 13.005 13.065 13.08 13.148 13.23 13.307 13.34 13.297 13.233 13.18 13.218 13.34 13.47 13.6 13.677 13.673 13.653 13.675 13.738 13.82 13.907 13.965 13.972 13.963 13.965 13.98 13.94 13.853 13.828 13.865 13.923 13.97 14 14.068 14.187 14.26 14.265 14.278 14.31 14.368 14.43 14.465 14.458 14.425 14.395 14.365 14.33 14.318
10.495 10.132 9.775 9.88 9.97 9.81 9.653 9.525 9.43 9.307 9.132 8.94 8.75 7.957 7.008 6.683 6.565 6.387 6.162 5.822 5.268 4.87 4.78 4.78 4.78 4.78 4.78 4.78 4.78 4.78 4.818 4.963 5.238 5.477 5.627 5.763 6 5.678 5.581 6.472 7.122 7.372 7.507 7.59 7.662 7.735 7.915 8.178 8.455 8.725 8.902 9.05 9.225 9.415 9.45 9.36 9.33 9.315 9.302 9.322 9.347 9.317 9.048 9.158 9.937 10.432 10.55 10.667 10.782 10.892 10.992 11.05 11.072 11.102 11.142 11.198 11.262 11.327 11.393 11.46 11.56 11.655 11.672 11.65 11.607 11.553 11.565 11.63 11.672 11.687 11.66 11.597 11.535 11.518 11.623 11.83 12.057 12.257 12.395 12.492 12.585 12.672 12.76 12.845 12.905 12.95 12.987 13 13 13 13.002 13.007 13.002 12.982 12.96 12.937 12.913 12.898 12.885 12.86 12.83 12.805 12.763 12.728 12.725 12.725 12.725 12.725 12.73 12.742 12.752 12.745 12.72 12.695 12.705 12.745 12.788 12.835 12.868 12.893 12.933 12.977 13.02 13.02 12.978 12.943 12.938 12.958 12.983 12.998 13.03 13.128 13.26 13.322 13.268 13.243 13.305 13.38 13.41 13.367 13.303 13.248 13.29 13.422 13.555 13.68 13.772 13.83 13.885 13.967 14.042 14.07 14.077 14.055 14.037 14.035 14.028 14.037 13.997 13.933 13.928 13.953 13.988 14.025 14.083 14.187 14.31 14.375 14.382 14.387 14.392 14.418 14.47 14.505 14.475 14.403 14.35 14.318 14.29 14.308
10.175 9.605 9.255 9.358 9.712 9.815 9.66 9.525 9.42 9.305 9.14 8.95 8.522 7.65 6.908 6.645 6.53 6.307 5.942 5.395 4.913 4.78 4.78 4.78 4.78 4.78 4.78 4.78 4.78 4.78 4.78 4.78 4.9 5.263 5.473 5.62 5.9 5.578 5.95 6.972 7.285 7.405 7.502 7.612 7.697 7.78 7.995 8.255 8.498 8.755 8.917 9.038 9.178 9.342 9.35 9.143 9.018 9.02 9.015 9.008 9.005 8.968 8.868 9.497 10.325 10.517 10.635 10.755 10.867 10.962 11.027 11.062 11.085 11.11 11.14 11.178 11.23 11.293 11.358 11.443 11.565 11.672 11.697 11.657 11.58 11.493 11.483 11.525 11.545 11.555 11.532 11.473 11.443 11.513 11.668 11.862 12.062 12.222 12.33 12.405 12.483 12.568 12.66 12.76 12.847 12.912 12.965 13 13.007 13.003 13.008 13.037 13.067 13.065 13.047 13.03 13.01 12.993 12.975 12.955 12.935 12.915 12.863 12.808 12.795 12.795 12.798 12.803 12.813 12.825 12.835 12.842 12.83 12.803 12.813 12.855 12.895 12.942 12.962 12.958 12.975 13.013 13.05 13.042 13.008 12.993 12.995 13.008 13.025 13.083 13.207 13.36 13.507 13.575 13.482 13.383 13.405 13.475 13.492 13.452 13.397 13.335 13.368 13.497 13.627 13.725 13.81 13.927 14.06 14.197 14.27 14.232 14.155 14.075 14.053 14.085 14.095 14.095 14.06 14.023 14.04 14.065 14.075 14.088 14.158 14.272 14.38 14.43 14.432 14.437 14.442 14.458 14.495 14.545 14.545 14.458 14.358 14.278 14.24 14.285
9.64 9.33 9.222 9.085 9.203 9.312 9.427 9.545 9.417 9.307 9.152 8.96 8.242 7.25 6.775 6.615 6.472 6.195 5.635 5.025 4.783 4.78 4.78 4.78 4.78 4.78 4.78 4.78 4.78 4.78 4.78 4.78 4.8 5.208 5.582 5.77 5.605 5.666 6.57 7.17 7.322 7.388 7.485 7.612 7.72 7.84 7.983 8.265 8.577 8.78 8.945 9.065 9.183 9.31 9.335 9.073 8.783 8.72 8.74 8.758 8.773 8.773 8.79 9.53 10.387 10.597 10.725 10.832 10.917 10.985 11.032 11.067 11.097 11.123 11.15 11.18 11.218 11.265 11.333 11.44 11.575 11.69 11.707 11.635 11.545 11.455 11.408 11.403 11.405 11.415 11.4 11.373 11.423 11.562 11.715 11.865 12.012 12.145 12.257 12.33 12.388 12.463 12.558 12.66 12.762 12.85 12.912 12.965 12.995 13 13.013 13.05 13.1 13.125 13.12 13.105 13.095 13.095 13.085 13.065 13.045 13.025 12.97 12.893 12.863 12.868 12.875 12.885 12.895 12.908 12.92 12.932 12.932 12.91 12.918 12.963 13.008 13.057 13.077 13.06 13.048 13.058 13.08 13.075 13.058 13.055 13.058 13.07 13.1 13.178 13.325 13.5 13.662 13.747 13.69 13.558 13.515 13.562 13.567 13.532 13.487 13.428 13.45 13.567 13.667 13.72 13.79 13.913 14.053 14.202 14.27 14.227 14.157 14.083 14.05 14.095 14.147 14.16 14.138 14.125 14.137 14.137 14.12 14.135 14.218 14.327 14.427 14.47 14.47 14.473 14.483 14.5 14.525 14.565 14.607 14.58 14.48 14.385 14.343 14.355
9.375 9.297 9.185 9.05 8.91 8.768 8.893 9.175 9.312 9.31 9.16 8.837 7.985 7.065 6.708 6.592 6.392 6.055 5.39 4.848 4.78 4.78 4.78 4.78 4.78 4.78 4.78 4.78 4.78 4.78 4.78 4.78 4.78 5.185 5.765 5.937 5.555 5.998 7.004 7.227 7.3 7.37 7.47 7.603 7.733 7.912 8.01 8.255 8.615 8.812 8.972 9.09 9.202 9.302 9.327 9.152 8.95 8.943 9.03 9.097 8.93 8.76 9.035 9.795 10.442 10.665 10.79 10.867 10.93 10.99 11.035 11.07 11.105 11.132 11.16 11.19 11.223 11.255 11.318 11.433 11.567 11.685 11.697 11.615 11.53 11.445 11.378 11.338 11.31 11.293 11.285 11.323 11.427 11.565 11.687 11.805 11.935 12.065 12.182 12.26 12.31 12.368 12.452 12.552 12.652 12.752 12.835 12.905 12.962 12.99 13.015 13.06 13.115 13.162 13.18 13.175 13.17 13.172 13.172 13.162 13.15 13.135 13.077 12.975 12.928 12.942 12.955 12.967 12.98 12.992 13.005 13.015 13.025 13.018 13.025 13.073 13.125 13.175 13.195 13.177 13.152 13.135 13.128 13.123 13.12 13.12 13.123 13.143 13.188 13.26 13.395 13.565 13.702 13.785 13.79 13.722 13.658 13.648 13.64 13.605 13.565 13.518 13.53 13.61 13.665 13.695 13.77 13.903 14.055 14.212 14.265 14.21 14.15 14.085 14.048 14.083 14.157 14.21 14.212 14.197 14.182 14.157 14.138 14.18 14.28 14.385 14.475 14.51 14.51 14.51 14.52 14.542 14.565 14.595 14.645 14.682 14.672 14.64 14.597 14.545
9.345 9.252 9.13 8.997 8.862 8.725 8.588 8.613 8.75 9.025 9.162 8.617 7.598 6.883 6.678 6.552 6.265 5.875 5.303 4.84 4.78 4.78 4.78 4.78 4.78 4.78 4.78 4.78 4.78 4.78 4.78 4.78 4.78 5.238 5.92 5.66 5.681 6.607 7.097 7.2 7.272 7.343 7.475 7.652 7.8 8.012 8.2 8.402 8.655 8.845 8.995 9.1 9.192 9.27 9.267 9.2 9.215 9.322 9.452 9.565 9.442 9.32 9.625 10.085 10.417 10.637 10.752 10.807 10.865 10.942 11.007 11.042 11.075 11.105 11.152 11.2 11.23 11.26 11.315 11.415 11.54 11.655 11.677 11.612 11.532 11.448 11.383 11.335 11.288 11.235 11.2 11.258 11.375 11.485 11.595 11.717 11.847 11.957 12.06 12.147 12.205 12.257 12.33 12.417 12.51 12.607 12.702 12.79 12.867 12.935 12.992 13.042 13.09 13.137 13.172 13.192 13.195 13.185 13.182 13.187 13.19 13.185 13.13 13.025 12.978 12.995 13.012 13.03 13.045 13.057 13.072 13.087 13.105 13.115 13.135 13.182 13.232 13.28 13.297 13.27 13.235 13.2 13.183 13.19 13.193 13.188 13.193 13.228 13.283 13.345 13.46 13.597 13.697 13.765 13.79 13.79 13.765 13.735 13.712 13.678 13.64 13.603 13.598 13.625 13.655 13.683 13.763 13.91 14.07 14.215 14.252 14.195 14.137 14.078 14.04 14.075 14.16 14.247 14.267 14.225 14.19 14.165 14.168 14.235 14.337 14.43 14.505 14.54 14.547 14.552 14.565 14.585 14.605 14.628 14.687 14.76 14.795 14.777 14.717 14.645
9.305 9.19 9.06 8.928 8.795 8.663 8.53 8.403 8.27 8.428 8.812 8.34 7.273 6.773 6.655 6.46 6.087 5.657 5.262 4.923 4.78 4.78 4.78 4.78 4.78 4.78 4.78 4.78 4.78 4.78 4.78 4.78 4.88 5.46 5.924 5.55 6.023 6.959 7.102 7.175 7.245 7.305 7.465 7.715 7.91 7.99 8.2 8.505 8.695 8.875 9 9.077 9.152 9.22 9.21 9.193 9.26 9.363 9.488 9.62 9.747 9.842 9.902 10.035 10.262 10.487 10.615 10.668 10.738 10.85 10.94 10.977 11.01 11.043 11.107 11.187 11.235 11.265 11.32 11.408 11.515 11.625 11.647 11.592 11.527 11.45 11.387 11.332 11.27 11.197 11.123 11.148 11.267 11.387 11.505 11.615 11.707 11.78 11.87 11.987 12.07 12.128 12.198 12.275 12.358 12.445 12.54 12.632 12.718 12.822 12.922 12.98 13.02 13.06 13.1 13.14 13.165 13.165 13.16 13.163 13.165 13.165 13.12 13.04 13.01 13.025 13.045 13.062 13.077 13.095 13.115 13.13 13.125 13.137 13.182 13.23 13.275 13.32 13.337 13.312 13.272 13.228 13.223 13.26 13.28 13.275 13.285 13.328 13.383 13.44 13.51 13.59 13.672 13.745 13.775 13.778 13.787 13.795 13.79 13.767 13.73 13.695 13.678 13.678 13.695 13.72 13.793 13.93 14.085 14.215 14.237 14.18 14.125 14.093 14.09 14.125 14.2 14.292 14.317 14.27 14.225 14.185 14.193 14.267 14.357 14.435 14.5 14.54 14.557 14.575 14.597 14.617 14.632 14.65 14.715 14.77 14.767 14.73 14.675 14.625
9.265 9.15 9.02 8.888 8.755 8.625 8.495 8.368 8.24 8.108 8.325 7.915 7.01 6.745 6.625 6.322 5.855 5.395 5.07 4.878 4.78 4.78 4.78 4.78 4.78 4.78 4.78 4.78 4.78 4.78 4.78 4.78 5.08 5.802 5.595 5.626 6.625 7.002 7.077 7.147 7.207 7.26 7.423 7.705 7.97 7.953 8.133 8.545 8.73 8.9 9 9.045 9.108 9.165 9.18 9.22 9.308 9.403 9.52 9.632 9.707 9.73 9.75 9.87 10.073 10.297 10.447 10.518 10.628 10.772 10.865 10.905 10.942 10.978 11.04 11.135 11.215 11.265 11.325 11.41 11.502 11.597 11.615 11.56 11.505 11.437 11.37 11.3 11.217 11.132 11.048 11.04 11.143 11.283 11.407 11.485 11.533 11.58 11.668 11.817 11.935 12 12.072 12.147 12.22 12.298 12.385 12.475 12.573 12.697 12.825 12.9 12.94 12.978 13.018 13.065 13.11 13.135 13.14 13.137 13.135 13.135 13.102 13.053 13.04 13.055 13.075 13.09 13.105 13.112 13.1 13.077 13.068 13.108 13.17 13.217 13.262 13.307 13.325 13.315 13.292 13.253 13.255 13.31 13.355 13.37 13.392 13.442 13.497 13.555 13.59 13.608 13.655 13.725 13.76 13.768 13.79 13.817 13.84 13.845 13.825 13.797 13.785 13.78 13.783 13.8 13.86 13.97 14.102 14.212 14.225 14.19 14.178 14.188 14.215 14.245 14.288 14.35 14.375 14.34 14.293 14.243 14.235 14.283 14.345 14.418 14.482 14.52 14.545 14.575 14.605 14.63 14.65 14.67 14.705 14.717 14.69 14.65 14.613 14.582
9.24 9.145 9.015 8.885 8.755 8.625 8.495 8.365 8.23 8.178 8.142 7.515 6.86 6.72 6.537 6.095 5.505 5.068 4.855 4.795 4.78 4.78 4.78 4.78 4.78 4.78 4.78 4.78 4.78 4.78 4.78 4.855 5.375 5.854 5.508 5.975 6.882 6.978 7.048 7.11 7.165 7.218 7.395 7.698 8.007 8.132 8.293 8.575 8.75 8.915 9.01 9.04 9.083 9.133 9.188 9.265 9.352 9.44 9.515 9.557 9.568 9.56 9.588 9.715 9.905 10.108 10.27 10.393 10.548 10.705 10.792 10.83 10.87 10.908 10.968 11.06 11.155 11.235 11.31 11.392 11.475 11.555 11.56 11.495 11.432 11.365 11.292 11.215 11.135 11.057 10.978 10.94 11.03 11.208 11.34 11.398 11.433 11.463 11.528 11.668 11.795 11.87 11.942 12.015 12.087 12.162 12.238 12.323 12.435 12.57 12.725 12.827 12.865 12.905 12.95 13 13.048 13.09 13.11 13.107 13.105 13.105 13.09 13.072 13.075 13.087 13.102 13.097 13.077 13.047 12.998 12.975 13.018 13.095 13.157 13.202 13.247 13.28 13.292 13.297 13.295 13.275 13.29 13.347 13.4 13.43 13.462 13.52 13.58 13.64 13.687 13.695 13.698 13.725 13.748 13.77 13.8 13.83 13.855 13.872 13.877 13.88 13.882 13.877 13.875 13.88 13.932 14.03 14.137 14.227 14.26 14.272 14.3 14.325 14.342 14.36 14.377 14.4 14.415 14.397 14.365 14.327 14.315 14.337 14.372 14.42 14.47 14.507 14.532 14.555 14.572 14.587 14.602 14.625 14.645 14.635 14.602 14.57 14.542 14.517
9.22 9.145 9.015 8.885 8.755 8.625 8.492 8.355 8.21 8.26 7.975 7.218 6.81 6.685 6.402 5.777 5.13 4.835 4.78 4.78 4.78 4.78 4.78 4.78 4.78 4.78 4.78 4.78 4.78 4.78 4.78 5.053 5.779 5.64 5.691 6.59 6.89 6.975 7.045 7.103 7.155 7.21 7.418 7.755 7.898 8.102 8.405 8.567 8.735 8.9 8.995 9.027 9.068 9.125 9.202 9.287 9.375 9.462 9.512 9.503 9.468 9.428 9.435 9.565 9.763 9.958 10.138 10.308 10.482 10.627 10.702 10.737 10.775 10.82 10.88 10.96 11.052 11.145 11.23 11.31 11.392 11.475 11.472 11.388 11.313 11.245 11.172 11.098 11.025 10.963 10.915 10.893 10.985 11.18 11.31 11.36 11.39 11.398 11.443 11.56 11.655 11.715 11.785 11.857 11.932 12.008 12.098 12.19 12.293 12.43 12.625 12.762 12.8 12.85 12.907 12.958 13 13.05 13.077 13.07 13.063 13.06 13.057 13.062 13.075 13.097 13.097 13.035 12.963 12.908 12.885 12.93 13.018 13.082 13.117 13.157 13.197 13.195 13.165 13.162 13.175 13.182 13.25 13.34 13.39 13.392 13.377 13.415 13.477 13.54 13.62 13.697 13.727 13.727 13.74 13.762 13.767 13.76 13.76 13.77 13.787 13.832 13.887 13.91 13.91 13.91 13.955 14.05 14.155 14.242 14.297 14.337 14.37 14.387 14.377 14.37 14.375 14.377 14.387 14.392 14.38 14.35 14.307 14.295 14.32 14.33 14.347 14.387 14.412 14.425 14.43 14.432 14.447 14.487 14.522 14.52 14.497 14.472 14.447 14.425
9.2 9.145 9.015 8.885 8.752 8.617 8.477 8.33 8.18 8.125 7.635 6.983 6.775 6.605 6.167 5.403 4.875 4.78 4.78 4.78 4.78 4.78 4.78 4.78 4.78 4.78 4.78 4.78 4.78 4.78 4.838 5.37 5.8 5.63 6.143 6.822 6.913 7.007 7.08 7.128 7.178 7.238 7.473 7.842 7.753 7.905 8.387 8.538 8.698 8.86 8.955 8.993 9.05 9.125 9.208 9.29 9.375 9.465 9.53 9.545 9.505 9.43 9.41 9.498 9.665 9.865 10.062 10.245 10.407 10.53 10.595 10.63 10.673 10.73 10.79 10.855 10.933 11.023 11.11 11.19 11.28 11.38 11.382 11.288 11.2 11.123 11.05 10.998 10.963 10.935 10.925 10.933 11 11.157 11.277 11.312 11.325 11.318 11.358 11.455 11.507 11.543 11.61 11.683 11.763 11.863 11.98 12.067 12.15 12.313 12.547 12.695 12.743 12.808 12.872 12.92 12.965 13.027 13.057 13.038 13.015 13.005 13.005 13.015 13.04 13.092 13.082 12.978 12.878 12.835 12.883 12.983 13.055 13.055 13.045 13.072 13.09 13.052 12.98 12.935 12.935 12.955 13.115 13.29 13.327 13.275 13.175 13.17 13.233 13.303 13.405 13.53 13.625 13.67 13.675 13.657 13.622 13.575 13.553 13.565 13.603 13.675 13.772 13.855 13.887 13.89 13.938 14.038 14.147 14.235 14.292 14.342 14.38 14.39 14.355 14.313 14.303 14.305 14.313 14.327 14.332 14.28 14.163 14.105 14.115 14.087 14.088 14.14 14.18 14.2 14.208 14.223 14.268 14.332 14.375 14.385 14.377 14.355 14.33 14.313
9.18 9.145 9.015 8.88 8.74 8.597 8.45 8.3 8.25 7.947 7.275 6.865 6.737 6.465 5.812 5.075 4.78 4.78 4.78 4.78 4.78 4.78 4.78 4.78 4.78 4.78 4.78 4.78 4.78 4.805 5.105 5.757 5.62 5.848 6.735 6.9 6.963 7.052 7.12 7.16 7.205 7.273 7.525 7.857 7.81 7.973 8.375 8.517 8.665 8.82 8.92 8.973 9.05 9.135 9.215 9.295 9.378 9.465 9.53 9.57 9.58 9.53 9.513 9.565 9.663 9.813 9.995 10.18 10.317 10.415 10.482 10.528 10.583 10.645 10.705 10.765 10.828 10.903 10.988 11.075 11.175 11.285 11.295 11.203 11.113 11.038 10.995 10.988 10.99 10.99 10.993 11.008 11.043 11.143 11.235 11.25 11.242 11.23 11.27 11.332 11.353 11.378 11.435 11.52 11.63 11.765 11.877 11.94 12.013 12.218 12.492 12.635 12.695 12.77 12.835 12.885 12.943 13.012 13.04 13.015 12.983 12.96 12.955 12.973 13.03 13.105 13.082 12.983 12.92 12.923 12.997 13.07 13.065 13.008 12.97 12.972 12.955 12.895 12.823 12.75 12.705 12.705 12.965 13.24 13.237 13.13 12.98 12.933 12.985 13.068 13.185 13.313 13.445 13.555 13.55 13.47 13.41 13.36 13.343 13.375 13.435 13.515 13.615 13.73 13.82 13.86 13.923 14.03 14.14 14.225 14.282 14.337 14.385 14.4 14.362 14.298 14.25 14.235 14.24 14.255 14.27 14.182 13.995 13.888 13.825 13.773 13.805 13.87 13.928 13.968 13.998 14.048 14.12 14.187 14.225 14.24 14.245 14.235 14.215 14.203
9.185 9.14 9.005 8.86 8.715 8.57 8.42 8.27 8.197 7.702 7.048 6.828 6.672 6.227 5.418 4.87 4.78 4.78 4.78 4.78 4.78 4.78 4.78 4.78 4.78 4.78 4.78 4.78 4.78 4.903 5.482 5.69 5.7 6.44 6.977 7.032 7.048 7.103 7.16 7.2 7.24 7.32 7.602 7.705 7.783 8.127 8.347 8.492 8.635 8.785 8.9 8.975 9.057 9.14 9.222 9.305 9.385 9.467 9.53 9.57 9.607 9.615 9.635 9.697 9.762 9.845 9.96 10.097 10.212 10.3 10.375 10.435 10.497 10.56 10.617 10.675 10.735 10.798 10.875 10.97 11.075 11.185 11.21 11.143 11.075 11.023 11.01 11.027 11.037 11.045 11.055 11.072 11.097 11.142 11.175 11.17 11.158 11.145 11.168 11.195 11.198 11.215 11.283 11.403 11.54 11.672 11.763 11.82 11.883 12.115 12.435 12.587 12.655 12.73 12.797 12.858 12.928 13 13.022 12.995 12.96 12.928 12.92 12.963 13.052 13.12 13.097 13.055 13.06 13.072 13.095 13.087 13.025 12.958 12.9 12.86 12.81 12.738 12.665 12.593 12.523 12.478 12.722 13.085 13.12 12.97 12.805 12.715 12.745 12.84 12.97 13.113 13.265 13.415 13.422 13.313 13.23 13.16 13.148 13.205 13.278 13.358 13.455 13.567 13.68 13.775 13.885 14.017 14.132 14.212 14.267 14.325 14.38 14.405 14.37 14.297 14.225 14.18 14.178 14.195 14.192 14.072 13.863 13.683 13.525 13.483 13.558 13.633 13.71 13.78 13.843 13.913 13.988 14.05 14.083 14.095 14.108 14.115 14.113 14.113
9.243 9.125 8.98 8.833 8.687 8.54 8.39 8.24 7.945 7.375 6.94 6.792 6.525 5.865 5.095 4.78 4.78 4.78 4.78 4.78 4.78 4.78 4.78 4.78 4.78 4.78 4.78 4.78 4.78 5.085 5.657 5.64 6.118 6.967 7.095 7.135 7.135 7.168 7.232 7.288 7.335 7.453 7.692 7.525 7.643 8.15 8.303 8.46 8.615 8.767 8.887 8.972 9.057 9.142 9.227 9.31 9.39 9.47 9.53 9.57 9.607 9.632 9.667 9.727 9.792 9.86 9.927 10.015 10.118 10.21 10.287 10.35 10.4 10.445 10.497 10.555 10.618 10.693 10.783 10.883 10.99 11.1 11.155 11.132 11.085 11.04 11.03 11.05 11.067 11.082 11.082 11.085 11.107 11.125 11.12 11.105 11.093 11.085 11.108 11.138 11.153 11.173 11.248 11.373 11.498 11.605 11.688 11.745 11.76 11.943 12.3 12.517 12.602 12.677 12.757 12.837 12.912 12.985 13.005 12.975 12.94 12.915 12.928 12.995 13.092 13.142 13.13 13.12 13.12 13.102 13.085 13.057 13 12.93 12.86 12.783 12.698 12.613 12.533 12.458 12.383 12.308 12.298 12.72 13.015 12.823 12.645 12.513 12.515 12.635 12.782 12.94 13.1 13.26 13.297 13.21 13.123 13.04 13.028 13.09 13.16 13.23 13.303 13.395 13.505 13.617 13.762 13.927 14.075 14.17 14.222 14.277 14.33 14.362 14.332 14.255 14.185 14.14 14.133 14.15 14.1 13.943 13.773 13.608 13.418 13.35 13.413 13.49 13.58 13.665 13.74 13.813 13.89 13.955 13.985 13.998 14.013 14.023 14.03 14.04
9.267 9.073 8.937 8.802 8.66 8.51 8.36 8.18 7.722 7.175 6.9 6.735 6.28 5.488 4.923 4.78 4.78 4.78 4.78 4.78 4.78 4.78 4.78 4.78 4.78 4.78 4.78 4.78 4.878 5.42 5.513 5.805 6.732 7.072 7.15 7.172 7.178 7.208 7.312 7.425 7.488 7.647 7.552 7.428 7.793 8.13 8.283 8.443 8.605 8.76 8.875 8.963 9.055 9.145 9.23 9.312 9.392 9.467 9.527 9.567 9.585 9.583 9.605 9.658 9.718 9.782 9.85 9.938 10.04 10.135 10.21 10.257 10.28 10.3 10.343 10.413 10.5 10.598 10.703 10.81 10.917 11.025 11.105 11.127 11.1 11.058 11.05 11.07 11.09 11.102 11.085 11.063 11.07 11.085 11.082 11.068 11.06 11.068 11.115 11.182 11.222 11.248 11.31 11.415 11.518 11.6 11.66 11.672 11.63 11.715 12.042 12.375 12.532 12.61 12.705 12.81 12.897 12.967 12.985 12.958 12.935 12.93 12.965 13.045 13.117 13.135 13.115 13.087 13.062 13.038 13.023 13.015 12.982 12.92 12.85 12.757 12.648 12.543 12.45 12.37 12.288 12.202 11.97 12.45 13.04 12.848 12.635 12.455 12.39 12.445 12.563 12.72 12.88 13.037 13.155 13.152 13.067 12.99 12.978 13.03 13.09 13.148 13.188 13.233 13.32 13.43 13.575 13.75 13.925 14.065 14.137 14.185 14.237 14.28 14.257 14.185 14.133 14.105 14.098 14.092 14 13.848 13.733 13.627 13.45 13.348 13.385 13.435 13.5 13.578 13.655 13.735 13.825 13.895 13.927 13.942 13.952 13.955 13.958 13.965
9.245 8.998 8.85 8.728 8.598 8.465 8.327 8.052 7.505 7.05 6.86 6.58 5.972 5.215 4.823 4.78 4.78 4.78 4.78 4.78 4.78 4.78 4.78 4.78 4.78 4.78 4.78 4.815 5.14 5.545 5.693 6.355 7.037 7.12 7.17 7.195 7.2 7.213 7.335 7.52 7.607 7.482 7.365 7.67 8.02 8.158 8.303 8.448 8.6 8.752 8.867 8.96 9.055 9.147 9.235 9.315 9.392 9.465 9.522 9.547 9.535 9.518 9.54 9.59 9.643 9.7 9.765 9.855 9.962 10.055 10.112 10.135 10.15 10.173 10.22 10.31 10.418 10.523 10.63 10.738 10.843 10.95 11.037 11.085 11.095 11.075 11.07 11.09 11.11 11.115 11.092 11.058 11.04 11.045 11.045 11.04 11.053 11.078 11.135 11.222 11.287 11.323 11.38 11.477 11.562 11.62 11.617 11.558 11.495 11.495 11.738 12.142 12.415 12.542 12.645 12.76 12.867 12.95 12.972 12.958 12.958 12.965 13.008 13.072 13.095 13.08 13.055 13.025 12.998 12.973 12.96 12.96 12.95 12.907 12.837 12.742 12.628 12.513 12.405 12.31 12.22 12.117 11.82 12.368 13.127 13.01 12.808 12.638 12.55 12.503 12.508 12.553 12.61 12.725 12.9 13.01 12.997 12.94 12.935 12.983 13.033 13.082 13.11 13.123 13.158 13.243 13.388 13.563 13.738 13.905 14.025 14.09 14.145 14.197 14.182 14.125 14.095 14.075 14.063 14.025 13.928 13.815 13.717 13.62 13.46 13.37 13.405 13.435 13.473 13.528 13.59 13.668 13.762 13.837 13.872 13.882 13.885 13.885 13.888 13.893
9.235 8.953 8.775 8.665 8.555 8.448 8.297 7.88 7.315 6.985 6.807 6.385 5.693 5.055 4.78 4.78 4.78 4.78 4.78 4.78 4.78 4.78 4.78 4.78 4.78 4.78 4.8 5.028 5.552 5.605 6.138 6.997 7.087 7.142 7.19 7.215 7.22 7.223 7.333 7.547 7.415 7.265 7.655 8 8.093 8.205 8.34 8.475 8.615 8.755 8.867 8.963 9.058 9.152 9.232 9.302 9.38 9.455 9.5 9.497 9.47 9.453 9.475 9.525 9.575 9.628 9.688 9.773 9.882 9.975 10.02 10.038 10.06 10.098 10.158 10.25 10.355 10.46 10.568 10.673 10.778 10.882 10.965 11.01 11.042 11.062 11.07 11.077 11.09 11.097 11.082 11.055 11.028 11.015 11.02 11.035 11.06 11.093 11.155 11.245 11.33 11.39 11.45 11.532 11.597 11.64 11.617 11.52 11.413 11.325 11.47 11.852 12.202 12.435 12.575 12.687 12.8 12.902 12.955 12.972 12.992 13.005 13.032 13.052 13.04 13.02 12.997 12.967 12.935 12.913 12.903 12.9 12.9 12.882 12.825 12.727 12.612 12.497 12.377 12.257 12.14 12.01 11.66 12.275 13.16 13.115 13.002 12.89 12.815 12.712 12.61 12.527 12.458 12.48 12.6 12.735 12.822 12.855 12.888 12.932 12.977 13.017 13.04 13.047 13.053 13.093 13.215 13.388 13.56 13.73 13.887 13.992 14.055 14.112 14.117 14.09 14.083 14.075 14.06 14 13.903 13.803 13.7 13.6 13.473 13.403 13.425 13.458 13.495 13.538 13.585 13.645 13.718 13.782 13.812 13.815 13.815 13.818 13.823 13.825
9.23 8.983 8.82 8.715 8.615 8.515 8.242 7.66 7.165 6.947 6.71 6.17 5.423 4.92 4.78 4.78 4.78 4.78 4.78 4.78 4.78 4.78 4.78 4.78 4.78 4.785 4.973 5.51 5.598 5.781 6.63 7.055 7.11 7.167 7.212 7.232 7.235 7.238 7.348 7.507 7.31 7.498 7.977 8.062 8.152 8.255 8.373 8.503 8.64 8.77 8.88 8.977 9.07 9.152 9.205 9.25 9.32 9.397 9.432 9.42 9.398 9.388 9.418 9.47 9.523 9.578 9.635 9.705 9.805 9.905 9.96 9.985 10.015 10.068 10.13 10.205 10.303 10.408 10.513 10.618 10.722 10.807 10.855 10.887 10.927 10.98 11.01 11.005 11.023 11.052 11.05 11.03 11.007 10.995 11.015 11.047 11.075 11.11 11.175 11.265 11.355 11.437 11.507 11.57 11.62 11.66 11.67 11.585 11.438 11.3 11.3 11.468 11.75 12.132 12.42 12.575 12.7 12.807 12.88 12.92 12.957 12.992 13.01 13 12.98 12.96 12.94 12.912 12.88 12.863 12.87 12.875 12.865 12.855 12.805 12.697 12.572 12.447 12.32 12.182 12.003 11.857 11.498 12.183 13.18 13.14 13.065 12.975 12.87 12.682 12.505 12.405 12.34 12.343 12.415 12.525 12.65 12.772 12.832 12.863 12.907 12.942 12.96 12.968 12.978 13.003 13.1 13.265 13.433 13.6 13.775 13.907 13.98 14.04 14.075 14.092 14.117 14.13 14.095 14.007 13.902 13.797 13.692 13.587 13.483 13.433 13.453 13.49 13.53 13.573 13.622 13.675 13.72 13.752 13.768 13.77 13.77 13.773 13.778 13.783
9.273 9.085 8.938 8.825 8.725 8.56 8.095 7.453 7.078 6.92 6.575 5.912 5.183 4.813 4.78 4.78 4.78 4.78 4.78 4.78 4.78 4.78 4.78 4.78 4.78 4.938 5.43 5.712 5.723 6.39 7.022 7.078 7.133 7.19 7.235 7.25 7.248 7.255 7.377 7.413 7.483 7.8 8.012 8.1 8.198 8.303 8.41 8.528 8.658 8.79 8.902 8.997 9.08 9.145 9.177 9.193 9.233 9.3 9.335 9.325 9.32 9.333 9.375 9.43 9.485 9.545 9.605 9.665 9.745 9.845 9.91 9.938 9.98 10.045 10.107 10.168 10.253 10.355 10.46 10.565 10.655 10.697 10.705 10.733 10.793 10.87 10.91 10.915 10.958 11.01 11.012 10.99 10.975 10.975 11.01 11.057 11.09 11.128 11.195 11.285 11.375 11.45 11.502 11.567 11.632 11.675 11.707 11.657 11.522 11.38 11.3 11.288 11.365 11.723 12.12 12.34 12.527 12.68 12.767 12.813 12.863 12.92 12.945 12.932 12.917 12.9 12.88 12.855 12.825 12.81 12.847 12.887 12.88 12.862 12.802 12.675 12.523 12.37 12.228 12.07 11.84 11.662 11.291 12.077 13.171 13.097 13.005 12.912 12.785 12.512 12.265 12.193 12.19 12.223 12.298 12.428 12.59 12.742 12.792 12.79 12.823 12.857 12.873 12.885 12.91 12.948 13.033 13.18 13.348 13.52 13.705 13.845 13.92 13.98 14.03 14.075 14.12 14.137 14.08 13.972 13.865 13.757 13.655 13.565 13.49 13.463 13.49 13.53 13.57 13.61 13.657 13.705 13.73 13.735 13.74 13.747 13.75 13.75 13.755 13.775
9.375 9.205 9.053 8.935 8.815 8.487 7.85 7.295 7.043 6.852 6.387 5.658 5.03 4.78 4.78 4.78 4.78 4.78 4.78 4.78 4.78 4.78 4.78 4.78 4.918 5.37 5.715 5.9 6.527 7.025 7.073 7.118 7.163 7.213 7.252 7.262 7.255 7.275 7.402 7.293 7.475 7.932 8.042 8.143 8.25 8.357 8.463 8.57 8.685 8.812 8.925 9.007 9.075 9.135 9.165 9.168 9.178 9.215 9.243 9.245 9.263 9.295 9.345 9.403 9.46 9.52 9.58 9.64 9.705 9.787 9.852 9.895 9.955 10.025 10.085 10.14 10.21 10.303 10.407 10.502 10.552 10.55 10.548 10.59 10.675 10.767 10.81 10.838 10.905 10.967 10.975 10.953 10.948 10.955 10.995 11.055 11.097 11.143 11.215 11.297 11.365 11.41 11.438 11.497 11.585 11.665 11.727 11.717 11.612 11.478 11.41 11.385 11.335 11.425 11.713 11.997 12.235 12.46 12.63 12.722 12.78 12.84 12.865 12.858 12.85 12.837 12.82 12.795 12.765 12.748 12.795 12.88 12.91 12.895 12.827 12.685 12.515 12.345 12.172 11.97 11.713 11.462 11.11 11.525 12.182 12.188 12.2 12.207 12.182 12.075 12.015 12.04 12.06 12.095 12.2 12.377 12.562 12.722 12.77 12.743 12.748 12.773 12.79 12.815 12.855 12.9 12.968 13.095 13.27 13.455 13.642 13.782 13.86 13.92 13.972 14.012 14.045 14.057 14 13.89 13.79 13.705 13.63 13.57 13.523 13.505 13.528 13.565 13.605 13.647 13.687 13.71 13.71 13.705 13.71 13.722 13.73 13.733 13.748 13.783
9.495 9.325 9.168 9.045 8.827 8.3 7.61 7.183 7.017 6.717 6.125 5.365 4.873 4.78 4.78 4.78 4.78 4.78 4.78 4.78 4.78 4.78 4.78 4.883 5.292 5.577 5.873 6.597 7.04 7.102 7.15 7.188 7.223 7.255 7.27 7.265 7.255 7.29 7.412 7.14 7.348 7.97 8.082 8.19 8.3 8.41 8.515 8.62 8.73 8.842 8.935 9 9.06 9.12 9.15 9.15 9.15 9.16 9.175 9.195 9.225 9.263 9.315 9.375 9.435 9.495 9.555 9.615 9.675 9.74 9.803 9.865 9.935 10.005 10.065 10.12 10.178 10.255 10.352 10.41 10.41 10.398 10.405 10.465 10.565 10.662 10.72 10.773 10.855 10.922 10.937 10.925 10.93 10.94 10.975 11.037 11.097 11.155 11.215 11.267 11.305 11.335 11.36 11.393 11.473 11.587 11.687 11.752 11.707 11.582 11.508 11.46 11.4 11.34 11.418 11.648 11.898 12.155 12.39 12.565 12.682 12.757 12.785 12.782 12.775 12.765 12.755 12.737 12.71 12.685 12.728 12.832 12.912 12.93 12.855 12.705 12.527 12.335 12.125 11.89 11.62 11.33 11.025 11.065 11.293 11.36 11.435 11.498 11.525 11.598 11.815 11.95 11.943 11.963 12.093 12.31 12.517 12.697 12.755 12.718 12.695 12.698 12.723 12.762 12.805 12.85 12.903 13.018 13.197 13.38 13.56 13.7 13.785 13.852 13.905 13.932 13.95 13.962 13.922 13.84 13.77 13.715 13.665 13.617 13.57 13.547 13.565 13.6 13.64 13.675 13.692 13.69 13.68 13.673 13.677 13.692 13.705 13.722 13.755 13.792
9.602 9.447 9.285 9.102 8.722 8.048 7.43 7.138 7.002 6.56 5.823 5.123 4.78 4.78 4.78 4.78 4.78 4.78 4.78 4.78 4.78 4.78 4.848 5.205 5.49 5.768 6.527 7.04 7.11 7.177 7.23 7.27 7.302 7.297 7.27 7.255 7.25 7.295 7.412 7.125 7.348 8 8.125 8.235 8.345 8.455 8.56 8.665 8.775 8.867 8.927 8.98 9.04 9.092 9.115 9.115 9.117 9.123 9.133 9.155 9.185 9.225 9.28 9.34 9.4 9.46 9.52 9.58 9.64 9.703 9.77 9.84 9.91 9.972 10.027 10.087 10.147 10.215 10.28 10.303 10.298 10.303 10.31 10.333 10.413 10.527 10.622 10.71 10.802 10.877 10.905 10.905 10.912 10.918 10.95 11.012 11.075 11.127 11.165 11.195 11.225 11.257 11.285 11.303 11.358 11.463 11.577 11.695 11.72 11.635 11.585 11.555 11.495 11.435 11.38 11.403 11.583 11.845 12.082 12.297 12.49 12.637 12.705 12.7 12.682 12.665 12.65 12.645 12.642 12.625 12.663 12.765 12.87 12.94 12.877 12.7 12.492 12.27 12.04 11.807 11.545 11.255 11 11.173 11.47 11.495 11.513 11.52 11.46 11.455 11.672 11.865 11.882 11.868 11.955 12.16 12.39 12.6 12.712 12.71 12.675 12.655 12.668 12.705 12.745 12.79 12.843 12.945 13.11 13.287 13.465 13.602 13.69 13.765 13.817 13.842 13.858 13.87 13.852 13.805 13.755 13.705 13.655 13.607 13.56 13.537 13.557 13.595 13.635 13.66 13.66 13.65 13.64 13.63 13.632 13.645 13.66 13.69 13.73 13.767
9.65 9.52 9.37 9.07 8.512 7.795 7.298 7.122 6.922 6.327 5.505 4.958 4.78 4.78 4.78 4.78 4.78 4.78 4.78 4.78 4.78 4.82 5.133 5.515 5.748 6.442 7.047 7.115 7.185 7.255 7.31 7.35 7.355 7.3 7.25 7.243 7.26 7.318 7.43 7.343 7.563 8.015 8.157 8.277 8.385 8.495 8.602 8.707 8.81 8.875 8.908 8.955 9.01 9.052 9.07 9.073 9.08 9.087 9.095 9.113 9.14 9.183 9.24 9.3 9.36 9.42 9.48 9.543 9.605 9.668 9.735 9.807 9.875 9.92 9.965 10.03 10.097 10.167 10.212 10.23 10.245 10.26 10.258 10.23 10.243 10.33 10.445 10.56 10.682 10.8 10.865 10.877 10.88 10.883 10.92 10.98 11.015 11.042 11.08 11.117 11.15 11.182 11.21 11.225 11.253 11.335 11.45 11.565 11.65 11.627 11.615 11.655 11.627 11.565 11.465 11.295 11.303 11.54 11.777 11.99 12.202 12.382 12.492 12.547 12.552 12.527 12.503 12.503 12.532 12.552 12.6 12.695 12.795 12.877 12.825 12.632 12.41 12.18 11.95 11.72 11.465 11.18 11.013 11.275 11.6 11.642 11.645 11.622 11.513 11.443 11.553 11.755 11.85 11.818 11.83 11.975 12.202 12.415 12.58 12.667 12.675 12.645 12.63 12.643 12.678 12.723 12.785 12.883 13.02 13.19 13.367 13.5 13.587 13.665 13.72 13.752 13.772 13.782 13.77 13.732 13.685 13.635 13.585 13.537 13.49 13.468 13.493 13.537 13.58 13.605 13.605 13.595 13.585 13.575 13.573 13.583 13.603 13.635 13.675 13.71
9.637 9.53 9.337 8.927 8.257 7.583 7.238 7.125 6.775 6.038 5.238 4.828 4.78 4.78 4.78 4.78 4.78 4.78 4.78 4.78 4.78 5.058 5.557 5.74 6.273 6.972 7.13 7.195 7.262 7.33 7.387 7.405 7.36 7.28 7.238 7.255 7.3 7.362 7.385 7.507 7.79 8.012 8.172 8.312 8.425 8.535 8.645 8.75 8.83 8.865 8.885 8.925 8.97 9.01 9.032 9.04 9.047 9.053 9.06 9.073 9.095 9.14 9.2 9.26 9.32 9.38 9.443 9.507 9.57 9.633 9.7 9.772 9.815 9.84 9.895 9.968 10.043 10.117 10.165 10.185 10.202 10.217 10.237 10.24 10.228 10.26 10.34 10.435 10.553 10.698 10.797 10.83 10.842 10.853 10.887 10.922 10.925 10.943 10.99 11.037 11.075 11.105 11.13 11.147 11.163 11.218 11.32 11.435 11.55 11.585 11.603 11.68 11.722 11.697 11.567 11.293 11.113 11.235 11.47 11.682 11.862 11.975 12.082 12.215 12.312 12.355 12.35 12.35 12.39 12.443 12.512 12.605 12.7 12.76 12.682 12.49 12.29 12.082 11.86 11.63 11.385 11.108 11.018 11.285 11.605 11.742 11.767 11.697 11.543 11.458 11.51 11.663 11.782 11.78 11.748 11.82 12.017 12.217 12.38 12.527 12.63 12.642 12.618 12.61 12.623 12.655 12.725 12.83 12.95 13.1 13.267 13.392 13.48 13.562 13.62 13.655 13.682 13.695 13.68 13.647 13.607 13.56 13.51 13.462 13.415 13.39 13.415 13.465 13.512 13.545 13.55 13.54 13.53 13.52 13.513 13.52 13.548 13.585 13.625 13.63
9.602 9.49 9.192 8.69 7.985 7.425 7.233 7.09 6.585 5.828 5.133 4.78 4.78 4.78 4.78 4.78 4.78 4.78 4.78 4.78 4.945 5.542 5.752 6.013 6.792 7.132 7.205 7.27 7.335 7.397 7.442 7.422 7.35 7.27 7.245 7.29 7.347 7.405 7.24 7.44 7.882 8.01 8.175 8.337 8.467 8.575 8.685 8.782 8.835 8.85 8.86 8.882 8.917 8.952 8.98 8.997 9.01 9.02 9.03 9.038 9.055 9.1 9.16 9.22 9.283 9.345 9.408 9.47 9.533 9.598 9.667 9.725 9.738 9.765 9.838 9.915 9.995 10.072 10.12 10.138 10.155 10.158 10.205 10.297 10.372 10.422 10.457 10.502 10.558 10.637 10.707 10.75 10.785 10.812 10.832 10.835 10.828 10.85 10.9 10.95 10.992 11.027 11.052 11.07 11.085 11.113 11.19 11.305 11.42 11.507 11.575 11.652 11.735 11.782 11.66 11.357 11.05 10.985 11.155 11.328 11.435 11.505 11.605 11.75 11.91 12.045 12.135 12.198 12.255 12.318 12.398 12.492 12.575 12.607 12.545 12.378 12.17 11.963 11.745 11.53 11.305 11.035 10.963 11.195 11.502 11.757 11.847 11.745 11.57 11.473 11.51 11.615 11.717 11.745 11.705 11.703 11.83 12.017 12.172 12.327 12.48 12.582 12.61 12.602 12.593 12.603 12.67 12.782 12.898 13.023 13.167 13.287 13.373 13.457 13.517 13.55 13.58 13.6 13.587 13.555 13.522 13.482 13.435 13.388 13.34 13.313 13.338 13.392 13.44 13.467 13.472 13.47 13.467 13.462 13.455 13.462 13.495 13.532 13.567 13.527
9.58 9.397 9.012 8.437 7.758 7.35 7.237 6.977 6.373 5.668 5.07 4.78 4.78 4.78 4.78 4.78 4.78 4.78 4.78 4.86 5.375 5.602 5.771 6.612 7.12 7.195 7.247 7.3 7.365 7.427 7.457 7.425 7.355 7.275 7.263 7.322 7.387 7.447 7.1 7.288 7.857 7.942 8.14 8.347 8.497 8.615 8.725 8.8 8.822 8.822 8.818 8.825 8.85 8.88 8.907 8.93 8.955 8.98 8.995 9.003 9.03 9.078 9.128 9.185 9.248 9.31 9.372 9.435 9.498 9.563 9.63 9.657 9.653 9.703 9.79 9.87 9.948 10.025 10.075 10.092 10.097 10.073 10.118 10.262 10.4 10.477 10.505 10.522 10.542 10.57 10.605 10.648 10.692 10.73 10.742 10.735 10.733 10.76 10.81 10.86 10.905 10.947 10.977 10.99 10.997 11.008 11.07 11.185 11.3 11.402 11.472 11.535 11.617 11.7 11.615 11.332 11.02 10.838 10.905 11.063 11.19 11.278 11.338 11.448 11.603 11.768 11.933 12.057 12.135 12.203 12.285 12.375 12.425 12.425 12.4 12.305 12.11 11.88 11.655 11.44 11.223 11.02 10.948 11.118 11.42 11.725 11.855 11.752 11.592 11.483 11.508 11.605 11.692 11.717 11.678 11.633 11.675 11.813 11.958 12.102 12.248 12.417 12.547 12.572 12.557 12.555 12.615 12.73 12.845 12.958 13.075 13.18 13.267 13.347 13.385 13.4 13.43 13.45 13.437 13.403 13.398 13.405 13.377 13.333 13.285 13.253 13.275 13.325 13.355 13.365 13.365 13.37 13.375 13.375 13.375 13.382 13.425 13.477 13.487 13.402
9.537 9.255 8.812 8.158 7.578 7.348 7.245 6.845 6.267 5.558 4.928 4.78 4.78 4.78 4.78 4.78 4.78 4.78 4.78 5.113 5.575 5.675 6.358 7.107 7.177 7.24 7.275 7.303 7.355 7.42 7.447 7.417 7.36 7.285 7.278 7.347 7.417 7.482 7.158 7.288 7.74 7.755 7.97 8.267 8.497 8.652 8.752 8.792 8.787 8.775 8.765 8.768 8.783 8.807 8.833 8.86 8.9 8.94 8.96 8.983 9.04 9.098 9.135 9.178 9.223 9.275 9.338 9.4 9.463 9.53 9.575 9.572 9.563 9.623 9.73 9.822 9.902 9.98 10.027 10.037 10.02 9.975 10.015 10.152 10.275 10.352 10.39 10.408 10.43 10.46 10.498 10.542 10.585 10.617 10.635 10.635 10.638 10.67 10.717 10.765 10.805 10.825 10.857 10.89 10.895 10.9 10.96 11.072 11.18 11.27 11.322 11.358 11.418 11.497 11.435 11.185 10.96 10.878 10.958 11.133 11.265 11.3 11.308 11.363 11.483 11.645 11.805 11.93 12.015 12.088 12.172 12.237 12.25 12.235 12.215 12.175 12.055 11.85 11.62 11.398 11.24 11.163 11.1 11.16 11.408 11.712 11.817 11.705 11.568 11.468 11.485 11.57 11.65 11.687 11.66 11.613 11.618 11.683 11.755 11.853 12.008 12.225 12.41 12.49 12.502 12.498 12.555 12.67 12.785 12.892 12.987 13.075 13.16 13.227 13.237 13.223 13.24 13.252 13.235 13.233 13.285 13.34 13.332 13.287 13.243 13.208 13.215 13.24 13.25 13.255 13.255 13.26 13.268 13.273 13.275 13.258 13.288 13.372 13.39 13.297
9.412 9.077 8.587 7.908 7.463 7.355 7.18 6.753 6.252 5.453 4.815 4.78 4.78 4.78 4.78 4.78 4.78 4.78 4.93 5.605 5.77 6.158 7.017 7.16 7.22 7.277 7.312 7.328 7.355 7.41 7.43 7.397 7.355 7.293 7.29 7.365 7.44 7.382 7.35 7.535 7.595 7.52 7.688 8.045 8.375 8.632 8.752 8.755 8.737 8.72 8.71 8.71 8.715 8.733 8.765 8.808 8.86 8.907 8.938 8.988 9.07 9.137 9.175 9.205 9.235 9.273 9.318 9.368 9.428 9.485 9.502 9.488 9.478 9.535 9.65 9.755 9.85 9.935 9.98 9.967 9.925 9.875 9.913 10.035 10.145 10.23 10.275 10.298 10.325 10.355 10.393 10.437 10.475 10.5 10.52 10.53 10.543 10.577 10.61 10.625 10.625 10.615 10.655 10.725 10.767 10.788 10.845 10.95 11.045 11.13 11.185 11.21 11.243 11.3 11.24 11.088 11.048 11.122 11.225 11.312 11.34 11.305 11.303 11.34 11.405 11.53 11.677 11.797 11.892 11.972 12.042 12.07 12.057 12.043 12.025 12 11.945 11.805 11.605 11.46 11.425 11.407 11.338 11.293 11.423 11.687 11.755 11.625 11.51 11.443 11.458 11.525 11.598 11.655 11.65 11.628 11.66 11.7 11.715 11.75 11.855 12.06 12.252 12.36 12.422 12.438 12.493 12.605 12.71 12.802 12.887 12.97 13.042 13.1 13.105 13.068 13.058 13.063 13.073 13.13 13.215 13.277 13.277 13.235 13.195 13.147 13.127 13.135 13.14 13.145 13.148 13.155 13.165 13.177 13.175 13.13 13.113 13.177 13.222 13.187
9.255 8.897 8.28 7.68 7.448 7.362 7.115 6.792 6.232 5.288 4.78 4.78 4.78 4.78 4.78 4.78 4.78 4.82 5.295 5.682 5.978 6.682 7.102 7.192 7.255 7.312 7.35 7.365 7.38 7.41 7.41 7.373 7.338 7.293 7.305 7.388 7.475 7.16 7.275 7.665 7.493 7.348 7.408 7.725 8.07 8.34 8.487 8.53 8.575 8.622 8.645 8.645 8.645 8.665 8.713 8.765 8.82 8.877 8.935 9.01 9.1 9.175 9.22 9.25 9.28 9.307 9.332 9.362 9.397 9.422 9.425 9.41 9.395 9.448 9.56 9.67 9.78 9.88 9.917 9.88 9.825 9.775 9.803 9.908 10.01 10.105 10.162 10.19 10.22 10.25 10.288 10.33 10.36 10.38 10.4 10.417 10.432 10.447 10.452 10.44 10.42 10.425 10.478 10.55 10.618 10.668 10.73 10.818 10.905 10.99 11.045 11.07 11.098 11.135 11.123 11.115 11.177 11.255 11.312 11.32 11.3 11.28 11.292 11.335 11.375 11.445 11.553 11.66 11.763 11.847 11.887 11.885 11.868 11.855 11.843 11.825 11.797 11.73 11.64 11.61 11.627 11.622 11.575 11.495 11.498 11.64 11.675 11.565 11.48 11.433 11.448 11.505 11.565 11.625 11.655 11.683 11.737 11.785 11.812 11.823 11.845 11.945 12.093 12.208 12.297 12.355 12.423 12.52 12.607 12.687 12.767 12.842 12.907 12.967 12.972 12.925 12.893 12.91 12.975 13.06 13.145 13.215 13.225 13.18 13.122 13.05 13.015 13.02 13.025 13.033 13.042 13.057 13.07 13.085 13.072 13.017 12.963 12.958 12.978 12.982
9.11 8.625 7.933 7.523 7.447 7.36 7.18 6.895 6.1 5.12 4.78 4.78 4.78 4.78 4.78 4.78 4.78 5.035 5.655 5.74 6.24 6.942 6.95 7.097 7.217 7.327 7.387 7.4 7.41 7.42 7.418 7.39 7.353 7.338 7.373 7.45 7.39 7.21 7.38 7.54 7.37 7.275 7.328 7.505 7.743 7.948 8.085 8.213 8.36 8.492 8.55 8.55 8.558 8.598 8.66 8.715 8.77 8.832 8.91 9 9.092 9.167 9.21 9.237 9.262 9.285 9.305 9.322 9.332 9.335 9.33 9.32 9.313 9.355 9.452 9.557 9.665 9.77 9.802 9.757 9.705 9.68 9.728 9.825 9.925 9.997 10.042 10.08 10.11 10.143 10.182 10.217 10.24 10.26 10.28 10.3 10.307 10.3 10.29 10.283 10.288 10.32 10.375 10.435 10.498 10.57 10.648 10.723 10.803 10.88 10.93 10.96 10.993 11.028 11.067 11.112 11.155 11.197 11.232 11.237 11.228 11.23 11.257 11.302 11.345 11.39 11.465 11.563 11.652 11.715 11.73 11.718 11.705 11.695 11.688 11.69 11.678 11.645 11.632 11.642 11.657 11.675 11.672 11.64 11.612 11.635 11.62 11.54 11.47 11.425 11.44 11.495 11.553 11.613 11.672 11.73 11.785 11.835 11.87 11.885 11.897 11.915 11.983 12.093 12.195 12.288 12.348 12.403 12.48 12.555 12.63 12.7 12.76 12.815 12.817 12.77 12.743 12.79 12.885 12.975 13.065 13.15 13.162 13.097 13.017 12.935 12.898 12.903 12.908 12.918 12.932 12.952 12.975 12.992 12.965 12.895 12.82 12.775 12.77 12.773
8.977 8.315 7.685 7.505 7.442 7.345 7.217 6.86 5.803 4.908 4.78 4.78 4.78 4.78 4.78 4.78 4.908 5.537 5.638 5.91 6.752 6.845 6.82 6.958 7.13 7.297 7.392 7.415 7.425 7.43 7.45 7.447 7.423 7.452 7.512 7.47 7.138 7.26 7.562 7.39 7.258 7.285 7.432 7.513 7.573 7.705 7.86 8.03 8.215 8.367 8.43 8.43 8.46 8.53 8.6 8.655 8.708 8.768 8.848 8.94 9.025 9.08 9.11 9.14 9.167 9.19 9.21 9.222 9.225 9.225 9.222 9.218 9.228 9.27 9.338 9.415 9.505 9.605 9.642 9.608 9.59 9.623 9.7 9.795 9.862 9.88 9.9 9.957 10.005 10.038 10.072 10.1 10.12 10.14 10.16 10.177 10.18 10.17 10.163 10.168 10.193 10.233 10.285 10.348 10.42 10.505 10.59 10.665 10.74 10.81 10.853 10.883 10.915 10.95 10.993 11.038 11.082 11.125 11.15 11.153 11.155 11.17 11.203 11.247 11.288 11.338 11.417 11.497 11.54 11.57 11.585 11.575 11.565 11.555 11.55 11.567 11.582 11.565 11.548 11.55 11.568 11.595 11.615 11.625 11.612 11.577 11.562 11.53 11.46 11.415 11.43 11.485 11.548 11.615 11.682 11.745 11.802 11.855 11.89 11.91 11.91 11.878 11.91 12.028 12.15 12.262 12.307 12.313 12.353 12.415 12.487 12.55 12.597 12.642 12.645 12.61 12.608 12.67 12.767 12.862 12.945 13 13.012 12.975 12.902 12.82 12.78 12.785 12.793 12.803 12.818 12.84 12.862 12.86 12.82 12.75 12.665 12.615 12.61 12.62
8.732 8.013 7.58 7.512 7.44 7.325 7.172 6.75 5.608 4.796 4.78 4.78 4.78 4.78 4.78 4.823 5.288 5.882 5.758 6.258 6.995 6.933 6.943 7.005 7.11 7.25 7.355 7.392 7.417 7.435 7.462 7.485 7.467 7.363 7.205 7.18 7.19 7.327 7.415 7.245 7.21 7.358 7.54 7.617 7.578 7.593 7.725 7.898 8.082 8.242 8.31 8.323 8.38 8.467 8.537 8.592 8.643 8.7 8.78 8.865 8.925 8.955 8.98 9.013 9.047 9.082 9.107 9.115 9.115 9.115 9.115 9.115 9.148 9.207 9.258 9.305 9.368 9.445 9.488 9.495 9.535 9.602 9.675 9.73 9.74 9.728 9.733 9.802 9.887 9.932 9.962 9.985 10.002 10.02 10.04 10.052 10.05 10.04 10.045 10.07 10.105 10.145 10.198 10.27 10.357 10.447 10.53 10.607 10.682 10.75 10.79 10.815 10.842 10.875 10.917 10.962 11.01 11.055 11.075 11.08 11.095 11.115 11.147 11.187 11.223 11.282 11.352 11.377 11.383 11.42 11.445 11.435 11.425 11.415 11.413 11.433 11.465 11.475 11.462 11.46 11.483 11.517 11.54 11.527 11.462 11.388 11.4 11.442 11.43 11.405 11.423 11.483 11.55 11.62 11.69 11.755 11.815 11.872 11.9 11.887 11.845 11.785 11.82 11.957 12.1 12.235 12.297 12.285 12.275 12.29 12.333 12.383 12.425 12.467 12.48 12.465 12.48 12.55 12.642 12.71 12.742 12.745 12.752 12.772 12.762 12.702 12.663 12.67 12.68 12.69 12.705 12.715 12.702 12.665 12.622 12.575 12.503 12.458 12.473 12.52
8.43 7.745 7.568 7.517 7.43 7.295 7.127 6.775 5.888 5.026 4.78 4.78 4.78 4.78 4.78 5.083 5.904 5.76 5.913 6.897 7.072 7.08 7.095 7.127 7.168 7.243 7.315 7.355 7.39 7.42 7.45 7.263 7.21 7.353 7.265 7.33 7.497 7.432 7.26 7.163 7.25 7.452 7.647 7.72 7.653 7.615 7.673 7.788 7.95 8.12 8.195 8.23 8.313 8.405 8.475 8.527 8.575 8.63 8.707 8.772 8.807 8.83 8.853 8.883 8.925 8.98 9.01 9.008 9.005 9.005 9.005 9.023 9.08 9.15 9.202 9.245 9.288 9.338 9.375 9.42 9.492 9.562 9.605 9.607 9.593 9.578 9.568 9.625 9.735 9.812 9.85 9.867 9.882 9.9 9.917 9.925 9.925 9.925 9.945 9.98 10.015 10.055 10.115 10.2 10.292 10.352 10.417 10.53 10.627 10.69 10.707 10.687 10.662 10.692 10.765 10.83 10.897 10.957 10.987 10.997 11.012 11.032 11.077 11.125 11.162 11.207 11.222 11.193 11.208 11.277 11.305 11.297 11.29 11.28 11.28 11.3 11.335 11.365 11.37 11.373 11.4 11.44 11.44 11.372 11.268 11.168 11.168 11.252 11.317 11.36 11.412 11.48 11.547 11.615 11.682 11.742 11.797 11.852 11.865 11.817 11.753 11.718 11.753 11.848 11.98 12.13 12.217 12.217 12.192 12.17 12.18 12.223 12.265 12.305 12.327 12.328 12.353 12.412 12.462 12.48 12.475 12.465 12.463 12.493 12.54 12.55 12.545 12.558 12.57 12.58 12.582 12.552 12.495 12.44 12.4 12.368 12.333 12.335 12.393 12.47
8.115 7.635 7.573 7.52 7.41 7.255 7.047 6.77 6.345 5.712 5.065 4.78 4.78 4.78 4.95 5.627 6.089 5.803 6.308 7.112 7.185 7.17 7.14 7.16 7.2 7.245 7.292 7.335 7.375 7.412 7.31 7.095 7.22 7.567 7.73 7.792 7.65 7.36 7.165 7.165 7.34 7.54 7.74 7.807 7.725 7.675 7.7 7.76 7.853 7.995 8.092 8.153 8.25 8.345 8.413 8.46 8.508 8.563 8.62 8.657 8.685 8.713 8.738 8.773 8.828 8.89 8.917 8.91 8.903 8.9 8.905 8.948 9.025 9.092 9.145 9.19 9.23 9.272 9.3 9.33 9.395 9.465 9.485 9.47 9.455 9.443 9.445 9.508 9.623 9.695 9.72 9.737 9.755 9.78 9.805 9.818 9.825 9.833 9.855 9.89 9.925 9.96 10.02 10.11 10.177 10.17 10.153 10.21 10.317 10.4 10.387 10.327 10.315 10.393 10.497 10.582 10.67 10.762 10.8 10.795 10.805 10.825 10.895 10.99 11.055 11.067 11.03 11 11.048 11.135 11.165 11.16 11.155 11.145 11.148 11.17 11.203 11.237 11.262 11.28 11.307 11.34 11.305 11.2 11.09 10.99 10.99 11.08 11.165 11.257 11.357 11.44 11.507 11.575 11.637 11.687 11.735 11.785 11.79 11.74 11.698 11.703 11.73 11.765 11.838 11.96 12.07 12.092 12.062 12.03 12.035 12.077 12.12 12.16 12.182 12.188 12.212 12.247 12.26 12.263 12.265 12.268 12.273 12.295 12.348 12.408 12.44 12.453 12.465 12.475 12.455 12.39 12.318 12.27 12.248 12.233 12.238 12.283 12.353 12.43
7.815 7.615 7.577 7.51 7.38 7.18 6.88 6.603 6.462 6.297 5.82 5.418 5.233 5.168 5.56 6.152 5.803 6.003 7.019 7.272 7.325 7.277 7.203 7.165 7.18 7.225 7.272 7.317 7.365 7.41 7.13 7.155 7.467 7.49 7.58 7.662 7.535 7.26 7.138 7.22 7.4 7.595 7.777 7.847 7.79 7.735 7.75 7.798 7.843 7.92 8.013 8.1 8.2 8.298 8.375 8.428 8.473 8.513 8.53 8.545 8.575 8.605 8.638 8.683 8.742 8.8 8.822 8.817 8.81 8.803 8.815 8.885 8.982 9.047 9.09 9.13 9.17 9.21 9.235 9.24 9.27 9.33 9.352 9.338 9.33 9.34 9.373 9.455 9.55 9.577 9.58 9.6 9.62 9.668 9.717 9.735 9.745 9.75 9.765 9.798 9.832 9.86 9.91 9.98 9.99 9.925 9.84 9.785 9.793 9.85 9.865 9.87 9.963 10.09 10.192 10.278 10.385 10.51 10.537 10.503 10.505 10.528 10.61 10.732 10.817 10.845 10.818 10.818 10.9 10.992 11.025 11.02 11.015 11.005 11.01 11.037 11.07 11.1 11.13 11.16 11.187 11.207 11.16 11.05 10.94 10.848 10.858 10.95 11.038 11.135 11.25 11.357 11.44 11.51 11.57 11.615 11.658 11.707 11.712 11.678 11.678 11.707 11.735 11.755 11.78 11.838 11.93 11.965 11.925 11.885 11.89 11.932 11.975 12.015 12.035 12.035 12.05 12.09 12.132 12.155 12.165 12.18 12.198 12.22 12.263 12.32 12.355 12.36 12.365 12.365 12.323 12.263 12.223 12.203 12.198 12.198 12.223 12.273 12.33 12.395
7.695 7.618 7.585 7.49 7.307 7.032 6.693 6.458 6.433 6.527 6.475 6.282 6.015 5.915 6.272 6.132 5.806 6.538 7.31 7.437 7.445 7.402 7.315 7.235 7.19 7.205 7.25 7.295 7.34 7.38 7.263 7.308 7.367 7.223 7.253 7.292 7.215 7.135 7.185 7.318 7.465 7.635 7.772 7.832 7.83 7.795 7.8 7.842 7.88 7.915 7.978 8.073 8.17 8.27 8.365 8.442 8.497 8.523 8.518 8.513 8.518 8.523 8.548 8.6 8.657 8.707 8.727 8.722 8.717 8.71 8.73 8.823 8.942 9.012 9.045 9.075 9.11 9.15 9.175 9.17 9.165 9.198 9.22 9.218 9.235 9.273 9.32 9.4 9.457 9.448 9.443 9.46 9.498 9.58 9.642 9.655 9.662 9.668 9.678 9.705 9.737 9.76 9.795 9.805 9.75 9.668 9.59 9.52 9.45 9.44 9.463 9.525 9.658 9.785 9.888 9.99 10.133 10.272 10.29 10.225 10.205 10.23 10.315 10.42 10.487 10.542 10.583 10.648 10.752 10.847 10.885 10.88 10.875 10.865 10.873 10.9 10.927 10.953 10.983 11.018 11.05 11.065 11.01 10.9 10.79 10.703 10.72 10.818 10.913 11.015 11.13 11.25 11.357 11.442 11.502 11.545 11.587 11.635 11.65 11.65 11.678 11.712 11.74 11.76 11.78 11.8 11.825 11.825 11.785 11.743 11.745 11.785 11.827 11.867 11.882 11.87 11.878 11.933 12.002 12.055 12.095 12.122 12.14 12.167 12.205 12.247 12.277 12.277 12.27 12.252 12.215 12.19 12.182 12.177 12.173 12.18 12.215 12.27 12.325 12.378
7.668 7.632 7.582 7.435 7.172 6.845 6.54 6.408 6.513 6.72 6.805 6.702 6.51 6.422 6.524 5.751 5.953 7.207 7.477 7.555 7.565 7.525 7.437 7.352 7.268 7.213 7.22 7.262 7.302 7.278 7.405 7.477 7.24 7.003 6.923 6.97 7.043 7.158 7.297 7.43 7.563 7.69 7.767 7.797 7.82 7.825 7.837 7.867 7.895 7.92 7.973 8.06 8.155 8.252 8.347 8.442 8.525 8.565 8.557 8.532 8.507 8.483 8.49 8.533 8.578 8.618 8.633 8.628 8.623 8.618 8.648 8.75 8.885 8.967 9.002 9.03 9.058 9.092 9.117 9.112 9.09 9.09 9.108 9.133 9.173 9.218 9.265 9.322 9.345 9.32 9.308 9.333 9.405 9.507 9.565 9.575 9.58 9.585 9.592 9.613 9.643 9.67 9.695 9.67 9.6 9.53 9.465 9.405 9.345 9.343 9.36 9.34 9.375 9.48 9.598 9.735 9.897 10.035 10.05 9.97 9.918 9.93 10.008 10.088 10.158 10.248 10.353 10.47 10.585 10.69 10.745 10.748 10.743 10.735 10.738 10.753 10.773 10.803 10.84 10.878 10.918 10.932 10.865 10.75 10.64 10.558 10.585 10.703 10.815 10.905 11 11.118 11.24 11.352 11.425 11.462 11.5 11.537 11.59 11.645 11.682 11.717 11.745 11.765 11.782 11.76 11.695 11.655 11.632 11.595 11.598 11.64 11.683 11.72 11.728 11.713 11.72 11.77 11.84 11.91 11.98 12.035 12.067 12.097 12.132 12.167 12.187 12.177 12.16 12.145 12.137 12.137 12.137 12.137 12.14 12.167 12.215 12.267 12.322 12.375
7.66 7.642 7.545 7.31 6.99 6.648 6.428 6.463 6.65 6.852 7.02 7.017 6.832 6.717 6.29 5.555 6.177 7.219 7.407 7.53 7.63 7.642 7.555 7.465 7.37 7.265 7.193 7.19 7.22 7.138 7.33 7.49 7.213 6.933 6.795 6.888 7.078 7.25 7.4 7.535 7.667 7.74 7.747 7.76 7.785 7.822 7.855 7.875 7.9 7.92 7.958 8.038 8.132 8.22 8.305 8.4 8.49 8.542 8.55 8.527 8.495 8.465 8.465 8.495 8.53 8.568 8.583 8.578 8.573 8.568 8.583 8.668 8.805 8.902 8.947 8.98 9.01 9.04 9.062 9.055 9.03 9.015 9.028 9.068 9.115 9.16 9.202 9.225 9.22 9.205 9.19 9.228 9.323 9.422 9.467 9.467 9.472 9.48 9.49 9.523 9.568 9.602 9.622 9.612 9.572 9.515 9.452 9.39 9.348 9.403 9.485 9.415 9.303 9.268 9.338 9.498 9.662 9.8 9.815 9.735 9.66 9.64 9.705 9.798 9.9 10.023 10.145 10.267 10.38 10.48 10.58 10.63 10.63 10.625 10.62 10.628 10.653 10.69 10.733 10.775 10.815 10.83 10.76 10.638 10.52 10.45 10.51 10.653 10.765 10.833 10.898 10.983 11.09 11.212 11.3 11.335 11.36 11.398 11.485 11.595 11.672 11.725 11.752 11.745 11.7 11.6 11.493 11.455 11.452 11.44 11.455 11.503 11.548 11.59 11.608 11.603 11.605 11.645 11.715 11.785 11.855 11.927 11.96 11.97 12 12.035 12.045 12.022 12.01 12.01 12.015 12.02 12.025 12.03 12.047 12.097 12.162 12.222 12.277 12.332
7.673 7.625 7.442 7.13 6.79 6.485 6.405 6.558 6.75 6.932 7.125 7.187 7.07 6.884 5.798 5.088 6 6.882 7.227 7.438 7.645 7.727 7.655 7.557 7.45 7.327 7.21 7.138 7.128 7.108 7.225 7.392 7.287 7.04 6.903 6.98 7.165 7.34 7.497 7.637 7.752 7.755 7.713 7.728 7.765 7.82 7.862 7.887 7.907 7.913 7.933 8.003 8.09 8.165 8.245 8.335 8.412 8.462 8.487 8.49 8.472 8.445 8.445 8.478 8.528 8.58 8.6 8.598 8.593 8.588 8.583 8.615 8.715 8.825 8.885 8.917 8.95 8.977 8.995 8.99 8.97 8.958 8.97 9.005 9.047 9.092 9.14 9.172 9.185 9.185 9.168 9.17 9.235 9.327 9.357 9.34 9.338 9.345 9.373 9.443 9.51 9.54 9.552 9.555 9.542 9.5 9.438 9.375 9.378 9.488 9.625 9.62 9.475 9.318 9.24 9.293 9.428 9.565 9.58 9.5 9.47 9.505 9.54 9.595 9.7 9.82 9.937 10.047 10.137 10.223 10.355 10.485 10.53 10.525 10.523 10.54 10.575 10.615 10.657 10.697 10.73 10.75 10.692 10.57 10.468 10.425 10.505 10.64 10.725 10.785 10.84 10.895 10.97 11.06 11.145 11.185 11.198 11.245 11.345 11.475 11.6 11.692 11.697 11.615 11.492 11.355 11.265 11.25 11.265 11.285 11.328 11.388 11.44 11.49 11.52 11.525 11.525 11.55 11.61 11.683 11.758 11.832 11.84 11.813 11.83 11.862 11.862 11.843 11.843 11.848 11.855 11.86 11.865 11.875 11.91 11.978 12.055 12.13 12.19 12.245
7.685 7.575 7.372 7.107 6.783 6.57 6.565 6.66 6.8 6.978 7.192 7.28 7.17 6.639 5.323 4.934 5.546 6.215 6.997 7.415 7.672 7.782 7.745 7.637 7.512 7.382 7.262 7.155 7.088 7.135 7.138 7.305 7.427 7.21 7.038 7.07 7.252 7.425 7.59 7.74 7.802 7.735 7.68 7.708 7.763 7.825 7.87 7.897 7.907 7.9 7.908 7.963 8.04 8.108 8.182 8.26 8.325 8.375 8.402 8.42 8.427 8.418 8.43 8.48 8.553 8.615 8.635 8.635 8.635 8.632 8.628 8.628 8.663 8.75 8.822 8.852 8.877 8.897 8.91 8.912 8.905 8.903 8.92 8.948 8.978 9.02 9.075 9.137 9.19 9.225 9.222 9.185 9.18 9.232 9.255 9.228 9.21 9.208 9.258 9.37 9.452 9.472 9.48 9.485 9.487 9.472 9.425 9.383 9.438 9.582 9.72 9.755 9.68 9.55 9.385 9.27 9.258 9.328 9.358 9.363 9.465 9.602 9.625 9.58 9.585 9.63 9.713 9.798 9.873 9.96 10.095 10.265 10.39 10.425 10.43 10.46 10.5 10.54 10.58 10.615 10.645 10.672 10.627 10.533 10.475 10.445 10.508 10.615 10.677 10.735 10.792 10.847 10.905 10.96 11.02 11.05 11.048 11.08 11.158 11.255 11.36 11.46 11.45 11.338 11.233 11.135 11.08 11.083 11.103 11.138 11.203 11.282 11.347 11.397 11.425 11.437 11.448 11.46 11.508 11.585 11.665 11.735 11.727 11.668 11.663 11.687 11.683 11.675 11.68 11.685 11.693 11.698 11.703 11.728 11.788 11.865 11.945 12.027 12.1 12.158
7.662 7.442 7.235 7.12 6.955 6.88 6.892 6.912 6.97 7.063 7.202 7.257 7.112 6.053 5.211 5.882 6.117 5.793 6.33 7.147 7.585 7.787 7.79 7.677 7.54 7.405 7.277 7.155 7.08 7.137 7.173 7.393 7.552 7.355 7.168 7.16 7.327 7.502 7.677 7.812 7.812 7.705 7.658 7.703 7.767 7.83 7.877 7.897 7.897 7.89 7.885 7.92 7.988 8.05 8.115 8.18 8.24 8.29 8.32 8.34 8.36 8.38 8.425 8.502 8.587 8.647 8.665 8.667 8.672 8.672 8.67 8.672 8.678 8.708 8.753 8.778 8.795 8.81 8.82 8.828 8.83 8.84 8.862 8.887 8.915 8.953 9.003 9.065 9.13 9.192 9.212 9.185 9.157 9.157 9.155 9.125 9.098 9.08 9.143 9.285 9.382 9.405 9.41 9.415 9.42 9.422 9.4 9.41 9.495 9.605 9.7 9.73 9.7 9.647 9.555 9.412 9.27 9.21 9.253 9.39 9.575 9.735 9.752 9.645 9.558 9.53 9.553 9.585 9.625 9.7 9.835 10.005 10.175 10.297 10.35 10.385 10.423 10.46 10.498 10.53 10.56 10.592 10.577 10.53 10.5 10.47 10.5 10.57 10.617 10.665 10.717 10.767 10.815 10.86 10.897 10.912 10.905 10.918 10.965 11.025 11.088 11.16 11.173 11.11 11.048 10.993 10.963 10.963 10.973 11.003 11.07 11.16 11.242 11.302 11.33 11.348 11.373 11.398 11.448 11.52 11.593 11.642 11.615 11.538 11.508 11.513 11.51 11.513 11.518 11.528 11.548 11.575 11.588 11.618 11.688 11.765 11.845 11.925 12.003 12.072
7.582 7.288 7.095 7.06 7.032 7.027 7.05 7.08 7.1 7.115 7.125 7.072 6.809 5.641 5.616 6.802 6.919 6.38 5.941 6.43 7.232 7.62 7.712 7.627 7.49 7.35 7.21 7.075 7.075 7.05 7.228 7.582 7.597 7.435 7.26 7.21 7.328 7.5 7.677 7.802 7.79 7.683 7.648 7.702 7.765 7.825 7.875 7.895 7.893 7.888 7.883 7.905 7.963 8.025 8.083 8.135 8.185 8.233 8.268 8.293 8.323 8.36 8.425 8.515 8.602 8.662 8.682 8.687 8.69 8.69 8.687 8.687 8.69 8.693 8.7 8.71 8.723 8.738 8.748 8.75 8.753 8.767 8.79 8.815 8.853 8.903 8.943 8.985 9.045 9.107 9.135 9.12 9.102 9.082 9.055 9.025 8.998 8.993 9.073 9.215 9.3 9.315 9.32 9.325 9.33 9.335 9.343 9.385 9.455 9.522 9.582 9.592 9.573 9.59 9.597 9.517 9.372 9.25 9.263 9.412 9.597 9.735 9.715 9.603 9.543 9.53 9.525 9.515 9.515 9.535 9.628 9.793 9.98 10.165 10.282 10.332 10.365 10.395 10.425 10.455 10.485 10.517 10.525 10.502 10.477 10.447 10.44 10.472 10.515 10.555 10.6 10.645 10.685 10.725 10.757 10.767 10.76 10.773 10.818 10.87 10.925 10.993 11.025 11.002 10.955 10.9 10.868 10.863 10.87 10.9 10.965 11.048 11.133 11.205 11.257 11.298 11.338 11.38 11.433 11.498 11.557 11.585 11.538 11.445 11.373 11.355 11.38 11.408 11.435 11.468 11.503 11.53 11.538 11.555 11.613 11.69 11.768 11.843 11.915 11.985
7.482 7.205 7.1 7.067 7.03 7 7.003 7.03 7.055 7.08 7.04 6.922 6.248 5.571 6.28 7.06 7.065 6.997 6.53 6.073 6.528 7.272 7.547 7.522 7.387 7.247 7.1 6.983 7.092 7.03 7.265 7.68 7.6 7.477 7.328 7.26 7.305 7.425 7.592 7.717 7.74 7.668 7.638 7.695 7.752 7.802 7.845 7.88 7.897 7.897 7.898 7.92 7.97 8.032 8.087 8.133 8.18 8.23 8.263 8.285 8.32 8.358 8.42 8.51 8.585 8.632 8.665 8.682 8.685 8.685 8.68 8.67 8.668 8.672 8.67 8.665 8.673 8.687 8.692 8.685 8.68 8.69 8.71 8.745 8.813 8.88 8.905 8.918 8.958 9.02 9.05 9.035 9.012 8.985 8.955 8.928 8.915 8.945 9.045 9.157 9.197 9.195 9.2 9.205 9.213 9.238 9.275 9.308 9.345 9.405 9.452 9.46 9.475 9.52 9.557 9.547 9.447 9.333 9.318 9.4 9.555 9.655 9.618 9.563 9.55 9.547 9.542 9.535 9.522 9.493 9.508 9.645 9.86 10.062 10.2 10.282 10.33 10.358 10.378 10.398 10.425 10.455 10.457 10.435 10.407 10.368 10.34 10.348 10.383 10.425 10.468 10.51 10.55 10.59 10.62 10.625 10.615 10.628 10.67 10.728 10.795 10.87 10.905 10.89 10.857 10.81 10.775 10.768 10.783 10.823 10.888 10.965 11.037 11.1 11.18 11.27 11.332 11.377 11.428 11.49 11.535 11.547 11.497 11.395 11.318 11.31 11.355 11.405 11.455 11.49 11.505 11.507 11.503 11.505 11.55 11.627 11.702 11.775 11.837 11.895
7.393 7.183 7.108 7.07 7.03 6.99 6.968 6.98 7.005 7.027 6.98 6.87 5.843 5.743 6.839 7.067 7.075 7.08 7.065 6.647 6.183 6.62 7.285 7.397 7.282 7.14 7.003 6.955 7.133 7.3 7.495 7.65 7.58 7.497 7.395 7.345 7.355 7.398 7.508 7.605 7.652 7.635 7.625 7.68 7.725 7.76 7.795 7.84 7.882 7.902 7.91 7.938 7.985 8.04 8.093 8.145 8.207 8.262 8.285 8.295 8.32 8.353 8.415 8.492 8.542 8.575 8.615 8.652 8.67 8.675 8.667 8.653 8.645 8.645 8.64 8.63 8.63 8.637 8.635 8.625 8.615 8.615 8.643 8.71 8.807 8.87 8.88 8.878 8.888 8.933 8.962 8.947 8.92 8.89 8.86 8.838 8.853 8.913 9.007 9.072 9.075 9.068 9.07 9.085 9.115 9.17 9.217 9.238 9.258 9.295 9.33 9.358 9.4 9.45 9.49 9.517 9.49 9.418 9.405 9.453 9.542 9.597 9.58 9.57 9.57 9.565 9.56 9.55 9.52 9.483 9.468 9.558 9.765 9.967 10.097 10.195 10.277 10.327 10.345 10.35 10.368 10.392 10.39 10.36 10.322 10.278 10.248 10.24 10.258 10.295 10.335 10.375 10.413 10.45 10.477 10.48 10.473 10.485 10.53 10.6 10.675 10.747 10.782 10.77 10.745 10.712 10.683 10.678 10.705 10.75 10.812 10.882 10.94 10.99 11.073 11.19 11.287 11.36 11.422 11.47 11.492 11.497 11.457 11.385 11.353 11.363 11.397 11.44 11.47 11.477 11.472 11.47 11.467 11.463 11.493 11.56 11.63 11.695 11.753 11.81
7.335 7.198 7.115 7.07 7.03 6.99 6.953 6.94 6.955 6.972 6.917 6.8 5.953 6.108 7.059 7.073 7.082 7.09 7.105 7.12 6.715 6.261 6.69 7.205 7.175 7.055 7.005 7.055 7.185 7.495 7.697 7.635 7.57 7.508 7.438 7.405 7.412 7.42 7.458 7.513 7.56 7.585 7.608 7.647 7.68 7.71 7.748 7.795 7.845 7.887 7.917 7.955 8.005 8.052 8.105 8.17 8.24 8.295 8.317 8.322 8.333 8.355 8.402 8.452 8.485 8.515 8.555 8.6 8.637 8.66 8.655 8.64 8.628 8.618 8.61 8.6 8.595 8.588 8.575 8.565 8.555 8.548 8.59 8.69 8.79 8.84 8.847 8.847 8.847 8.862 8.872 8.855 8.825 8.795 8.768 8.765 8.813 8.887 8.947 8.963 8.95 8.94 8.953 8.998 9.058 9.12 9.157 9.17 9.183 9.203 9.235 9.28 9.33 9.38 9.42 9.45 9.467 9.462 9.47 9.5 9.542 9.575 9.585 9.59 9.59 9.585 9.575 9.555 9.523 9.498 9.493 9.545 9.693 9.867 9.992 10.09 10.187 10.262 10.295 10.305 10.317 10.33 10.315 10.275 10.23 10.185 10.155 10.145 10.15 10.17 10.203 10.24 10.278 10.315 10.343 10.35 10.353 10.37 10.418 10.485 10.555 10.625 10.66 10.65 10.625 10.6 10.588 10.6 10.635 10.675 10.723 10.775 10.825 10.875 10.955 11.068 11.183 11.295 11.39 11.435 11.443 11.445 11.43 11.41 11.407 11.415 11.43 11.445 11.447 11.443 11.438 11.435 11.433 11.428 11.44 11.488 11.55 11.61 11.67 11.73
7.328 7.223 7.145 7.09 7.04 6.993 6.95 6.918 6.91 6.915 6.867 6.487 6.078 6.533 7.07 7.08 7.09 7.1 7.115 7.13 7.142 6.75 6.331 6.718 7.1 7.083 7.132 7.217 7.263 7.457 7.677 7.67 7.605 7.525 7.453 7.425 7.422 7.43 7.445 7.475 7.515 7.55 7.58 7.61 7.64 7.678 7.715 7.755 7.805 7.855 7.907 7.96 8.01 8.057 8.112 8.18 8.25 8.302 8.325 8.332 8.337 8.352 8.373 8.395 8.425 8.455 8.503 8.557 8.603 8.637 8.642 8.627 8.612 8.597 8.585 8.575 8.567 8.553 8.523 8.5 8.49 8.485 8.54 8.642 8.72 8.76 8.772 8.777 8.785 8.792 8.795 8.78 8.75 8.723 8.698 8.718 8.787 8.857 8.892 8.885 8.87 8.86 8.888 8.955 9.02 9.065 9.085 9.095 9.105 9.123 9.16 9.21 9.26 9.31 9.35 9.38 9.407 9.435 9.46 9.475 9.512 9.56 9.582 9.595 9.605 9.605 9.59 9.57 9.553 9.54 9.543 9.583 9.668 9.775 9.872 9.957 10.042 10.117 10.16 10.18 10.202 10.235 10.23 10.185 10.14 10.095 10.06 10.045 10.045 10.055 10.08 10.115 10.155 10.208 10.25 10.265 10.278 10.298 10.34 10.4 10.46 10.52 10.547 10.535 10.513 10.498 10.508 10.535 10.57 10.605 10.64 10.68 10.723 10.768 10.845 10.965 11.098 11.233 11.342 11.395 11.405 11.408 11.412 11.415 11.42 11.422 11.425 11.425 11.42 11.418 11.413 11.41 11.408 11.403 11.4 11.425 11.48 11.54 11.6 11.658
7.358 7.27 7.2 7.14 7.08 7.023 6.968 6.915 6.88 6.863 6.84 5.913 5.853 6.887 7.077 7.09 7.103 7.115 7.127 7.135 7.13 7.12 6.735 6.376 6.745 7.122 7.187 7.262 7.312 7.318 7.535 7.727 7.645 7.538 7.465 7.435 7.418 7.42 7.438 7.468 7.502 7.53 7.555 7.585 7.623 7.677 7.713 7.728 7.765 7.815 7.875 7.942 8 8.05 8.108 8.175 8.237 8.28 8.3 8.31 8.323 8.345 8.35 8.343 8.363 8.395 8.45 8.522 8.577 8.617 8.627 8.612 8.595 8.575 8.56 8.55 8.542 8.532 8.49 8.438 8.415 8.423 8.485 8.565 8.615 8.65 8.667 8.678 8.693 8.708 8.72 8.72 8.7 8.675 8.655 8.685 8.76 8.822 8.855 8.855 8.845 8.835 8.865 8.932 8.977 8.995 9.005 9.015 9.025 9.05 9.093 9.14 9.19 9.225 9.257 9.305 9.342 9.37 9.397 9.42 9.473 9.537 9.567 9.582 9.597 9.607 9.612 9.61 9.597 9.585 9.595 9.64 9.692 9.725 9.74 9.78 9.853 9.922 9.965 9.99 10.038 10.115 10.137 10.095 10.055 10.028 10 9.96 9.94 9.948 9.973 10.01 10.065 10.145 10.2 10.213 10.223 10.24 10.28 10.34 10.392 10.432 10.442 10.425 10.413 10.42 10.445 10.475 10.51 10.545 10.58 10.615 10.65 10.705 10.793 10.92 11.072 11.21 11.302 11.35 11.372 11.382 11.385 11.387 11.39 11.385 11.387 11.4 11.402 11.4 11.397 11.393 11.39 11.385 11.375 11.378 11.415 11.475 11.535 11.593
7.41 7.325 7.252 7.197 7.14 7.08 7.015 6.95 6.893 6.85 6.834 5.796 5.871 7.027 7.085 7.105 7.117 7.13 7.13 7.11 7.075 7.06 7.065 6.695 6.401 6.805 7.142 7.19 7.27 7.14 7.29 7.665 7.65 7.54 7.485 7.455 7.428 7.415 7.43 7.457 7.485 7.51 7.535 7.573 7.628 7.692 7.727 7.728 7.738 7.775 7.838 7.915 7.987 8.042 8.1 8.165 8.215 8.252 8.275 8.288 8.313 8.342 8.342 8.318 8.31 8.335 8.395 8.475 8.547 8.6 8.612 8.595 8.572 8.548 8.53 8.523 8.52 8.517 8.477 8.405 8.353 8.358 8.412 8.465 8.505 8.543 8.568 8.588 8.61 8.625 8.632 8.64 8.64 8.625 8.615 8.655 8.732 8.787 8.81 8.817 8.82 8.815 8.843 8.892 8.912 8.918 8.925 8.935 8.95 8.983 9.025 9.07 9.102 9.1 9.123 9.19 9.25 9.297 9.335 9.375 9.443 9.515 9.552 9.565 9.567 9.573 9.602 9.637 9.642 9.63 9.645 9.69 9.727 9.727 9.685 9.658 9.678 9.728 9.778 9.828 9.905 10 10.037 10.013 9.995 9.995 9.98 9.918 9.855 9.84 9.87 9.928 10.01 10.107 10.16 10.165 10.17 10.183 10.22 10.275 10.315 10.34 10.34 10.325 10.33 10.355 10.385 10.418 10.452 10.485 10.52 10.56 10.615 10.7 10.8 10.92 11.06 11.18 11.257 11.3 11.33 11.35 11.357 11.36 11.355 11.343 11.338 11.357 11.38 11.382 11.38 11.375 11.368 11.36 11.352 11.345 11.36 11.41 11.47 11.53
7.387 7.285 7.212 7.187 7.17 7.135 7.072 7 6.925 6.865 6.615 5.97 6.268 7.025 7.09 7.117 7.13 7.127 7.097 7.05 7.01 7.005 7.025 6.997 6.608 6.413 6.857 7.152 7.188 7.14 7.128 7.435 7.622 7.545 7.51 7.48 7.453 7.425 7.42 7.44 7.463 7.488 7.523 7.578 7.642 7.707 7.742 7.742 7.738 7.75 7.803 7.88 7.96 8.03 8.09 8.142 8.185 8.223 8.252 8.277 8.31 8.34 8.337 8.31 8.283 8.29 8.35 8.43 8.51 8.577 8.595 8.573 8.548 8.52 8.503 8.5 8.5 8.5 8.47 8.4 8.328 8.303 8.333 8.38 8.428 8.468 8.488 8.503 8.525 8.537 8.542 8.55 8.56 8.562 8.573 8.622 8.695 8.745 8.765 8.775 8.785 8.79 8.807 8.828 8.835 8.84 8.845 8.855 8.878 8.915 8.96 8.99 8.98 8.95 8.97 9.043 9.12 9.195 9.255 9.322 9.41 9.492 9.535 9.537 9.522 9.515 9.55 9.61 9.652 9.667 9.69 9.725 9.75 9.752 9.71 9.645 9.598 9.583 9.623 9.705 9.798 9.892 9.937 9.937 9.947 9.96 9.955 9.9 9.813 9.763 9.793 9.878 9.973 10.067 10.115 10.118 10.123 10.128 10.155 10.195 10.22 10.237 10.24 10.243 10.265 10.298 10.33 10.363 10.395 10.425 10.465 10.53 10.62 10.717 10.81 10.912 11.027 11.137 11.21 11.247 11.28 11.31 11.327 11.325 11.315 11.303 11.293 11.305 11.34 11.36 11.36 11.355 11.345 11.335 11.328 11.323 11.323 11.35 11.405 11.47
7.262 7.145 7.08 7.085 7.105 7.115 7.092 7.027 6.943 6.877 6.133 5.895 6.677 7.02 7.087 7.122 7.132 7.105 7.05 6.99 6.953 6.955 6.975 6.987 6.89 6.488 6.395 6.892 7.18 7.19 7.143 7.128 7.4 7.617 7.59 7.55 7.492 7.42 7.398 7.427 7.45 7.475 7.52 7.585 7.652 7.72 7.755 7.755 7.753 7.753 7.79 7.863 7.94 8.015 8.077 8.125 8.165 8.203 8.233 8.26 8.295 8.325 8.32 8.29 8.27 8.29 8.355 8.435 8.513 8.58 8.592 8.563 8.535 8.505 8.49 8.49 8.49 8.49 8.472 8.42 8.35 8.29 8.285 8.333 8.385 8.422 8.427 8.425 8.442 8.45 8.445 8.45 8.46 8.47 8.497 8.555 8.625 8.687 8.72 8.73 8.74 8.75 8.765 8.778 8.783 8.785 8.788 8.795 8.828 8.883 8.917 8.907 8.87 8.835 8.858 8.935 9.015 9.095 9.167 9.222 9.287 9.395 9.457 9.435 9.41 9.428 9.48 9.542 9.605 9.652 9.685 9.712 9.737 9.747 9.707 9.632 9.557 9.505 9.538 9.633 9.727 9.805 9.827 9.822 9.832 9.847 9.87 9.872 9.815 9.74 9.755 9.848 9.94 10.027 10.072 10.078 10.083 10.088 10.1 10.115 10.125 10.138 10.153 10.178 10.213 10.248 10.283 10.315 10.348 10.37 10.413 10.5 10.597 10.687 10.772 10.865 10.97 11.08 11.15 11.185 11.22 11.262 11.295 11.295 11.285 11.278 11.278 11.29 11.318 11.34 11.343 11.337 11.33 11.32 11.31 11.303 11.295 11.3 11.343 11.415
7.12 7 6.943 6.955 6.983 7.02 7.04 7.017 6.955 6.889 5.828 5.813 6.902 7.015 7.085 7.125 7.117 7.065 7.005 6.943 6.903 6.905 6.925 6.942 6.94 6.772 6.34 6.348 6.925 7.21 7.232 7 7.245 7.73 7.67 7.59 7.487 7.383 7.365 7.417 7.45 7.475 7.523 7.588 7.655 7.722 7.76 7.767 7.767 7.765 7.8 7.87 7.942 8.005 8.06 8.112 8.155 8.195 8.222 8.24 8.268 8.295 8.292 8.27 8.278 8.33 8.405 8.482 8.55 8.607 8.615 8.575 8.54 8.51 8.495 8.493 8.49 8.49 8.48 8.447 8.395 8.325 8.278 8.298 8.35 8.377 8.37 8.358 8.365 8.367 8.353 8.345 8.35 8.36 8.393 8.458 8.535 8.612 8.662 8.68 8.69 8.703 8.725 8.747 8.762 8.772 8.775 8.785 8.83 8.88 8.875 8.832 8.79 8.76 8.788 8.865 8.945 9.025 9.092 9.113 9.12 9.19 9.247 9.245 9.265 9.33 9.4 9.462 9.527 9.58 9.61 9.63 9.655 9.677 9.647 9.565 9.495 9.465 9.5 9.587 9.665 9.707 9.705 9.673 9.66 9.675 9.72 9.787 9.805 9.748 9.745 9.83 9.92 10.005 10.05 10.058 10.065 10.078 10.088 10.088 10.088 10.1 10.123 10.155 10.193 10.228 10.265 10.3 10.32 10.315 10.35 10.44 10.527 10.613 10.703 10.8 10.903 11.01 11.082 11.118 11.16 11.22 11.27 11.28 11.27 11.273 11.29 11.31 11.327 11.337 11.333 11.323 11.317 11.31 11.3 11.29 11.277 11.255 11.263 11.333
6.972 6.86 6.808 6.83 6.87 6.915 6.942 6.952 6.937 6.735 5.828 5.993 6.922 7.01 7.085 7.112 7.08 7.017 6.955 6.9 6.86 6.853 6.87 6.887 6.902 6.882 6.65 6.196 6.31 6.97 7.292 7.168 7.288 7.64 7.66 7.545 7.43 7.338 7.335 7.395 7.442 7.475 7.525 7.592 7.658 7.72 7.757 7.772 7.78 7.78 7.813 7.877 7.94 7.99 8.04 8.097 8.147 8.19 8.217 8.23 8.245 8.267 8.27 8.273 8.315 8.38 8.452 8.52 8.577 8.632 8.642 8.6 8.555 8.52 8.502 8.497 8.495 8.492 8.48 8.455 8.422 8.37 8.3 8.278 8.31 8.325 8.31 8.295 8.29 8.285 8.27 8.255 8.248 8.253 8.293 8.365 8.445 8.525 8.595 8.63 8.64 8.655 8.68 8.707 8.735 8.757 8.772 8.802 8.842 8.845 8.805 8.755 8.708 8.685 8.723 8.798 8.875 8.955 9.015 9.027 9.015 9.018 9.04 9.088 9.163 9.247 9.32 9.38 9.442 9.487 9.51 9.525 9.543 9.567 9.555 9.498 9.458 9.445 9.468 9.525 9.567 9.592 9.59 9.543 9.503 9.505 9.558 9.645 9.72 9.735 9.745 9.815 9.908 9.997 10.042 10.053 10.068 10.088 10.102 10.103 10.108 10.125 10.145 10.17 10.2 10.235 10.275 10.297 10.277 10.245 10.28 10.368 10.453 10.54 10.635 10.738 10.84 10.942 11.015 11.06 11.12 11.19 11.247 11.267 11.268 11.285 11.31 11.327 11.337 11.34 11.33 11.313 11.303 11.297 11.29 11.275 11.248 11.213 11.205 11.263
6.81 6.715 6.68 6.718 6.765 6.81 6.837 6.852 6.865 6.325 5.855 6.402 6.917 7.005 7.077 7.08 7.027 6.967 6.91 6.863 6.82 6.803 6.815 6.835 6.855 6.862 6.82 6.53 6.088 6.31 7.025 7.31 7.173 7.41 7.692 7.543 7.393 7.295 7.305 7.365 7.423 7.473 7.528 7.595 7.663 7.722 7.755 7.768 7.78 7.79 7.82 7.872 7.925 7.972 8.022 8.08 8.135 8.185 8.215 8.225 8.233 8.245 8.265 8.305 8.365 8.425 8.485 8.542 8.6 8.655 8.667 8.625 8.567 8.52 8.497 8.497 8.5 8.495 8.48 8.455 8.427 8.392 8.337 8.283 8.265 8.265 8.25 8.235 8.223 8.21 8.195 8.177 8.16 8.143 8.17 8.242 8.32 8.397 8.472 8.53 8.572 8.605 8.627 8.65 8.672 8.695 8.715 8.765 8.795 8.762 8.715 8.667 8.62 8.608 8.658 8.73 8.805 8.885 8.937 8.945 8.935 8.925 8.938 8.995 9.078 9.162 9.237 9.3 9.355 9.39 9.41 9.425 9.44 9.458 9.465 9.455 9.443 9.438 9.443 9.458 9.468 9.48 9.475 9.425 9.365 9.345 9.395 9.485 9.578 9.658 9.723 9.803 9.898 9.99 10.04 10.055 10.078 10.102 10.117 10.125 10.14 10.158 10.175 10.195 10.218 10.247 10.27 10.257 10.218 10.195 10.238 10.318 10.395 10.478 10.57 10.675 10.78 10.88 10.958 11.02 11.09 11.16 11.225 11.262 11.28 11.305 11.327 11.337 11.34 11.34 11.33 11.313 11.298 11.285 11.273 11.255 11.23 11.21 11.213 11.255
