ncols         200
nrows         71
xllcorner     547000
yllcorner     255035
cellsize      5
NODATA_value  -9999.0
10.247 10.247 10.25 10.255 10.26 10.277 10.295 10.31 10.33 10.345 10.352 10.347 10.332 10.315 10.277 10.212 10.142 10.085 10.06 10.06 10.06 10.06 10.063 10.075 10.095 10.123 10.183 10.268 10.355 10.443 10.505 10.55 10.602 10.657 10.7 10.73 10.76 10.795 10.822 10.818 10.79 10.763 10.75 10.788 10.86 10.915 10.962 11.012 11.052 11.088 11.128 11.17 11.203 11.225 11.25 11.28 11.313 11.348 11.37 11.39 11.425 11.465 11.515 11.565 11.603 11.633 11.653 11.678 11.71 11.745 11.775 11.785 11.79 11.8 11.865 11.98 12.11 12.36 12.765 13.115 13.285 13.38 13.458 13.538 13.64 13.752 13.87 13.995 14.127 14.247 14.287 14.215 14.09 13.99 13.98 14.028 14.073 14.115 14.138 14.17 14.225 14.267 14.28 14.25 14.2 14.16 14.208 14.363 14.55 14.712 14.805 14.843 14.873 14.923 14.987 15.052 15.12 15.198 15.31 15.442 15.565 15.688 15.813 15.955 16.132 16.317 16.455 16.555 16.66 16.765 16.857 16.935 17.005 17.08 17.135 17.233 17.402 17.575 17.692 17.747 17.782 17.825 17.92 18.032 18.13 18.22 18.308 18.413 18.525 18.635 18.728 18.808 18.905 19.012 19.108 19.2 19.315 19.46 19.617 19.772 19.93 20.085 20.235 20.387 20.545 20.7 20.878 21.055 21.22 21.4 21.605 21.838 22.072 22.297 22.527 22.772 23.015 23.255 23.505 23.775 24.057 24.342 24.6 24.825 25.045 25.278 25.52 25.755 25.99 26.248 26.585 26.99 27.395 27.79 28.208 28.67 29.15 29.633 30.127 30.625
10.207 10.2 10.2 10.208 10.22 10.25 10.275 10.29 10.31 10.325 10.34 10.352 10.35 10.335 10.297 10.235 10.175 10.133 10.128 10.145 10.15 10.15 10.155 10.17 10.2 10.25 10.32 10.403 10.49 10.56 10.59 10.613 10.658 10.71 10.75 10.783 10.817 10.847 10.85 10.833 10.818 10.803 10.805 10.85 10.907 10.943 11 11.08 11.145 11.207 11.26 11.29 11.3 11.3 11.31 11.333 11.36 11.395 11.415 11.42 11.44 11.475 11.538 11.62 11.677 11.705 11.718 11.733 11.76 11.795 11.827 11.847 11.86 11.87 11.933 12.053 12.223 12.483 12.868 13.272 13.492 13.57 13.617 13.663 13.74 13.85 13.957 14.03 14.105 14.207 14.29 14.305 14.235 14.145 14.133 14.177 14.22 14.255 14.255 14.228 14.228 14.245 14.243 14.225 14.215 14.225 14.283 14.41 14.583 14.76 14.877 14.927 14.963 15.013 15.075 15.143 15.223 15.315 15.438 15.582 15.715 15.835 15.963 16.103 16.263 16.44 16.582 16.685 16.788 16.892 16.99 17.072 17.145 17.195 17.215 17.315 17.502 17.685 17.81 17.852 17.86 17.893 18.007 18.152 18.265 18.355 18.433 18.52 18.625 18.732 18.81 18.86 18.935 19.033 19.133 19.243 19.368 19.513 19.667 19.822 19.972 20.102 20.228 20.373 20.528 20.72 20.947 21.11 21.238 21.405 21.61 21.842 22.077 22.312 22.557 22.81 23.052 23.288 23.538 23.81 24.095 24.385 24.652 24.895 25.165 25.47 25.742 25.978 26.228 26.505 26.845 27.245 27.642 28.02 28.428 28.898 29.385 29.868 30.363 30.867
10.165 10.155 10.153 10.168 10.195 10.23 10.255 10.27 10.288 10.303 10.32 10.34 10.352 10.347 10.312 10.26 10.218 10.183 10.185 10.217 10.237 10.245 10.253 10.283 10.338 10.405 10.478 10.557 10.627 10.665 10.68 10.695 10.72 10.76 10.802 10.835 10.862 10.88 10.887 10.885 10.875 10.86 10.868 10.91 10.945 10.96 11.01 11.095 11.175 11.255 11.315 11.345 11.365 11.377 11.385 11.395 11.413 11.442 11.46 11.46 11.465 11.488 11.553 11.66 11.745 11.777 11.785 11.79 11.81 11.845 11.88 11.907 11.927 11.94 12 12.148 12.365 12.618 12.97 13.412 13.672 13.735 13.77 13.805 13.855 13.94 14.025 14.06 14.093 14.168 14.247 14.305 14.322 14.29 14.285 14.322 14.357 14.392 14.415 14.355 14.285 14.288 14.303 14.318 14.333 14.355 14.41 14.508 14.648 14.81 14.932 15.005 15.055 15.103 15.165 15.245 15.34 15.44 15.558 15.705 15.855 15.985 16.115 16.258 16.405 16.567 16.71 16.815 16.915 17.017 17.12 17.21 17.26 17.247 17.265 17.4 17.582 17.76 17.882 17.91 17.9 17.925 18.05 18.23 18.38 18.487 18.567 18.645 18.732 18.825 18.89 18.928 18.98 19.065 19.178 19.302 19.428 19.56 19.71 19.862 19.995 20.11 20.223 20.353 20.54 20.82 21.065 21.19 21.288 21.42 21.615 21.848 22.083 22.315 22.56 22.82 23.075 23.318 23.57 23.848 24.135 24.425 24.698 24.975 25.313 25.675 25.967 26.218 26.495 26.788 27.118 27.495 27.872 28.235 28.64 29.118 29.615 30.103 30.598 31.102
10.128 10.113 10.115 10.143 10.178 10.213 10.238 10.255 10.273 10.29 10.308 10.325 10.345 10.357 10.34 10.303 10.27 10.238 10.238 10.273 10.305 10.33 10.363 10.42 10.49 10.56 10.63 10.695 10.735 10.755 10.772 10.787 10.8 10.823 10.852 10.875 10.892 10.905 10.912 10.917 10.92 10.915 10.925 10.95 10.965 10.975 11.015 11.087 11.16 11.227 11.285 11.33 11.37 11.4 11.422 11.445 11.467 11.49 11.5 11.502 11.502 11.508 11.563 11.672 11.782 11.84 11.852 11.855 11.865 11.893 11.928 11.96 11.987 12.01 12.093 12.283 12.525 12.77 13.088 13.482 13.747 13.84 13.885 13.93 13.977 14.04 14.092 14.11 14.125 14.158 14.21 14.275 14.348 14.39 14.415 14.45 14.48 14.512 14.545 14.5 14.42 14.41 14.425 14.44 14.455 14.483 14.548 14.633 14.735 14.86 14.965 15.05 15.125 15.188 15.265 15.36 15.46 15.56 15.675 15.82 15.977 16.122 16.262 16.41 16.555 16.705 16.837 16.94 17.037 17.135 17.237 17.322 17.332 17.275 17.303 17.452 17.622 17.787 17.9 17.932 17.93 17.955 18.08 18.27 18.452 18.597 18.687 18.755 18.827 18.902 18.96 18.998 19.048 19.128 19.235 19.36 19.487 19.615 19.753 19.89 20.015 20.135 20.255 20.405 20.655 20.972 21.182 21.277 21.36 21.463 21.635 21.86 22.088 22.315 22.56 22.823 23.088 23.348 23.61 23.888 24.175 24.465 24.763 25.103 25.487 25.872 26.192 26.467 26.752 27.04 27.36 27.717 28.082 28.445 28.85 29.33 29.837 30.335 30.833 31.335
10.143 10.123 10.135 10.17 10.205 10.238 10.263 10.285 10.305 10.325 10.34 10.355 10.373 10.38 10.387 10.377 10.345 10.315 10.313 10.345 10.38 10.415 10.48 10.56 10.63 10.7 10.77 10.81 10.825 10.845 10.862 10.875 10.885 10.892 10.89 10.893 10.905 10.915 10.92 10.922 10.927 10.932 10.942 10.955 10.967 10.983 11.008 11.058 11.125 11.192 11.247 11.29 11.327 11.362 11.4 11.44 11.49 11.525 11.527 11.525 11.522 11.525 11.565 11.648 11.755 11.845 11.882 11.895 11.91 11.94 11.978 12.013 12.045 12.083 12.198 12.41 12.655 12.9 13.165 13.467 13.745 13.892 13.947 14.002 14.057 14.107 14.152 14.185 14.203 14.218 14.253 14.325 14.403 14.457 14.505 14.547 14.58 14.61 14.642 14.63 14.558 14.528 14.547 14.563 14.578 14.613 14.685 14.77 14.845 14.923 15.005 15.09 15.175 15.263 15.36 15.46 15.557 15.663 15.79 15.938 16.092 16.235 16.367 16.51 16.657 16.802 16.927 17.03 17.125 17.22 17.32 17.397 17.402 17.348 17.353 17.468 17.627 17.79 17.9 17.94 17.953 17.985 18.11 18.297 18.48 18.642 18.745 18.805 18.875 18.957 19.02 19.065 19.14 19.233 19.32 19.42 19.54 19.67 19.81 19.96 20.1 20.23 20.36 20.558 20.845 21.11 21.262 21.345 21.43 21.545 21.713 21.92 22.14 22.363 22.608 22.875 23.145 23.415 23.675 23.938 24.22 24.508 24.828 25.202 25.597 25.98 26.322 26.622 26.905 27.185 27.505 27.885 28.27 28.635 29.045 29.53 30.04 30.545 31.062 31.582
10.208 10.193 10.208 10.24 10.272 10.3 10.325 10.35 10.372 10.395 10.41 10.42 10.422 10.41 10.427 10.455 10.44 10.415 10.415 10.44 10.47 10.505 10.578 10.675 10.757 10.83 10.892 10.915 10.915 10.93 10.945 10.955 10.96 10.952 10.925 10.905 10.91 10.917 10.92 10.918 10.915 10.918 10.928 10.943 10.96 10.98 11 11.03 11.085 11.155 11.21 11.25 11.285 11.32 11.375 11.455 11.532 11.555 11.535 11.523 11.52 11.538 11.578 11.63 11.703 11.797 11.867 11.895 11.93 11.99 12.04 12.073 12.113 12.173 12.295 12.5 12.742 12.98 13.205 13.445 13.727 13.922 13.992 14.047 14.097 14.135 14.187 14.252 14.3 14.327 14.368 14.432 14.482 14.52 14.57 14.625 14.667 14.7 14.732 14.737 14.675 14.64 14.667 14.687 14.703 14.745 14.822 14.897 14.945 14.988 15.058 15.143 15.233 15.335 15.44 15.538 15.64 15.763 15.903 16.052 16.2 16.325 16.44 16.57 16.713 16.857 16.982 17.087 17.185 17.28 17.377 17.452 17.482 17.455 17.438 17.5 17.63 17.792 17.902 17.94 17.96 18.008 18.13 18.305 18.48 18.642 18.752 18.818 18.9 19.005 19.08 19.148 19.255 19.36 19.44 19.515 19.603 19.715 19.868 20.055 20.235 20.38 20.523 20.745 21.002 21.192 21.312 21.4 21.51 21.66 21.835 22.028 22.238 22.458 22.705 22.975 23.245 23.515 23.763 24 24.268 24.553 24.875 25.255 25.64 26 26.345 26.672 26.972 27.255 27.585 27.997 28.42 28.803 29.225 29.717 30.22 30.72 31.265 31.835
10.275 10.268 10.28 10.307 10.335 10.36 10.385 10.41 10.435 10.462 10.472 10.465 10.45 10.43 10.453 10.507 10.525 10.515 10.52 10.543 10.568 10.598 10.665 10.77 10.872 10.955 11.002 11.012 11.008 11.013 11.025 11.03 11.022 11.005 10.97 10.93 10.918 10.92 10.923 10.925 10.93 10.94 10.948 10.95 10.96 10.98 11 11.02 11.055 11.115 11.17 11.208 11.26 11.34 11.445 11.56 11.612 11.582 11.535 11.515 11.523 11.555 11.602 11.65 11.7 11.765 11.84 11.89 11.945 12.032 12.102 12.143 12.2 12.288 12.4 12.585 12.827 13.058 13.268 13.473 13.71 13.927 14.037 14.087 14.127 14.16 14.208 14.28 14.357 14.417 14.467 14.512 14.548 14.585 14.635 14.692 14.745 14.79 14.82 14.82 14.773 14.753 14.785 14.81 14.828 14.878 14.947 14.992 15.017 15.045 15.11 15.2 15.3 15.41 15.515 15.618 15.74 15.88 16.02 16.165 16.292 16.403 16.52 16.643 16.773 16.912 17.035 17.14 17.242 17.34 17.43 17.495 17.545 17.552 17.54 17.573 17.655 17.795 17.905 17.94 17.995 18.1 18.213 18.328 18.473 18.637 18.755 18.835 18.935 19.05 19.152 19.257 19.38 19.487 19.57 19.64 19.707 19.788 19.923 20.12 20.332 20.515 20.69 20.892 21.08 21.237 21.365 21.48 21.625 21.79 21.965 22.15 22.343 22.558 22.81 23.08 23.35 23.615 23.857 24.085 24.325 24.595 24.925 25.297 25.66 26.01 26.355 26.695 27.022 27.323 27.663 28.088 28.537 28.957 29.4 29.892 30.385 30.878 31.43 32.035
10.348 10.343 10.353 10.373 10.393 10.418 10.445 10.47 10.495 10.52 10.517 10.495 10.473 10.455 10.483 10.545 10.592 10.613 10.625 10.648 10.67 10.693 10.753 10.855 10.965 11.065 11.11 11.108 11.103 11.103 11.102 11.093 11.075 11.055 11.023 10.98 10.953 10.948 10.958 10.97 10.985 11.002 11.005 10.993 10.988 10.995 11.008 11.023 11.043 11.083 11.15 11.23 11.333 11.463 11.597 11.67 11.65 11.595 11.54 11.515 11.535 11.578 11.625 11.675 11.725 11.775 11.84 11.903 11.973 12.068 12.155 12.228 12.31 12.41 12.513 12.68 12.923 13.16 13.365 13.555 13.75 13.952 14.08 14.12 14.153 14.185 14.23 14.305 14.393 14.477 14.54 14.577 14.613 14.65 14.7 14.758 14.815 14.872 14.905 14.9 14.87 14.868 14.9 14.928 14.955 15 15.042 15.065 15.085 15.108 15.165 15.263 15.37 15.483 15.595 15.715 15.852 15.995 16.137 16.267 16.372 16.48 16.6 16.722 16.847 16.972 17.087 17.193 17.298 17.4 17.482 17.54 17.592 17.63 17.64 17.668 17.723 17.815 17.91 17.988 18.12 18.277 18.382 18.45 18.543 18.658 18.763 18.87 18.988 19.105 19.2 19.31 19.465 19.607 19.695 19.742 19.79 19.855 19.988 20.19 20.407 20.617 20.81 20.975 21.13 21.288 21.438 21.59 21.752 21.917 22.09 22.272 22.455 22.66 22.91 23.18 23.45 23.705 23.942 24.175 24.405 24.65 24.963 25.32 25.67 26.023 26.37 26.708 27.045 27.373 27.738 28.173 28.627 29.075 29.542 30.037 30.535 31.032 31.583 32.19
10.463 10.468 10.483 10.503 10.518 10.525 10.52 10.525 10.55 10.57 10.555 10.525 10.5 10.49 10.525 10.585 10.655 10.722 10.76 10.78 10.8 10.82 10.863 10.945 11.05 11.16 11.212 11.205 11.2 11.197 11.188 11.17 11.15 11.128 11.103 11.075 11.045 11.025 11.028 11.04 11.055 11.07 11.07 11.06 11.053 11.06 11.075 11.085 11.098 11.128 11.225 11.363 11.493 11.627 11.72 11.715 11.66 11.61 11.568 11.568 11.615 11.673 11.728 11.785 11.845 11.895 11.938 11.975 12.033 12.12 12.218 12.35 12.48 12.58 12.68 12.813 13.023 13.27 13.485 13.67 13.85 14.01 14.112 14.162 14.195 14.225 14.273 14.353 14.445 14.535 14.602 14.642 14.678 14.728 14.793 14.855 14.915 14.975 15.015 15.02 15.005 15.005 15.028 15.055 15.095 15.13 15.148 15.163 15.178 15.195 15.255 15.37 15.498 15.625 15.738 15.838 15.96 16.1 16.24 16.352 16.438 16.537 16.655 16.775 16.9 17.03 17.15 17.258 17.363 17.467 17.55 17.603 17.648 17.693 17.725 17.76 17.81 17.87 17.955 18.085 18.247 18.402 18.512 18.587 18.66 18.723 18.808 18.93 19.055 19.177 19.243 19.295 19.445 19.62 19.717 19.757 19.793 19.888 20.065 20.273 20.488 20.702 20.887 21.043 21.198 21.353 21.522 21.7 21.87 22.035 22.195 22.367 22.55 22.748 22.99 23.26 23.52 23.757 23.99 24.225 24.46 24.708 25.013 25.365 25.715 26.068 26.413 26.745 27.08 27.42 27.805 28.247 28.7 29.155 29.635 30.135 30.637 31.137 31.685 32.29
10.63 10.645 10.665 10.695 10.715 10.705 10.655 10.603 10.6 10.62 10.6 10.56 10.53 10.53 10.575 10.645 10.74 10.84 10.91 10.947 10.97 10.99 11.023 11.078 11.155 11.255 11.307 11.303 11.3 11.297 11.287 11.27 11.247 11.218 11.198 11.187 11.165 11.135 11.118 11.115 11.125 11.14 11.14 11.133 11.14 11.168 11.192 11.205 11.218 11.248 11.36 11.522 11.672 11.78 11.795 11.76 11.723 11.688 11.673 11.723 11.805 11.873 11.937 11.992 12.037 12.07 12.09 12.105 12.128 12.19 12.29 12.465 12.67 12.805 12.905 13.01 13.158 13.375 13.6 13.79 13.955 14.055 14.125 14.205 14.255 14.285 14.338 14.418 14.505 14.597 14.667 14.705 14.755 14.833 14.912 14.985 15.05 15.11 15.152 15.167 15.167 15.165 15.183 15.23 15.29 15.325 15.335 15.348 15.365 15.385 15.443 15.56 15.7 15.837 15.935 15.995 16.078 16.203 16.332 16.422 16.488 16.568 16.675 16.8 16.938 17.085 17.217 17.33 17.437 17.542 17.627 17.685 17.73 17.77 17.808 17.845 17.888 17.935 18.028 18.167 18.315 18.465 18.587 18.672 18.74 18.795 18.868 18.987 19.125 19.252 19.312 19.31 19.385 19.527 19.625 19.693 19.78 19.943 20.157 20.362 20.573 20.787 20.97 21.12 21.27 21.425 21.603 21.797 21.977 22.14 22.293 22.45 22.625 22.818 23.055 23.32 23.56 23.78 24.008 24.243 24.49 24.763 25.085 25.442 25.795 26.145 26.485 26.813 27.143 27.48 27.868 28.313 28.765 29.223 29.705 30.205 30.702 31.195 31.738 32.34
10.818 10.823 10.845 10.877 10.907 10.907 10.847 10.753 10.688 10.67 10.645 10.6 10.565 10.573 10.638 10.733 10.843 10.95 11.04 11.107 11.15 11.175 11.21 11.255 11.303 11.367 11.405 11.403 11.4 11.4 11.392 11.372 11.34 11.303 11.288 11.29 11.277 11.252 11.228 11.208 11.203 11.21 11.213 11.22 11.248 11.282 11.31 11.328 11.345 11.373 11.48 11.652 11.792 11.847 11.855 11.862 11.85 11.825 11.843 11.937 12.037 12.095 12.137 12.17 12.192 12.215 12.235 12.247 12.25 12.278 12.363 12.545 12.79 12.995 13.132 13.24 13.353 13.508 13.713 13.905 14.022 14.065 14.123 14.22 14.3 14.347 14.405 14.485 14.57 14.662 14.73 14.78 14.86 14.95 15.03 15.107 15.18 15.247 15.29 15.305 15.312 15.32 15.37 15.46 15.532 15.567 15.585 15.605 15.63 15.658 15.703 15.798 15.925 16.047 16.13 16.18 16.235 16.32 16.415 16.48 16.535 16.603 16.703 16.84 16.993 17.145 17.283 17.4 17.51 17.617 17.702 17.765 17.822 17.867 17.9 17.93 17.96 18 18.095 18.238 18.383 18.527 18.657 18.745 18.8 18.853 18.913 19.025 19.182 19.322 19.38 19.365 19.375 19.45 19.55 19.653 19.78 19.975 20.217 20.445 20.66 20.872 21.055 21.2 21.345 21.5 21.68 21.882 22.075 22.245 22.4 22.55 22.708 22.888 23.118 23.365 23.585 23.8 24.025 24.273 24.548 24.835 25.158 25.515 25.872 26.225 26.562 26.887 27.212 27.543 27.933 28.38 28.83 29.29 29.775 30.27 30.76 31.25 31.79 32.405
11.023 11.008 11.025 11.055 11.09 11.107 11.057 10.963 10.868 10.785 10.718 10.658 10.613 10.635 10.73 10.84 10.95 11.06 11.155 11.235 11.305 11.35 11.382 11.417 11.45 11.48 11.5 11.502 11.5 11.5 11.495 11.47 11.428 11.393 11.382 11.385 11.38 11.365 11.342 11.317 11.298 11.29 11.298 11.325 11.36 11.395 11.427 11.453 11.478 11.503 11.575 11.69 11.77 11.81 11.86 11.917 11.952 11.97 12.02 12.115 12.2 12.247 12.27 12.292 12.32 12.347 12.37 12.382 12.387 12.398 12.453 12.628 12.88 13.132 13.327 13.452 13.57 13.695 13.85 13.987 14.042 14.063 14.125 14.225 14.32 14.4 14.475 14.555 14.64 14.727 14.803 14.883 14.98 15.07 15.147 15.222 15.3 15.375 15.425 15.445 15.453 15.47 15.55 15.672 15.757 15.8 15.83 15.857 15.885 15.915 15.955 16.04 16.16 16.265 16.335 16.385 16.438 16.505 16.58 16.645 16.708 16.773 16.865 16.993 17.13 17.268 17.395 17.505 17.603 17.7 17.78 17.843 17.91 17.962 17.995 18.023 18.048 18.083 18.17 18.31 18.455 18.595 18.727 18.815 18.86 18.908 18.96 19.063 19.222 19.37 19.435 19.422 19.4 19.433 19.54 19.67 19.79 19.965 20.215 20.472 20.717 20.95 21.137 21.282 21.427 21.578 21.758 21.96 22.16 22.345 22.505 22.655 22.805 22.968 23.173 23.395 23.608 23.823 24.06 24.333 24.62 24.91 25.233 25.59 25.947 26.297 26.63 26.952 27.275 27.603 27.995 28.447 28.9 29.357 29.837 30.327 30.812 31.3 31.853 32.495
11.22 11.208 11.228 11.263 11.303 11.335 11.3 11.21 11.107 10.975 10.86 10.785 10.723 10.745 10.848 10.953 11.06 11.17 11.265 11.345 11.422 11.477 11.505 11.527 11.552 11.575 11.587 11.592 11.595 11.595 11.587 11.557 11.51 11.475 11.465 11.465 11.467 11.462 11.442 11.415 11.39 11.383 11.4 11.432 11.467 11.502 11.54 11.595 11.645 11.675 11.715 11.768 11.818 11.86 11.913 11.983 12.05 12.092 12.14 12.21 12.277 12.325 12.35 12.375 12.405 12.435 12.465 12.485 12.495 12.508 12.568 12.748 13.005 13.267 13.48 13.627 13.757 13.88 13.992 14.045 14.053 14.075 14.148 14.26 14.36 14.455 14.545 14.625 14.708 14.793 14.883 14.985 15.092 15.182 15.255 15.327 15.402 15.475 15.537 15.58 15.6 15.62 15.703 15.827 15.917 15.967 16 16.03 16.06 16.103 16.175 16.28 16.397 16.5 16.57 16.62 16.683 16.773 16.863 16.935 17.002 17.068 17.15 17.26 17.38 17.498 17.605 17.7 17.785 17.84 17.888 17.955 18.02 18.065 18.095 18.12 18.145 18.198 18.275 18.385 18.525 18.665 18.8 18.9 18.947 18.98 19.02 19.108 19.237 19.355 19.427 19.447 19.437 19.45 19.55 19.692 19.81 19.96 20.19 20.455 20.725 20.992 21.197 21.342 21.487 21.643 21.828 22.032 22.232 22.417 22.58 22.73 22.88 23.038 23.22 23.425 23.64 23.855 24.105 24.392 24.68 24.967 25.282 25.63 25.977 26.317 26.645 26.965 27.287 27.628 28.03 28.485 28.94 29.395 29.87 30.357 30.843 31.343 31.923 32.58
11.41 11.433 11.47 11.51 11.553 11.595 11.572 11.475 11.34 11.173 11.043 10.965 10.895 10.893 10.975 11.075 11.18 11.287 11.377 11.453 11.527 11.577 11.598 11.615 11.638 11.662 11.675 11.677 11.68 11.682 11.672 11.637 11.588 11.548 11.535 11.535 11.537 11.537 11.52 11.493 11.478 11.485 11.508 11.538 11.572 11.6 11.638 11.725 11.825 11.885 11.925 11.965 12.002 12.035 12.078 12.135 12.175 12.185 12.208 12.26 12.325 12.38 12.41 12.435 12.465 12.498 12.535 12.56 12.575 12.618 12.72 12.908 13.155 13.412 13.62 13.777 13.917 14.042 14.122 14.113 14.085 14.1 14.18 14.307 14.422 14.522 14.612 14.695 14.778 14.865 14.958 15.06 15.17 15.265 15.345 15.42 15.49 15.558 15.625 15.69 15.737 15.77 15.847 15.95 16.022 16.075 16.11 16.14 16.188 16.275 16.395 16.517 16.632 16.74 16.817 16.875 16.96 17.072 17.165 17.232 17.298 17.363 17.438 17.54 17.657 17.767 17.865 17.955 18.012 18.01 18.028 18.092 18.142 18.172 18.198 18.22 18.255 18.343 18.425 18.488 18.598 18.735 18.867 18.977 19.045 19.078 19.105 19.138 19.2 19.29 19.365 19.417 19.447 19.46 19.545 19.702 19.838 19.975 20.188 20.455 20.73 21.01 21.23 21.38 21.533 21.705 21.895 22.095 22.29 22.467 22.625 22.778 22.933 23.095 23.275 23.47 23.68 23.895 24.145 24.435 24.72 24.992 25.288 25.618 25.955 26.29 26.615 26.938 27.275 27.635 28.045 28.497 28.95 29.403 29.875 30.363 30.863 31.393 31.988 32.645
11.643 11.69 11.735 11.772 11.81 11.852 11.835 11.717 11.55 11.37 11.233 11.148 11.078 11.05 11.105 11.208 11.313 11.417 11.502 11.565 11.632 11.68 11.695 11.708 11.725 11.747 11.76 11.763 11.765 11.767 11.755 11.715 11.665 11.62 11.603 11.605 11.605 11.605 11.59 11.575 11.583 11.598 11.615 11.642 11.67 11.688 11.725 11.82 11.952 12.055 12.11 12.145 12.177 12.21 12.242 12.272 12.28 12.275 12.29 12.325 12.375 12.43 12.467 12.498 12.53 12.565 12.605 12.64 12.688 12.775 12.9 13.08 13.313 13.555 13.755 13.915 14.067 14.205 14.255 14.2 14.138 14.128 14.205 14.335 14.462 14.58 14.68 14.767 14.852 14.94 15.03 15.125 15.225 15.32 15.41 15.495 15.572 15.642 15.71 15.78 15.845 15.9 15.97 16.05 16.117 16.177 16.22 16.275 16.375 16.505 16.635 16.752 16.87 16.982 17.067 17.148 17.257 17.375 17.465 17.53 17.592 17.655 17.723 17.82 17.93 18.027 18.12 18.187 18.192 18.16 18.17 18.217 18.252 18.277 18.3 18.323 18.385 18.505 18.595 18.635 18.698 18.808 18.935 19.045 19.132 19.182 19.192 19.16 19.15 19.218 19.295 19.35 19.405 19.448 19.54 19.708 19.873 20.02 20.223 20.488 20.755 21.03 21.257 21.425 21.595 21.772 21.96 22.152 22.337 22.512 22.67 22.828 22.99 23.155 23.335 23.525 23.725 23.935 24.185 24.467 24.737 24.995 25.28 25.603 25.93 26.263 26.59 26.925 27.283 27.65 28.06 28.51 28.96 29.41 29.883 30.388 30.915 31.458 32.053 32.68
11.902 11.952 11.992 12.025 12.055 12.087 12.057 11.922 11.747 11.568 11.423 11.333 11.263 11.21 11.24 11.345 11.453 11.558 11.643 11.7 11.753 11.788 11.8 11.81 11.823 11.838 11.845 11.848 11.85 11.852 11.837 11.795 11.743 11.693 11.673 11.675 11.675 11.675 11.673 11.678 11.695 11.712 11.728 11.745 11.76 11.773 11.813 11.913 12.05 12.17 12.242 12.282 12.317 12.352 12.377 12.38 12.37 12.365 12.38 12.41 12.445 12.488 12.528 12.565 12.603 12.645 12.698 12.763 12.85 12.955 13.08 13.26 13.482 13.702 13.89 14.047 14.202 14.332 14.355 14.29 14.217 14.17 14.225 14.358 14.49 14.62 14.735 14.832 14.922 15.01 15.103 15.2 15.298 15.388 15.473 15.56 15.645 15.722 15.795 15.865 15.932 16 16.07 16.14 16.212 16.283 16.355 16.46 16.595 16.732 16.857 16.972 17.09 17.205 17.31 17.422 17.545 17.66 17.75 17.815 17.877 17.94 18.005 18.092 18.192 18.285 18.355 18.372 18.345 18.31 18.307 18.332 18.357 18.38 18.4 18.44 18.538 18.677 18.767 18.805 18.845 18.905 19.002 19.11 19.21 19.27 19.252 19.19 19.138 19.155 19.22 19.278 19.36 19.483 19.625 19.778 19.932 20.08 20.28 20.54 20.8 21.065 21.292 21.475 21.655 21.832 22.015 22.202 22.385 22.56 22.722 22.885 23.05 23.215 23.395 23.585 23.777 23.978 24.218 24.485 24.745 25.003 25.288 25.603 25.92 26.243 26.575 26.93 27.298 27.665 28.073 28.52 28.97 29.423 29.908 30.438 30.98 31.52 32.087 32.66
12.117 12.162 12.187 12.21 12.235 12.26 12.212 12.067 11.9 11.735 11.61 11.53 11.463 11.415 11.455 11.563 11.67 11.773 11.83 11.86 11.903 11.933 11.945 11.955 11.963 11.96 11.945 11.935 11.935 11.937 11.92 11.875 11.823 11.783 11.77 11.77 11.77 11.775 11.785 11.798 11.813 11.83 11.847 11.858 11.865 11.878 11.915 12.013 12.15 12.27 12.345 12.392 12.432 12.467 12.487 12.48 12.465 12.458 12.47 12.503 12.54 12.583 12.63 12.68 12.728 12.78 12.848 12.935 13.035 13.137 13.245 13.403 13.61 13.812 13.987 14.14 14.28 14.362 14.35 14.29 14.227 14.19 14.253 14.388 14.52 14.652 14.777 14.882 14.975 15.073 15.177 15.28 15.38 15.472 15.555 15.638 15.72 15.795 15.872 15.95 16.02 16.093 16.165 16.235 16.308 16.383 16.477 16.602 16.74 16.872 16.99 17.102 17.217 17.332 17.455 17.585 17.71 17.825 17.917 17.985 18.05 18.115 18.18 18.247 18.33 18.427 18.487 18.485 18.452 18.417 18.415 18.44 18.46 18.483 18.505 18.568 18.69 18.83 18.912 18.942 18.975 19.002 19.048 19.125 19.222 19.287 19.27 19.21 19.153 19.12 19.158 19.268 19.427 19.615 19.76 19.857 19.988 20.17 20.368 20.593 20.85 21.11 21.33 21.505 21.68 21.86 22.04 22.225 22.412 22.592 22.765 22.935 23.1 23.265 23.445 23.635 23.822 24.013 24.253 24.525 24.785 25.045 25.335 25.653 25.968 26.283 26.61 26.965 27.335 27.703 28.103 28.545 28.998 29.453 29.948 30.487 31.03 31.57 32.1 32.63
12.29 12.327 12.34 12.348 12.365 12.39 12.33 12.173 12.025 11.908 11.82 11.753 11.695 11.68 11.748 11.862 11.972 12.05 12.062 12.05 12.07 12.102 12.12 12.13 12.127 12.102 12.065 12.033 12.02 12.022 12.002 11.955 11.915 11.895 11.89 11.89 11.893 11.905 11.917 11.925 11.938 11.953 11.97 11.982 11.99 12.008 12.043 12.125 12.252 12.367 12.442 12.495 12.542 12.58 12.595 12.585 12.568 12.568 12.593 12.633 12.683 12.735 12.79 12.848 12.903 12.965 13.04 13.128 13.225 13.31 13.388 13.505 13.678 13.87 14.042 14.19 14.285 14.305 14.272 14.215 14.178 14.195 14.288 14.42 14.55 14.685 14.817 14.925 15.02 15.133 15.25 15.355 15.457 15.557 15.645 15.725 15.79 15.855 15.95 16.04 16.113 16.187 16.26 16.33 16.403 16.48 16.57 16.685 16.818 16.945 17.055 17.16 17.27 17.385 17.51 17.64 17.767 17.882 17.975 18.05 18.12 18.187 18.25 18.298 18.355 18.445 18.515 18.53 18.51 18.48 18.493 18.537 18.565 18.588 18.615 18.673 18.777 18.907 18.987 19.012 19.037 19.062 19.083 19.113 19.178 19.247 19.25 19.2 19.153 19.115 19.15 19.28 19.457 19.64 19.752 19.865 20.078 20.332 20.513 20.665 20.895 21.155 21.365 21.52 21.683 21.86 22.043 22.228 22.415 22.6 22.782 22.962 23.135 23.302 23.48 23.667 23.847 24.03 24.285 24.585 24.855 25.118 25.415 25.742 26.062 26.378 26.698 27.035 27.393 27.758 28.158 28.595 29.043 29.498 29.993 30.53 31.07 31.612 32.132 32.635
12.457 12.492 12.5 12.497 12.5 12.515 12.445 12.305 12.205 12.128 12.055 11.988 11.953 11.97 12.04 12.162 12.277 12.315 12.297 12.273 12.26 12.275 12.292 12.292 12.277 12.243 12.2 12.155 12.118 12.108 12.087 12.048 12.025 12.013 12.008 12.013 12.023 12.04 12.052 12.058 12.065 12.078 12.093 12.108 12.123 12.145 12.18 12.245 12.355 12.465 12.537 12.592 12.647 12.692 12.705 12.7 12.705 12.73 12.77 12.813 12.863 12.915 12.968 13.023 13.085 13.157 13.235 13.32 13.4 13.455 13.525 13.628 13.753 13.923 14.097 14.207 14.235 14.225 14.198 14.163 14.173 14.225 14.32 14.45 14.583 14.717 14.85 14.965 15.075 15.197 15.315 15.422 15.53 15.637 15.73 15.792 15.838 15.913 16.025 16.127 16.207 16.28 16.353 16.428 16.503 16.58 16.67 16.778 16.897 17.017 17.125 17.225 17.328 17.438 17.56 17.693 17.825 17.94 18.03 18.11 18.187 18.26 18.32 18.358 18.393 18.46 18.525 18.552 18.55 18.538 18.565 18.622 18.667 18.695 18.728 18.775 18.838 18.938 19.02 19.053 19.08 19.11 19.13 19.14 19.165 19.215 19.22 19.185 19.165 19.16 19.21 19.305 19.423 19.56 19.718 19.953 20.255 20.532 20.695 20.795 20.965 21.2 21.4 21.545 21.693 21.863 22.048 22.233 22.418 22.603 22.788 22.973 23.155 23.332 23.51 23.687 23.86 24.043 24.303 24.622 24.917 25.193 25.495 25.825 26.152 26.472 26.795 27.123 27.458 27.818 28.223 28.657 29.095 29.543 30.035 30.573 31.115 31.655 32.172 32.665
12.61 12.632 12.635 12.635 12.637 12.642 12.587 12.493 12.42 12.347 12.272 12.215 12.218 12.265 12.327 12.437 12.53 12.537 12.512 12.49 12.47 12.463 12.463 12.448 12.425 12.39 12.343 12.295 12.245 12.208 12.183 12.16 12.145 12.133 12.13 12.143 12.158 12.175 12.187 12.192 12.197 12.205 12.217 12.235 12.257 12.282 12.318 12.375 12.468 12.565 12.632 12.69 12.747 12.797 12.827 12.852 12.89 12.93 12.97 13.01 13.052 13.1 13.147 13.205 13.275 13.342 13.41 13.48 13.532 13.573 13.65 13.76 13.868 13.998 14.117 14.158 14.153 14.145 14.135 14.15 14.2 14.26 14.353 14.483 14.618 14.75 14.883 15.01 15.138 15.265 15.38 15.487 15.59 15.692 15.777 15.82 15.878 15.98 16.093 16.205 16.298 16.373 16.45 16.53 16.608 16.683 16.77 16.872 16.98 17.087 17.19 17.29 17.39 17.493 17.613 17.747 17.882 17.997 18.085 18.165 18.245 18.322 18.385 18.422 18.448 18.488 18.535 18.565 18.577 18.595 18.64 18.7 18.757 18.802 18.845 18.892 18.937 19 19.062 19.1 19.13 19.16 19.18 19.19 19.2 19.21 19.205 19.205 19.222 19.245 19.32 19.443 19.565 19.693 19.898 20.178 20.468 20.732 20.89 20.972 21.08 21.25 21.427 21.572 21.715 21.878 22.06 22.245 22.43 22.613 22.8 22.99 23.178 23.357 23.53 23.7 23.87 24.055 24.318 24.643 24.957 25.26 25.575 25.905 26.235 26.562 26.89 27.217 27.542 27.885 28.282 28.717 29.152 29.59 30.078 30.618 31.16 31.695 32.207 32.7
12.727 12.72 12.717 12.725 12.74 12.775 12.755 12.67 12.595 12.52 12.443 12.413 12.45 12.51 12.572 12.655 12.705 12.697 12.68 12.66 12.645 12.65 12.66 12.645 12.61 12.563 12.51 12.46 12.41 12.36 12.315 12.288 12.273 12.263 12.268 12.283 12.295 12.305 12.312 12.315 12.32 12.325 12.328 12.342 12.372 12.405 12.45 12.515 12.59 12.662 12.717 12.762 12.805 12.845 12.89 12.942 13.005 13.077 13.137 13.18 13.222 13.267 13.307 13.357 13.42 13.48 13.54 13.595 13.635 13.673 13.75 13.865 13.98 14.082 14.155 14.178 14.173 14.165 14.17 14.21 14.268 14.325 14.408 14.53 14.668 14.803 14.94 15.075 15.207 15.325 15.425 15.525 15.62 15.715 15.788 15.863 15.978 16.095 16.208 16.32 16.408 16.478 16.555 16.635 16.715 16.787 16.863 16.952 17.05 17.153 17.255 17.355 17.452 17.548 17.663 17.797 17.93 18.037 18.12 18.2 18.28 18.357 18.425 18.472 18.5 18.525 18.555 18.58 18.6 18.632 18.687 18.75 18.81 18.86 18.902 18.945 18.987 19.035 19.09 19.142 19.18 19.21 19.23 19.24 19.24 19.21 19.19 19.21 19.248 19.343 19.518 19.705 19.865 20.02 20.223 20.475 20.732 20.932 21.04 21.117 21.2 21.31 21.45 21.59 21.745 21.93 22.12 22.305 22.488 22.658 22.838 23.032 23.215 23.375 23.535 23.705 23.878 24.078 24.355 24.68 25 25.307 25.62 25.95 26.28 26.597 26.912 27.237 27.562 27.9 28.292 28.725 29.16 29.615 30.12 30.66 31.195 31.717 32.23 32.732
12.807 12.78 12.775 12.788 12.838 12.93 12.925 12.82 12.735 12.66 12.598 12.6 12.653 12.71 12.775 12.827 12.842 12.832 12.817 12.8 12.803 12.848 12.887 12.882 12.832 12.758 12.698 12.65 12.6 12.55 12.488 12.433 12.408 12.403 12.412 12.425 12.43 12.43 12.427 12.423 12.425 12.43 12.428 12.433 12.458 12.495 12.558 12.642 12.717 12.77 12.798 12.813 12.83 12.85 12.898 12.983 13.085 13.192 13.27 13.315 13.357 13.4 13.435 13.47 13.52 13.58 13.64 13.692 13.73 13.765 13.84 13.952 14.057 14.142 14.22 14.28 14.3 14.295 14.303 14.338 14.385 14.443 14.52 14.623 14.748 14.883 15.02 15.155 15.282 15.387 15.46 15.538 15.63 15.725 15.813 15.96 16.145 16.277 16.39 16.48 16.538 16.595 16.668 16.745 16.822 16.885 16.945 17.023 17.115 17.217 17.32 17.42 17.515 17.603 17.71 17.845 17.965 18.055 18.135 18.215 18.295 18.372 18.44 18.495 18.535 18.565 18.587 18.603 18.62 18.65 18.702 18.762 18.812 18.85 18.885 18.925 18.967 19.015 19.083 19.167 19.227 19.257 19.275 19.277 19.25 19.19 19.16 19.185 19.28 19.478 19.73 19.972 20.182 20.36 20.56 20.785 20.967 21.072 21.12 21.175 21.25 21.34 21.46 21.608 21.795 22.017 22.222 22.405 22.572 22.723 22.893 23.077 23.24 23.385 23.538 23.705 23.893 24.128 24.425 24.752 25.052 25.325 25.628 25.957 26.272 26.565 26.865 27.185 27.515 27.863 28.255 28.688 29.143 29.635 30.16 30.695 31.212 31.715 32.23 32.752
12.875 12.843 12.838 12.883 12.988 13.105 13.1 12.988 12.885 12.8 12.765 12.8 12.855 12.907 12.957 12.98 12.977 12.967 12.955 12.958 12.998 13.065 13.115 13.112 13.05 12.957 12.885 12.835 12.785 12.735 12.675 12.603 12.553 12.545 12.55 12.552 12.55 12.545 12.54 12.533 12.53 12.53 12.53 12.528 12.538 12.578 12.653 12.75 12.842 12.895 12.905 12.908 12.913 12.918 12.973 13.09 13.215 13.322 13.395 13.442 13.485 13.522 13.555 13.585 13.625 13.68 13.74 13.79 13.825 13.858 13.93 14.032 14.117 14.19 14.265 14.345 14.407 14.43 14.445 14.48 14.525 14.588 14.67 14.76 14.86 14.975 15.1 15.227 15.35 15.46 15.527 15.575 15.645 15.733 15.88 16.105 16.315 16.47 16.577 16.632 16.67 16.718 16.783 16.855 16.917 16.968 17.025 17.1 17.185 17.28 17.38 17.477 17.57 17.658 17.763 17.882 17.982 18.065 18.145 18.225 18.305 18.382 18.447 18.505 18.56 18.6 18.62 18.632 18.648 18.67 18.71 18.752 18.785 18.815 18.853 18.898 18.945 18.995 19.065 19.165 19.257 19.305 19.31 19.285 19.23 19.16 19.13 19.208 19.4 19.64 19.89 20.155 20.417 20.647 20.84 20.992 21.095 21.16 21.193 21.218 21.265 21.343 21.47 21.655 21.878 22.11 22.322 22.495 22.64 22.78 22.94 23.102 23.248 23.39 23.54 23.715 23.938 24.205 24.508 24.82 25.082 25.33 25.627 25.94 26.23 26.513 26.813 27.138 27.48 27.83 28.22 28.673 29.165 29.675 30.195 30.712 31.207 31.7 32.218 32.75
12.94 12.905 12.928 13.028 13.152 13.27 13.277 13.175 13.065 12.963 12.935 12.982 13.032 13.077 13.11 13.117 13.112 13.105 13.11 13.15 13.215 13.285 13.345 13.337 13.25 13.135 13.043 12.99 12.95 12.907 12.86 12.787 12.708 12.675 12.672 12.667 12.663 12.658 12.653 12.647 12.64 12.633 12.63 12.625 12.623 12.668 12.758 12.855 12.952 13.015 13.035 13.042 13.045 13.048 13.1 13.22 13.345 13.445 13.517 13.567 13.61 13.642 13.67 13.7 13.735 13.783 13.84 13.887 13.92 13.95 14.01 14.095 14.17 14.24 14.315 14.395 14.472 14.532 14.575 14.615 14.665 14.738 14.828 14.92 15.012 15.088 15.18 15.302 15.418 15.53 15.607 15.648 15.69 15.773 15.995 16.265 16.442 16.585 16.687 16.742 16.79 16.84 16.897 16.955 17 17.045 17.108 17.185 17.268 17.355 17.445 17.533 17.62 17.71 17.808 17.903 17.99 18.075 18.155 18.235 18.318 18.395 18.458 18.515 18.573 18.622 18.65 18.662 18.675 18.685 18.708 18.738 18.765 18.793 18.83 18.88 18.93 18.98 19.045 19.143 19.255 19.327 19.32 19.265 19.2 19.13 19.15 19.325 19.565 19.805 20.055 20.307 20.54 20.757 20.93 21.052 21.167 21.247 21.277 21.292 21.313 21.368 21.513 21.732 21.965 22.195 22.407 22.57 22.705 22.845 22.993 23.138 23.27 23.403 23.55 23.753 24.015 24.295 24.585 24.857 25.093 25.333 25.61 25.9 26.183 26.468 26.773 27.11 27.46 27.81 28.21 28.69 29.197 29.705 30.212 30.707 31.193 31.685 32.202 32.732
13.08 13.03 13.045 13.152 13.275 13.395 13.442 13.39 13.295 13.183 13.12 13.138 13.182 13.225 13.25 13.252 13.248 13.248 13.278 13.342 13.415 13.487 13.555 13.532 13.412 13.275 13.17 13.115 13.077 13.042 13.002 12.927 12.84 12.795 12.785 12.78 12.775 12.77 12.765 12.762 12.755 12.745 12.738 12.733 12.733 12.775 12.865 12.962 13.055 13.122 13.157 13.172 13.177 13.183 13.228 13.342 13.467 13.565 13.642 13.695 13.73 13.758 13.785 13.815 13.848 13.888 13.94 13.985 14.015 14.03 14.063 14.132 14.205 14.275 14.352 14.435 14.512 14.59 14.655 14.7 14.793 14.91 15.005 15.102 15.175 15.188 15.245 15.38 15.502 15.615 15.697 15.743 15.793 15.9 16.157 16.392 16.505 16.625 16.725 16.797 16.86 16.92 16.992 17.062 17.11 17.155 17.22 17.3 17.385 17.47 17.548 17.625 17.708 17.793 17.87 17.943 18.025 18.11 18.185 18.26 18.345 18.427 18.49 18.545 18.6 18.642 18.665 18.675 18.685 18.693 18.71 18.738 18.765 18.79 18.825 18.875 18.925 18.978 19.038 19.118 19.22 19.305 19.3 19.233 19.173 19.153 19.24 19.44 19.685 19.935 20.162 20.365 20.55 20.722 20.88 21.02 21.162 21.267 21.307 21.32 21.33 21.413 21.585 21.795 22.025 22.255 22.47 22.642 22.783 22.923 23.077 23.225 23.353 23.48 23.63 23.85 24.123 24.4 24.663 24.898 25.128 25.365 25.628 25.91 26.193 26.478 26.788 27.13 27.483 27.835 28.235 28.708 29.207 29.715 30.212 30.698 31.18 31.657 32.15 32.665
13.29 13.213 13.183 13.25 13.363 13.485 13.56 13.57 13.532 13.442 13.34 13.3 13.328 13.37 13.39 13.388 13.388 13.4 13.435 13.49 13.555 13.63 13.692 13.665 13.545 13.405 13.303 13.24 13.188 13.15 13.105 13.03 12.96 12.915 12.895 12.892 12.888 12.883 12.88 12.877 12.87 12.862 12.855 12.853 12.868 12.903 12.975 13.07 13.157 13.227 13.267 13.29 13.307 13.315 13.353 13.455 13.577 13.685 13.767 13.817 13.847 13.875 13.905 13.935 13.965 13.998 14.042 14.077 14.085 14.078 14.1 14.163 14.228 14.295 14.375 14.465 14.55 14.63 14.693 14.77 14.94 15.102 15.197 15.272 15.287 15.253 15.3 15.445 15.587 15.715 15.802 15.87 15.97 16.105 16.335 16.497 16.55 16.657 16.757 16.832 16.902 16.965 17.055 17.167 17.245 17.295 17.36 17.44 17.525 17.61 17.685 17.758 17.835 17.915 17.978 18.025 18.093 18.175 18.245 18.31 18.388 18.47 18.537 18.592 18.635 18.655 18.665 18.677 18.687 18.695 18.715 18.742 18.767 18.79 18.825 18.875 18.928 18.99 19.052 19.108 19.18 19.265 19.27 19.213 19.205 19.27 19.375 19.523 19.745 20.002 20.19 20.33 20.497 20.665 20.817 20.957 21.095 21.22 21.282 21.295 21.345 21.505 21.695 21.863 22.07 22.3 22.517 22.707 22.865 23.008 23.17 23.337 23.48 23.61 23.773 23.995 24.253 24.522 24.762 24.97 25.195 25.435 25.695 25.973 26.25 26.535 26.845 27.185 27.537 27.89 28.283 28.728 29.208 29.715 30.21 30.692 31.157 31.603 32.068 32.563
13.48 13.388 13.338 13.373 13.46 13.572 13.647 13.675 13.692 13.672 13.59 13.498 13.48 13.51 13.525 13.528 13.54 13.563 13.593 13.628 13.673 13.735 13.777 13.757 13.667 13.538 13.438 13.37 13.308 13.26 13.205 13.143 13.09 13.04 13.01 13.005 13.003 13 13 12.995 12.985 12.978 12.975 12.983 13.005 13.035 13.09 13.175 13.26 13.332 13.375 13.4 13.425 13.443 13.478 13.565 13.683 13.797 13.887 13.935 13.965 13.995 14.025 14.055 14.085 14.118 14.145 14.142 14.115 14.105 14.14 14.2 14.26 14.323 14.4 14.493 14.585 14.668 14.75 14.9 15.125 15.295 15.37 15.387 15.355 15.31 15.36 15.505 15.652 15.787 15.9 16.035 16.192 16.337 16.507 16.602 16.615 16.693 16.79 16.865 16.942 17.01 17.103 17.235 17.355 17.432 17.5 17.58 17.665 17.75 17.825 17.895 17.967 18.042 18.102 18.14 18.183 18.25 18.317 18.375 18.44 18.515 18.582 18.625 18.645 18.653 18.663 18.677 18.69 18.7 18.72 18.747 18.77 18.793 18.825 18.875 18.94 19.012 19.075 19.12 19.168 19.233 19.258 19.265 19.333 19.43 19.535 19.653 19.818 20.04 20.202 20.303 20.445 20.605 20.752 20.89 21.022 21.155 21.242 21.29 21.42 21.642 21.835 21.98 22.145 22.353 22.562 22.755 22.935 23.092 23.255 23.435 23.6 23.74 23.918 24.148 24.39 24.647 24.877 25.07 25.275 25.505 25.765 26.04 26.315 26.598 26.903 27.24 27.59 27.943 28.34 28.775 29.225 29.713 30.207 30.675 31.11 31.54 32 32.483
13.658 13.565 13.495 13.51 13.585 13.67 13.735 13.768 13.803 13.835 13.805 13.717 13.658 13.65 13.665 13.68 13.703 13.727 13.755 13.785 13.82 13.857 13.862 13.832 13.775 13.67 13.57 13.503 13.437 13.375 13.318 13.268 13.22 13.17 13.13 13.118 13.12 13.12 13.12 13.115 13.105 13.095 13.092 13.105 13.127 13.15 13.193 13.272 13.36 13.435 13.482 13.51 13.535 13.56 13.598 13.683 13.805 13.928 14.022 14.065 14.088 14.115 14.15 14.188 14.223 14.255 14.267 14.23 14.163 14.145 14.193 14.258 14.323 14.388 14.473 14.565 14.643 14.72 14.855 15.073 15.315 15.465 15.487 15.457 15.413 15.37 15.418 15.555 15.672 15.76 15.867 16.047 16.25 16.422 16.612 16.712 16.705 16.745 16.823 16.898 16.975 17.053 17.155 17.29 17.43 17.55 17.64 17.72 17.802 17.885 17.96 18.027 18.095 18.165 18.222 18.26 18.292 18.337 18.392 18.448 18.505 18.57 18.62 18.638 18.645 18.653 18.663 18.678 18.693 18.708 18.728 18.753 18.775 18.798 18.83 18.888 18.965 19.04 19.1 19.148 19.193 19.243 19.303 19.387 19.49 19.59 19.692 19.807 19.937 20.09 20.217 20.303 20.41 20.545 20.683 20.818 20.95 21.08 21.193 21.323 21.52 21.747 21.937 22.087 22.237 22.41 22.6 22.79 22.98 23.157 23.332 23.515 23.695 23.867 24.067 24.297 24.527 24.767 24.987 25.18 25.372 25.583 25.832 26.105 26.375 26.645 26.94 27.28 27.637 27.998 28.4 28.835 29.27 29.725 30.19 30.63 31.053 31.483 31.94 32.42
13.84 13.745 13.658 13.653 13.722 13.785 13.84 13.885 13.925 13.962 13.952 13.895 13.83 13.803 13.82 13.84 13.865 13.89 13.912 13.937 13.962 13.982 13.962 13.913 13.865 13.787 13.702 13.635 13.562 13.488 13.445 13.432 13.4 13.348 13.295 13.258 13.243 13.24 13.238 13.233 13.228 13.22 13.195 13.183 13.2 13.218 13.263 13.35 13.445 13.533 13.595 13.635 13.675 13.715 13.76 13.84 13.958 14.085 14.175 14.207 14.228 14.258 14.3 14.345 14.38 14.402 14.412 14.37 14.28 14.248 14.285 14.345 14.413 14.48 14.575 14.687 14.77 14.855 15.03 15.265 15.477 15.587 15.578 15.53 15.483 15.438 15.45 15.528 15.595 15.64 15.705 15.878 16.1 16.378 16.707 16.847 16.835 16.84 16.883 16.955 17.038 17.125 17.238 17.375 17.515 17.65 17.757 17.84 17.92 17.995 18.06 18.122 18.19 18.257 18.31 18.347 18.382 18.417 18.463 18.518 18.575 18.632 18.665 18.673 18.68 18.693 18.705 18.72 18.738 18.753 18.76 18.775 18.8 18.823 18.86 18.923 19 19.077 19.147 19.205 19.255 19.308 19.385 19.492 19.605 19.712 19.812 19.915 20.027 20.137 20.232 20.318 20.408 20.518 20.645 20.78 20.915 21.048 21.178 21.335 21.535 21.745 21.93 22.087 22.245 22.41 22.59 22.78 22.967 23.14 23.315 23.502 23.692 23.897 24.117 24.342 24.572 24.815 25.042 25.242 25.437 25.637 25.872 26.137 26.4 26.66 26.953 27.298 27.662 28.03 28.438 28.877 29.312 29.75 30.185 30.613 31.04 31.468 31.903 32.365
14.048 13.945 13.845 13.808 13.845 13.898 13.955 14.007 14.05 14.087 14.08 14.025 13.99 13.993 13.995 13.998 14.02 14.045 14.062 14.072 14.083 14.097 14.075 14.015 13.957 13.89 13.817 13.745 13.665 13.585 13.533 13.567 13.612 13.58 13.52 13.46 13.415 13.385 13.363 13.355 13.355 13.347 13.3 13.248 13.245 13.265 13.32 13.415 13.525 13.655 13.747 13.803 13.865 13.92 13.97 14.03 14.125 14.25 14.33 14.355 14.385 14.425 14.47 14.51 14.532 14.542 14.55 14.517 14.445 14.415 14.433 14.465 14.513 14.575 14.668 14.795 14.917 15.038 15.205 15.395 15.56 15.68 15.7 15.65 15.6 15.55 15.533 15.525 15.498 15.503 15.548 15.698 15.983 16.435 16.867 17.007 17 16.993 17.01 17.06 17.135 17.225 17.34 17.48 17.617 17.747 17.852 17.935 18.012 18.082 18.14 18.195 18.258 18.322 18.375 18.413 18.448 18.488 18.535 18.588 18.642 18.697 18.73 18.74 18.753 18.77 18.785 18.8 18.82 18.837 18.833 18.825 18.843 18.868 18.908 18.97 19.043 19.12 19.205 19.282 19.34 19.395 19.47 19.57 19.68 19.792 19.887 19.963 20.055 20.157 20.247 20.335 20.428 20.533 20.655 20.788 20.925 21.065 21.2 21.323 21.473 21.67 21.852 22.01 22.178 22.358 22.545 22.735 22.907 23.055 23.22 23.41 23.613 23.835 24.063 24.293 24.543 24.81 25.047 25.25 25.45 25.648 25.878 26.14 26.4 26.66 26.955 27.303 27.668 28.038 28.45 28.897 29.335 29.77 30.207 30.64 31.07 31.495 31.91 32.338
14.27 14.165 14.065 14 13.993 14.025 14.07 14.123 14.172 14.215 14.21 14.17 14.175 14.207 14.202 14.178 14.178 14.195 14.207 14.205 14.205 14.212 14.185 14.12 14.047 13.97 13.897 13.83 13.757 13.68 13.603 13.625 13.74 13.792 13.755 13.68 13.605 13.53 13.488 13.485 13.485 13.472 13.42 13.345 13.305 13.318 13.385 13.505 13.655 13.825 13.925 13.975 14.05 14.117 14.18 14.235 14.308 14.415 14.485 14.513 14.552 14.595 14.632 14.657 14.67 14.677 14.685 14.665 14.615 14.595 14.608 14.623 14.645 14.685 14.763 14.89 15.045 15.187 15.32 15.458 15.593 15.735 15.817 15.8 15.75 15.703 15.7 15.685 15.6 15.535 15.513 15.73 16.285 16.765 17.007 17.132 17.172 17.177 17.188 17.215 17.258 17.328 17.44 17.577 17.712 17.845 17.95 18.027 18.1 18.167 18.225 18.275 18.328 18.388 18.44 18.478 18.515 18.56 18.61 18.66 18.71 18.762 18.797 18.813 18.83 18.85 18.868 18.885 18.905 18.925 18.92 18.898 18.895 18.913 18.955 19.02 19.088 19.158 19.245 19.34 19.417 19.483 19.56 19.653 19.755 19.862 19.945 20.005 20.08 20.173 20.265 20.358 20.453 20.553 20.673 20.81 20.953 21.097 21.23 21.335 21.443 21.603 21.778 21.943 22.125 22.315 22.505 22.682 22.83 22.965 23.13 23.33 23.55 23.78 24.01 24.26 24.54 24.82 25.055 25.253 25.448 25.643 25.873 26.137 26.4 26.663 26.96 27.308 27.673 28.043 28.455 28.905 29.35 29.79 30.23 30.665 31.095 31.522 31.937 32.345
14.49 14.39 14.3 14.228 14.193 14.198 14.22 14.253 14.295 14.34 14.343 14.338 14.375 14.42 14.425 14.392 14.365 14.355 14.352 14.345 14.338 14.33 14.285 14.202 14.115 14.03 13.96 13.9 13.835 13.765 13.695 13.67 13.755 13.85 13.84 13.775 13.707 13.635 13.603 13.613 13.617 13.6 13.54 13.46 13.39 13.395 13.5 13.658 13.835 14.015 14.107 14.138 14.205 14.285 14.362 14.432 14.5 14.58 14.64 14.672 14.707 14.75 14.787 14.803 14.808 14.813 14.82 14.81 14.78 14.773 14.785 14.8 14.815 14.833 14.893 15.025 15.2 15.342 15.45 15.565 15.683 15.808 15.92 15.947 15.905 15.86 15.873 15.907 15.928 15.983 16.075 16.345 16.77 16.975 17.022 17.14 17.242 17.32 17.37 17.392 17.418 17.455 17.545 17.675 17.81 17.945 18.045 18.115 18.185 18.253 18.31 18.36 18.41 18.463 18.51 18.55 18.59 18.633 18.68 18.73 18.78 18.83 18.867 18.89 18.91 18.93 18.95 18.97 18.99 19.012 19.01 18.983 18.963 18.965 19.005 19.07 19.135 19.198 19.28 19.38 19.475 19.56 19.647 19.74 19.835 19.927 19.997 20.055 20.118 20.195 20.285 20.383 20.483 20.58 20.7 20.843 20.988 21.135 21.262 21.36 21.45 21.565 21.72 21.9 22.088 22.275 22.458 22.613 22.748 22.885 23.053 23.265 23.495 23.725 23.968 24.245 24.542 24.822 25.057 25.255 25.445 25.64 25.87 26.132 26.397 26.662 26.963 27.31 27.675 28.045 28.455 28.905 29.352 29.795 30.235 30.675 31.115 31.547 31.962 32.37
14.69 14.615 14.54 14.465 14.41 14.395 14.41 14.425 14.448 14.478 14.49 14.512 14.557 14.602 14.62 14.597 14.557 14.52 14.5 14.49 14.48 14.452 14.38 14.283 14.19 14.115 14.063 14.008 13.943 13.878 13.815 13.75 13.71 13.723 13.72 13.693 13.7 13.728 13.748 13.755 13.755 13.733 13.675 13.608 13.548 13.558 13.68 13.85 14.025 14.205 14.302 14.313 14.355 14.435 14.515 14.595 14.672 14.722 14.752 14.782 14.818 14.877 14.937 14.965 14.97 14.97 14.973 14.96 14.945 14.953 14.968 14.985 15 15.015 15.07 15.203 15.377 15.515 15.613 15.715 15.828 15.945 16.042 16.085 16.067 16.02 16.03 16.1 16.237 16.475 16.705 16.84 16.88 16.88 16.943 17.07 17.215 17.407 17.53 17.55 17.575 17.608 17.673 17.783 17.915 18.05 18.145 18.21 18.278 18.348 18.405 18.45 18.5 18.55 18.595 18.635 18.675 18.715 18.76 18.81 18.86 18.905 18.942 18.97 18.99 19.013 19.035 19.055 19.075 19.097 19.097 19.07 19.045 19.043 19.08 19.145 19.21 19.268 19.335 19.425 19.525 19.622 19.72 19.815 19.9 19.972 20.032 20.09 20.15 20.22 20.31 20.413 20.515 20.615 20.738 20.883 21.028 21.172 21.305 21.41 21.5 21.595 21.738 21.925 22.11 22.295 22.465 22.608 22.745 22.883 23.035 23.223 23.44 23.67 23.923 24.207 24.505 24.782 25.015 25.217 25.412 25.612 25.842 26.1 26.362 26.625 26.928 27.28 27.642 28 28.4 28.85 29.295 29.715 30.132 30.575 31.027 31.48 31.91 32.32
14.868 14.825 14.77 14.705 14.638 14.603 14.61 14.625 14.637 14.64 14.63 14.63 14.655 14.695 14.732 14.747 14.72 14.675 14.65 14.64 14.62 14.57 14.487 14.39 14.3 14.23 14.192 14.167 14.125 14.065 13.995 13.89 13.745 13.65 13.638 13.675 13.758 13.865 13.927 13.933 13.925 13.905 13.863 13.808 13.78 13.81 13.9 14.043 14.215 14.395 14.497 14.498 14.515 14.585 14.665 14.745 14.805 14.815 14.818 14.85 14.913 15 15.075 15.125 15.15 15.155 15.153 15.153 15.155 15.15 15.155 15.175 15.19 15.208 15.268 15.39 15.552 15.685 15.775 15.868 15.975 16.08 16.15 16.197 16.215 16.183 16.183 16.265 16.425 16.665 16.807 16.797 16.778 16.79 16.87 17.025 17.24 17.512 17.67 17.693 17.723 17.765 17.828 17.915 18.03 18.16 18.255 18.32 18.393 18.467 18.515 18.545 18.59 18.64 18.685 18.725 18.765 18.805 18.85 18.9 18.945 18.98 19.015 19.05 19.075 19.097 19.12 19.142 19.165 19.185 19.185 19.163 19.143 19.145 19.185 19.247 19.307 19.357 19.41 19.485 19.58 19.68 19.777 19.865 19.932 19.985 20.04 20.1 20.165 20.24 20.338 20.447 20.55 20.65 20.775 20.925 21.067 21.205 21.345 21.47 21.57 21.665 21.81 22 22.187 22.372 22.535 22.673 22.81 22.947 23.083 23.23 23.408 23.62 23.865 24.143 24.432 24.697 24.927 25.14 25.345 25.55 25.783 26.04 26.3 26.56 26.863 27.215 27.57 27.91 28.295 28.74 29.167 29.547 29.938 30.375 30.845 31.335 31.782 32.188
15.047 15.017 14.975 14.927 14.87 14.82 14.81 14.82 14.817 14.8 14.768 14.728 14.705 14.728 14.78 14.83 14.85 14.827 14.8 14.78 14.74 14.682 14.602 14.513 14.433 14.355 14.305 14.295 14.287 14.262 14.2 14.083 13.94 13.813 13.785 13.855 13.94 14.04 14.112 14.127 14.122 14.112 14.082 14.045 14.048 14.09 14.158 14.26 14.408 14.585 14.69 14.692 14.688 14.735 14.815 14.885 14.907 14.885 14.885 14.938 15.03 15.13 15.205 15.265 15.315 15.337 15.345 15.385 15.41 15.385 15.368 15.37 15.38 15.403 15.473 15.585 15.727 15.852 15.94 16.03 16.12 16.192 16.245 16.293 16.332 16.337 16.34 16.428 16.585 16.73 16.765 16.715 16.68 16.703 16.835 17.068 17.348 17.645 17.807 17.84 17.883 17.93 17.995 18.075 18.165 18.275 18.367 18.44 18.522 18.6 18.64 18.655 18.685 18.73 18.775 18.815 18.855 18.895 18.94 18.985 19.017 19.048 19.085 19.122 19.155 19.182 19.205 19.227 19.25 19.272 19.275 19.258 19.248 19.253 19.29 19.345 19.395 19.44 19.49 19.56 19.645 19.737 19.825 19.895 19.945 19.99 20.045 20.108 20.18 20.26 20.36 20.477 20.587 20.693 20.818 20.962 21.102 21.237 21.375 21.51 21.63 21.735 21.88 22.07 22.262 22.447 22.602 22.737 22.872 23.01 23.145 23.28 23.423 23.588 23.803 24.073 24.352 24.605 24.835 25.055 25.267 25.478 25.715 25.975 26.235 26.495 26.798 27.142 27.485 27.82 28.195 28.615 29.005 29.36 29.743 30.19 30.693 31.205 31.655 32.055
15.235 15.2 15.16 15.122 15.082 15.035 15.007 14.995 14.975 14.95 14.92 14.873 14.815 14.795 14.828 14.878 14.925 14.952 14.942 14.902 14.847 14.79 14.72 14.643 14.565 14.488 14.42 14.39 14.403 14.422 14.392 14.307 14.207 14.1 14.07 14.12 14.175 14.245 14.307 14.325 14.317 14.31 14.295 14.298 14.33 14.37 14.433 14.515 14.62 14.775 14.882 14.89 14.873 14.895 14.965 15.005 14.99 14.968 14.983 15.055 15.16 15.257 15.332 15.395 15.455 15.505 15.557 15.637 15.672 15.645 15.615 15.593 15.58 15.6 15.68 15.79 15.91 16.017 16.095 16.165 16.24 16.31 16.36 16.398 16.435 16.468 16.503 16.595 16.735 16.79 16.743 16.675 16.613 16.668 16.893 17.182 17.477 17.775 17.947 17.995 18.045 18.095 18.16 18.24 18.317 18.397 18.48 18.565 18.652 18.73 18.77 18.78 18.795 18.825 18.865 18.905 18.945 18.985 19.025 19.057 19.083 19.113 19.15 19.188 19.225 19.262 19.29 19.31 19.332 19.357 19.365 19.357 19.355 19.358 19.385 19.43 19.475 19.52 19.57 19.64 19.718 19.79 19.855 19.91 19.955 20 20.058 20.125 20.2 20.28 20.38 20.5 20.615 20.727 20.855 20.992 21.13 21.265 21.4 21.537 21.67 21.795 21.95 22.137 22.325 22.505 22.655 22.79 22.925 23.062 23.202 23.34 23.475 23.61 23.773 24 24.265 24.515 24.745 24.965 25.183 25.405 25.65 25.91 26.17 26.43 26.725 27.058 27.393 27.728 28.085 28.46 28.823 29.178 29.565 30.033 30.552 31.067 31.52 31.922
15.417 15.372 15.33 15.292 15.257 15.215 15.185 15.192 15.193 15.165 15.128 15.053 14.97 14.923 14.93 14.975 15.02 15.057 15.047 14.992 14.932 14.883 14.837 14.782 14.71 14.633 14.56 14.523 14.538 14.57 14.565 14.51 14.435 14.342 14.31 14.352 14.395 14.435 14.477 14.507 14.51 14.5 14.5 14.537 14.592 14.64 14.705 14.787 14.873 14.985 15.077 15.09 15.07 15.07 15.098 15.12 15.13 15.153 15.195 15.258 15.335 15.403 15.465 15.53 15.593 15.66 15.745 15.847 15.897 15.88 15.85 15.822 15.8 15.823 15.91 16.02 16.107 16.155 16.197 16.25 16.325 16.432 16.507 16.54 16.57 16.605 16.653 16.735 16.847 16.875 16.803 16.725 16.675 16.765 17.008 17.293 17.59 17.89 18.067 18.122 18.177 18.243 18.307 18.372 18.442 18.507 18.58 18.662 18.75 18.83 18.872 18.887 18.902 18.925 18.955 18.99 19.03 19.07 19.105 19.13 19.155 19.188 19.225 19.265 19.302 19.335 19.362 19.385 19.407 19.432 19.445 19.445 19.445 19.453 19.48 19.52 19.563 19.608 19.663 19.733 19.8 19.847 19.883 19.925 19.97 20.015 20.083 20.163 20.238 20.313 20.398 20.503 20.617 20.732 20.86 20.995 21.13 21.262 21.395 21.535 21.672 21.81 21.975 22.16 22.337 22.512 22.665 22.8 22.935 23.08 23.237 23.382 23.517 23.655 23.793 23.97 24.21 24.463 24.698 24.92 25.138 25.365 25.615 25.875 26.135 26.398 26.67 26.973 27.303 27.638 27.993 28.363 28.725 29.085 29.46 29.893 30.39 30.907 31.365 31.77
15.59 15.538 15.49 15.45 15.412 15.355 15.303 15.35 15.44 15.455 15.395 15.268 15.14 15.075 15.078 15.122 15.152 15.15 15.115 15.058 15.005 14.973 14.945 14.907 14.857 14.79 14.725 14.698 14.703 14.725 14.727 14.68 14.6 14.503 14.46 14.49 14.525 14.555 14.6 14.655 14.685 14.685 14.695 14.758 14.832 14.89 14.96 15.045 15.132 15.222 15.29 15.305 15.29 15.275 15.285 15.328 15.383 15.438 15.49 15.54 15.572 15.588 15.623 15.68 15.743 15.81 15.895 16 16.077 16.087 16.06 16.038 16.04 16.083 16.17 16.255 16.297 16.29 16.28 16.318 16.395 16.525 16.647 16.705 16.737 16.773 16.81 16.863 16.947 16.965 16.905 16.868 16.873 16.978 17.17 17.408 17.69 17.987 18.162 18.218 18.29 18.387 18.442 18.475 18.538 18.605 18.673 18.743 18.823 18.902 18.95 18.97 18.993 19.02 19.048 19.075 19.11 19.15 19.182 19.208 19.238 19.272 19.31 19.347 19.38 19.405 19.427 19.452 19.475 19.497 19.512 19.515 19.523 19.545 19.578 19.618 19.66 19.705 19.765 19.83 19.88 19.91 19.928 19.953 19.993 20.038 20.11 20.21 20.295 20.365 20.428 20.498 20.6 20.715 20.84 20.975 21.107 21.235 21.365 21.505 21.64 21.775 21.943 22.132 22.312 22.49 22.645 22.78 22.915 23.063 23.23 23.39 23.54 23.685 23.828 23.99 24.203 24.45 24.69 24.917 25.138 25.365 25.613 25.87 26.13 26.392 26.653 26.923 27.225 27.553 27.92 28.322 28.71 29.075 29.43 29.798 30.23 30.73 31.192 31.595
15.757 15.703 15.653 15.61 15.557 15.477 15.393 15.423 15.567 15.67 15.64 15.497 15.338 15.235 15.225 15.252 15.247 15.217 15.175 15.128 15.093 15.068 15.042 15.01 14.975 14.932 14.895 14.885 14.885 14.892 14.892 14.84 14.737 14.623 14.563 14.585 14.627 14.663 14.713 14.777 14.835 14.862 14.888 14.973 15.065 15.128 15.2 15.283 15.37 15.457 15.507 15.518 15.518 15.518 15.553 15.617 15.677 15.73 15.772 15.797 15.797 15.788 15.805 15.85 15.9 15.96 16.043 16.147 16.25 16.287 16.27 16.27 16.305 16.358 16.435 16.46 16.457 16.47 16.428 16.405 16.465 16.595 16.755 16.855 16.897 16.945 16.99 17.028 17.078 17.09 17.068 17.065 17.098 17.22 17.395 17.583 17.813 18.082 18.255 18.328 18.433 18.547 18.59 18.59 18.635 18.705 18.77 18.833 18.903 18.98 19.03 19.053 19.083 19.115 19.145 19.17 19.195 19.23 19.263 19.29 19.323 19.355 19.39 19.422 19.447 19.47 19.493 19.517 19.542 19.565 19.58 19.593 19.615 19.645 19.675 19.713 19.758 19.805 19.862 19.912 19.942 19.967 19.985 19.998 20.023 20.06 20.133 20.245 20.35 20.427 20.48 20.528 20.598 20.695 20.818 20.95 21.077 21.203 21.335 21.472 21.6 21.73 21.898 22.092 22.282 22.465 22.622 22.76 22.898 23.04 23.2 23.372 23.542 23.702 23.86 24.025 24.215 24.443 24.682 24.915 25.142 25.375 25.62 25.873 26.13 26.39 26.65 26.908 27.175 27.475 27.84 28.26 28.677 29.062 29.42 29.765 30.133 30.57 31.015 31.402
15.925 15.87 15.818 15.76 15.688 15.603 15.518 15.488 15.568 15.697 15.727 15.63 15.5 15.393 15.353 15.345 15.32 15.288 15.25 15.215 15.19 15.165 15.14 15.113 15.083 15.063 15.055 15.057 15.06 15.06 15.047 14.98 14.865 14.745 14.665 14.673 14.725 14.773 14.828 14.895 14.963 15.018 15.075 15.182 15.29 15.365 15.445 15.522 15.602 15.685 15.732 15.748 15.765 15.79 15.835 15.903 15.967 16.008 16.018 16.008 15.993 15.98 15.995 16.035 16.075 16.123 16.193 16.295 16.41 16.48 16.505 16.538 16.585 16.635 16.665 16.615 16.603 16.672 16.642 16.553 16.558 16.688 16.867 16.98 17.03 17.097 17.172 17.222 17.258 17.275 17.275 17.275 17.325 17.463 17.635 17.81 17.995 18.205 18.365 18.473 18.597 18.712 18.752 18.733 18.748 18.803 18.868 18.93 18.995 19.065 19.112 19.143 19.177 19.212 19.242 19.265 19.285 19.313 19.345 19.375 19.405 19.435 19.465 19.49 19.513 19.535 19.558 19.583 19.608 19.632 19.658 19.685 19.715 19.745 19.775 19.81 19.855 19.902 19.945 19.977 20 20.023 20.042 20.055 20.068 20.09 20.16 20.275 20.392 20.482 20.537 20.582 20.63 20.695 20.798 20.923 21.045 21.17 21.303 21.433 21.555 21.685 21.853 22.048 22.243 22.432 22.597 22.74 22.88 23.02 23.175 23.35 23.525 23.695 23.87 24.05 24.235 24.44 24.667 24.9 25.13 25.37 25.622 25.875 26.13 26.387 26.645 26.9 27.15 27.418 27.768 28.19 28.62 29.032 29.405 29.75 30.093 30.463 30.845 31.2
16.103 16.05 16 15.943 15.873 15.793 15.71 15.625 15.573 15.623 15.677 15.63 15.548 15.498 15.48 15.463 15.435 15.403 15.368 15.335 15.308 15.28 15.253 15.23 15.213 15.205 15.205 15.21 15.215 15.202 15.165 15.105 15.01 14.89 14.8 14.793 14.848 14.91 14.975 15.043 15.108 15.188 15.275 15.385 15.505 15.595 15.675 15.752 15.827 15.897 15.97 16.022 16.05 16.08 16.128 16.193 16.265 16.315 16.308 16.28 16.255 16.24 16.263 16.31 16.358 16.39 16.42 16.5 16.615 16.703 16.76 16.807 16.855 16.905 16.86 16.745 16.758 16.865 16.867 16.758 16.703 16.813 16.99 17.092 17.153 17.24 17.345 17.42 17.465 17.485 17.485 17.485 17.553 17.705 17.875 18.047 18.22 18.382 18.503 18.608 18.732 18.847 18.89 18.872 18.87 18.908 18.975 19.043 19.107 19.162 19.2 19.233 19.267 19.302 19.33 19.35 19.37 19.393 19.423 19.455 19.485 19.51 19.532 19.555 19.578 19.605 19.628 19.648 19.673 19.698 19.737 19.782 19.817 19.85 19.878 19.905 19.942 19.987 20.02 20.043 20.065 20.083 20.105 20.125 20.138 20.153 20.218 20.335 20.442 20.52 20.575 20.622 20.673 20.74 20.83 20.938 21.055 21.178 21.303 21.423 21.54 21.663 21.82 22.013 22.21 22.407 22.58 22.725 22.863 23 23.155 23.33 23.505 23.678 23.86 24.05 24.232 24.41 24.615 24.842 25.083 25.345 25.607 25.862 26.112 26.352 26.595 26.845 27.097 27.37 27.713 28.125 28.555 28.977 29.36 29.705 30.047 30.392 30.723 31.048
16.3 16.25 16.205 16.16 16.105 16.035 15.952 15.85 15.72 15.64 15.635 15.613 15.578 15.59 15.62 15.62 15.595 15.56 15.52 15.483 15.45 15.42 15.39 15.37 15.36 15.355 15.355 15.36 15.352 15.31 15.25 15.205 15.147 15.045 14.955 14.948 15.01 15.088 15.16 15.225 15.31 15.43 15.525 15.598 15.705 15.81 15.887 15.965 16.035 16.093 16.185 16.287 16.337 16.368 16.42 16.495 16.585 16.665 16.675 16.64 16.618 16.615 16.645 16.7 16.735 16.732 16.718 16.768 16.875 16.955 17.01 17.06 17.11 17.162 17.087 16.93 16.923 17.03 17.067 16.975 16.883 16.955 17.115 17.21 17.288 17.39 17.5 17.597 17.667 17.697 17.7 17.713 17.79 17.94 18.11 18.277 18.437 18.577 18.665 18.733 18.838 18.952 18.997 18.99 18.998 19.038 19.105 19.17 19.222 19.26 19.29 19.32 19.353 19.385 19.41 19.43 19.45 19.47 19.5 19.532 19.557 19.577 19.598 19.62 19.645 19.682 19.707 19.718 19.738 19.76 19.805 19.87 19.92 19.955 19.98 20 20.025 20.063 20.097 20.12 20.135 20.143 20.165 20.197 20.222 20.24 20.305 20.412 20.49 20.547 20.6 20.658 20.73 20.823 20.915 21.003 21.11 21.23 21.35 21.468 21.583 21.698 21.838 22.008 22.195 22.395 22.57 22.712 22.848 22.985 23.14 23.313 23.488 23.668 23.852 24.035 24.195 24.34 24.53 24.768 25.035 25.317 25.582 25.832 26.062 26.275 26.503 26.753 27.025 27.325 27.673 28.073 28.495 28.915 29.292 29.635 29.98 30.322 30.64 30.95
16.51 16.463 16.417 16.37 16.32 16.262 16.192 16.092 15.96 15.825 15.748 15.698 15.675 15.71 15.745 15.765 15.755 15.72 15.68 15.64 15.603 15.568 15.538 15.52 15.513 15.508 15.505 15.497 15.46 15.395 15.33 15.285 15.25 15.185 15.11 15.113 15.19 15.275 15.358 15.45 15.573 15.715 15.807 15.85 15.915 16.013 16.1 16.17 16.232 16.29 16.378 16.502 16.602 16.655 16.718 16.812 16.917 17.015 17.047 17.027 17.022 17.032 17.057 17.082 17.075 17.045 17.015 17.048 17.132 17.2 17.257 17.31 17.363 17.42 17.357 17.213 17.163 17.19 17.23 17.182 17.085 17.12 17.242 17.335 17.43 17.54 17.65 17.757 17.852 17.905 17.928 17.97 18.045 18.173 18.335 18.49 18.635 18.765 18.85 18.9 18.965 19.057 19.107 19.115 19.14 19.182 19.24 19.29 19.322 19.35 19.38 19.41 19.44 19.47 19.495 19.513 19.53 19.55 19.578 19.605 19.625 19.643 19.663 19.69 19.725 19.767 19.792 19.798 19.808 19.823 19.868 19.945 20.015 20.06 20.085 20.102 20.118 20.143 20.172 20.19 20.195 20.198 20.22 20.26 20.297 20.328 20.385 20.46 20.517 20.573 20.638 20.72 20.815 20.915 21.005 21.085 21.175 21.285 21.405 21.525 21.645 21.765 21.9 22.048 22.208 22.39 22.56 22.7 22.835 22.973 23.125 23.298 23.478 23.662 23.845 24.007 24.138 24.26 24.448 24.713 25.005 25.29 25.547 25.777 25.985 26.185 26.413 26.683 26.98 27.29 27.64 28.035 28.443 28.852 29.225 29.568 29.912 30.25 30.565 30.868
16.72 16.675 16.63 16.58 16.53 16.475 16.417 16.345 16.25 16.158 16.087 15.993 15.885 15.848 15.865 15.895 15.905 15.88 15.838 15.795 15.755 15.715 15.685 15.673 15.667 15.66 15.645 15.607 15.545 15.475 15.41 15.365 15.335 15.298 15.263 15.293 15.383 15.483 15.595 15.725 15.867 16.005 16.09 16.127 16.165 16.23 16.308 16.37 16.43 16.49 16.563 16.68 16.82 16.925 17.015 17.117 17.222 17.322 17.375 17.382 17.39 17.412 17.43 17.415 17.383 17.35 17.32 17.33 17.385 17.445 17.505 17.56 17.615 17.675 17.653 17.57 17.513 17.463 17.445 17.395 17.305 17.298 17.373 17.473 17.58 17.69 17.802 17.912 18.015 18.097 18.16 18.225 18.297 18.408 18.553 18.698 18.84 18.947 19.01 19.062 19.115 19.177 19.225 19.25 19.28 19.317 19.357 19.39 19.418 19.445 19.475 19.505 19.535 19.563 19.585 19.603 19.62 19.638 19.658 19.678 19.695 19.71 19.733 19.77 19.813 19.855 19.877 19.883 19.888 19.895 19.935 20.01 20.09 20.155 20.187 20.2 20.21 20.225 20.242 20.253 20.255 20.258 20.283 20.325 20.365 20.395 20.43 20.483 20.54 20.595 20.673 20.78 20.89 21 21.095 21.175 21.255 21.348 21.458 21.575 21.697 21.822 21.957 22.102 22.25 22.408 22.56 22.698 22.833 22.965 23.115 23.29 23.473 23.655 23.827 23.97 24.09 24.213 24.41 24.69 24.983 25.257 25.492 25.7 25.9 26.103 26.345 26.64 26.95 27.258 27.608 28.002 28.4 28.795 29.16 29.502 29.845 30.177 30.492 30.795
16.935 16.877 16.812 16.765 16.725 16.672 16.62 16.59 16.555 16.495 16.425 16.312 16.158 16.04 16.02 16.055 16.088 16.088 16.053 16.01 15.968 15.925 15.873 15.83 15.815 15.805 15.77 15.703 15.628 15.555 15.49 15.445 15.428 15.425 15.448 15.518 15.62 15.743 15.88 16.02 16.162 16.29 16.365 16.403 16.44 16.49 16.53 16.568 16.625 16.685 16.75 16.858 17.005 17.145 17.257 17.355 17.452 17.545 17.605 17.625 17.642 17.697 17.75 17.747 17.718 17.683 17.648 17.64 17.68 17.743 17.805 17.85 17.89 17.945 17.997 18 17.955 17.9 17.848 17.788 17.668 17.525 17.515 17.62 17.73 17.843 17.958 18.068 18.17 18.267 18.352 18.425 18.515 18.645 18.79 18.932 19.042 19.087 19.12 19.172 19.227 19.282 19.325 19.355 19.387 19.43 19.467 19.495 19.525 19.56 19.598 19.63 19.658 19.678 19.7 19.725 19.743 19.758 19.768 19.775 19.79 19.805 19.828 19.865 19.908 19.95 19.972 19.978 19.983 19.983 20.005 20.068 20.145 20.222 20.265 20.275 20.285 20.292 20.305 20.32 20.327 20.33 20.353 20.397 20.43 20.437 20.455 20.503 20.558 20.613 20.695 20.81 20.93 21.05 21.15 21.23 21.312 21.405 21.505 21.615 21.735 21.858 21.993 22.14 22.29 22.437 22.578 22.713 22.845 22.978 23.128 23.298 23.475 23.655 23.82 23.958 24.085 24.225 24.44 24.72 24.987 25.22 25.425 25.625 25.828 26.043 26.305 26.61 26.92 27.218 27.555 27.947 28.34 28.717 29.072 29.417 29.757 30.072 30.37 30.667
17.127 17.022 16.94 16.912 16.895 16.857 16.81 16.815 16.82 16.762 16.667 16.538 16.408 16.288 16.238 16.265 16.305 16.332 16.325 16.287 16.242 16.192 16.11 16.015 15.963 15.945 15.9 15.818 15.733 15.653 15.593 15.578 15.6 15.633 15.693 15.79 15.91 16.043 16.18 16.32 16.46 16.575 16.64 16.68 16.728 16.78 16.79 16.78 16.815 16.875 16.945 17.053 17.193 17.335 17.452 17.547 17.637 17.725 17.785 17.805 17.845 17.943 18.047 18.085 18.067 18.035 18.003 18 18.035 18.093 18.152 18.18 18.19 18.23 18.33 18.43 18.442 18.398 18.368 18.377 18.26 18.028 17.928 17.983 18.09 18.2 18.293 18.34 18.363 18.423 18.508 18.593 18.72 18.887 19.045 19.15 19.18 19.18 19.208 19.255 19.305 19.357 19.4 19.435 19.478 19.53 19.58 19.615 19.648 19.698 19.75 19.782 19.8 19.81 19.835 19.87 19.89 19.905 19.91 19.905 19.913 19.928 19.948 19.975 20.01 20.052 20.077 20.08 20.08 20.07 20.083 20.135 20.203 20.28 20.325 20.332 20.34 20.348 20.365 20.387 20.402 20.41 20.43 20.467 20.48 20.468 20.483 20.528 20.575 20.63 20.718 20.833 20.95 21.07 21.17 21.253 21.348 21.453 21.553 21.655 21.768 21.885 22.02 22.17 22.317 22.462 22.602 22.735 22.865 23 23.15 23.313 23.483 23.66 23.827 23.972 24.105 24.265 24.5 24.757 24.975 25.167 25.36 25.563 25.778 26.008 26.275 26.58 26.88 27.163 27.488 27.872 28.252 28.607 28.955 29.302 29.625 29.91 30.19 30.48
17.245 17.118 17.055 17.048 17.04 17.022 16.99 17.01 17.057 17.017 16.903 16.778 16.665 16.553 16.488 16.493 16.523 16.557 16.58 16.562 16.515 16.452 16.36 16.245 16.148 16.092 16.035 15.955 15.875 15.798 15.735 15.75 15.827 15.887 15.963 16.08 16.212 16.347 16.482 16.62 16.76 16.865 16.923 16.973 17.032 17.08 17.075 17.04 17.033 17.068 17.143 17.255 17.39 17.528 17.642 17.735 17.82 17.905 17.965 18 18.08 18.205 18.327 18.395 18.4 18.382 18.37 18.38 18.405 18.45 18.495 18.505 18.498 18.523 18.623 18.765 18.865 18.88 18.892 18.97 18.925 18.762 18.645 18.605 18.667 18.735 18.742 18.7 18.635 18.615 18.67 18.79 18.955 19.135 19.255 19.28 19.263 19.26 19.293 19.338 19.385 19.435 19.478 19.523 19.578 19.635 19.69 19.733 19.78 19.85 19.907 19.93 19.935 19.938 19.96 20.002 20.035 20.055 20.057 20.045 20.04 20.05 20.07 20.093 20.12 20.157 20.18 20.177 20.167 20.153 20.168 20.215 20.27 20.337 20.38 20.388 20.395 20.405 20.423 20.448 20.472 20.487 20.505 20.52 20.51 20.493 20.51 20.555 20.598 20.65 20.738 20.853 20.97 21.087 21.19 21.288 21.4 21.51 21.607 21.705 21.808 21.918 22.05 22.197 22.343 22.487 22.625 22.755 22.888 23.023 23.17 23.33 23.493 23.665 23.832 23.982 24.123 24.303 24.53 24.737 24.92 25.103 25.298 25.513 25.745 25.983 26.248 26.542 26.825 27.1 27.42 27.785 28.145 28.492 28.837 29.165 29.455 29.725 30.003 30.285
17.328 17.255 17.228 17.213 17.198 17.183 17.16 17.175 17.265 17.267 17.15 17.035 16.925 16.815 16.738 16.728 16.755 16.783 16.812 16.82 16.765 16.67 16.565 16.452 16.34 16.24 16.16 16.09 16.022 15.957 15.893 15.9 16 16.107 16.22 16.355 16.49 16.625 16.762 16.897 17.037 17.147 17.217 17.282 17.345 17.377 17.362 17.33 17.3 17.29 17.348 17.468 17.605 17.743 17.845 17.92 18 18.085 18.153 18.223 18.335 18.465 18.59 18.677 18.695 18.675 18.682 18.717 18.755 18.797 18.82 18.815 18.805 18.812 18.892 19.027 19.16 19.255 19.325 19.412 19.427 19.347 19.25 19.165 19.155 19.152 19.09 19.02 18.947 18.878 18.863 18.968 19.14 19.312 19.387 19.363 19.338 19.34 19.377 19.42 19.46 19.51 19.57 19.63 19.688 19.745 19.803 19.86 19.93 20.007 20.055 20.065 20.065 20.065 20.085 20.128 20.17 20.2 20.202 20.19 20.178 20.175 20.19 20.215 20.24 20.265 20.277 20.268 20.253 20.238 20.25 20.298 20.35 20.405 20.44 20.448 20.455 20.465 20.48 20.505 20.535 20.56 20.57 20.558 20.535 20.52 20.538 20.583 20.628 20.678 20.763 20.88 21.003 21.118 21.223 21.335 21.455 21.562 21.657 21.752 21.85 21.95 22.075 22.222 22.367 22.512 22.65 22.78 22.91 23.04 23.182 23.342 23.505 23.67 23.83 23.977 24.125 24.305 24.5 24.68 24.86 25.04 25.243 25.475 25.715 25.955 26.213 26.49 26.765 27.04 27.348 27.685 28.028 28.375 28.705 28.998 29.27 29.543 29.818 30.088
17.463 17.455 17.45 17.428 17.405 17.385 17.363 17.358 17.445 17.49 17.405 17.297 17.185 17.075 16.985 16.963 16.99 17.017 17.04 17.03 16.945 16.817 16.7 16.59 16.477 16.352 16.255 16.192 16.13 16.075 16.035 16.04 16.125 16.26 16.405 16.552 16.692 16.827 16.965 17.102 17.252 17.387 17.477 17.55 17.617 17.66 17.655 17.625 17.595 17.565 17.603 17.723 17.858 17.995 18.092 18.153 18.22 18.285 18.342 18.425 18.537 18.652 18.765 18.865 18.9 18.875 18.887 18.942 18.997 19.04 19.052 19.045 19.035 19.032 19.075 19.17 19.287 19.415 19.517 19.592 19.63 19.59 19.505 19.437 19.432 19.435 19.385 19.315 19.24 19.165 19.103 19.12 19.248 19.412 19.48 19.45 19.408 19.388 19.415 19.455 19.505 19.595 19.692 19.76 19.818 19.875 19.94 20.013 20.09 20.157 20.187 20.19 20.19 20.193 20.215 20.255 20.297 20.33 20.337 20.33 20.317 20.308 20.31 20.33 20.355 20.375 20.387 20.38 20.363 20.345 20.348 20.39 20.445 20.495 20.525 20.53 20.535 20.555 20.573 20.583 20.605 20.635 20.64 20.615 20.59 20.575 20.593 20.64 20.69 20.74 20.825 20.945 21.065 21.162 21.258 21.375 21.485 21.575 21.665 21.76 21.855 21.952 22.068 22.207 22.352 22.5 22.64 22.767 22.892 23.027 23.16 23.297 23.455 23.617 23.772 23.917 24.08 24.262 24.445 24.625 24.805 24.99 25.2 25.435 25.675 25.918 26.173 26.443 26.718 27 27.308 27.635 27.968 28.29 28.583 28.858 29.133 29.41 29.68 29.93
17.66 17.675 17.677 17.66 17.635 17.615 17.603 17.585 17.603 17.645 17.62 17.54 17.442 17.335 17.233 17.198 17.225 17.247 17.255 17.202 17.077 16.938 16.815 16.7 16.575 16.438 16.333 16.27 16.223 16.195 16.188 16.198 16.258 16.378 16.528 16.687 16.84 16.98 17.115 17.26 17.43 17.59 17.692 17.765 17.83 17.885 17.917 17.917 17.895 17.865 17.903 18.015 18.138 18.267 18.367 18.427 18.462 18.467 18.488 18.552 18.645 18.747 18.85 18.955 19.027 19.03 19.043 19.097 19.147 19.187 19.207 19.207 19.2 19.198 19.215 19.263 19.34 19.45 19.56 19.632 19.667 19.64 19.563 19.54 19.597 19.64 19.632 19.59 19.52 19.445 19.375 19.325 19.368 19.507 19.575 19.535 19.46 19.398 19.405 19.463 19.568 19.72 19.84 19.905 19.965 20.03 20.103 20.177 20.252 20.297 20.305 20.305 20.308 20.315 20.34 20.382 20.42 20.445 20.457 20.457 20.45 20.44 20.435 20.443 20.46 20.48 20.502 20.512 20.5 20.483 20.48 20.503 20.545 20.595 20.625 20.63 20.645 20.687 20.707 20.698 20.7 20.717 20.72 20.698 20.678 20.665 20.685 20.735 20.782 20.83 20.915 21.032 21.13 21.198 21.285 21.4 21.487 21.555 21.638 21.733 21.828 21.925 22.035 22.16 22.298 22.445 22.585 22.713 22.85 23.002 23.125 23.228 23.358 23.513 23.668 23.823 24.008 24.207 24.395 24.575 24.758 24.95 25.16 25.39 25.63 25.875 26.135 26.408 26.69 26.988 27.303 27.63 27.947 28.235 28.503 28.773 29.05 29.33 29.592 29.82
17.88 17.895 17.902 17.89 17.865 17.853 17.852 17.832 17.795 17.8 17.792 17.735 17.667 17.587 17.488 17.438 17.452 17.457 17.445 17.365 17.218 17.068 16.933 16.803 16.663 16.52 16.42 16.375 16.358 16.358 16.365 16.375 16.405 16.495 16.643 16.807 16.97 17.125 17.268 17.425 17.615 17.79 17.902 17.967 18.02 18.07 18.122 18.162 18.175 18.163 18.205 18.315 18.427 18.547 18.63 18.652 18.637 18.6 18.6 18.653 18.728 18.823 18.925 19.03 19.13 19.172 19.198 19.25 19.295 19.332 19.355 19.362 19.362 19.363 19.38 19.413 19.45 19.513 19.605 19.67 19.692 19.68 19.64 19.668 19.76 19.81 19.825 19.825 19.788 19.725 19.655 19.585 19.548 19.615 19.665 19.597 19.49 19.403 19.42 19.535 19.695 19.87 19.987 20.053 20.12 20.193 20.267 20.342 20.407 20.427 20.42 20.423 20.43 20.44 20.465 20.505 20.535 20.555 20.57 20.575 20.575 20.57 20.565 20.565 20.57 20.585 20.607 20.63 20.635 20.625 20.625 20.635 20.655 20.695 20.725 20.743 20.78 20.832 20.852 20.837 20.825 20.812 20.8 20.787 20.775 20.765 20.785 20.832 20.875 20.92 21.002 21.1 21.167 21.225 21.315 21.412 21.475 21.533 21.61 21.705 21.802 21.9 22.01 22.13 22.255 22.393 22.53 22.67 22.828 22.985 23.105 23.195 23.293 23.418 23.568 23.743 23.945 24.152 24.345 24.528 24.718 24.913 25.12 25.35 25.59 25.835 26.098 26.38 26.678 26.983 27.297 27.612 27.902 28.175 28.44 28.703 28.973 29.25 29.505 29.72
18.14 18.128 18.125 18.12 18.105 18.105 18.107 18.08 18.033 18 17.963 17.908 17.853 17.795 17.722 17.673 17.66 17.648 17.617 17.523 17.38 17.24 17.103 16.963 16.815 16.668 16.573 16.545 16.535 16.533 16.54 16.553 16.568 16.628 16.76 16.925 17.09 17.263 17.43 17.605 17.807 17.992 18.105 18.157 18.205 18.255 18.308 18.36 18.405 18.432 18.49 18.592 18.695 18.797 18.847 18.818 18.765 18.718 18.718 18.77 18.833 18.905 18.998 19.105 19.215 19.297 19.35 19.398 19.44 19.477 19.5 19.51 19.518 19.528 19.55 19.58 19.61 19.64 19.688 19.725 19.73 19.725 19.745 19.818 19.915 19.985 20.04 20.107 20.085 19.995 19.925 19.857 19.79 19.768 19.748 19.665 19.565 19.508 19.568 19.713 19.868 20.025 20.137 20.208 20.283 20.358 20.433 20.507 20.552 20.545 20.532 20.54 20.552 20.565 20.587 20.617 20.642 20.665 20.677 20.677 20.675 20.67 20.667 20.672 20.677 20.687 20.71 20.74 20.76 20.765 20.77 20.78 20.787 20.802 20.832 20.875 20.925 20.972 20.982 20.955 20.925 20.887 20.862 20.857 20.852 20.855 20.885 20.93 20.97 21.013 21.072 21.137 21.195 21.255 21.332 21.405 21.455 21.508 21.583 21.68 21.778 21.878 21.99 22.113 22.235 22.363 22.498 22.648 22.81 22.965 23.085 23.175 23.263 23.358 23.49 23.675 23.885 24.095 24.295 24.485 24.677 24.872 25.078 25.305 25.545 25.79 26.05 26.347 26.667 26.977 27.285 27.575 27.845 28.112 28.377 28.64 28.905 29.175 29.415 29.62
18.465 18.425 18.382 18.353 18.347 18.355 18.352 18.317 18.262 18.21 18.158 18.103 18.048 17.99 17.928 17.895 17.885 17.865 17.822 17.725 17.6 17.475 17.345 17.208 17.06 16.91 16.818 16.79 16.768 16.745 16.735 16.74 16.748 16.775 16.895 17.093 17.295 17.505 17.67 17.815 18.007 18.187 18.292 18.342 18.39 18.44 18.493 18.545 18.595 18.625 18.69 18.802 18.902 18.995 19.037 19 18.935 18.883 18.873 18.915 18.973 19.033 19.115 19.22 19.333 19.44 19.512 19.555 19.595 19.627 19.652 19.67 19.68 19.69 19.708 19.735 19.765 19.792 19.818 19.835 19.838 19.833 19.875 19.967 20.06 20.15 20.267 20.365 20.335 20.243 20.17 20.105 20.043 19.993 19.935 19.855 19.795 19.805 19.9 20.035 20.17 20.26 20.313 20.38 20.455 20.53 20.602 20.652 20.657 20.625 20.607 20.617 20.632 20.637 20.65 20.677 20.705 20.727 20.737 20.735 20.725 20.715 20.715 20.725 20.735 20.745 20.767 20.802 20.832 20.855 20.867 20.872 20.875 20.875 20.902 20.955 21.005 21.052 21.057 21.02 20.977 20.933 20.908 20.905 20.915 20.948 20.995 21.04 21.075 21.092 21.115 21.165 21.225 21.282 21.343 21.403 21.455 21.508 21.585 21.685 21.783 21.885 22.003 22.128 22.25 22.375 22.513 22.663 22.818 22.957 23.067 23.158 23.245 23.333 23.453 23.625 23.825 24.037 24.24 24.432 24.625 24.818 25.023 25.25 25.49 25.732 25.97 26.243 26.567 26.9 27.207 27.477 27.737 27.997 28.252 28.512 28.78 29.042 29.27 29.47
18.757 18.69 18.617 18.575 18.57 18.575 18.57 18.532 18.478 18.425 18.375 18.32 18.265 18.205 18.128 18.108 18.13 18.12 18.072 17.977 17.86 17.735 17.605 17.47 17.33 17.185 17.093 17.065 17.032 16.988 16.963 16.96 16.963 17.015 17.165 17.385 17.625 17.85 17.97 18.048 18.21 18.372 18.465 18.522 18.575 18.625 18.675 18.727 18.76 18.75 18.808 18.942 19.065 19.172 19.232 19.212 19.153 19.105 19.078 19.098 19.155 19.223 19.3 19.39 19.498 19.61 19.685 19.725 19.752 19.768 19.802 19.84 19.855 19.858 19.858 19.875 19.905 19.935 19.96 19.98 19.995 19.998 20.028 20.107 20.19 20.275 20.41 20.492 20.507 20.48 20.403 20.338 20.29 20.27 20.227 20.163 20.153 20.208 20.313 20.447 20.537 20.532 20.513 20.56 20.635 20.697 20.737 20.74 20.71 20.67 20.653 20.662 20.667 20.658 20.663 20.69 20.715 20.73 20.742 20.75 20.745 20.735 20.735 20.745 20.755 20.765 20.785 20.82 20.855 20.885 20.902 20.905 20.905 20.905 20.93 20.98 21.03 21.077 21.085 21.055 21.02 20.978 20.953 20.963 21.003 21.06 21.115 21.15 21.157 21.14 21.145 21.195 21.252 21.303 21.36 21.427 21.487 21.543 21.62 21.72 21.823 21.93 22.048 22.17 22.293 22.42 22.558 22.707 22.845 22.95 23.047 23.142 23.23 23.32 23.445 23.608 23.783 23.983 24.182 24.37 24.56 24.753 24.96 25.188 25.425 25.665 25.888 26.11 26.393 26.727 27.04 27.312 27.575 27.83 28.075 28.325 28.588 28.845 29.07 29.275
18.952 18.86 18.803 18.788 18.783 18.782 18.775 18.74 18.69 18.642 18.595 18.54 18.477 18.402 18.323 18.315 18.362 18.375 18.327 18.23 18.115 17.992 17.865 17.73 17.595 17.458 17.365 17.327 17.28 17.225 17.2 17.205 17.258 17.395 17.563 17.755 17.99 18.18 18.252 18.283 18.413 18.562 18.64 18.698 18.753 18.807 18.86 18.905 18.897 18.855 18.913 19.055 19.195 19.327 19.422 19.427 19.38 19.34 19.302 19.298 19.355 19.44 19.515 19.59 19.68 19.782 19.855 19.885 19.89 19.895 19.94 20 20.032 20.035 20.025 20.025 20.045 20.075 20.1 20.12 20.14 20.155 20.183 20.24 20.305 20.373 20.478 20.577 20.667 20.697 20.638 20.588 20.568 20.56 20.528 20.51 20.553 20.623 20.727 20.817 20.815 20.76 20.718 20.737 20.787 20.812 20.812 20.787 20.753 20.715 20.698 20.697 20.687 20.673 20.678 20.697 20.71 20.72 20.735 20.75 20.757 20.755 20.755 20.765 20.775 20.785 20.805 20.837 20.872 20.905 20.927 20.935 20.935 20.935 20.96 21.01 21.06 21.102 21.107 21.082 21.052 21.018 21.01 21.05 21.115 21.18 21.22 21.222 21.2 21.17 21.175 21.225 21.28 21.323 21.38 21.455 21.525 21.587 21.66 21.758 21.865 21.975 22.09 22.213 22.337 22.465 22.602 22.737 22.842 22.925 23.018 23.12 23.217 23.315 23.448 23.61 23.77 23.943 24.128 24.313 24.498 24.688 24.898 25.125 25.36 25.597 25.82 26.025 26.253 26.54 26.84 27.122 27.4 27.66 27.905 28.15 28.4 28.645 28.872 29.093
19.105 19.033 19.007 19.002 19 18.995 18.985 18.955 18.905 18.858 18.81 18.752 18.677 18.59 18.523 18.528 18.58 18.617 18.582 18.477 18.352 18.22 18.092 17.962 17.832 17.702 17.615 17.572 17.52 17.465 17.45 17.51 17.648 17.825 17.98 18.14 18.355 18.5 18.525 18.53 18.628 18.752 18.815 18.873 18.93 18.988 19.045 19.062 19.008 18.955 19.018 19.162 19.302 19.44 19.562 19.602 19.572 19.535 19.495 19.503 19.573 19.652 19.727 19.802 19.88 19.962 20.015 20.025 20.02 20.023 20.068 20.145 20.195 20.205 20.2 20.19 20.193 20.215 20.24 20.26 20.28 20.297 20.317 20.355 20.41 20.47 20.555 20.67 20.795 20.882 20.885 20.862 20.855 20.845 20.85 20.897 20.967 21.037 21.1 21.097 21.035 20.967 20.902 20.872 20.877 20.88 20.865 20.83 20.795 20.76 20.735 20.72 20.702 20.685 20.685 20.698 20.703 20.71 20.725 20.743 20.758 20.767 20.775 20.785 20.795 20.805 20.822 20.852 20.887 20.92 20.947 20.962 20.965 20.965 20.99 21.04 21.09 21.127 21.127 21.1 21.07 21.043 21.048 21.1 21.17 21.237 21.272 21.26 21.23 21.198 21.203 21.255 21.307 21.345 21.398 21.472 21.547 21.62 21.698 21.795 21.905 22.015 22.13 22.255 22.38 22.505 22.63 22.732 22.815 22.895 22.985 23.09 23.198 23.31 23.448 23.605 23.765 23.923 24.083 24.258 24.442 24.628 24.835 25.065 25.3 25.535 25.752 25.955 26.158 26.385 26.65 26.933 27.215 27.482 27.727 27.965 28.202 28.437 28.675 28.912
19.257 19.205 19.185 19.167 19.152 19.11 19.077 19.122 19.137 19.083 19.025 18.955 18.868 18.775 18.723 18.74 18.793 18.85 18.817 18.69 18.55 18.405 18.275 18.152 18.03 17.91 17.83 17.79 17.742 17.695 17.72 17.857 18.042 18.227 18.397 18.547 18.707 18.795 18.795 18.798 18.853 18.933 18.993 19.063 19.135 19.205 19.255 19.227 19.14 19.08 19.12 19.245 19.382 19.515 19.63 19.697 19.7 19.665 19.658 19.718 19.787 19.845 19.92 20 20.072 20.135 20.175 20.185 20.183 20.185 20.23 20.307 20.347 20.352 20.352 20.35 20.35 20.36 20.377 20.392 20.407 20.42 20.433 20.458 20.505 20.568 20.648 20.755 20.88 21 21.062 21.062 21.05 21.04 21.075 21.16 21.245 21.317 21.337 21.287 21.212 21.14 21.052 20.958 20.918 20.922 20.902 20.86 20.822 20.785 20.755 20.735 20.715 20.7 20.7 20.71 20.718 20.723 20.733 20.75 20.768 20.78 20.785 20.79 20.8 20.81 20.825 20.852 20.885 20.915 20.947 20.987 21.007 21.008 21.035 21.083 21.125 21.147 21.135 21.102 21.073 21.055 21.055 21.083 21.14 21.21 21.265 21.28 21.26 21.225 21.23 21.282 21.327 21.363 21.415 21.487 21.563 21.64 21.728 21.83 21.94 22.037 22.14 22.265 22.392 22.517 22.625 22.713 22.795 22.883 22.985 23.095 23.205 23.32 23.445 23.59 23.75 23.905 24.05 24.205 24.385 24.573 24.78 25.01 25.242 25.465 25.665 25.86 26.06 26.26 26.5 26.78 27.055 27.312 27.535 27.745 27.97 28.205 28.45 28.695
19.385 19.325 19.29 19.26 19.205 19.085 19.028 19.162 19.315 19.325 19.26 19.175 19.075 18.98 18.938 18.968 19.025 19.082 19.027 18.87 18.72 18.575 18.445 18.327 18.208 18.098 18.028 17.988 17.95 17.918 17.963 18.115 18.307 18.5 18.687 18.86 18.975 19.015 19.027 19.045 19.075 19.14 19.225 19.31 19.395 19.477 19.492 19.42 19.335 19.265 19.258 19.325 19.44 19.57 19.667 19.737 19.782 19.8 19.858 19.942 19.99 20.033 20.1 20.172 20.232 20.285 20.332 20.367 20.38 20.383 20.427 20.485 20.492 20.485 20.488 20.492 20.497 20.502 20.505 20.51 20.522 20.535 20.548 20.568 20.605 20.663 20.73 20.815 20.93 21.052 21.135 21.162 21.16 21.15 21.188 21.28 21.367 21.435 21.467 21.432 21.36 21.287 21.187 21.055 20.965 20.948 20.925 20.88 20.84 20.8 20.77 20.75 20.735 20.73 20.735 20.742 20.747 20.75 20.758 20.775 20.79 20.795 20.79 20.785 20.79 20.8 20.815 20.838 20.865 20.898 20.938 20.997 21.047 21.063 21.09 21.13 21.15 21.15 21.13 21.1 21.078 21.07 21.07 21.073 21.103 21.163 21.225 21.272 21.28 21.253 21.26 21.307 21.345 21.38 21.433 21.503 21.58 21.66 21.753 21.855 21.95 22.025 22.115 22.242 22.377 22.505 22.61 22.698 22.79 22.9 23.02 23.137 23.25 23.358 23.463 23.583 23.73 23.887 24.028 24.163 24.328 24.518 24.73 24.957 25.175 25.375 25.56 25.748 25.943 26.14 26.378 26.647 26.907 27.15 27.35 27.53 27.733 27.958 28.2 28.445
19.482 19.41 19.36 19.3 19.175 18.998 18.955 19.125 19.355 19.507 19.507 19.415 19.31 19.23 19.205 19.228 19.273 19.31 19.23 19.058 18.898 18.748 18.615 18.5 18.383 18.283 18.228 18.195 18.168 18.143 18.173 18.303 18.485 18.675 18.862 19.037 19.155 19.21 19.245 19.272 19.3 19.37 19.477 19.582 19.68 19.74 19.712 19.632 19.557 19.485 19.453 19.473 19.53 19.618 19.708 19.79 19.873 19.975 20.09 20.165 20.195 20.217 20.262 20.322 20.375 20.425 20.475 20.525 20.562 20.577 20.612 20.64 20.628 20.62 20.622 20.625 20.63 20.637 20.635 20.63 20.638 20.65 20.663 20.683 20.713 20.758 20.82 20.895 20.988 21.097 21.185 21.237 21.262 21.263 21.305 21.392 21.462 21.52 21.565 21.562 21.507 21.43 21.32 21.175 21.043 20.978 20.947 20.903 20.858 20.818 20.79 20.775 20.77 20.768 20.77 20.775 20.775 20.775 20.783 20.795 20.8 20.8 20.797 20.79 20.785 20.79 20.805 20.825 20.85 20.883 20.93 20.995 21.065 21.11 21.135 21.152 21.152 21.142 21.123 21.103 21.093 21.09 21.087 21.083 21.09 21.125 21.18 21.237 21.277 21.277 21.288 21.327 21.362 21.398 21.445 21.518 21.6 21.683 21.772 21.857 21.927 21.993 22.083 22.213 22.355 22.49 22.6 22.695 22.808 22.932 23.055 23.175 23.292 23.402 23.503 23.603 23.723 23.87 24.01 24.135 24.28 24.463 24.675 24.887 25.085 25.275 25.463 25.648 25.835 26.028 26.248 26.493 26.74 26.98 27.18 27.35 27.528 27.723 27.95 28.198
19.5 19.45 19.405 19.295 19.093 18.89 18.88 19.062 19.257 19.447 19.545 19.542 19.52 19.502 19.505 19.515 19.535 19.535 19.43 19.255 19.085 18.923 18.785 18.67 18.563 18.48 18.44 18.415 18.39 18.368 18.39 18.5 18.667 18.845 19.01 19.16 19.285 19.38 19.45 19.5 19.535 19.593 19.695 19.815 19.85 19.815 19.787 19.755 19.72 19.685 19.667 19.673 19.688 19.73 19.815 19.915 20.025 20.172 20.295 20.337 20.35 20.367 20.398 20.445 20.505 20.562 20.615 20.665 20.712 20.747 20.772 20.777 20.765 20.757 20.755 20.757 20.765 20.77 20.77 20.765 20.762 20.765 20.775 20.797 20.822 20.853 20.908 20.985 21.065 21.152 21.23 21.29 21.34 21.37 21.417 21.487 21.547 21.605 21.65 21.672 21.647 21.567 21.445 21.295 21.145 21.033 20.972 20.925 20.875 20.835 20.815 20.81 20.807 20.802 20.802 20.802 20.8 20.8 20.802 20.805 20.805 20.805 20.802 20.798 20.79 20.79 20.805 20.825 20.848 20.873 20.923 20.998 21.072 21.137 21.165 21.158 21.148 21.138 21.123 21.113 21.11 21.11 21.105 21.1 21.1 21.11 21.145 21.195 21.248 21.285 21.313 21.345 21.38 21.415 21.46 21.533 21.615 21.7 21.78 21.845 21.905 21.968 22.053 22.178 22.323 22.465 22.592 22.715 22.842 22.967 23.09 23.21 23.327 23.44 23.542 23.64 23.742 23.86 23.987 24.115 24.247 24.41 24.603 24.795 24.985 25.175 25.37 25.565 25.755 25.93 26.12 26.345 26.58 26.812 27.01 27.177 27.345 27.515 27.713 27.953
19.45 19.483 19.495 19.383 19.178 18.963 18.883 18.943 19.008 19.103 19.23 19.375 19.522 19.625 19.682 19.712 19.725 19.702 19.597 19.437 19.267 19.1 18.965 18.86 18.768 18.695 18.655 18.63 18.605 18.588 18.6 18.693 18.84 18.982 19.12 19.262 19.39 19.492 19.587 19.672 19.742 19.81 19.855 19.867 19.835 19.798 19.8 19.813 19.823 19.832 19.85 19.87 19.885 19.913 19.985 20.085 20.213 20.355 20.437 20.455 20.465 20.495 20.525 20.56 20.62 20.685 20.737 20.782 20.825 20.862 20.885 20.887 20.882 20.88 20.877 20.877 20.88 20.877 20.875 20.872 20.872 20.872 20.877 20.895 20.912 20.93 20.98 21.06 21.135 21.192 21.247 21.31 21.372 21.415 21.46 21.53 21.602 21.675 21.73 21.767 21.775 21.705 21.57 21.407 21.232 21.07 20.97 20.92 20.875 20.845 20.832 20.83 20.827 20.822 20.82 20.815 20.81 20.812 20.815 20.815 20.815 20.815 20.813 20.808 20.803 20.803 20.815 20.835 20.858 20.89 20.94 21.008 21.083 21.155 21.185 21.17 21.155 21.145 21.14 21.14 21.14 21.14 21.138 21.133 21.13 21.123 21.138 21.185 21.235 21.293 21.34 21.373 21.41 21.445 21.485 21.545 21.623 21.707 21.78 21.84 21.9 21.955 22.03 22.148 22.29 22.435 22.575 22.715 22.852 22.975 23.085 23.192 23.295 23.392 23.49 23.59 23.692 23.797 23.915 24.045 24.18 24.345 24.535 24.728 24.92 25.11 25.308 25.502 25.677 25.828 26.003 26.223 26.448 26.665 26.842 26.995 27.157 27.323 27.5 27.713
19.49 19.605 19.655 19.555 19.387 19.202 19.045 18.975 18.983 19.028 19.043 19.145 19.375 19.56 19.672 19.742 19.79 19.78 19.7 19.575 19.417 19.258 19.145 19.072 18.995 18.915 18.865 18.84 18.815 18.808 18.82 18.888 19.005 19.115 19.228 19.365 19.497 19.6 19.695 19.79 19.87 19.915 19.9 19.868 19.875 19.895 19.91 19.928 19.943 19.963 20 20.047 20.082 20.105 20.16 20.263 20.39 20.495 20.545 20.568 20.593 20.627 20.657 20.685 20.73 20.79 20.84 20.877 20.915 20.947 20.965 20.97 20.972 20.977 20.977 20.975 20.97 20.965 20.958 20.948 20.95 20.955 20.96 20.968 20.978 20.993 21.04 21.117 21.172 21.2 21.245 21.31 21.352 21.357 21.39 21.47 21.55 21.622 21.687 21.752 21.805 21.77 21.63 21.445 21.245 21.058 20.943 20.895 20.863 20.845 20.838 20.835 20.832 20.825 20.817 20.813 20.813 20.82 20.825 20.825 20.825 20.825 20.825 20.823 20.818 20.818 20.83 20.853 20.885 20.935 20.985 21.033 21.098 21.172 21.205 21.19 21.175 21.165 21.165 21.175 21.18 21.18 21.18 21.177 21.167 21.145 21.155 21.205 21.26 21.323 21.372 21.41 21.447 21.483 21.52 21.568 21.633 21.71 21.78 21.84 21.895 21.94 22.013 22.128 22.263 22.405 22.545 22.682 22.807 22.91 23.002 23.095 23.182 23.265 23.355 23.455 23.563 23.678 23.798 23.928 24.083 24.273 24.477 24.68 24.88 25.075 25.26 25.427 25.575 25.713 25.888 26.107 26.327 26.535 26.69 26.815 26.965 27.13 27.305 27.49
19.64 19.78 19.817 19.705 19.548 19.413 19.318 19.308 19.378 19.405 19.285 19.185 19.283 19.462 19.595 19.688 19.792 19.817 19.75 19.662 19.535 19.4 19.32 19.275 19.217 19.14 19.08 19.05 19.033 19.04 19.06 19.095 19.18 19.278 19.363 19.475 19.602 19.71 19.802 19.865 19.898 19.93 19.965 20.007 20.032 20.04 20.052 20.065 20.083 20.11 20.15 20.205 20.257 20.295 20.343 20.435 20.537 20.607 20.652 20.688 20.725 20.762 20.792 20.818 20.848 20.895 20.942 20.97 20.965 20.947 20.98 21.032 21.055 21.06 21.06 21.06 21.057 21.052 21.042 21.03 21.025 21.025 21.03 21.037 21.045 21.058 21.1 21.157 21.187 21.203 21.242 21.287 21.282 21.248 21.27 21.342 21.405 21.46 21.528 21.605 21.66 21.635 21.52 21.38 21.212 21.03 20.92 20.883 20.863 20.85 20.842 20.837 20.83 20.82 20.813 20.813 20.82 20.83 20.835 20.835 20.837 20.84 20.84 20.837 20.833 20.833 20.848 20.883 20.93 20.985 21.035 21.075 21.125 21.192 21.225 21.212 21.198 21.185 21.185 21.2 21.215 21.22 21.22 21.215 21.192 21.163 21.178 21.233 21.295 21.36 21.41 21.45 21.485 21.52 21.56 21.605 21.655 21.715 21.782 21.837 21.88 21.92 21.998 22.115 22.24 22.375 22.507 22.622 22.715 22.798 22.883 22.968 23.05 23.13 23.223 23.328 23.44 23.56 23.683 23.825 24.005 24.205 24.41 24.617 24.82 25.01 25.175 25.32 25.46 25.598 25.773 25.987 26.197 26.402 26.552 26.655 26.783 26.94 27.115 27.29
19.82 19.957 19.99 19.9 19.79 19.7 19.678 19.753 19.867 19.855 19.685 19.48 19.363 19.408 19.518 19.63 19.775 19.832 19.775 19.705 19.63 19.553 19.495 19.458 19.417 19.36 19.3 19.265 19.263 19.28 19.3 19.32 19.373 19.453 19.528 19.613 19.715 19.808 19.89 19.95 19.995 20.065 20.132 20.165 20.175 20.185 20.195 20.208 20.23 20.26 20.3 20.352 20.407 20.46 20.51 20.572 20.637 20.692 20.75 20.81 20.86 20.897 20.925 20.95 20.975 20.995 20.982 20.937 20.865 20.798 20.845 20.957 21.04 21.107 21.14 21.14 21.137 21.132 21.125 21.112 21.1 21.092 21.095 21.102 21.107 21.117 21.142 21.17 21.19 21.207 21.225 21.22 21.183 21.14 21.148 21.2 21.25 21.3 21.358 21.41 21.425 21.375 21.288 21.205 21.097 20.973 20.903 20.88 20.865 20.855 20.845 20.835 20.825 20.815 20.813 20.82 20.83 20.84 20.845 20.845 20.847 20.85 20.85 20.847 20.845 20.85 20.875 20.925 20.98 21.035 21.085 21.125 21.17 21.22 21.242 21.235 21.22 21.205 21.205 21.22 21.24 21.252 21.252 21.237 21.208 21.183 21.205 21.268 21.333 21.397 21.45 21.487 21.523 21.56 21.6 21.645 21.69 21.738 21.79 21.833 21.868 21.905 21.983 22.1 22.22 22.342 22.455 22.548 22.633 22.71 22.78 22.853 22.925 22.998 23.093 23.208 23.323 23.44 23.575 23.745 23.94 24.14 24.337 24.53 24.715 24.89 25.047 25.192 25.335 25.478 25.652 25.857 26.057 26.257 26.412 26.515 26.622 26.758 26.925 27.103
20.04 20.177 20.24 20.21 20.153 20.088 20.095 20.192 20.27 20.235 20.082 19.885 19.68 19.538 19.528 19.62 19.765 19.838 19.808 19.783 19.79 19.78 19.733 19.683 19.633 19.578 19.518 19.493 19.515 19.543 19.57 19.598 19.62 19.67 19.745 19.82 19.908 19.995 20.083 20.175 20.23 20.235 20.26 20.297 20.31 20.32 20.33 20.343 20.365 20.392 20.425 20.47 20.522 20.577 20.625 20.66 20.697 20.745 20.813 20.9 20.98 21.027 21.037 21.035 21.032 21.017 20.96 20.875 20.78 20.703 20.73 20.848 20.983 21.117 21.185 21.182 21.177 21.172 21.165 21.15 21.135 21.12 21.117 21.127 21.135 21.142 21.147 21.157 21.175 21.195 21.195 21.163 21.12 21.078 21.06 21.09 21.138 21.185 21.23 21.26 21.248 21.18 21.095 21.015 20.943 20.893 20.87 20.857 20.845 20.835 20.83 20.825 20.815 20.805 20.805 20.815 20.825 20.837 20.84 20.835 20.835 20.835 20.835 20.835 20.84 20.86 20.9 20.955 21.012 21.067 21.112 21.147 21.187 21.225 21.24 21.232 21.217 21.21 21.218 21.235 21.255 21.27 21.27 21.25 21.223 21.213 21.245 21.31 21.375 21.437 21.49 21.525 21.56 21.6 21.64 21.685 21.732 21.777 21.81 21.838 21.873 21.91 21.973 22.07 22.187 22.305 22.405 22.495 22.577 22.642 22.7 22.765 22.83 22.898 22.993 23.11 23.225 23.34 23.488 23.675 23.875 24.065 24.237 24.405 24.575 24.745 24.905 25.052 25.198 25.347 25.498 25.667 25.862 26.06 26.22 26.332 26.438 26.58 26.76 26.943
20.307 20.455 20.545 20.557 20.532 20.487 20.5 20.555 20.547 20.502 20.425 20.282 20.09 19.898 19.815 19.848 19.913 19.948 19.955 19.995 20.055 20.08 20.042 19.978 19.912 19.822 19.725 19.73 19.81 19.86 19.895 19.92 19.915 19.943 20.018 20.103 20.2 20.302 20.38 20.405 20.372 20.298 20.305 20.392 20.437 20.45 20.46 20.47 20.488 20.51 20.533 20.565 20.61 20.665 20.705 20.723 20.745 20.785 20.858 20.955 21.035 21.067 21.055 21.025 20.995 20.965 20.92 20.86 20.8 20.773 20.795 20.863 20.983 21.125 21.192 21.188 21.182 21.175 21.165 21.15 21.132 21.11 21.105 21.12 21.13 21.137 21.138 21.135 21.145 21.165 21.162 21.132 21.095 21.053 21.025 21.03 21.063 21.108 21.15 21.16 21.12 21.047 20.965 20.895 20.853 20.835 20.825 20.813 20.803 20.798 20.798 20.8 20.797 20.79 20.79 20.8 20.813 20.83 20.83 20.813 20.805 20.805 20.805 20.81 20.83 20.868 20.913 20.963 21.02 21.075 21.112 21.138 21.17 21.205 21.22 21.21 21.203 21.21 21.225 21.245 21.262 21.277 21.28 21.26 21.243 21.253 21.295 21.358 21.42 21.48 21.53 21.565 21.6 21.64 21.683 21.728 21.775 21.817 21.842 21.86 21.888 21.925 21.978 22.05 22.148 22.262 22.365 22.45 22.517 22.567 22.62 22.685 22.753 22.825 22.918 23.03 23.145 23.258 23.41 23.602 23.792 23.967 24.123 24.273 24.435 24.602 24.76 24.908 25.058 25.212 25.335 25.45 25.62 25.817 25.975 26.093 26.23 26.42 26.622 26.802
20.535 20.712 20.81 20.825 20.817 20.797 20.797 20.797 20.767 20.727 20.685 20.615 20.482 20.345 20.287 20.277 20.255 20.238 20.255 20.295 20.345 20.382 20.357 20.277 20.167 20.015 19.903 19.948 20.075 20.177 20.235 20.237 20.207 20.23 20.31 20.395 20.482 20.57 20.595 20.525 20.43 20.338 20.33 20.435 20.537 20.58 20.59 20.6 20.613 20.63 20.65 20.673 20.705 20.752 20.785 20.793 20.8 20.83 20.902 20.977 21.012 21.015 20.995 20.965 20.935 20.905 20.863 20.82 20.82 20.865 20.91 20.95 21.02 21.132 21.197 21.192 21.185 21.175 21.165 21.147 21.122 21.095 21.09 21.107 21.122 21.132 21.132 21.125 21.123 21.135 21.13 21.1 21.067 21.03 21.005 20.993 20.998 21.03 21.057 21.037 20.98 20.913 20.85 20.813 20.798 20.79 20.78 20.77 20.763 20.76 20.763 20.77 20.777 20.775 20.778 20.79 20.805 20.825 20.825 20.803 20.783 20.775 20.78 20.803 20.84 20.885 20.93 20.973 21.023 21.072 21.105 21.128 21.155 21.185 21.2 21.198 21.203 21.215 21.23 21.25 21.267 21.285 21.29 21.28 21.28 21.298 21.343 21.405 21.462 21.517 21.567 21.607 21.645 21.685 21.728 21.77 21.815 21.852 21.875 21.892 21.913 21.943 21.993 22.058 22.133 22.228 22.322 22.392 22.445 22.49 22.54 22.608 22.68 22.755 22.843 22.948 23.063 23.175 23.328 23.515 23.692 23.865 24.02 24.158 24.3 24.458 24.615 24.768 24.925 25.08 25.197 25.285 25.403 25.573 25.73 25.87 26.058 26.277 26.485 26.64
20.655 20.827 20.902 20.892 20.877 20.865 20.857 20.852 20.842 20.822 20.8 20.775 20.735 20.7 20.692 20.672 20.627 20.602 20.612 20.635 20.665 20.692 20.635 20.492 20.32 20.133 20.06 20.145 20.28 20.402 20.472 20.472 20.437 20.462 20.542 20.615 20.685 20.755 20.745 20.648 20.543 20.458 20.458 20.538 20.633 20.698 20.72 20.73 20.738 20.75 20.77 20.79 20.813 20.843 20.862 20.868 20.87 20.885 20.92 20.943 20.95 20.953 20.935 20.905 20.875 20.845 20.823 20.83 20.873 20.93 20.987 21.045 21.095 21.16 21.202 21.195 21.182 21.17 21.157 21.135 21.107 21.08 21.073 21.09 21.107 21.12 21.122 21.115 21.107 21.107 21.095 21.065 21.035 21.002 20.98 20.967 20.958 20.96 20.95 20.908 20.855 20.8 20.765 20.757 20.752 20.745 20.737 20.732 20.727 20.723 20.725 20.735 20.745 20.747 20.757 20.777 20.797 20.82 20.82 20.797 20.77 20.753 20.768 20.807 20.852 20.9 20.945 20.985 21.027 21.067 21.095 21.12 21.145 21.167 21.185 21.195 21.205 21.217 21.232 21.25 21.27 21.287 21.3 21.315 21.33 21.345 21.387 21.447 21.502 21.555 21.605 21.65 21.69 21.73 21.77 21.81 21.85 21.88 21.9 21.92 21.94 21.962 22.005 22.07 22.137 22.21 22.277 22.325 22.368 22.41 22.463 22.535 22.615 22.695 22.783 22.883 22.99 23.098 23.238 23.41 23.582 23.757 23.917 24.055 24.182 24.32 24.472 24.63 24.792 24.945 25.057 25.145 25.235 25.353 25.505 25.69 25.907 26.135 26.325 26.442
20.695 20.817 20.84 20.813 20.795 20.785 20.775 20.77 20.767 20.762 20.762 20.77 20.787 20.82 20.86 20.88 20.887 20.92 20.955 20.97 20.965 20.935 20.82 20.627 20.433 20.253 20.223 20.327 20.432 20.52 20.582 20.602 20.588 20.623 20.702 20.775 20.845 20.912 20.895 20.793 20.705 20.663 20.685 20.745 20.805 20.85 20.868 20.873 20.878 20.885 20.9 20.92 20.942 20.952 20.953 20.958 20.963 20.965 20.963 20.96 20.96 20.943 20.91 20.88 20.85 20.82 20.82 20.865 20.917 20.957 21 21.052 21.102 21.147 21.172 21.17 21.157 21.145 21.127 21.1 21.075 21.05 21.033 21.037 21.052 21.07 21.075 21.067 21.062 21.055 21.035 21.005 20.975 20.947 20.93 20.92 20.91 20.9 20.87 20.82 20.77 20.718 20.69 20.69 20.69 20.685 20.682 20.682 20.682 20.685 20.687 20.692 20.697 20.7 20.712 20.737 20.762 20.785 20.795 20.78 20.75 20.728 20.745 20.792 20.84 20.887 20.93 20.97 21.005 21.037 21.075 21.107 21.132 21.155 21.173 21.187 21.2 21.212 21.225 21.237 21.255 21.272 21.295 21.325 21.35 21.372 21.41 21.46 21.51 21.56 21.607 21.65 21.69 21.73 21.767 21.805 21.842 21.87 21.89 21.91 21.93 21.96 22.008 22.067 22.13 22.195 22.247 22.283 22.32 22.358 22.405 22.478 22.563 22.645 22.735 22.835 22.935 23.035 23.14 23.28 23.45 23.625 23.787 23.925 24.05 24.175 24.32 24.48 24.637 24.775 24.882 24.975 25.067 25.165 25.298 25.487 25.707 25.932 26.097 26.192
20.707 20.785 20.77 20.74 20.715 20.7 20.693 20.688 20.685 20.693 20.71 20.735 20.765 20.8 20.845 20.923 21.037 21.172 21.24 21.215 21.16 21.085 20.952 20.76 20.563 20.398 20.37 20.448 20.518 20.585 20.653 20.697 20.718 20.768 20.85 20.93 21.002 21.065 21.042 20.953 20.905 20.89 20.915 20.975 21.02 21.032 21.03 21.03 21.033 21.035 21.045 21.067 21.082 21.07 21.058 21.062 21.065 21.062 21.058 21.055 21.035 20.977 20.925 20.895 20.865 20.833 20.835 20.885 20.93 20.947 20.96 20.99 21.03 21.072 21.102 21.112 21.11 21.1 21.08 21.05 21.025 21 20.978 20.968 20.973 20.99 20.995 20.99 20.982 20.97 20.95 20.92 20.895 20.878 20.863 20.85 20.843 20.84 20.815 20.765 20.705 20.638 20.605 20.605 20.602 20.595 20.592 20.597 20.602 20.61 20.62 20.63 20.635 20.635 20.645 20.67 20.695 20.715 20.732 20.735 20.717 20.695 20.71 20.76 20.807 20.852 20.895 20.93 20.95 20.975 21.027 21.082 21.117 21.142 21.16 21.173 21.185 21.195 21.205 21.215 21.23 21.248 21.27 21.302 21.335 21.367 21.4 21.433 21.472 21.52 21.565 21.605 21.645 21.685 21.722 21.758 21.795 21.827 21.85 21.87 21.903 21.955 22.007 22.055 22.11 22.175 22.23 22.265 22.3 22.335 22.375 22.438 22.515 22.598 22.69 22.79 22.89 22.987 23.065 23.155 23.303 23.477 23.632 23.765 23.89 24.015 24.16 24.312 24.45 24.572 24.677 24.773 24.875 24.988 25.11 25.26 25.448 25.66 25.817 25.913
20.697 20.73 20.7 20.67 20.64 20.618 20.61 20.615 20.63 20.655 20.685 20.715 20.745 20.8 20.88 20.982 21.112 21.247 21.3 21.252 21.19 21.132 21.075 20.955 20.775 20.62 20.57 20.61 20.658 20.708 20.76 20.805 20.847 20.912 20.995 21.077 21.155 21.215 21.2 21.148 21.128 21.118 21.145 21.187 21.2 21.195 21.19 21.19 21.19 21.19 21.198 21.212 21.205 21.177 21.165 21.165 21.162 21.158 21.152 21.137 21.082 21 20.945 20.915 20.882 20.845 20.848 20.892 20.925 20.935 20.935 20.943 20.96 20.995 21.027 21.045 21.055 21.05 21.03 21.003 20.978 20.953 20.932 20.915 20.905 20.913 20.915 20.907 20.897 20.882 20.863 20.838 20.82 20.81 20.798 20.788 20.783 20.78 20.755 20.7 20.63 20.555 20.52 20.515 20.505 20.493 20.488 20.493 20.495 20.498 20.513 20.537 20.555 20.565 20.578 20.6 20.625 20.645 20.66 20.67 20.672 20.663 20.678 20.725 20.77 20.815 20.86 20.882 20.885 20.903 20.958 21.03 21.09 21.127 21.147 21.16 21.17 21.18 21.188 21.195 21.208 21.223 21.245 21.28 21.315 21.35 21.38 21.4 21.43 21.473 21.515 21.555 21.595 21.635 21.675 21.713 21.75 21.785 21.81 21.843 21.898 21.96 22.01 22.05 22.098 22.158 22.21 22.245 22.278 22.31 22.353 22.41 22.473 22.55 22.645 22.745 22.845 22.94 23.015 23.08 23.18 23.33 23.477 23.605 23.733 23.86 23.993 24.123 24.245 24.365 24.473 24.575 24.693 24.818 24.945 25.075 25.22 25.395 25.545 25.663
