ncols         200
nrows         72
xllcorner     548000
yllcorner     257420
cellsize      5
NODATA_value  -9999.0
15.562 15.557 15.497 15.41 15.315 15.21 15.105 15.01 14.92 14.825 14.705 14.578 14.493 14.445 14.387 14.31 14.238 14.188 14.135 14.065 13.985 13.895 13.85 13.85 13.845 13.838 13.835 13.835 13.838 13.847 13.85 13.843 13.837 13.833 13.835 13.842 13.85 13.855 13.85 13.84 13.83 13.82 13.82 13.835 13.85 13.862 13.867 13.863 13.863 13.867 13.857 13.822 13.77 13.715 13.68 13.66 13.635 13.605 13.57 13.52 13.44 13.34 13.227 13.1 12.978 12.873 12.825 12.817 12.787 12.74 12.718 12.728 12.748 12.77 12.765 12.735 12.715 12.745 12.853 12.972 13.062 13.1 13.037 12.97 12.938 12.898 12.863 12.828 12.792 12.755 12.702 12.635 12.568 12.503 12.438 12.38 12.33 12.285 12.255 12.238 12.225 12.21 12.185 12.16 12.138 12.115 12.105 12.113 12.125 12.14 12.157 12.175 12.197 12.212 12.207 12.195 12.19 12.185 12.18 12.18 12.177 12.17 12.157 12.137 12.112 12.082 12.043 11.998 11.955 11.917 11.872 11.818 11.765 11.723 11.693 11.67 11.653 11.637 11.617 11.59 11.563 11.54 11.523 11.508 11.5 11.5 11.5 11.5 11.5 11.5 11.505 11.51 11.517 11.51 11.48 11.453 11.438 11.435 11.425 11.41 11.408 11.413 11.418 11.422 11.425 11.43 11.445 11.46 11.47 11.46 11.427 11.382 11.312 11.215 11.128 11.085 11.072 11.065 11.03 10.907 10.675 10.4 10.253 10.238 10.23 10.22 10.22 10.235 10.255 10.275 10.338 10.463 10.62 10.792 10.88 10.88 10.88 10.885 10.865 10.828
15.672 15.697 15.642 15.535 15.44 15.387 15.335 15.252 15.167 15.075 14.955 14.815 14.693 14.615 14.55 14.47 14.39 14.32 14.253 14.173 14.085 13.995 13.95 13.95 13.948 13.945 13.943 13.94 13.94 13.943 13.943 13.938 13.933 13.928 13.93 13.935 13.937 13.942 13.94 13.927 13.915 13.908 13.91 13.925 13.94 13.95 13.955 13.957 13.962 13.965 13.945 13.895 13.835 13.78 13.745 13.725 13.705 13.682 13.635 13.552 13.457 13.36 13.245 13.115 12.983 12.865 12.815 12.813 12.802 12.785 12.783 12.805 12.832 12.855 12.852 12.83 12.815 12.855 12.975 13.112 13.195 13.13 13.018 12.985 12.975 12.952 12.918 12.882 12.845 12.797 12.74 12.675 12.605 12.54 12.48 12.425 12.378 12.343 12.32 12.305 12.293 12.278 12.255 12.228 12.2 12.173 12.16 12.17 12.188 12.203 12.22 12.24 12.26 12.277 12.28 12.272 12.267 12.26 12.255 12.255 12.252 12.245 12.232 12.21 12.18 12.153 12.12 12.082 12.045 12.007 11.962 11.905 11.85 11.798 11.753 11.728 11.71 11.693 11.672 11.645 11.618 11.595 11.578 11.568 11.563 11.563 11.565 11.565 11.565 11.562 11.562 11.567 11.572 11.56 11.53 11.5 11.473 11.453 11.44 11.438 11.445 11.453 11.458 11.463 11.47 11.483 11.498 11.512 11.52 11.505 11.475 11.442 11.405 11.35 11.302 11.285 11.28 11.272 11.175 10.95 10.678 10.413 10.275 10.258 10.243 10.228 10.223 10.235 10.253 10.268 10.338 10.488 10.665 10.837 10.92 10.92 10.918 10.918 10.902 10.89
15.737 15.767 15.705 15.575 15.483 15.475 15.495 15.46 15.387 15.31 15.227 15.11 14.958 14.815 14.708 14.622 14.54 14.46 14.385 14.308 14.22 14.13 14.078 14.07 14.073 14.075 14.07 14.065 14.065 14.055 14.043 14.035 14.03 14.025 14.018 14.015 14.015 14.02 14.02 14.005 13.993 13.993 14.008 14.027 14.04 14.052 14.05 14.043 14.047 14.05 14.022 13.965 13.905 13.853 13.823 13.805 13.782 13.742 13.662 13.56 13.462 13.367 13.27 13.152 13.018 12.893 12.825 12.815 12.813 12.815 12.83 12.855 12.882 12.907 12.915 12.905 12.895 12.935 13.052 13.192 13.267 13.165 13.045 13.038 13.037 13.015 12.978 12.94 12.895 12.837 12.775 12.712 12.645 12.578 12.518 12.468 12.43 12.413 12.4 12.382 12.367 12.352 12.33 12.3 12.27 12.245 12.238 12.25 12.27 12.285 12.293 12.305 12.325 12.342 12.345 12.337 12.332 12.325 12.318 12.318 12.32 12.315 12.305 12.285 12.255 12.23 12.2 12.163 12.127 12.09 12.047 11.995 11.94 11.885 11.825 11.785 11.767 11.75 11.727 11.702 11.675 11.648 11.635 11.635 11.633 11.633 11.635 11.635 11.632 11.622 11.615 11.62 11.625 11.61 11.58 11.55 11.52 11.493 11.483 11.49 11.5 11.51 11.513 11.515 11.525 11.538 11.553 11.567 11.567 11.545 11.515 11.485 11.455 11.427 11.415 11.41 11.405 11.4 11.26 10.993 10.725 10.508 10.423 10.41 10.39 10.37 10.363 10.37 10.378 10.38 10.415 10.54 10.72 10.89 10.97 10.968 10.965 10.965 10.923 10.888
15.76 15.765 15.697 15.583 15.518 15.515 15.56 15.595 15.567 15.515 15.475 15.412 15.285 15.047 14.848 14.76 14.673 14.595 14.532 14.47 14.39 14.303 14.245 14.223 14.218 14.22 14.217 14.215 14.205 14.175 14.15 14.138 14.13 14.125 14.11 14.093 14.085 14.09 14.09 14.078 14.073 14.08 14.105 14.135 14.152 14.167 14.157 14.13 14.123 14.125 14.095 14.035 13.98 13.935 13.908 13.89 13.847 13.77 13.67 13.563 13.46 13.365 13.285 13.195 13.075 12.953 12.873 12.84 12.83 12.833 12.848 12.875 12.9 12.925 12.94 12.937 12.927 12.95 13.047 13.18 13.287 13.24 13.133 13.115 13.107 13.082 13.042 12.997 12.945 12.88 12.813 12.75 12.685 12.618 12.56 12.52 12.5 12.492 12.48 12.458 12.44 12.425 12.4 12.37 12.343 12.33 12.335 12.35 12.37 12.387 12.383 12.378 12.395 12.407 12.405 12.395 12.388 12.382 12.378 12.378 12.377 12.373 12.37 12.36 12.335 12.31 12.28 12.24 12.205 12.17 12.13 12.082 12.03 11.975 11.91 11.853 11.823 11.805 11.782 11.757 11.73 11.703 11.695 11.702 11.705 11.705 11.705 11.702 11.692 11.678 11.668 11.67 11.675 11.662 11.635 11.603 11.573 11.55 11.548 11.56 11.57 11.58 11.58 11.578 11.585 11.595 11.61 11.62 11.61 11.585 11.555 11.525 11.498 11.478 11.468 11.463 11.46 11.46 11.33 11.068 10.833 10.693 10.655 10.65 10.635 10.615 10.61 10.617 10.617 10.607 10.59 10.635 10.78 10.947 11.025 11.022 11.02 11.017 10.95 10.865
15.747 15.742 15.685 15.6 15.56 15.553 15.59 15.655 15.692 15.68 15.635 15.585 15.505 15.232 14.973 14.887 14.803 14.73 14.675 14.62 14.552 14.475 14.423 14.395 14.375 14.368 14.365 14.355 14.325 14.285 14.258 14.243 14.233 14.225 14.21 14.185 14.165 14.163 14.16 14.155 14.163 14.175 14.198 14.232 14.262 14.28 14.27 14.235 14.208 14.195 14.165 14.113 14.065 14.025 13.992 13.95 13.872 13.777 13.677 13.57 13.463 13.365 13.285 13.215 13.125 13.015 12.938 12.893 12.86 12.85 12.865 12.892 12.918 12.945 12.96 12.95 12.93 12.928 13 13.13 13.26 13.28 13.218 13.195 13.175 13.145 13.105 13.052 12.995 12.93 12.86 12.79 12.723 12.66 12.613 12.59 12.583 12.575 12.56 12.535 12.513 12.495 12.47 12.443 12.428 12.43 12.438 12.45 12.47 12.492 12.485 12.46 12.465 12.475 12.467 12.455 12.445 12.44 12.44 12.437 12.433 12.43 12.43 12.427 12.412 12.39 12.36 12.32 12.285 12.25 12.21 12.167 12.12 12.065 12 11.933 11.885 11.86 11.837 11.81 11.783 11.76 11.755 11.765 11.772 11.775 11.775 11.767 11.75 11.733 11.723 11.723 11.725 11.715 11.69 11.66 11.633 11.613 11.613 11.627 11.64 11.65 11.65 11.643 11.643 11.653 11.667 11.665 11.645 11.622 11.595 11.565 11.543 11.53 11.52 11.515 11.515 11.517 11.4 11.16 10.99 10.913 10.885 10.885 10.88 10.865 10.857 10.857 10.847 10.83 10.805 10.79 10.86 11.002 11.075 11.075 11.075 11.07 10.997 10.875
15.725 15.718 15.68 15.63 15.605 15.59 15.618 15.68 15.74 15.755 15.705 15.637 15.58 15.35 15.1 15.013 14.935 14.873 14.817 14.76 14.7 14.648 14.615 14.59 14.563 14.54 14.512 14.475 14.433 14.39 14.363 14.35 14.338 14.325 14.31 14.285 14.26 14.245 14.24 14.245 14.258 14.27 14.293 14.327 14.362 14.387 14.38 14.345 14.31 14.278 14.24 14.197 14.155 14.112 14.06 13.98 13.88 13.783 13.683 13.578 13.47 13.373 13.293 13.223 13.15 13.068 13.005 12.96 12.915 12.883 12.885 12.913 12.94 12.97 13.005 13.008 12.978 12.953 13 13.123 13.245 13.305 13.287 13.26 13.232 13.2 13.16 13.102 13.04 12.977 12.91 12.837 12.765 12.708 12.678 12.67 12.665 12.657 12.642 12.615 12.59 12.568 12.543 12.528 12.53 12.537 12.543 12.553 12.573 12.597 12.59 12.555 12.54 12.54 12.532 12.518 12.505 12.498 12.495 12.493 12.49 12.49 12.49 12.49 12.485 12.467 12.437 12.4 12.365 12.33 12.29 12.25 12.207 12.155 12.09 12.023 11.963 11.92 11.89 11.863 11.838 11.818 11.815 11.825 11.835 11.842 11.84 11.825 11.805 11.788 11.78 11.778 11.775 11.765 11.743 11.72 11.695 11.675 11.678 11.695 11.71 11.72 11.72 11.71 11.703 11.708 11.715 11.702 11.68 11.657 11.63 11.605 11.59 11.58 11.573 11.57 11.57 11.572 11.467 11.293 11.195 11.143 11.118 11.115 11.115 11.107 11.097 11.087 11.07 11.05 11.025 10.99 10.988 11.065 11.125 11.125 11.125 11.12 11.045 10.91
15.82 15.79 15.745 15.703 15.68 15.663 15.66 15.693 15.747 15.767 15.725 15.665 15.625 15.44 15.228 15.143 15.07 15.015 14.96 14.905 14.858 14.868 14.895 14.875 14.845 14.762 14.655 14.593 14.548 14.503 14.475 14.465 14.453 14.44 14.425 14.4 14.375 14.355 14.35 14.36 14.37 14.378 14.39 14.418 14.452 14.482 14.48 14.445 14.407 14.367 14.323 14.28 14.24 14.19 14.115 14.02 13.918 13.813 13.705 13.598 13.495 13.41 13.338 13.265 13.198 13.143 13.098 13.053 13.01 12.965 12.935 12.945 12.975 13.005 13.075 13.137 13.128 13.09 13.128 13.245 13.34 13.367 13.34 13.305 13.275 13.245 13.202 13.142 13.08 13.02 12.955 12.885 12.815 12.765 12.75 12.75 12.745 12.74 12.725 12.697 12.672 12.645 12.628 12.63 12.637 12.642 12.65 12.66 12.678 12.702 12.695 12.658 12.628 12.61 12.603 12.593 12.578 12.565 12.558 12.553 12.55 12.548 12.548 12.55 12.55 12.54 12.515 12.48 12.442 12.407 12.37 12.33 12.29 12.245 12.188 12.125 12.063 11.995 11.945 11.918 11.89 11.873 11.875 11.885 11.895 11.907 11.905 11.885 11.865 11.848 11.84 11.838 11.832 11.82 11.8 11.78 11.758 11.738 11.74 11.76 11.777 11.79 11.79 11.78 11.77 11.765 11.757 11.74 11.72 11.695 11.67 11.653 11.64 11.63 11.625 11.627 11.63 11.63 11.57 11.482 11.425 11.375 11.352 11.347 11.332 11.305 11.285 11.275 11.262 11.247 11.222 11.187 11.155 11.158 11.175 11.175 11.175 11.172 11.105 10.97
16.04 15.99 15.92 15.843 15.8 15.78 15.743 15.72 15.753 15.78 15.747 15.698 15.665 15.522 15.353 15.275 15.213 15.158 15.11 15.075 15.048 15.115 15.222 15.235 15.157 14.967 14.795 14.725 14.678 14.638 14.61 14.593 14.58 14.57 14.555 14.53 14.505 14.485 14.48 14.49 14.497 14.5 14.5 14.513 14.54 14.57 14.57 14.535 14.492 14.45 14.407 14.362 14.315 14.255 14.175 14.08 13.975 13.857 13.74 13.633 13.545 13.48 13.415 13.345 13.288 13.25 13.212 13.17 13.13 13.087 13.038 13.003 13.01 13.04 13.133 13.267 13.317 13.293 13.335 13.44 13.475 13.435 13.383 13.345 13.315 13.282 13.24 13.183 13.12 13.06 12.995 12.925 12.865 12.823 12.81 12.817 12.817 12.815 12.8 12.773 12.75 12.73 12.723 12.73 12.735 12.743 12.755 12.77 12.79 12.81 12.8 12.76 12.725 12.7 12.688 12.68 12.665 12.65 12.638 12.625 12.618 12.608 12.602 12.602 12.6 12.595 12.58 12.552 12.515 12.478 12.448 12.425 12.4 12.365 12.318 12.257 12.18 12.083 12.013 11.978 11.945 11.933 11.94 11.95 11.963 11.98 11.98 11.958 11.935 11.918 11.908 11.902 11.892 11.875 11.857 11.84 11.82 11.8 11.8 11.817 11.832 11.842 11.842 11.835 11.825 11.815 11.8 11.78 11.76 11.738 11.72 11.708 11.695 11.683 11.678 11.682 11.685 11.682 11.662 11.627 11.587 11.547 11.52 11.495 11.457 11.41 11.38 11.372 11.365 11.355 11.332 11.297 11.265 11.237 11.225 11.225 11.222 11.22 11.187 11.1
16.275 16.217 16.14 16.038 15.955 15.91 15.86 15.798 15.778 15.795 15.777 15.735 15.705 15.61 15.485 15.41 15.363 15.323 15.29 15.27 15.25 15.345 15.53 15.552 15.372 15.113 14.933 14.865 14.818 14.785 14.76 14.733 14.713 14.7 14.685 14.66 14.635 14.613 14.605 14.612 14.615 14.617 14.62 14.623 14.635 14.66 14.657 14.62 14.575 14.53 14.49 14.442 14.382 14.315 14.237 14.14 14.022 13.893 13.77 13.678 13.613 13.555 13.49 13.43 13.393 13.365 13.33 13.29 13.25 13.21 13.16 13.1 13.065 13.078 13.18 13.345 13.467 13.497 13.537 13.587 13.55 13.485 13.43 13.388 13.353 13.325 13.29 13.23 13.163 13.1 13.035 12.973 12.923 12.88 12.865 12.875 12.882 12.882 12.867 12.845 12.83 12.82 12.818 12.823 12.83 12.845 12.863 12.885 12.912 12.925 12.905 12.865 12.828 12.798 12.78 12.77 12.755 12.74 12.725 12.705 12.687 12.667 12.653 12.645 12.638 12.632 12.622 12.605 12.58 12.548 12.525 12.517 12.51 12.492 12.46 12.392 12.285 12.168 12.088 12.048 12.015 12.003 12.01 12.02 12.035 12.057 12.06 12.035 12.01 11.993 11.977 11.962 11.945 11.925 11.91 11.895 11.875 11.858 11.855 11.865 11.873 11.878 11.877 11.872 11.865 11.855 11.84 11.822 11.807 11.79 11.775 11.765 11.752 11.738 11.732 11.732 11.727 11.72 11.702 11.677 11.652 11.622 11.587 11.547 11.502 11.458 11.43 11.42 11.408 11.395 11.375 11.342 11.31 11.283 11.27 11.27 11.265 11.26 11.255 11.23
16.515 16.445 16.357 16.252 16.148 16.068 16 15.918 15.853 15.83 15.81 15.775 15.745 15.698 15.628 15.57 15.54 15.517 15.493 15.47 15.453 15.575 15.767 15.742 15.52 15.248 15.07 15.005 14.965 14.938 14.91 14.883 14.858 14.838 14.818 14.793 14.77 14.745 14.733 14.733 14.73 14.733 14.738 14.74 14.745 14.757 14.742 14.7 14.655 14.61 14.565 14.507 14.44 14.372 14.297 14.192 14.063 13.928 13.815 13.743 13.685 13.628 13.573 13.533 13.507 13.48 13.445 13.407 13.37 13.33 13.28 13.223 13.17 13.153 13.24 13.4 13.56 13.667 13.7 13.67 13.6 13.535 13.495 13.46 13.418 13.388 13.345 13.28 13.21 13.143 13.083 13.033 12.988 12.945 12.925 12.93 12.94 12.945 12.94 12.93 12.92 12.913 12.918 12.93 12.943 12.958 12.978 13.005 13.035 13.042 13.015 12.975 12.935 12.895 12.87 12.86 12.845 12.827 12.805 12.775 12.748 12.72 12.7 12.69 12.68 12.673 12.663 12.65 12.638 12.618 12.6 12.59 12.582 12.575 12.552 12.477 12.362 12.248 12.165 12.125 12.095 12.075 12.075 12.09 12.11 12.132 12.135 12.113 12.09 12.068 12.043 12.018 11.998 11.98 11.965 11.95 11.933 11.92 11.915 11.92 11.925 11.92 11.905 11.892 11.887 11.88 11.867 11.857 11.852 11.845 11.835 11.822 11.805 11.79 11.782 11.772 11.76 11.75 11.735 11.71 11.685 11.657 11.622 11.585 11.542 11.503 11.477 11.465 11.45 11.435 11.415 11.385 11.355 11.325 11.31 11.308 11.303 11.298 11.292 11.285
16.735 16.66 16.565 16.458 16.36 16.28 16.198 16.105 16.02 15.96 15.92 15.89 15.868 15.845 15.79 15.738 15.725 15.712 15.695 15.672 15.67 15.75 15.82 15.772 15.622 15.385 15.208 15.145 15.115 15.09 15.063 15.045 15.035 15.028 15.013 14.99 14.97 14.915 14.87 14.868 14.865 14.863 14.865 14.87 14.875 14.865 14.82 14.765 14.717 14.672 14.617 14.547 14.477 14.412 14.345 14.252 14.125 13.99 13.9 13.848 13.79 13.733 13.68 13.643 13.615 13.585 13.552 13.517 13.48 13.445 13.447 13.44 13.39 13.36 13.428 13.578 13.73 13.822 13.807 13.74 13.673 13.63 13.622 13.605 13.56 13.508 13.45 13.388 13.323 13.238 13.155 13.1 13.055 13.013 12.985 12.985 12.995 13.007 13.012 13.01 13.007 13.005 13.015 13.035 13.055 13.072 13.095 13.125 13.152 13.157 13.135 13.1 13.06 13.015 12.973 12.95 12.937 12.917 12.888 12.855 12.825 12.793 12.77 12.76 12.753 12.748 12.74 12.73 12.718 12.698 12.673 12.655 12.648 12.64 12.607 12.525 12.415 12.325 12.265 12.223 12.185 12.15 12.143 12.165 12.193 12.212 12.21 12.19 12.17 12.145 12.115 12.085 12.06 12.043 12.03 12.015 12 11.99 11.985 11.988 11.992 11.97 11.923 11.895 11.887 11.88 11.872 11.867 11.865 11.875 11.882 11.872 11.855 11.838 11.825 11.813 11.8 11.785 11.765 11.742 11.717 11.69 11.655 11.615 11.575 11.538 11.512 11.5 11.485 11.467 11.447 11.42 11.393 11.373 11.363 11.358 11.352 11.34 11.325 11.315
16.93 16.855 16.763 16.663 16.583 16.52 16.442 16.35 16.273 16.22 16.17 16.123 16.095 16.077 15.998 15.9 15.873 15.865 15.855 15.84 15.845 15.832 15.77 15.71 15.64 15.49 15.345 15.29 15.273 15.265 15.258 15.255 15.26 15.27 15.267 15.25 15.205 15.093 15.015 15.015 15.012 15.005 15.005 15.01 14.997 14.957 14.895 14.825 14.768 14.72 14.657 14.578 14.503 14.435 14.375 14.312 14.21 14.08 14.005 13.977 13.932 13.875 13.813 13.755 13.715 13.688 13.657 13.62 13.578 13.545 13.607 13.702 13.7 13.668 13.733 13.872 13.96 13.952 13.895 13.833 13.78 13.755 13.752 13.76 13.745 13.692 13.63 13.57 13.49 13.362 13.248 13.178 13.123 13.078 13.05 13.048 13.058 13.072 13.077 13.083 13.092 13.093 13.103 13.125 13.15 13.18 13.213 13.247 13.265 13.262 13.255 13.235 13.2 13.155 13.1 13.053 13.03 13.012 12.985 12.952 12.92 12.888 12.865 12.855 12.853 12.855 12.85 12.837 12.817 12.79 12.758 12.728 12.713 12.705 12.662 12.57 12.48 12.428 12.387 12.343 12.298 12.263 12.263 12.29 12.305 12.302 12.29 12.27 12.25 12.225 12.195 12.162 12.13 12.11 12.097 12.083 12.07 12.058 12.053 12.055 12.057 12.017 11.938 11.895 11.885 11.875 11.867 11.863 11.878 11.905 11.915 11.912 11.902 11.885 11.87 11.86 11.845 11.82 11.795 11.775 11.75 11.717 11.68 11.64 11.6 11.563 11.538 11.525 11.512 11.495 11.473 11.45 11.435 11.43 11.427 11.422 11.41 11.385 11.36 11.343
17.122 17.05 16.965 16.885 16.823 16.765 16.69 16.613 16.565 16.532 16.482 16.418 16.363 16.332 16.24 16.09 16.008 15.985 15.975 15.97 15.98 15.94 15.84 15.75 15.675 15.578 15.508 15.49 15.483 15.49 15.5 15.505 15.51 15.52 15.52 15.49 15.395 15.248 15.168 15.162 15.155 15.145 15.142 15.132 15.09 15.035 14.975 14.9 14.83 14.772 14.705 14.62 14.533 14.455 14.395 14.347 14.28 14.175 14.108 14.092 14.067 14.02 13.955 13.885 13.828 13.793 13.76 13.717 13.673 13.635 13.7 13.857 13.957 13.972 14.027 14.105 14.092 14.038 13.982 13.925 13.88 13.848 13.84 13.87 13.895 13.88 13.83 13.75 13.622 13.465 13.348 13.27 13.198 13.145 13.123 13.12 13.125 13.135 13.143 13.155 13.172 13.178 13.19 13.218 13.25 13.293 13.335 13.367 13.367 13.358 13.36 13.355 13.335 13.295 13.24 13.18 13.133 13.108 13.082 13.047 13.013 12.98 12.96 12.955 12.958 12.962 12.957 12.94 12.915 12.885 12.852 12.815 12.783 12.765 12.717 12.64 12.588 12.552 12.513 12.47 12.438 12.422 12.422 12.425 12.412 12.387 12.365 12.345 12.325 12.302 12.272 12.238 12.203 12.18 12.165 12.15 12.14 12.125 12.12 12.125 12.115 12.057 11.963 11.9 11.88 11.87 11.86 11.86 11.903 11.94 11.94 11.942 11.942 11.93 11.915 11.902 11.88 11.85 11.825 11.805 11.78 11.747 11.708 11.665 11.623 11.585 11.563 11.55 11.54 11.525 11.505 11.493 11.493 11.495 11.492 11.48 11.455 11.425 11.398 11.375
17.31 17.245 17.177 17.117 17.062 17.007 16.953 16.908 16.877 16.845 16.792 16.727 16.66 16.6 16.49 16.32 16.178 16.11 16.1 16.108 16.13 16.107 16.02 15.92 15.82 15.728 15.708 15.742 15.762 15.773 15.775 15.773 15.773 15.775 15.765 15.697 15.56 15.403 15.318 15.305 15.295 15.29 15.272 15.227 15.173 15.117 15.05 14.972 14.897 14.827 14.752 14.665 14.572 14.483 14.415 14.37 14.325 14.26 14.213 14.197 14.18 14.15 14.095 14.025 13.96 13.905 13.858 13.813 13.768 13.725 13.785 13.95 14.112 14.215 14.252 14.235 14.178 14.123 14.068 14.01 13.96 13.93 13.938 13.975 14.013 14.038 14.002 13.883 13.72 13.563 13.45 13.37 13.295 13.233 13.203 13.2 13.2 13.203 13.213 13.23 13.25 13.263 13.283 13.32 13.365 13.415 13.457 13.475 13.462 13.453 13.455 13.455 13.45 13.427 13.38 13.32 13.26 13.213 13.178 13.143 13.108 13.075 13.058 13.06 13.065 13.07 13.062 13.037 13.01 12.98 12.945 12.905 12.868 12.837 12.793 12.745 12.712 12.677 12.64 12.605 12.58 12.562 12.542 12.515 12.488 12.463 12.44 12.42 12.4 12.377 12.347 12.312 12.278 12.25 12.233 12.22 12.207 12.193 12.188 12.192 12.152 12.073 11.99 11.913 11.875 11.865 11.853 11.88 11.94 11.965 11.965 11.967 11.97 11.965 11.952 11.932 11.907 11.88 11.855 11.832 11.807 11.782 11.745 11.698 11.653 11.61 11.585 11.575 11.565 11.555 11.547 11.547 11.552 11.555 11.545 11.52 11.49 11.46 11.435 11.415
17.495 17.435 17.38 17.33 17.277 17.23 17.21 17.2 17.175 17.14 17.087 17.022 16.952 16.867 16.735 16.568 16.4 16.27 16.233 16.253 16.28 16.272 16.2 16.1 16.005 15.925 15.92 15.98 16.03 16.062 16.08 16.082 16.078 16.07 16.037 15.93 15.77 15.618 15.535 15.528 15.528 15.49 15.405 15.323 15.265 15.21 15.12 15.02 14.942 14.867 14.785 14.695 14.605 14.525 14.465 14.42 14.38 14.34 14.313 14.297 14.28 14.257 14.21 14.142 14.077 14.012 13.955 13.908 13.863 13.863 13.968 14.138 14.3 14.395 14.39 14.335 14.275 14.215 14.16 14.115 14.093 14.095 14.115 14.158 14.213 14.27 14.237 14.085 13.9 13.728 13.618 13.55 13.488 13.398 13.328 13.32 13.318 13.315 13.318 13.33 13.348 13.363 13.393 13.44 13.49 13.537 13.565 13.565 13.555 13.553 13.555 13.558 13.563 13.552 13.51 13.45 13.39 13.33 13.285 13.25 13.215 13.185 13.165 13.163 13.167 13.172 13.162 13.135 13.102 13.065 13.027 12.992 12.957 12.92 12.882 12.847 12.815 12.78 12.745 12.715 12.685 12.655 12.625 12.595 12.568 12.548 12.53 12.51 12.477 12.43 12.395 12.372 12.347 12.32 12.3 12.29 12.275 12.26 12.255 12.237 12.143 12.121 12.238 12.305 12.323 12.343 12.308 12.158 12.02 11.99 11.977 11.965 11.965 11.965 11.967 11.957 11.932 11.9 11.87 11.847 11.825 11.812 11.785 11.735 11.688 11.64 11.61 11.6 11.59 11.583 11.582 11.587 11.59 11.58 11.555 11.525 11.495 11.478 11.475 11.465
17.685 17.628 17.573 17.52 17.475 17.44 17.438 17.455 17.45 17.422 17.372 17.302 17.217 17.115 16.977 16.813 16.653 16.515 16.438 16.418 16.43 16.435 16.375 16.28 16.2 16.13 16.13 16.195 16.252 16.305 16.35 16.385 16.402 16.402 16.347 16.218 16.068 15.93 15.853 15.842 15.807 15.697 15.56 15.445 15.368 15.31 15.202 15.065 14.968 14.892 14.81 14.72 14.643 14.59 14.548 14.505 14.468 14.435 14.41 14.395 14.377 14.35 14.302 14.237 14.17 14.105 14.053 14.005 14 14.093 14.25 14.42 14.53 14.54 14.502 14.45 14.39 14.328 14.278 14.255 14.268 14.305 14.352 14.417 14.495 14.577 14.557 14.4 14.2 14.008 13.885 13.823 13.75 13.61 13.498 13.478 13.472 13.468 13.463 13.463 13.47 13.485 13.52 13.57 13.615 13.65 13.66 13.653 13.653 13.663 13.673 13.68 13.692 13.677 13.627 13.57 13.51 13.45 13.403 13.368 13.338 13.31 13.285 13.27 13.268 13.27 13.26 13.232 13.19 13.14 13.1 13.072 13.04 13 12.965 12.932 12.897 12.86 12.825 12.798 12.77 12.74 12.71 12.68 12.658 12.645 12.63 12.607 12.545 12.458 12.413 12.4 12.387 12.37 12.352 12.34 12.33 12.322 12.307 12.228 12.65 13.21 13.37 13.492 13.545 13.56 13.347 12.767 12.178 11.96 11.948 11.935 11.938 11.94 11.952 11.967 11.957 11.918 11.878 11.853 11.835 11.84 11.825 11.775 11.722 11.67 11.64 11.63 11.62 11.61 11.608 11.61 11.602 11.575 11.54 11.51 11.493 11.503 11.522 11.52
17.875 17.82 17.768 17.72 17.685 17.655 17.655 17.685 17.705 17.7 17.652 17.567 17.465 17.355 17.22 17.068 16.938 16.832 16.74 16.663 16.615 16.6 16.552 16.47 16.403 16.338 16.34 16.407 16.467 16.522 16.575 16.63 16.677 16.697 16.647 16.535 16.41 16.28 16.187 16.12 16.007 15.865 15.73 15.6 15.488 15.408 15.297 15.145 15.013 14.918 14.835 14.76 14.71 14.673 14.635 14.598 14.565 14.535 14.51 14.492 14.47 14.44 14.395 14.33 14.263 14.2 14.148 14.138 14.22 14.37 14.535 14.657 14.68 14.65 14.617 14.57 14.51 14.45 14.418 14.415 14.44 14.495 14.57 14.657 14.742 14.825 14.822 14.71 14.537 14.34 14.19 14.105 13.99 13.805 13.673 13.635 13.628 13.623 13.618 13.613 13.61 13.618 13.653 13.695 13.722 13.745 13.752 13.753 13.76 13.778 13.797 13.812 13.822 13.795 13.74 13.685 13.627 13.57 13.52 13.488 13.465 13.44 13.415 13.395 13.378 13.37 13.357 13.32 13.267 13.213 13.17 13.145 13.117 13.083 13.048 13.013 12.977 12.94 12.905 12.88 12.855 12.825 12.795 12.77 12.755 12.745 12.73 12.685 12.585 12.478 12.425 12.41 12.4 12.39 12.383 12.378 12.378 12.382 12.347 12.216 13.207 14.284 14.277 14.28 14.292 14.294 13.85 12.968 12.24 11.95 11.93 11.915 11.913 11.915 11.923 11.95 11.97 11.937 11.888 11.86 11.855 11.872 11.862 11.812 11.755 11.7 11.67 11.657 11.645 11.635 11.632 11.625 11.597 11.56 11.528 11.513 11.523 11.547 11.57 11.572
18.067 18.012 17.965 17.93 17.9 17.873 17.875 17.905 17.935 17.955 17.912 17.812 17.705 17.595 17.472 17.345 17.232 17.135 17.047 16.96 16.873 16.81 16.748 16.673 16.608 16.543 16.545 16.617 16.682 16.74 16.795 16.847 16.855 16.82 16.767 16.682 16.58 16.47 16.392 16.307 16.175 16.035 15.9 15.77 15.643 15.535 15.41 15.25 15.093 14.96 14.875 14.828 14.793 14.76 14.728 14.695 14.665 14.635 14.608 14.583 14.558 14.53 14.485 14.423 14.36 14.3 14.278 14.35 14.495 14.655 14.777 14.81 14.785 14.755 14.725 14.685 14.63 14.583 14.575 14.593 14.633 14.703 14.785 14.872 14.957 15.027 15.027 14.97 14.86 14.68 14.5 14.362 14.202 14 13.85 13.795 13.788 13.783 13.778 13.773 13.765 13.76 13.778 13.803 13.818 13.835 13.85 13.863 13.878 13.898 13.92 13.937 13.942 13.91 13.855 13.8 13.743 13.688 13.643 13.615 13.592 13.567 13.545 13.522 13.498 13.477 13.45 13.4 13.343 13.285 13.24 13.215 13.193 13.165 13.132 13.095 13.058 13.02 12.985 12.96 12.935 12.908 12.883 12.865 12.855 12.845 12.815 12.73 12.605 12.493 12.438 12.428 12.423 12.418 12.42 12.43 12.44 12.45 12.395 12.266 13.28 14.347 14.318 14.293 14.28 14.28 13.992 13.428 12.585 12.003 11.97 11.943 11.92 11.9 11.893 11.91 11.933 11.928 11.895 11.875 11.887 11.91 11.895 11.842 11.785 11.73 11.698 11.683 11.67 11.66 11.65 11.625 11.588 11.553 11.535 11.545 11.568 11.59 11.61 11.617
18.247 18.19 18.147 18.12 18.093 18.08 18.093 18.12 18.15 18.18 18.14 18.035 17.93 17.812 17.692 17.575 17.468 17.385 17.31 17.227 17.142 17.057 16.975 16.895 16.82 16.75 16.75 16.825 16.897 16.957 16.975 16.945 16.86 16.773 16.72 16.645 16.555 16.485 16.462 16.415 16.308 16.218 16.13 16.02 15.92 15.83 15.675 15.48 15.315 15.163 15.07 15.03 14.99 14.945 14.868 14.8 14.77 14.74 14.71 14.68 14.653 14.628 14.633 14.625 14.57 14.51 14.488 14.56 14.705 14.865 14.945 14.93 14.898 14.865 14.835 14.803 14.76 14.74 14.755 14.783 14.84 14.923 15.007 15.085 15.165 15.23 15.225 15.192 15.15 15.015 14.82 14.63 14.435 14.238 14.073 13.988 13.973 13.973 13.968 13.96 13.948 13.925 13.913 13.925 13.94 13.953 13.965 13.98 14 14.02 14.04 14.052 14.055 14.027 13.972 13.917 13.86 13.81 13.768 13.735 13.712 13.687 13.665 13.64 13.615 13.59 13.55 13.495 13.435 13.373 13.325 13.3 13.278 13.253 13.222 13.185 13.145 13.105 13.073 13.048 13.023 12.995 12.97 12.952 12.94 12.93 12.895 12.81 12.69 12.57 12.493 12.468 12.465 12.465 12.47 12.485 12.5 12.51 12.465 12.368 13.368 14.4 14.373 14.35 14.333 14.32 14.29 14.162 13.062 12.055 12.033 12.003 11.968 11.933 12.285 12.837 13.02 12.98 12.775 12.25 11.905 11.935 11.922 11.87 11.815 11.763 11.73 11.715 11.705 11.695 11.67 11.633 11.598 11.565 11.568 11.597 11.62 11.64 11.662 11.662
18.41 18.35 18.31 18.288 18.275 18.285 18.307 18.333 18.36 18.387 18.35 18.242 18.122 17.992 17.865 17.758 17.68 17.62 17.55 17.47 17.387 17.302 17.22 17.138 17.06 17 17.005 17.067 17.112 17.09 17 16.88 16.76 16.7 16.672 16.605 16.515 16.488 16.52 16.485 16.425 16.463 16.465 16.383 16.325 16.27 16.097 15.855 15.668 15.513 15.415 15.368 15.315 15.245 15.113 14.968 14.893 14.855 14.823 14.79 14.76 14.735 14.792 14.885 14.887 14.835 14.78 14.77 14.85 14.995 15.075 15.06 15.028 14.993 14.96 14.93 14.903 14.905 14.932 14.975 15.053 15.145 15.23 15.3 15.37 15.432 15.435 15.418 15.417 15.332 15.15 14.943 14.73 14.53 14.363 14.24 14.188 14.185 14.18 14.165 14.137 14.098 14.073 14.075 14.087 14.1 14.105 14.108 14.12 14.14 14.16 14.167 14.165 14.142 14.09 14.035 13.988 13.948 13.903 13.855 13.825 13.8 13.775 13.75 13.725 13.7 13.66 13.605 13.542 13.478 13.43 13.4 13.373 13.347 13.317 13.28 13.24 13.2 13.168 13.142 13.115 13.08 13.05 13.03 13.013 13 12.975 12.92 12.832 12.718 12.615 12.555 12.525 12.515 12.52 12.535 12.55 12.56 12.545 12.485 13.457 14.462 14.45 14.44 14.435 14.433 14.427 14.382 13.227 12.113 12.1 12.073 12.04 12 12.845 13.927 14.137 14.089 13.879 12.815 11.923 11.95 11.947 11.898 11.848 11.808 11.778 11.76 11.75 11.74 11.707 11.66 11.623 11.593 11.603 11.645 11.68 11.705 11.727 11.707
18.573 18.51 18.473 18.465 18.475 18.497 18.522 18.547 18.572 18.595 18.552 18.432 18.295 18.16 18.048 17.97 17.915 17.86 17.79 17.71 17.63 17.545 17.46 17.393 17.34 17.303 17.305 17.317 17.295 17.193 17.013 16.815 16.68 16.643 16.625 16.565 16.493 16.51 16.577 16.553 16.575 16.762 16.85 16.8 16.77 16.722 16.545 16.273 16.038 15.865 15.773 15.717 15.645 15.56 15.42 15.235 15.083 14.99 14.94 14.905 14.873 14.848 14.91 15.052 15.152 15.155 15.107 15.065 15.06 15.14 15.205 15.19 15.16 15.125 15.09 15.063 15.048 15.06 15.093 15.16 15.265 15.367 15.452 15.52 15.58 15.635 15.652 15.65 15.66 15.625 15.48 15.262 15.05 14.863 14.7 14.548 14.435 14.398 14.382 14.35 14.307 14.263 14.238 14.233 14.235 14.247 14.252 14.248 14.248 14.26 14.277 14.28 14.272 14.255 14.212 14.165 14.128 14.09 14.045 13.993 13.945 13.91 13.885 13.86 13.835 13.812 13.772 13.712 13.648 13.585 13.54 13.505 13.47 13.443 13.412 13.375 13.335 13.298 13.265 13.235 13.2 13.163 13.133 13.11 13.09 13.072 13.045 13 12.942 12.86 12.767 12.69 12.625 12.58 12.57 12.585 12.6 12.61 12.605 12.575 13.422 14.424 14.559 14.559 14.559 14.557 14.552 14.521 13.33 12.168 12.167 12.15 12.122 12.055 13.032 14.097 14.13 14.13 14.052 12.985 11.985 11.98 11.97 11.93 11.89 11.86 11.833 11.813 11.8 11.787 11.75 11.695 11.65 11.623 11.638 11.685 11.732 11.767 11.782 11.745
18.737 18.673 18.65 18.665 18.685 18.705 18.722 18.737 18.75 18.76 18.702 18.572 18.435 18.3 18.21 18.167 18.13 18.087 18.025 17.942 17.857 17.772 17.697 17.647 17.607 17.587 17.577 17.535 17.475 17.37 17.16 16.885 16.68 16.6 16.577 16.525 16.493 16.555 16.635 16.653 16.767 16.967 17.067 17.125 17.182 17.17 16.992 16.715 16.445 16.233 16.12 16.047 15.962 15.872 15.73 15.545 15.36 15.2 15.105 15.055 15.01 14.973 15.033 15.177 15.32 15.415 15.422 15.382 15.34 15.335 15.342 15.317 15.285 15.253 15.228 15.213 15.205 15.215 15.26 15.355 15.475 15.585 15.667 15.73 15.787 15.837 15.857 15.857 15.862 15.862 15.745 15.502 15.32 15.195 15.045 14.883 14.73 14.633 14.58 14.528 14.475 14.428 14.403 14.398 14.393 14.395 14.397 14.392 14.388 14.388 14.392 14.39 14.38 14.367 14.34 14.305 14.272 14.235 14.187 14.135 14.08 14.028 13.995 13.97 13.945 13.922 13.88 13.818 13.755 13.695 13.65 13.615 13.575 13.54 13.507 13.47 13.43 13.393 13.358 13.323 13.285 13.248 13.218 13.195 13.173 13.15 13.117 13.07 13.02 12.965 12.9 12.827 12.75 12.678 12.643 12.645 12.653 12.658 12.645 12.615 12.96 13.43 13.552 13.6 13.67 13.74 13.807 13.697 12.883 12.215 12.22 12.212 12.192 12.135 12.762 13.49 13.6 13.72 13.654 12.81 12.073 12.033 12.005 11.977 11.945 11.915 11.89 11.87 11.852 11.832 11.79 11.735 11.685 11.655 11.673 11.72 11.77 11.815 11.83 11.793
18.888 18.835 18.833 18.855 18.875 18.882 18.875 18.872 18.875 18.875 18.81 18.677 18.54 18.408 18.33 18.302 18.275 18.247 18.202 18.127 18.04 17.955 17.89 17.845 17.815 17.827 17.827 17.775 17.707 17.565 17.32 17.03 16.773 16.613 16.543 16.495 16.507 16.6 16.692 16.772 16.882 16.942 16.995 17.127 17.26 17.342 17.232 16.967 16.69 16.537 16.475 16.373 16.28 16.187 16.04 15.853 15.673 15.505 15.385 15.318 15.263 15.208 15.205 15.3 15.443 15.585 15.637 15.597 15.552 15.512 15.48 15.445 15.413 15.39 15.378 15.373 15.373 15.395 15.48 15.61 15.725 15.79 15.825 15.87 15.925 15.975 15.99 15.99 16.002 16.022 15.915 15.683 15.555 15.497 15.375 15.215 15.048 14.908 14.825 14.765 14.705 14.645 14.59 14.563 14.558 14.553 14.543 14.533 14.527 14.522 14.508 14.488 14.475 14.465 14.445 14.415 14.385 14.347 14.297 14.242 14.187 14.135 14.095 14.067 14.042 14.017 13.98 13.925 13.865 13.805 13.758 13.72 13.68 13.64 13.605 13.57 13.53 13.49 13.453 13.418 13.38 13.34 13.31 13.29 13.265 13.232 13.187 13.135 13.087 13.04 12.995 12.942 12.87 12.793 12.743 12.728 12.725 12.72 12.698 12.655 12.605 12.533 12.488 12.521 12.583 12.645 12.705 12.613 12.37 12.255 12.262 12.262 12.25 12.225 12.343 12.533 12.645 12.765 12.755 12.413 12.123 12.075 12.04 12.017 11.99 11.96 11.935 11.915 11.895 11.87 11.827 11.773 11.723 11.695 11.713 11.76 11.808 11.855 11.882 11.872
19.028 19 19.005 19.025 19.037 19.032 19.008 18.985 18.98 18.982 18.917 18.78 18.64 18.51 18.435 18.405 18.378 18.355 18.32 18.265 18.19 18.105 18.04 18.008 18.018 18.062 18.082 18.045 17.937 17.732 17.465 17.163 16.888 16.695 16.562 16.44 16.385 16.412 16.447 16.577 16.71 16.742 16.81 16.927 17.067 17.22 17.202 16.982 16.733 16.73 16.827 16.747 16.63 16.507 16.345 16.163 15.998 15.848 15.735 15.665 15.607 15.545 15.478 15.47 15.568 15.71 15.76 15.72 15.678 15.64 15.608 15.575 15.552 15.54 15.537 15.543 15.563 15.633 15.77 15.905 15.965 15.955 15.935 15.958 16.005 16.05 16.075 16.093 16.12 16.15 16.055 15.883 15.81 15.782 15.692 15.537 15.358 15.2 15.11 15.05 14.985 14.91 14.825 14.753 14.725 14.72 14.698 14.673 14.66 14.655 14.63 14.585 14.558 14.545 14.525 14.495 14.462 14.422 14.372 14.318 14.268 14.228 14.19 14.155 14.125 14.1 14.07 14.025 13.97 13.91 13.86 13.82 13.78 13.74 13.705 13.67 13.632 13.595 13.557 13.52 13.48 13.443 13.413 13.387 13.355 13.31 13.257 13.203 13.153 13.105 13.065 13.032 12.98 12.905 12.85 12.828 12.818 12.802 12.767 12.712 12.65 12.575 12.513 12.48 12.458 12.44 12.423 12.408 12.363 12.313 12.305 12.305 12.297 12.28 12.25 12.235 12.235 12.235 12.21 12.17 12.137 12.095 12.06 12.042 12.022 11.995 11.97 11.95 11.927 11.9 11.86 11.808 11.763 11.738 11.755 11.805 11.852 11.897 11.927 11.937
19.19 19.173 19.175 19.187 19.185 19.175 19.15 19.115 19.093 19.087 19.02 18.88 18.74 18.61 18.535 18.51 18.49 18.467 18.43 18.385 18.33 18.255 18.203 18.205 18.25 18.307 18.34 18.29 18.117 17.875 17.605 17.293 17.005 16.807 16.527 16.135 15.842 15.717 15.702 15.862 16.105 16.287 16.482 16.657 16.79 16.912 16.975 16.907 16.815 16.945 17.095 17.06 16.957 16.812 16.655 16.493 16.34 16.198 16.09 16.018 15.955 15.887 15.81 15.74 15.738 15.833 15.88 15.843 15.805 15.77 15.735 15.7 15.675 15.66 15.685 15.735 15.8 15.918 16.057 16.142 16.135 16.088 16.05 16.055 16.105 16.165 16.205 16.225 16.253 16.285 16.212 16.103 16.07 16.047 15.99 15.852 15.66 15.493 15.395 15.327 15.25 15.167 15.082 14.99 14.918 14.89 14.865 14.83 14.803 14.788 14.76 14.705 14.655 14.63 14.61 14.577 14.54 14.497 14.448 14.4 14.36 14.323 14.285 14.245 14.21 14.182 14.15 14.11 14.067 14.015 13.963 13.92 13.88 13.84 13.805 13.77 13.735 13.7 13.66 13.62 13.58 13.545 13.515 13.48 13.432 13.38 13.33 13.275 13.22 13.17 13.13 13.105 13.075 13.017 12.965 12.938 12.915 12.877 12.82 12.755 12.688 12.615 12.558 12.52 12.485 12.463 12.447 12.43 12.407 12.37 12.348 12.345 12.34 12.327 12.303 12.28 12.268 12.26 12.232 12.19 12.153 12.113 12.08 12.065 12.05 12.03 12.007 11.982 11.957 11.93 11.89 11.845 11.81 11.783 11.795 11.845 11.895 11.937 11.96 11.972
19.365 19.345 19.337 19.335 19.325 19.315 19.29 19.255 19.223 19.2 19.125 18.985 18.845 18.715 18.643 18.623 18.605 18.58 18.54 18.495 18.453 18.403 18.39 18.433 18.49 18.547 18.585 18.495 18.27 18.02 17.74 17.417 17.122 16.76 16.217 15.655 15.153 14.828 14.773 14.925 15.19 15.47 15.755 16.007 16.155 16.25 16.34 16.555 16.892 17.15 17.222 17.172 17.122 17.06 16.962 16.827 16.687 16.55 16.448 16.372 16.302 16.23 16.15 16.07 16.003 16 16.005 15.968 15.933 15.898 15.862 15.823 15.783 15.763 15.815 15.925 16.057 16.19 16.272 16.307 16.29 16.238 16.185 16.17 16.235 16.33 16.375 16.385 16.403 16.425 16.395 16.34 16.31 16.28 16.237 16.12 15.94 15.78 15.675 15.595 15.51 15.425 15.337 15.247 15.153 15.08 15.035 15 14.965 14.933 14.892 14.835 14.775 14.728 14.693 14.655 14.615 14.573 14.53 14.493 14.457 14.42 14.38 14.34 14.3 14.265 14.23 14.19 14.152 14.112 14.067 14.025 13.982 13.94 13.905 13.87 13.835 13.8 13.76 13.72 13.682 13.647 13.607 13.56 13.508 13.455 13.402 13.345 13.29 13.24 13.2 13.175 13.152 13.117 13.08 13.047 13.015 12.96 12.885 12.81 12.733 12.66 12.605 12.565 12.528 12.498 12.473 12.45 12.43 12.405 12.39 12.385 12.38 12.372 12.355 12.332 12.31 12.288 12.255 12.215 12.175 12.135 12.103 12.085 12.073 12.06 12.04 12.01 11.983 11.957 11.925 11.89 11.86 11.83 11.838 11.885 11.937 11.977 11.995 12.008
19.5 19.48 19.465 19.455 19.447 19.445 19.43 19.398 19.363 19.342 19.257 19.108 18.97 18.845 18.78 18.758 18.74 18.728 18.7 18.663 18.625 18.59 18.598 18.647 18.705 18.762 18.785 18.645 18.385 18.137 17.795 17.417 17.035 16.355 15.565 14.942 14.375 13.97 13.883 14.038 14.278 14.538 14.805 15.065 15.185 15.18 15.21 15.542 16.134 16.579 16.732 16.73 16.932 17.17 17.167 17.065 16.942 16.855 16.795 16.72 16.635 16.547 16.465 16.385 16.302 16.22 16.148 16.098 16.063 16.025 15.988 15.948 15.905 15.903 15.98 16.12 16.29 16.405 16.432 16.445 16.445 16.405 16.345 16.325 16.403 16.512 16.56 16.57 16.58 16.57 16.542 16.51 16.47 16.435 16.38 16.26 16.1 15.972 15.897 15.83 15.752 15.675 15.592 15.502 15.402 15.3 15.233 15.198 15.16 15.102 15.025 14.953 14.89 14.83 14.78 14.74 14.698 14.653 14.62 14.59 14.553 14.517 14.477 14.435 14.387 14.337 14.297 14.26 14.22 14.19 14.16 14.12 14.077 14.032 13.995 13.96 13.922 13.89 13.857 13.82 13.782 13.745 13.697 13.645 13.593 13.535 13.475 13.418 13.363 13.31 13.273 13.248 13.223 13.2 13.177 13.147 13.112 13.06 12.985 12.9 12.815 12.743 12.688 12.648 12.613 12.573 12.52 12.48 12.458 12.438 12.428 12.422 12.417 12.412 12.397 12.375 12.352 12.325 12.29 12.25 12.21 12.17 12.135 12.113 12.1 12.087 12.067 12.042 12.015 11.988 11.96 11.93 11.903 11.878 11.885 11.93 11.982 12.025 12.045 12.055
19.6 19.58 19.565 19.555 19.555 19.567 19.57 19.545 19.515 19.525 19.442 19.263 19.115 18.998 18.938 18.918 18.92 18.935 18.925 18.893 18.858 18.825 18.823 18.855 18.903 18.957 18.95 18.762 18.475 18.22 17.777 17.242 16.567 15.625 14.73 13.958 13.418 13.148 13.083 13.213 13.423 13.66 13.902 14.062 14.025 13.893 13.858 14.003 14.498 15.192 15.617 15.813 16.385 17.067 17.255 17.167 17.092 17.09 17.097 17.05 16.945 16.833 16.742 16.66 16.562 16.44 16.323 16.245 16.198 16.158 16.12 16.078 16.045 16.075 16.183 16.335 16.487 16.575 16.59 16.588 16.592 16.57 16.525 16.525 16.598 16.695 16.745 16.75 16.735 16.69 16.643 16.608 16.573 16.537 16.462 16.322 16.168 16.078 16.047 16.015 15.96 15.887 15.812 15.732 15.635 15.528 15.458 15.42 15.36 15.265 15.16 15.068 14.993 14.93 14.88 14.837 14.787 14.733 14.7 14.682 14.65 14.613 14.572 14.525 14.465 14.4 14.353 14.315 14.283 14.268 14.245 14.205 14.162 14.115 14.073 14.038 14.003 13.975 13.95 13.917 13.877 13.835 13.79 13.74 13.685 13.612 13.543 13.49 13.435 13.38 13.345 13.322 13.3 13.278 13.257 13.237 13.207 13.162 13.092 13.008 12.933 12.873 12.813 12.765 12.73 12.68 12.605 12.533 12.493 12.473 12.463 12.457 12.452 12.447 12.432 12.408 12.385 12.362 12.33 12.29 12.25 12.213 12.178 12.148 12.128 12.113 12.095 12.075 12.05 12.02 11.993 11.965 11.943 11.928 11.938 11.98 12.03 12.077 12.105 12.115
19.695 19.675 19.663 19.663 19.673 19.69 19.705 19.693 19.69 19.742 19.667 19.453 19.273 19.15 19.1 19.105 19.135 19.167 19.162 19.128 19.095 19.063 19.055 19.08 19.115 19.157 19.115 18.895 18.59 18.31 17.817 17.007 15.925 14.818 13.905 13.133 12.625 12.405 12.35 12.42 12.595 12.817 12.965 12.935 12.767 12.59 12.498 12.48 12.785 13.46 14.157 14.785 15.722 16.647 16.952 17.015 17.11 17.18 17.252 17.305 17.245 17.11 17.005 16.905 16.782 16.648 16.523 16.423 16.35 16.295 16.253 16.22 16.21 16.263 16.388 16.55 16.672 16.732 16.76 16.758 16.748 16.73 16.72 16.75 16.808 16.88 16.915 16.89 16.837 16.78 16.738 16.705 16.675 16.64 16.547 16.388 16.25 16.19 16.17 16.152 16.125 16.07 16 15.93 15.847 15.75 15.68 15.62 15.52 15.405 15.3 15.2 15.108 15.033 14.978 14.927 14.87 14.808 14.77 14.76 14.742 14.71 14.663 14.602 14.53 14.458 14.405 14.375 14.36 14.352 14.33 14.29 14.245 14.195 14.15 14.115 14.088 14.065 14.04 14.01 13.972 13.928 13.882 13.832 13.767 13.683 13.608 13.555 13.503 13.45 13.415 13.395 13.377 13.355 13.335 13.32 13.3 13.265 13.198 13.123 13.065 13.017 12.948 12.883 12.847 12.79 12.705 12.615 12.543 12.505 12.495 12.49 12.485 12.48 12.465 12.443 12.42 12.4 12.37 12.33 12.293 12.257 12.222 12.188 12.158 12.14 12.125 12.105 12.082 12.055 12.028 12.005 11.99 11.98 11.99 12.03 12.08 12.127 12.16 12.178
19.788 19.77 19.765 19.78 19.8 19.82 19.84 19.853 19.893 19.962 19.882 19.66 19.455 19.32 19.293 19.325 19.365 19.4 19.397 19.365 19.332 19.298 19.288 19.305 19.325 19.347 19.257 18.987 18.672 18.382 17.83 16.782 15.43 14.128 13.15 12.495 12.008 11.698 11.608 11.66 11.805 11.902 11.837 11.687 11.5 11.313 11.18 11.078 11.15 11.515 12.18 13.107 14.317 15.402 15.882 16.242 16.592 16.735 16.845 17.212 17.465 17.347 17.24 17.122 16.987 16.853 16.728 16.615 16.52 16.44 16.393 16.388 16.403 16.478 16.615 16.752 16.84 16.888 16.93 16.94 16.92 16.893 16.9 16.952 17.005 17.05 17.047 16.99 16.925 16.872 16.832 16.8 16.77 16.732 16.625 16.45 16.338 16.305 16.285 16.265 16.247 16.215 16.157 16.092 16.025 15.952 15.877 15.78 15.663 15.548 15.44 15.34 15.243 15.15 15.075 15.013 14.95 14.885 14.845 14.835 14.825 14.81 14.763 14.688 14.61 14.533 14.48 14.465 14.46 14.448 14.412 14.362 14.315 14.265 14.225 14.198 14.175 14.152 14.127 14.1 14.065 14.022 13.977 13.92 13.838 13.745 13.673 13.62 13.57 13.523 13.49 13.47 13.452 13.432 13.412 13.397 13.385 13.362 13.312 13.255 13.207 13.165 13.09 13.008 12.96 12.895 12.805 12.715 12.627 12.558 12.528 12.523 12.52 12.515 12.5 12.48 12.46 12.44 12.413 12.375 12.338 12.303 12.268 12.233 12.198 12.173 12.155 12.133 12.11 12.088 12.065 12.05 12.04 12.033 12.043 12.08 12.13 12.175 12.215 12.247
19.885 19.883 19.915 19.955 19.98 20.005 20.025 20.038 20.08 20.132 20.037 19.825 19.63 19.51 19.503 19.547 19.59 19.627 19.63 19.6 19.568 19.535 19.498 19.475 19.48 19.487 19.37 19.062 18.705 18.37 17.725 16.58 15.162 13.648 12.51 11.878 11.39 10.997 10.832 10.777 10.747 10.715 10.558 10.375 10.223 10.083 9.95 9.838 9.855 10.031 10.388 10.946 11.878 13.042 14.007 14.89 15.587 15.877 16.21 17.063 17.592 17.51 17.42 17.31 17.187 17.057 16.93 16.815 16.71 16.62 16.58 16.588 16.628 16.738 16.877 16.97 17.018 17.053 17.093 17.115 17.095 17.04 17.035 17.092 17.147 17.17 17.135 17.072 17.007 16.952 16.91 16.875 16.842 16.795 16.677 16.513 16.423 16.4 16.38 16.36 16.337 16.302 16.247 16.185 16.125 16.09 16.04 15.94 15.828 15.71 15.603 15.505 15.402 15.283 15.183 15.115 15.05 14.978 14.93 14.92 14.913 14.915 14.902 14.845 14.765 14.685 14.64 14.633 14.617 14.572 14.498 14.425 14.37 14.32 14.288 14.277 14.265 14.24 14.215 14.19 14.155 14.115 14.072 14.017 13.938 13.845 13.77 13.715 13.663 13.613 13.57 13.54 13.52 13.5 13.477 13.457 13.445 13.43 13.4 13.357 13.315 13.262 13.185 13.105 13.042 12.965 12.867 12.772 12.682 12.613 12.59 12.595 12.595 12.59 12.573 12.55 12.53 12.508 12.468 12.423 12.385 12.35 12.318 12.283 12.248 12.215 12.19 12.168 12.145 12.125 12.108 12.095 12.085 12.078 12.095 12.14 12.188 12.233 12.278 12.317
19.998 20.013 20.08 20.165 20.21 20.235 20.255 20.248 20.255 20.27 20.152 19.96 19.813 19.718 19.708 19.755 19.8 19.84 19.855 19.835 19.805 19.772 19.705 19.623 19.59 19.592 19.477 19.17 18.782 18.33 17.592 16.435 14.962 13.3 11.965 11.242 10.415 9.743 9.638 9.558 9.485 9.5 9.458 9.355 9.285 9.238 9.195 9.195 9.273 9.415 9.6 9.741 10.083 10.711 11.618 12.857 14.057 14.835 15.875 17.219 17.722 17.65 17.57 17.47 17.362 17.25 17.135 17.03 16.925 16.84 16.815 16.82 16.885 17.027 17.142 17.197 17.228 17.25 17.278 17.287 17.245 17.168 17.15 17.2 17.25 17.257 17.207 17.142 17.075 17.013 16.968 16.932 16.892 16.832 16.71 16.575 16.508 16.48 16.457 16.435 16.407 16.362 16.302 16.24 16.198 16.2 16.182 16.105 16.007 15.895 15.79 15.685 15.557 15.41 15.3 15.235 15.162 15.078 15.023 15.01 15.01 15.028 15.047 15.035 14.975 14.9 14.862 14.842 14.787 14.695 14.59 14.495 14.42 14.365 14.343 14.35 14.347 14.327 14.305 14.28 14.247 14.208 14.167 14.127 14.065 13.98 13.898 13.833 13.778 13.723 13.665 13.615 13.585 13.565 13.538 13.508 13.488 13.47 13.442 13.402 13.345 13.262 13.177 13.107 13.05 12.972 12.87 12.778 12.708 12.67 12.675 12.697 12.705 12.7 12.677 12.648 12.625 12.6 12.545 12.48 12.435 12.4 12.37 12.337 12.302 12.268 12.24 12.22 12.198 12.175 12.155 12.135 12.12 12.11 12.138 12.202 12.257 12.302 12.345 12.385
20.128 20.148 20.218 20.327 20.415 20.462 20.48 20.465 20.445 20.41 20.29 20.148 20.04 19.943 19.913 19.955 20 20.035 20.055 20.055 20.037 20.007 19.937 19.825 19.733 19.7 19.58 19.265 18.805 18.192 17.397 16.22 14.607 12.888 11.468 10.325 9.311 8.843 8.825 8.818 8.845 8.915 8.95 8.933 8.915 8.93 8.97 9.033 9.12 9.238 9.365 9.43 9.48 9.603 9.971 10.651 11.725 12.987 14.532 16.186 17.361 17.804 17.722 17.63 17.533 17.438 17.342 17.245 17.143 17.07 17.065 17.1 17.188 17.305 17.375 17.412 17.445 17.472 17.482 17.447 17.375 17.293 17.268 17.307 17.347 17.34 17.28 17.21 17.14 17.073 17.023 16.985 16.932 16.86 16.748 16.645 16.593 16.558 16.533 16.507 16.47 16.415 16.355 16.31 16.305 16.33 16.317 16.25 16.167 16.075 15.967 15.835 15.682 15.528 15.418 15.347 15.262 15.17 15.115 15.105 15.118 15.142 15.165 15.18 15.165 15.117 15.065 15 14.905 14.797 14.692 14.585 14.488 14.42 14.403 14.415 14.422 14.415 14.392 14.365 14.335 14.3 14.263 14.227 14.185 14.115 14.03 13.955 13.895 13.837 13.775 13.713 13.66 13.63 13.602 13.568 13.535 13.51 13.47 13.402 13.315 13.215 13.123 13.058 13.017 12.95 12.86 12.798 12.765 12.745 12.753 12.785 12.807 12.81 12.785 12.748 12.718 12.69 12.635 12.558 12.493 12.45 12.42 12.39 12.355 12.32 12.295 12.275 12.25 12.225 12.205 12.18 12.158 12.145 12.173 12.25 12.325 12.375 12.415 12.452
20.263 20.283 20.35 20.46 20.57 20.66 20.697 20.68 20.64 20.572 20.465 20.352 20.245 20.15 20.128 20.168 20.207 20.225 20.232 20.245 20.247 20.237 20.172 20.055 19.935 19.842 19.65 19.232 18.637 17.86 16.845 15.487 13.862 12.308 11.045 9.67 8.831 8.807 8.792 8.775 8.77 8.813 8.842 8.83 8.835 8.86 8.885 8.935 9.015 9.09 9.123 9.13 9.148 9.218 9.375 9.533 9.931 10.683 11.883 13.575 15.462 16.946 17.654 17.81 17.723 17.632 17.542 17.452 17.355 17.298 17.323 17.39 17.467 17.537 17.585 17.622 17.657 17.677 17.652 17.585 17.503 17.418 17.383 17.41 17.44 17.415 17.345 17.275 17.205 17.135 17.078 17.03 16.965 16.885 16.798 16.728 16.68 16.638 16.61 16.577 16.525 16.465 16.42 16.41 16.43 16.46 16.452 16.387 16.3 16.212 16.097 15.95 15.797 15.645 15.53 15.448 15.358 15.263 15.208 15.208 15.23 15.255 15.275 15.295 15.31 15.285 15.207 15.107 15 14.892 14.787 14.68 14.573 14.495 14.475 14.483 14.493 14.497 14.48 14.45 14.42 14.39 14.358 14.325 14.292 14.242 14.17 14.087 14.01 13.942 13.88 13.817 13.755 13.705 13.668 13.632 13.595 13.56 13.5 13.403 13.298 13.193 13.093 13.025 12.993 12.945 12.89 12.86 12.84 12.82 12.828 12.862 12.895 12.912 12.895 12.855 12.817 12.78 12.722 12.645 12.57 12.508 12.465 12.435 12.402 12.37 12.345 12.325 12.3 12.275 12.255 12.23 12.205 12.188 12.213 12.293 12.382 12.442 12.48 12.517
20.405 20.425 20.485 20.59 20.7 20.812 20.867 20.842 20.792 20.722 20.62 20.505 20.398 20.34 20.358 20.4 20.415 20.4 20.4 20.415 20.425 20.425 20.36 20.24 20.12 19.952 19.612 19.052 18.377 17.417 16.04 14.455 12.915 11.558 10.465 9.41 8.785 8.755 8.745 8.732 8.718 8.728 8.753 8.778 8.823 8.86 8.865 8.883 8.945 9 8.95 8.87 8.875 8.93 9.018 9.155 9.3 9.428 9.891 10.871 12.433 14.5 16.334 17.519 17.917 17.827 17.73 17.635 17.543 17.505 17.557 17.627 17.685 17.742 17.79 17.827 17.845 17.82 17.777 17.722 17.643 17.558 17.518 17.538 17.542 17.49 17.415 17.343 17.27 17.198 17.133 17.073 17.003 16.93 16.865 16.813 16.767 16.723 16.683 16.638 16.585 16.535 16.515 16.533 16.557 16.585 16.572 16.5 16.405 16.307 16.182 16.035 15.892 15.755 15.653 15.565 15.468 15.368 15.308 15.31 15.33 15.35 15.37 15.387 15.4 15.372 15.29 15.187 15.082 14.975 14.867 14.762 14.655 14.578 14.56 14.568 14.573 14.58 14.572 14.545 14.515 14.485 14.455 14.422 14.387 14.35 14.285 14.192 14.097 14.02 13.96 13.9 13.84 13.783 13.735 13.7 13.665 13.625 13.562 13.468 13.36 13.25 13.148 13.07 13.023 12.988 12.96 12.94 12.92 12.9 12.903 12.938 12.977 13.005 12.995 12.955 12.915 12.878 12.828 12.758 12.683 12.6 12.52 12.47 12.44 12.41 12.385 12.365 12.342 12.32 12.302 12.282 12.26 12.238 12.265 12.35 12.44 12.49 12.51 12.545
20.55 20.575 20.633 20.725 20.83 20.937 20.975 20.94 20.895 20.832 20.737 20.625 20.555 20.555 20.592 20.62 20.597 20.56 20.56 20.572 20.572 20.56 20.492 20.375 20.212 19.917 19.487 18.87 18.115 16.96 15.363 13.713 12.178 10.788 9.68 9.025 8.748 8.7 8.69 8.68 8.678 8.688 8.72 8.775 8.83 8.862 8.865 8.858 8.885 8.94 8.87 8.738 8.73 8.785 8.82 8.88 8.975 9.075 9.175 9.363 10.034 11.631 13.755 15.777 17.244 17.859 17.915 17.805 17.725 17.71 17.76 17.827 17.89 17.947 17.995 18.01 17.975 17.905 17.863 17.847 17.795 17.713 17.68 17.685 17.647 17.578 17.503 17.428 17.353 17.275 17.2 17.133 17.065 16.998 16.943 16.895 16.85 16.815 16.778 16.733 16.69 16.653 16.638 16.653 16.677 16.692 16.66 16.582 16.49 16.39 16.262 16.11 15.965 15.853 15.787 15.725 15.633 15.528 15.44 15.405 15.41 15.425 15.445 15.455 15.452 15.425 15.35 15.25 15.147 15.042 14.937 14.835 14.733 14.665 14.653 14.66 14.667 14.67 14.662 14.642 14.615 14.585 14.555 14.52 14.48 14.435 14.362 14.265 14.163 14.08 14.02 13.96 13.905 13.855 13.81 13.773 13.735 13.695 13.64 13.565 13.47 13.36 13.263 13.185 13.12 13.075 13.048 13.025 13.005 12.983 12.985 13.025 13.07 13.097 13.085 13.053 13.03 13.01 12.967 12.9 12.82 12.725 12.623 12.535 12.478 12.44 12.415 12.395 12.372 12.35 12.34 12.335 12.32 12.295 12.325 12.417 12.5 12.53 12.528 12.543
20.685 20.723 20.788 20.873 20.965 21.05 21.065 21.028 20.99 20.94 20.855 20.775 20.765 20.795 20.822 20.812 20.758 20.72 20.717 20.715 20.7 20.68 20.617 20.465 20.185 19.788 19.365 18.745 17.822 16.497 14.863 13.235 11.645 10.085 9.083 8.815 8.723 8.658 8.64 8.645 8.663 8.69 8.73 8.785 8.84 8.867 8.862 8.848 8.848 8.885 8.832 8.72 8.688 8.71 8.743 8.76 8.788 8.845 8.9 8.945 9.026 9.621 11.151 13.308 15.544 17.159 17.869 17.97 17.913 17.925 17.963 18.025 18.09 18.152 18.177 18.135 18.06 17.98 17.93 17.927 17.92 17.87 17.835 17.805 17.742 17.675 17.6 17.523 17.445 17.362 17.28 17.208 17.143 17.075 17.02 16.978 16.945 16.93 16.905 16.868 16.833 16.8 16.778 16.775 16.79 16.78 16.725 16.65 16.565 16.472 16.347 16.19 16.043 15.95 15.91 15.875 15.82 15.732 15.62 15.525 15.488 15.495 15.51 15.51 15.5 15.477 15.41 15.31 15.205 15.1 15.003 14.908 14.815 14.76 14.753 14.758 14.765 14.76 14.745 14.732 14.712 14.685 14.652 14.61 14.557 14.497 14.422 14.33 14.228 14.143 14.083 14.028 13.978 13.933 13.888 13.845 13.805 13.765 13.71 13.642 13.567 13.47 13.378 13.302 13.23 13.175 13.143 13.118 13.095 13.068 13.073 13.12 13.167 13.195 13.19 13.178 13.175 13.165 13.12 13.045 12.955 12.857 12.757 12.65 12.553 12.485 12.448 12.42 12.388 12.363 12.36 12.37 12.372 12.355 12.383 12.48 12.56 12.58 12.57 12.565
20.802 20.872 20.942 21.025 21.107 21.162 21.155 21.115 21.078 21.04 20.993 20.975 21 21.03 21.032 20.985 20.915 20.873 20.857 20.84 20.82 20.8 20.71 20.46 20.088 19.69 19.3 18.65 17.577 16.15 14.495 12.83 11.19 9.64 8.865 8.778 8.693 8.64 8.64 8.665 8.695 8.72 8.75 8.798 8.85 8.872 8.86 8.845 8.835 8.843 8.805 8.73 8.683 8.665 8.685 8.715 8.75 8.785 8.785 8.773 8.79 8.838 9.359 10.818 13.122 15.434 17.096 17.917 18.087 18.13 18.165 18.225 18.275 18.307 18.302 18.235 18.148 18.063 18 17.99 18.01 18.005 17.962 17.9 17.835 17.77 17.697 17.617 17.532 17.445 17.36 17.288 17.222 17.155 17.105 17.078 17.065 17.06 17.04 17.01 16.98 16.95 16.922 16.903 16.895 16.86 16.788 16.713 16.635 16.555 16.437 16.283 16.145 16.068 16.033 16 15.97 15.917 15.82 15.7 15.605 15.57 15.568 15.56 15.55 15.533 15.472 15.378 15.278 15.178 15.085 14.998 14.918 14.868 14.86 14.865 14.865 14.847 14.823 14.81 14.797 14.775 14.735 14.68 14.62 14.555 14.477 14.387 14.292 14.21 14.153 14.105 14.058 14.015 13.97 13.923 13.88 13.835 13.778 13.71 13.645 13.57 13.49 13.417 13.345 13.28 13.238 13.21 13.182 13.15 13.158 13.207 13.25 13.28 13.295 13.307 13.32 13.317 13.267 13.18 13.085 12.99 12.89 12.78 12.67 12.568 12.5 12.458 12.413 12.385 12.385 12.395 12.405 12.405 12.44 12.54 12.62 12.635 12.625 12.615
20.895 20.99 21.055 21.125 21.21 21.277 21.275 21.235 21.195 21.163 21.158 21.177 21.205 21.227 21.207 21.145 21.073 21.01 20.975 20.955 20.935 20.907 20.777 20.485 20.115 19.74 19.317 18.567 17.397 15.872 14.105 12.365 10.74 9.423 8.845 8.755 8.69 8.68 8.705 8.732 8.757 8.772 8.785 8.818 8.862 8.88 8.87 8.86 8.853 8.845 8.818 8.773 8.735 8.71 8.695 8.71 8.752 8.79 8.79 8.76 8.725 8.698 8.723 9.056 10.291 12.575 15.044 16.839 17.849 18.235 18.317 18.37 18.39 18.39 18.385 18.345 18.265 18.175 18.108 18.098 18.12 18.127 18.097 18.033 17.958 17.883 17.795 17.703 17.615 17.525 17.44 17.37 17.305 17.248 17.218 17.205 17.2 17.195 17.177 17.15 17.12 17.09 17.06 17.02 16.985 16.937 16.863 16.788 16.713 16.647 16.547 16.4 16.275 16.208 16.173 16.14 16.108 16.07 16 15.89 15.768 15.693 15.678 15.673 15.665 15.63 15.553 15.46 15.368 15.275 15.185 15.103 15.03 14.98 14.968 14.97 14.96 14.932 14.903 14.88 14.865 14.847 14.805 14.745 14.685 14.612 14.522 14.43 14.337 14.27 14.235 14.197 14.153 14.11 14.065 14.018 13.973 13.933 13.883 13.818 13.753 13.685 13.608 13.53 13.46 13.39 13.335 13.297 13.262 13.228 13.23 13.267 13.3 13.33 13.355 13.38 13.407 13.415 13.37 13.295 13.212 13.12 13.02 12.91 12.797 12.68 12.595 12.545 12.495 12.46 12.453 12.458 12.463 12.473 12.528 12.627 12.695 12.708 12.7 12.69
20.965 21.045 21.105 21.178 21.28 21.387 21.417 21.382 21.348 21.325 21.335 21.36 21.38 21.39 21.365 21.305 21.222 21.138 21.09 21.07 21.04 20.985 20.832 20.562 20.242 19.89 19.382 18.51 17.137 15.377 13.463 11.708 10.238 9.205 8.823 8.758 8.743 8.762 8.782 8.792 8.802 8.815 8.825 8.845 8.877 8.9 8.91 8.912 8.908 8.903 8.883 8.853 8.84 8.835 8.783 8.735 8.758 8.795 8.795 8.765 8.72 8.68 8.668 8.658 8.791 9.711 11.811 14.232 16.312 17.779 18.33 18.417 18.447 18.45 18.45 18.442 18.395 18.31 18.25 18.243 18.257 18.257 18.237 18.197 18.125 18.035 17.918 17.793 17.695 17.605 17.52 17.45 17.398 17.368 17.355 17.348 17.342 17.335 17.315 17.283 17.25 17.22 17.185 17.13 17.07 17.015 16.948 16.873 16.813 16.767 16.675 16.538 16.425 16.358 16.32 16.287 16.25 16.207 16.152 16.062 15.948 15.875 15.86 15.86 15.832 15.755 15.653 15.553 15.46 15.372 15.29 15.215 15.145 15.093 15.075 15.07 15.047 15.015 14.985 14.955 14.933 14.917 14.877 14.815 14.745 14.655 14.555 14.457 14.36 14.31 14.307 14.292 14.257 14.212 14.167 14.123 14.085 14.065 14.027 13.963 13.9 13.827 13.735 13.643 13.565 13.497 13.43 13.373 13.33 13.3 13.293 13.303 13.328 13.357 13.382 13.407 13.427 13.43 13.397 13.345 13.282 13.215 13.137 13.035 12.917 12.795 12.71 12.66 12.613 12.573 12.553 12.555 12.56 12.578 12.65 12.737 12.785 12.797 12.79 12.783
21.01 21.075 21.148 21.248 21.365 21.485 21.545 21.53 21.508 21.5 21.515 21.535 21.542 21.545 21.522 21.457 21.362 21.265 21.208 21.175 21.117 21.035 20.867 20.6 20.297 19.917 19.325 18.342 16.75 14.715 12.695 11.073 9.775 8.988 8.82 8.805 8.815 8.82 8.82 8.815 8.812 8.822 8.837 8.857 8.885 8.915 8.942 8.962 8.972 8.975 8.962 8.953 8.967 8.975 8.912 8.815 8.78 8.8 8.8 8.762 8.705 8.66 8.643 8.63 8.62 8.613 9.399 11.531 14.215 16.625 18.002 18.377 18.477 18.51 18.51 18.512 18.5 18.445 18.398 18.39 18.39 18.38 18.36 18.337 18.292 18.207 18.075 17.923 17.79 17.685 17.603 17.543 17.515 17.505 17.495 17.49 17.485 17.475 17.455 17.42 17.385 17.35 17.3 17.235 17.163 17.1 17.038 16.975 16.938 16.897 16.802 16.68 16.58 16.508 16.465 16.43 16.388 16.342 16.295 16.222 16.133 16.075 16.06 16.035 15.96 15.86 15.757 15.655 15.558 15.465 15.39 15.33 15.265 15.208 15.18 15.162 15.132 15.1 15.07 15.04 15.01 14.99 14.952 14.88 14.787 14.682 14.58 14.478 14.385 14.35 14.36 14.365 14.352 14.315 14.27 14.233 14.213 14.205 14.17 14.11 14.047 13.965 13.865 13.765 13.675 13.602 13.523 13.443 13.395 13.375 13.365 13.36 13.368 13.385 13.407 13.422 13.425 13.42 13.392 13.343 13.298 13.27 13.235 13.152 13.03 12.905 12.82 12.773 12.73 12.69 12.66 12.653 12.663 12.7 12.77 12.83 12.872 12.89 12.883 12.888
21.037 21.105 21.2 21.322 21.447 21.57 21.662 21.687 21.68 21.68 21.687 21.695 21.697 21.7 21.675 21.6 21.5 21.4 21.317 21.247 21.165 21.075 20.882 20.567 20.222 19.81 19.152 17.945 16.142 14.018 12.103 10.668 9.478 8.888 8.855 8.847 8.842 8.83 8.82 8.815 8.81 8.813 8.825 8.847 8.875 8.905 8.935 8.967 8.997 9.017 9.035 9.062 9.1 9.117 9.057 8.94 8.848 8.818 8.8 8.75 8.688 8.643 8.625 8.615 8.61 8.61 8.706 10.201 12.968 15.583 17.527 18.302 18.445 18.54 18.573 18.578 18.588 18.572 18.542 18.53 18.512 18.49 18.47 18.452 18.43 18.37 18.245 18.085 17.928 17.788 17.698 17.663 17.653 17.648 17.64 17.635 17.63 17.615 17.582 17.54 17.502 17.46 17.4 17.33 17.258 17.192 17.14 17.1 17.073 17.028 16.935 16.828 16.735 16.658 16.608 16.57 16.525 16.478 16.432 16.377 16.32 16.277 16.235 16.16 16.06 15.96 15.86 15.76 15.66 15.563 15.483 15.425 15.37 15.313 15.272 15.245 15.215 15.185 15.155 15.125 15.092 15.065 15.015 14.922 14.815 14.705 14.597 14.493 14.415 14.395 14.405 14.415 14.42 14.407 14.377 14.352 14.345 14.337 14.31 14.262 14.19 14.095 13.995 13.895 13.8 13.71 13.615 13.52 13.465 13.45 13.44 13.432 13.425 13.425 13.43 13.425 13.418 13.41 13.39 13.355 13.327 13.31 13.287 13.22 13.107 13 12.93 12.89 12.85 12.81 12.773 12.758 12.773 12.812 12.862 12.908 12.955 12.98 12.987 13.01
21.055 21.125 21.22 21.34 21.47 21.597 21.717 21.8 21.822 21.82 21.817 21.817 21.825 21.835 21.79 21.682 21.57 21.457 21.342 21.237 21.145 21.052 20.792 20.36 19.965 19.605 18.807 17.275 15.373 13.43 11.748 10.373 9.31 8.888 8.865 8.845 8.833 8.825 8.82 8.817 8.813 8.81 8.815 8.83 8.855 8.885 8.918 8.952 8.988 9.022 9.065 9.115 9.165 9.192 9.157 9.062 8.95 8.865 8.813 8.763 8.705 8.645 8.615 8.612 8.61 8.61 8.688 10.129 12.835 15.48 17.515 18.335 18.503 18.635 18.698 18.715 18.718 18.692 18.66 18.64 18.607 18.575 18.555 18.537 18.51 18.452 18.375 18.255 18.095 17.935 17.833 17.81 17.805 17.8 17.795 17.79 17.785 17.757 17.698 17.635 17.59 17.545 17.487 17.42 17.35 17.27 17.217 17.203 17.372 17.395 17.13 16.978 16.89 16.81 16.752 16.708 16.663 16.618 16.575 16.532 16.492 16.44 16.357 16.26 16.16 16.06 15.96 15.86 15.763 15.67 15.585 15.513 15.455 15.402 15.338 15.285 15.255 15.225 15.195 15.165 15.135 15.1 15.037 14.94 14.83 14.72 14.613 14.515 14.448 14.43 14.44 14.45 14.46 14.472 14.472 14.457 14.445 14.43 14.43 14.407 14.325 14.22 14.11 14.002 13.9 13.8 13.7 13.598 13.523 13.497 13.49 13.48 13.472 13.472 13.468 13.453 13.438 13.417 13.39 13.362 13.34 13.315 13.28 13.21 13.115 13.048 13.017 12.995 12.96 12.92 12.88 12.858 12.868 12.897 12.938 12.985 13.03 13.05 13.072 13.117
21.065 21.135 21.223 21.325 21.445 21.575 21.705 21.827 21.902 21.92 21.915 21.913 21.92 21.932 21.857 21.693 21.548 21.422 21.293 21.168 21.063 20.967 20.66 20.135 19.648 19.245 18.312 16.64 14.755 12.963 11.41 9.99 9.088 8.865 8.845 8.835 8.83 8.827 8.823 8.82 8.815 8.81 8.808 8.815 8.838 8.868 8.903 8.938 8.978 9.02 9.065 9.115 9.16 9.18 9.17 9.132 9.05 8.943 8.868 8.822 8.755 8.658 8.605 8.607 8.61 8.61 9.236 11.133 13.643 16.157 17.937 18.54 18.712 18.822 18.882 18.905 18.875 18.808 18.76 18.73 18.685 18.648 18.625 18.592 18.532 18.45 18.405 18.365 18.257 18.11 18.008 17.978 17.968 17.962 17.957 17.952 17.942 17.902 17.825 17.74 17.675 17.625 17.57 17.505 17.422 17.315 17.255 17.268 17.762 18.112 17.79 17.34 17.033 16.935 16.88 16.852 16.81 16.768 16.725 16.685 16.63 16.545 16.45 16.357 16.262 16.165 16.063 15.963 15.87 15.783 15.7 15.618 15.545 15.49 15.4 15.303 15.255 15.225 15.195 15.165 15.132 15.09 15.027 14.942 14.84 14.735 14.643 14.56 14.49 14.458 14.46 14.47 14.483 14.523 14.55 14.532 14.51 14.49 14.51 14.502 14.412 14.3 14.18 14.068 13.968 13.875 13.777 13.673 13.575 13.525 13.515 13.51 13.513 13.52 13.52 13.505 13.475 13.432 13.387 13.348 13.32 13.295 13.25 13.175 13.108 13.083 13.077 13.07 13.052 13.02 12.98 12.95 12.948 12.973 13.015 13.06 13.087 13.092 13.1 13.14
21.057 21.148 21.237 21.33 21.43 21.55 21.68 21.81 21.93 22.002 22.017 22.012 22.01 22.007 21.905 21.705 21.52 21.375 21.247 21.115 20.99 20.882 20.567 20.02 19.46 18.942 17.922 16.205 14.27 12.44 10.893 9.55 8.888 8.845 8.84 8.837 8.832 8.83 8.825 8.82 8.815 8.81 8.808 8.808 8.823 8.853 8.888 8.928 8.975 9.02 9.065 9.115 9.152 9.16 9.148 9.135 9.1 9.022 8.945 8.887 8.797 8.673 8.6 8.598 8.608 9.006 10.528 12.76 14.99 17.097 18.4 18.8 18.922 19.002 19.062 19.065 18.997 18.91 18.855 18.815 18.765 18.72 18.68 18.617 18.528 18.433 18.38 18.375 18.347 18.265 18.193 18.157 18.135 18.125 18.117 18.11 18.097 18.05 17.962 17.868 17.783 17.715 17.655 17.58 17.47 17.343 17.28 17.568 18.18 18.52 18.429 17.745 17.088 16.955 16.93 16.972 16.965 16.922 16.877 16.82 16.737 16.64 16.543 16.45 16.362 16.27 16.168 16.073 15.985 15.9 15.817 15.733 15.65 15.58 15.485 15.36 15.273 15.23 15.2 15.167 15.125 15.075 15.01 14.93 14.845 14.765 14.695 14.622 14.55 14.493 14.475 14.485 14.518 14.592 14.627 14.6 14.573 14.55 14.552 14.525 14.437 14.335 14.225 14.125 14.038 13.95 13.852 13.747 13.643 13.568 13.543 13.548 13.56 13.572 13.567 13.535 13.487 13.433 13.38 13.335 13.303 13.275 13.225 13.168 13.143 13.137 13.132 13.127 13.122 13.107 13.08 13.052 13.035 13.048 13.085 13.115 13.125 13.125 13.118 13.12
21.053 21.16 21.24 21.33 21.42 21.525 21.65 21.78 21.915 22.035 22.095 22.097 22.085 22.06 21.935 21.73 21.525 21.343 21.2 21.07 20.938 20.815 20.485 19.933 19.377 18.777 17.622 15.77 13.768 11.893 10.29 9.203 8.828 8.83 8.83 8.83 8.827 8.822 8.817 8.815 8.812 8.81 8.81 8.805 8.81 8.838 8.878 8.923 8.97 9.017 9.062 9.11 9.147 9.155 9.143 9.125 9.107 9.072 9.017 8.94 8.825 8.695 8.603 8.588 8.813 9.993 12.007 14.137 16.3 17.939 18.717 18.975 19.042 19.1 19.147 19.137 19.075 19.005 18.948 18.903 18.858 18.808 18.738 18.643 18.54 18.44 18.378 18.37 18.38 18.37 18.345 18.322 18.3 18.285 18.275 18.262 18.247 18.192 18.097 18.002 17.91 17.825 17.74 17.635 17.507 17.373 17.443 17.992 18.44 18.5 18.534 17.837 17.028 16.9 16.918 17.002 17.057 17.06 17.012 16.927 16.832 16.735 16.635 16.54 16.452 16.362 16.27 16.185 16.1 16.015 15.93 15.845 15.76 15.677 15.577 15.445 15.32 15.243 15.203 15.162 15.112 15.057 14.993 14.925 14.847 14.77 14.712 14.657 14.6 14.54 14.503 14.52 14.59 14.672 14.695 14.665 14.635 14.607 14.58 14.525 14.448 14.368 14.28 14.195 14.112 14.025 13.927 13.82 13.712 13.615 13.573 13.585 13.6 13.615 13.607 13.558 13.495 13.433 13.375 13.33 13.293 13.26 13.225 13.2 13.192 13.187 13.182 13.175 13.167 13.16 13.15 13.135 13.12 13.122 13.14 13.155 13.16 13.16 13.155 13.14
21.122 21.135 21.19 21.28 21.372 21.485 21.615 21.745 21.878 22.02 22.11 22.117 22.105 22.07 21.935 21.727 21.522 21.323 21.16 21.03 20.905 20.795 20.462 19.89 19.32 18.58 17.222 15.252 13.21 11.333 9.725 8.913 8.803 8.805 8.805 8.805 8.805 8.802 8.8 8.8 8.8 8.8 8.8 8.797 8.8 8.828 8.873 8.918 8.965 9.012 9.057 9.102 9.142 9.155 9.145 9.132 9.115 9.09 9.045 8.96 8.84 8.71 8.613 8.593 9.406 11.273 13.305 15.3 17.232 18.397 18.832 19.027 19.07 19.11 19.14 19.13 19.09 19.077 19.062 19.02 18.977 18.92 18.83 18.723 18.618 18.518 18.448 18.435 18.455 18.457 18.445 18.432 18.42 18.412 18.407 18.402 18.385 18.32 18.22 18.12 18.022 17.925 17.812 17.682 17.548 17.415 17.733 18.262 18.432 18.492 18.19 17.44 16.945 16.878 16.935 17.002 17.057 17.087 17.055 16.975 16.885 16.792 16.697 16.607 16.517 16.42 16.34 16.272 16.19 16.105 16.02 15.935 15.85 15.765 15.662 15.53 15.393 15.28 15.208 15.153 15.098 15.048 15.005 14.945 14.847 14.745 14.68 14.637 14.592 14.547 14.515 14.543 14.622 14.692 14.712 14.69 14.66 14.632 14.605 14.555 14.485 14.415 14.34 14.26 14.177 14.08 13.97 13.86 13.75 13.638 13.585 13.597 13.613 13.635 13.65 13.617 13.553 13.485 13.425 13.383 13.34 13.293 13.258 13.24 13.232 13.227 13.22 13.21 13.2 13.19 13.185 13.182 13.18 13.182 13.19 13.2 13.205 13.202 13.195 13.185
21.167 21.07 21.095 21.185 21.293 21.433 21.575 21.705 21.845 22.005 22.095 22.095 22.085 22.052 21.92 21.708 21.498 21.295 21.128 21.005 20.903 20.815 20.497 19.915 19.322 18.31 16.627 14.645 12.648 10.78 9.32 8.765 8.777 8.78 8.78 8.78 8.78 8.78 8.78 8.78 8.78 8.78 8.78 8.78 8.788 8.82 8.867 8.913 8.96 9.007 9.052 9.097 9.14 9.155 9.145 9.135 9.12 9.09 9.027 8.942 8.842 8.72 8.63 8.766 10.21 12.475 14.45 16.432 17.884 18.522 18.847 19.025 19.07 19.11 19.132 19.115 19.095 19.15 19.195 19.162 19.107 19.035 18.942 18.838 18.738 18.65 18.578 18.55 18.56 18.55 18.525 18.508 18.5 18.502 18.505 18.51 18.505 18.432 18.313 18.205 18.105 17.997 17.873 17.735 17.623 17.543 17.927 18.37 18.43 18.465 17.78 17.015 16.89 16.873 16.92 16.955 16.972 16.987 16.982 16.937 16.865 16.78 16.692 16.62 16.545 16.448 16.375 16.325 16.255 16.175 16.093 16.008 15.923 15.84 15.74 15.61 15.478 15.36 15.273 15.21 15.15 15.1 15.05 14.96 14.845 14.733 14.648 14.595 14.553 14.523 14.51 14.535 14.6 14.66 14.685 14.677 14.65 14.628 14.615 14.595 14.545 14.475 14.4 14.317 14.222 14.105 13.983 13.87 13.757 13.64 13.585 13.598 13.618 13.648 13.68 13.687 13.647 13.583 13.528 13.482 13.43 13.37 13.315 13.28 13.268 13.26 13.25 13.24 13.23 13.223 13.218 13.218 13.223 13.23 13.24 13.25 13.252 13.247 13.238 13.238
21.087 21.005 21 21.103 21.235 21.387 21.533 21.673 21.83 21.995 22.075 22.07 22.062 22.037 21.907 21.693 21.478 21.268 21.108 21.008 20.927 20.847 20.542 19.995 19.272 17.907 16.015 14.06 12.115 10.255 9.04 8.74 8.755 8.76 8.76 8.76 8.76 8.76 8.76 8.76 8.76 8.76 8.76 8.76 8.775 8.815 8.862 8.907 8.953 9 9.047 9.092 9.137 9.155 9.145 9.135 9.115 9.072 9.005 8.92 8.827 8.72 8.643 9.261 11.15 13.432 15.457 17.274 18.245 18.548 18.847 19.02 19.067 19.11 19.125 19.11 19.143 19.25 19.322 19.297 19.227 19.147 19.055 18.955 18.868 18.792 18.718 18.67 18.655 18.635 18.605 18.588 18.585 18.587 18.592 18.6 18.605 18.545 18.415 18.285 18.175 18.063 17.948 17.853 17.798 17.77 18.048 18.37 18.452 18.125 17.388 16.973 16.89 16.84 16.818 16.825 16.838 16.852 16.86 16.842 16.8 16.732 16.653 16.595 16.542 16.465 16.4 16.357 16.307 16.242 16.165 16.083 16 15.92 15.817 15.69 15.57 15.465 15.385 15.325 15.268 15.218 15.13 14.995 14.858 14.73 14.625 14.558 14.528 14.518 14.515 14.528 14.575 14.622 14.647 14.657 14.64 14.62 14.613 14.607 14.587 14.535 14.457 14.362 14.247 14.123 14 13.883 13.76 13.635 13.583 13.603 13.63 13.66 13.693 13.725 13.725 13.68 13.625 13.57 13.51 13.45 13.39 13.338 13.305 13.29 13.28 13.27 13.26 13.258 13.258 13.26 13.27 13.28 13.29 13.297 13.297 13.293 13.29 13.305
20.825 20.867 20.923 21.048 21.195 21.345 21.497 21.657 21.825 21.977 22.045 22.042 22.037 22.017 21.892 21.677 21.46 21.243 21.095 21.02 20.952 20.88 20.612 20.122 19.097 17.375 15.453 13.502 11.55 9.738 8.8 8.72 8.735 8.74 8.74 8.74 8.74 8.74 8.74 8.74 8.74 8.74 8.74 8.743 8.768 8.812 8.855 8.9 8.947 8.993 9.04 9.087 9.132 9.152 9.145 9.132 9.1 9.042 8.977 8.902 8.813 8.715 8.646 9.735 11.997 14.247 16.385 17.859 18.39 18.6 18.85 19.01 19.062 19.11 19.118 19.135 19.23 19.34 19.397 19.395 19.342 19.262 19.172 19.085 19.007 18.935 18.857 18.79 18.75 18.72 18.69 18.675 18.675 18.673 18.675 18.682 18.687 18.655 18.542 18.39 18.255 18.163 18.108 18.07 18.045 18.02 18.18 18.395 18.465 18.162 17.45 17.038 16.968 16.878 16.778 16.725 16.718 16.72 16.73 16.725 16.702 16.665 16.613 16.565 16.523 16.475 16.43 16.39 16.347 16.3 16.237 16.16 16.08 15.997 15.898 15.783 15.673 15.573 15.495 15.445 15.408 15.37 15.275 15.12 14.96 14.813 14.678 14.583 14.558 14.56 14.558 14.553 14.56 14.58 14.603 14.623 14.625 14.615 14.61 14.605 14.6 14.58 14.51 14.4 14.28 14.16 14.04 13.91 13.765 13.63 13.583 13.61 13.64 13.673 13.71 13.748 13.777 13.765 13.71 13.65 13.59 13.527 13.465 13.408 13.358 13.325 13.31 13.305 13.308 13.315 13.323 13.328 13.335 13.343 13.345 13.343 13.34 13.338 13.35 13.382
20.565 20.7 20.837 20.982 21.135 21.282 21.445 21.627 21.812 21.96 22.01 21.995 21.972 21.94 21.837 21.65 21.435 21.215 21.068 21 20.94 20.872 20.667 20.079 18.777 16.91 14.92 12.922 10.953 9.335 8.695 8.703 8.712 8.717 8.72 8.72 8.72 8.72 8.72 8.72 8.72 8.72 8.72 8.73 8.765 8.81 8.85 8.895 8.942 8.988 9.033 9.08 9.127 9.15 9.145 9.12 9.07 9.008 8.945 8.882 8.805 8.723 8.681 10.056 12.62 14.947 17.069 18.212 18.472 18.673 18.875 19.002 19.057 19.105 19.14 19.187 19.257 19.31 19.335 19.355 19.35 19.322 19.27 19.19 19.107 19.025 18.94 18.877 18.85 18.823 18.793 18.78 18.78 18.762 18.733 18.72 18.722 18.71 18.617 18.462 18.328 18.268 18.262 18.252 18.242 18.23 18.277 18.36 18.397 18.445 18.145 17.465 17.085 17.008 16.89 16.753 16.668 16.638 16.625 16.615 16.608 16.605 16.585 16.545 16.513 16.498 16.475 16.435 16.393 16.358 16.32 16.252 16.17 16.088 15.992 15.887 15.78 15.688 15.63 15.6 15.58 15.55 15.457 15.305 15.145 14.988 14.835 14.71 14.655 14.653 14.65 14.633 14.603 14.595 14.613 14.628 14.628 14.615 14.608 14.602 14.597 14.59 14.555 14.477 14.375 14.26 14.13 13.98 13.823 13.678 13.625 13.658 13.69 13.725 13.765 13.803 13.835 13.835 13.787 13.725 13.665 13.603 13.54 13.483 13.428 13.38 13.36 13.368 13.385 13.4 13.407 13.412 13.415 13.41 13.4 13.39 13.383 13.383 13.405 13.442
20.46 20.593 20.738 20.895 21.05 21.198 21.365 21.56 21.747 21.88 21.91 21.877 21.837 21.79 21.707 21.57 21.392 21.185 21.035 20.957 20.872 20.755 20.385 19.517 18.112 16.295 14.275 12.252 10.288 8.993 8.683 8.687 8.69 8.695 8.7 8.7 8.702 8.705 8.705 8.705 8.705 8.705 8.705 8.723 8.763 8.807 8.85 8.893 8.938 8.983 9.028 9.073 9.12 9.147 9.137 9.095 9.035 8.975 8.915 8.858 8.808 8.778 8.863 10.491 13.117 15.432 17.447 18.337 18.555 18.777 18.925 18.985 19.027 19.077 19.117 19.14 19.155 19.17 19.185 19.208 19.235 19.267 19.27 19.225 19.15 19.06 18.973 18.935 18.947 18.937 18.91 18.9 18.887 18.842 18.78 18.735 18.72 18.717 18.637 18.493 18.388 18.343 18.34 18.345 18.337 18.32 18.297 18.283 18.283 18.313 18.382 18.117 17.815 17.458 17.048 16.91 16.75 16.638 16.58 16.563 16.568 16.585 16.575 16.543 16.53 16.537 16.527 16.49 16.453 16.425 16.4 16.35 16.275 16.192 16.095 15.99 15.9 15.84 15.805 15.78 15.757 15.727 15.64 15.492 15.335 15.175 15.028 14.895 14.793 14.76 14.757 14.732 14.688 14.668 14.68 14.68 14.65 14.618 14.605 14.597 14.59 14.58 14.57 14.545 14.49 14.39 14.247 14.093 13.94 13.79 13.72 13.745 13.783 13.82 13.855 13.882 13.905 13.905 13.862 13.8 13.74 13.68 13.62 13.56 13.505 13.46 13.445 13.458 13.473 13.487 13.492 13.487 13.48 13.465 13.45 13.438 13.428 13.428 13.45 13.488
20.37 20.498 20.645 20.805 20.962 21.115 21.285 21.46 21.607 21.722 21.75 21.71 21.665 21.615 21.537 21.425 21.292 21.135 20.99 20.845 20.662 20.44 19.925 18.822 17.2 15.35 13.432 11.508 9.683 8.735 8.668 8.67 8.673 8.677 8.68 8.68 8.685 8.69 8.69 8.692 8.695 8.695 8.695 8.718 8.76 8.803 8.847 8.89 8.935 8.98 9.023 9.068 9.112 9.14 9.12 9.065 9.015 8.973 8.93 8.89 8.873 8.893 9.383 11.168 13.485 15.777 17.714 18.465 18.685 18.885 18.97 18.973 18.985 19.02 19.025 19.003 19.005 19.02 19.04 19.075 19.115 19.152 19.177 19.18 19.155 19.09 19.018 19.005 19.037 19.045 19.027 19.01 18.97 18.908 18.845 18.785 18.74 18.722 18.652 18.538 18.46 18.418 18.4 18.387 18.36 18.325 18.293 18.258 18.228 18.228 18.273 18.337 18.414 18.135 17.685 17.298 16.938 16.753 16.61 16.558 16.565 16.578 16.57 16.558 16.568 16.582 16.577 16.548 16.518 16.495 16.47 16.437 16.38 16.295 16.198 16.108 16.053 16.025 15.997 15.965 15.935 15.905 15.82 15.675 15.52 15.365 15.225 15.095 14.968 14.888 14.86 14.825 14.773 14.745 14.745 14.722 14.67 14.623 14.6 14.593 14.585 14.575 14.562 14.547 14.522 14.455 14.35 14.222 14.075 13.925 13.833 13.835 13.875 13.91 13.935 13.955 13.975 13.977 13.937 13.875 13.817 13.76 13.7 13.642 13.59 13.553 13.545 13.555 13.562 13.562 13.552 13.537 13.527 13.517 13.502 13.487 13.475 13.47 13.493 13.54
20.29 20.41 20.558 20.72 20.88 21.038 21.182 21.31 21.427 21.54 21.58 21.54 21.49 21.44 21.36 21.243 21.115 20.987 20.812 20.552 20.278 20.005 19.547 18.255 16.303 14.405 12.57 10.74 9.238 8.655 8.653 8.653 8.657 8.66 8.663 8.665 8.67 8.675 8.675 8.678 8.68 8.683 8.688 8.715 8.76 8.8 8.843 8.887 8.932 8.977 9.02 9.063 9.107 9.137 9.125 9.085 9.053 9.028 9.003 8.978 8.98 9.02 9.895 11.737 13.798 16.14 17.969 18.627 18.827 18.962 18.992 18.98 18.973 18.97 18.948 18.903 18.875 18.883 18.915 18.958 19.002 19.04 19.065 19.08 19.092 19.08 19.065 19.087 19.122 19.145 19.135 19.095 19.037 18.975 18.915 18.855 18.795 18.747 18.682 18.6 18.532 18.472 18.43 18.4 18.365 18.33 18.3 18.265 18.23 18.213 18.238 18.288 18.343 18.407 18.342 18.032 17.445 16.958 16.74 16.628 16.613 16.598 16.588 16.595 16.613 16.628 16.628 16.608 16.585 16.565 16.54 16.515 16.475 16.398 16.315 16.263 16.235 16.217 16.192 16.157 16.122 16.087 15.997 15.852 15.702 15.557 15.425 15.295 15.165 15.045 14.968 14.915 14.858 14.82 14.795 14.75 14.687 14.628 14.595 14.587 14.58 14.565 14.54 14.51 14.475 14.425 14.36 14.275 14.17 14.05 13.948 13.928 13.96 13.985 14.005 14.025 14.045 14.05 14.012 13.95 13.89 13.827 13.767 13.72 13.677 13.65 13.645 13.647 13.645 13.622 13.583 13.555 13.547 13.542 13.532 13.52 13.51 13.513 13.545 13.6
20.235 20.353 20.498 20.663 20.825 20.985 21.09 21.155 21.25 21.36 21.407 21.375 21.325 21.287 21.212 21.073 20.918 20.765 20.545 20.233 19.925 19.612 19.095 17.68 15.573 13.608 11.735 9.97 8.898 8.643 8.638 8.638 8.64 8.643 8.648 8.653 8.657 8.662 8.665 8.665 8.665 8.67 8.683 8.713 8.757 8.8 8.84 8.883 8.927 8.972 9.015 9.058 9.102 9.132 9.135 9.127 9.117 9.1 9.075 9.05 9.063 9.128 10.045 11.883 13.93 16.225 18.047 18.757 18.925 19.005 19.007 18.992 18.962 18.927 18.89 18.84 18.805 18.795 18.81 18.845 18.89 18.93 18.955 18.97 18.985 19.028 19.085 19.132 19.172 19.207 19.2 19.145 19.085 19.025 18.962 18.9 18.84 18.782 18.722 18.652 18.58 18.505 18.445 18.41 18.375 18.34 18.308 18.273 18.238 18.218 18.25 18.307 18.353 18.398 18.44 18.487 17.862 17.103 16.898 16.78 16.738 16.688 16.665 16.678 16.693 16.705 16.703 16.685 16.663 16.64 16.615 16.59 16.562 16.51 16.455 16.42 16.39 16.362 16.33 16.292 16.257 16.225 16.147 16.015 15.867 15.72 15.582 15.447 15.322 15.213 15.133 15.07 15 14.933 14.845 14.758 14.693 14.628 14.59 14.58 14.572 14.538 14.485 14.445 14.405 14.357 14.295 14.227 14.16 14.08 14.018 14 14.01 14.027 14.045 14.065 14.082 14.087 14.052 13.987 13.92 13.858 13.813 13.78 13.75 13.732 13.727 13.72 13.705 13.675 13.62 13.568 13.545 13.54 13.535 13.525 13.523 13.55 13.602 13.658
20.195 20.315 20.463 20.63 20.795 20.947 21.027 21.048 21.1 21.195 21.245 21.215 21.178 21.17 21.105 20.945 20.77 20.597 20.365 20.053 19.725 19.377 18.835 17.367 15.11 12.898 10.948 9.411 8.698 8.635 8.628 8.623 8.623 8.63 8.635 8.64 8.645 8.648 8.652 8.655 8.655 8.66 8.678 8.71 8.753 8.797 8.84 8.88 8.923 8.967 9.01 9.053 9.097 9.122 9.125 9.128 9.13 9.127 9.117 9.105 9.13 9.213 10.06 11.885 13.942 16.062 17.792 18.694 18.992 19.025 19.02 18.99 18.915 18.865 18.84 18.803 18.79 18.768 18.738 18.743 18.778 18.817 18.845 18.86 18.9 18.995 19.082 19.135 19.18 19.217 19.215 19.165 19.105 19.045 18.982 18.918 18.858 18.81 18.757 18.687 18.612 18.535 18.465 18.42 18.385 18.35 18.315 18.28 18.243 18.223 18.258 18.32 18.375 18.422 18.465 18.507 17.875 17.135 17.003 16.933 16.882 16.82 16.788 16.795 16.807 16.81 16.797 16.777 16.753 16.728 16.702 16.675 16.642 16.602 16.56 16.52 16.477 16.437 16.4 16.365 16.337 16.312 16.26 16.15 15.995 15.83 15.688 15.568 15.465 15.393 15.342 15.29 15.22 15.127 14.988 14.838 14.718 14.625 14.585 14.578 14.575 14.527 14.44 14.378 14.335 14.29 14.23 14.163 14.098 14.063 14.073 14.07 14.05 14.04 14.043 14.058 14.072 14.08 14.045 13.975 13.918 13.878 13.85 13.825 13.805 13.797 13.792 13.777 13.755 13.725 13.67 13.605 13.558 13.54 13.535 13.525 13.54 13.593 13.655 13.712
20.127 20.275 20.425 20.595 20.762 20.902 20.965 20.973 20.99 21.045 21.08 21.068 21.063 21.072 21.002 20.835 20.657 20.48 20.25 19.94 19.625 19.285 18.817 17.335 14.888 12.493 10.503 9.16 8.645 8.632 8.623 8.615 8.61 8.613 8.618 8.625 8.632 8.635 8.64 8.645 8.647 8.653 8.67 8.705 8.748 8.792 8.835 8.877 8.92 8.963 9.007 9.05 9.092 9.12 9.127 9.13 9.133 9.138 9.14 9.143 9.178 9.258 10.03 11.695 13.675 15.404 16.622 17.627 18.467 18.932 19.012 18.932 18.833 18.803 18.795 18.783 18.787 18.76 18.713 18.68 18.678 18.705 18.735 18.775 18.865 18.985 19.075 19.13 19.177 19.215 19.212 19.172 19.117 19.055 18.995 18.935 18.883 18.842 18.79 18.72 18.645 18.565 18.488 18.433 18.395 18.36 18.325 18.288 18.248 18.23 18.265 18.33 18.392 18.445 18.49 18.227 17.58 17.175 17.128 17.085 17.015 16.948 16.913 16.915 16.92 16.91 16.892 16.872 16.847 16.817 16.785 16.75 16.71 16.665 16.62 16.58 16.535 16.495 16.457 16.425 16.407 16.39 16.36 16.262 16.09 15.913 15.788 15.705 15.64 15.593 15.548 15.502 15.45 15.362 15.215 15.038 14.863 14.715 14.625 14.59 14.585 14.545 14.445 14.345 14.275 14.223 14.165 14.11 14.09 14.123 14.165 14.16 14.125 14.09 14.07 14.058 14.055 14.06 14.03 13.975 13.94 13.915 13.89 13.868 13.857 13.857 13.847 13.827 13.802 13.772 13.722 13.658 13.593 13.548 13.533 13.538 13.58 13.645 13.708 13.76
19.992 20.2 20.38 20.555 20.725 20.852 20.9 20.905 20.907 20.92 20.933 20.945 20.962 20.975 20.895 20.722 20.545 20.365 20.142 19.88 19.64 19.293 18.865 17.422 14.85 12.365 10.245 8.968 8.64 8.628 8.618 8.61 8.6 8.595 8.598 8.605 8.612 8.617 8.625 8.632 8.637 8.643 8.663 8.7 8.743 8.787 8.83 8.873 8.915 8.958 9.002 9.045 9.082 9.11 9.13 9.145 9.157 9.165 9.167 9.175 9.213 9.28 10.013 11.442 12.865 13.927 14.73 15.675 16.955 18.31 18.88 18.803 18.738 18.745 18.757 18.77 18.777 18.747 18.705 18.66 18.62 18.61 18.65 18.743 18.86 18.977 19.06 19.107 19.152 19.192 19.2 19.172 19.125 19.065 19.01 18.963 18.92 18.883 18.825 18.748 18.673 18.595 18.515 18.45 18.405 18.37 18.335 18.295 18.253 18.238 18.275 18.34 18.405 18.462 18.512 17.955 17.363 17.348 17.32 17.247 17.158 17.08 17.038 17.03 17.022 17.005 16.985 16.96 16.927 16.89 16.85 16.81 16.77 16.725 16.68 16.64 16.597 16.552 16.5 16.45 16.417 16.397 16.382 16.31 16.145 15.975 15.873 15.84 15.83 15.797 15.753 15.708 15.662 15.59 15.452 15.277 15.103 14.933 14.79 14.703 14.653 14.585 14.478 14.36 14.255 14.17 14.123 14.123 14.17 14.242 14.265 14.232 14.197 14.162 14.13 14.097 14.07 14.05 14.025 14 13.98 13.955 13.93 13.912 13.9 13.887 13.872 13.857 13.84 13.817 13.775 13.71 13.642 13.58 13.548 13.573 13.635 13.703 13.77 13.817
19.815 20.055 20.265 20.45 20.627 20.75 20.785 20.785 20.782 20.782 20.792 20.81 20.832 20.837 20.765 20.612 20.435 20.257 20.07 19.892 19.73 19.44 19.049 17.544 14.898 12.333 9.973 8.746 8.635 8.628 8.618 8.605 8.595 8.588 8.583 8.585 8.59 8.595 8.605 8.612 8.618 8.63 8.66 8.7 8.74 8.782 8.825 8.868 8.91 8.953 8.995 9.035 9.06 9.077 9.105 9.13 9.152 9.17 9.185 9.205 9.24 9.288 9.823 10.815 11.522 12.125 12.875 13.826 15.383 17.427 18.595 18.675 18.65 18.665 18.69 18.7 18.68 18.637 18.597 18.557 18.525 18.533 18.61 18.73 18.845 18.945 19.005 19.037 19.075 19.115 19.14 19.137 19.117 19.085 19.053 19.028 19.003 18.975 18.898 18.788 18.7 18.623 18.545 18.47 18.415 18.38 18.345 18.302 18.258 18.245 18.285 18.347 18.412 18.475 18.485 18.018 17.59 17.587 17.512 17.41 17.315 17.228 17.16 17.128 17.107 17.085 17.065 17.035 16.993 16.95 16.91 16.87 16.83 16.785 16.74 16.7 16.657 16.602 16.535 16.47 16.413 16.363 16.333 16.297 16.175 16.028 15.97 16 16.03 16.002 15.958 15.912 15.86 15.777 15.652 15.502 15.345 15.185 15.038 14.925 14.828 14.718 14.598 14.475 14.355 14.24 14.21 14.273 14.35 14.4 14.355 14.268 14.22 14.185 14.15 14.12 14.08 14.027 13.995 13.985 13.972 13.955 13.942 13.932 13.912 13.888 13.873 13.865 13.855 13.845 13.807 13.74 13.675 13.62 13.598 13.638 13.71 13.78 13.842 13.887
19.63 19.877 20.09 20.275 20.45 20.577 20.615 20.61 20.61 20.62 20.635 20.653 20.667 20.642 20.597 20.5 20.33 20.16 20.012 19.88 19.747 19.442 18.904 17.38 14.94 12.468 9.931 8.646 8.635 8.63 8.622 8.608 8.595 8.585 8.575 8.57 8.57 8.575 8.585 8.593 8.603 8.623 8.655 8.695 8.735 8.775 8.818 8.862 8.905 8.947 8.987 9.017 9.02 9.025 9.055 9.08 9.105 9.13 9.16 9.2 9.232 9.265 9.448 9.77 10.005 10.386 11.273 12.751 14.778 17.042 18.392 18.6 18.58 18.575 18.577 18.552 18.497 18.438 18.393 18.385 18.42 18.488 18.59 18.7 18.795 18.875 18.92 18.943 18.973 19.008 19.04 19.057 19.07 19.107 19.145 19.15 19.14 19.115 19.01 18.865 18.755 18.658 18.573 18.495 18.43 18.39 18.352 18.308 18.263 18.253 18.295 18.355 18.417 18.455 18.377 18.085 17.853 17.78 17.677 17.575 17.478 17.385 17.298 17.225 17.183 17.16 17.137 17.105 17.06 17.013 16.97 16.93 16.89 16.845 16.8 16.76 16.71 16.645 16.578 16.513 16.445 16.375 16.318 16.275 16.188 16.108 16.125 16.19 16.227 16.207 16.162 16.115 16.04 15.925 15.8 15.677 15.55 15.415 15.277 15.157 15.045 14.925 14.802 14.678 14.555 14.445 14.435 14.512 14.56 14.547 14.447 14.305 14.215 14.173 14.14 14.105 14.045 13.973 13.935 13.925 13.918 13.913 13.915 13.92 13.91 13.885 13.87 13.865 13.858 13.855 13.82 13.75 13.698 13.67 13.665 13.715 13.795 13.865 13.917 13.955
19.417 19.692 19.91 20.082 20.245 20.382 20.437 20.435 20.443 20.46 20.477 20.495 20.477 20.42 20.392 20.357 20.232 20.073 19.935 19.81 19.695 19.307 18.53 17.145 15.072 12.683 10.098 8.706 8.638 8.632 8.625 8.61 8.595 8.585 8.575 8.563 8.553 8.555 8.565 8.578 8.598 8.62 8.65 8.69 8.73 8.77 8.813 8.855 8.895 8.937 8.977 8.992 8.975 8.97 8.995 9.02 9.045 9.078 9.12 9.17 9.205 9.232 9.258 9.275 9.295 9.431 10.451 12.51 14.815 17.102 18.382 18.5 18.477 18.465 18.437 18.382 18.315 18.25 18.23 18.283 18.37 18.463 18.558 18.642 18.717 18.792 18.84 18.86 18.885 18.913 18.94 18.965 19.003 19.092 19.197 19.27 19.295 19.255 19.127 18.968 18.843 18.728 18.623 18.53 18.45 18.398 18.357 18.312 18.265 18.255 18.302 18.355 18.38 18.365 18.24 18.11 18.035 17.937 17.84 17.74 17.64 17.545 17.452 17.358 17.283 17.24 17.21 17.172 17.127 17.08 17.033 16.99 16.948 16.903 16.86 16.815 16.755 16.688 16.623 16.555 16.485 16.415 16.348 16.285 16.233 16.243 16.31 16.382 16.425 16.41 16.367 16.3 16.19 16.063 15.94 15.83 15.72 15.6 15.477 15.36 15.25 15.132 15.007 14.888 14.77 14.678 14.68 14.722 14.707 14.662 14.555 14.385 14.238 14.16 14.125 14.07 13.985 13.908 13.878 13.873 13.87 13.87 13.875 13.892 13.9 13.883 13.87 13.868 13.865 13.865 13.83 13.778 13.755 13.748 13.743 13.785 13.87 13.94 13.99 14.038
19.175 19.46 19.68 19.865 20.035 20.187 20.262 20.27 20.283 20.3 20.32 20.315 20.255 20.188 20.178 20.2 20.142 20.003 19.87 19.758 19.655 19.27 18.437 17.197 15.385 13.083 10.576 8.966 8.63 8.627 8.62 8.607 8.595 8.585 8.575 8.563 8.55 8.548 8.558 8.575 8.598 8.62 8.648 8.685 8.725 8.765 8.808 8.848 8.885 8.922 8.96 8.967 8.938 8.92 8.935 8.96 8.993 9.04 9.09 9.148 9.185 9.198 9.21 9.225 9.253 9.293 10.421 12.718 15.063 17.255 18.319 18.34 18.337 18.32 18.272 18.212 18.145 18.088 18.108 18.195 18.3 18.438 18.545 18.593 18.64 18.71 18.76 18.78 18.802 18.825 18.843 18.88 18.95 19.05 19.165 19.272 19.365 19.372 19.242 19.075 18.94 18.82 18.705 18.593 18.49 18.413 18.363 18.315 18.268 18.26 18.292 18.305 18.28 18.24 18.173 18.16 18.147 18.05 17.95 17.85 17.75 17.655 17.565 17.48 17.4 17.33 17.283 17.24 17.193 17.148 17.1 17.053 17.008 16.963 16.918 16.863 16.798 16.735 16.673 16.608 16.543 16.478 16.415 16.358 16.338 16.398 16.492 16.575 16.625 16.612 16.555 16.452 16.323 16.2 16.093 15.997 15.887 15.763 15.64 15.53 15.43 15.32 15.205 15.097 14.987 14.905 14.885 14.867 14.822 14.775 14.66 14.485 14.31 14.175 14.095 14.015 13.925 13.853 13.825 13.825 13.825 13.825 13.833 13.855 13.875 13.877 13.875 13.875 13.875 13.875 13.858 13.84 13.835 13.83 13.825 13.86 13.948 14.03 14.093 14.153
18.917 19.16 19.367 19.572 19.765 19.942 20.065 20.11 20.127 20.143 20.163 20.188 20.155 20.095 20.105 20.138 20.092 19.968 19.84 19.735 19.63 19.31 18.647 17.66 16.05 13.863 11.485 9.433 8.603 8.61 8.597 8.585 8.575 8.578 8.582 8.575 8.565 8.57 8.603 8.638 8.658 8.673 8.688 8.713 8.748 8.785 8.818 8.845 8.875 8.905 8.94 8.94 8.9 8.87 8.875 8.913 8.973 9.048 9.123 9.185 9.205 9.2 9.2 9.203 9.233 9.403 10.778 13.225 15.582 17.447 18.175 18.19 18.205 18.167 18.098 18.042 17.98 17.94 17.98 18.095 18.253 18.44 18.572 18.605 18.618 18.65 18.677 18.692 18.71 18.727 18.743 18.793 18.87 18.957 19.057 19.142 19.257 19.367 19.325 19.182 19.045 18.915 18.795 18.675 18.565 18.483 18.418 18.353 18.29 18.263 18.263 18.248 18.22 18.195 18.218 18.24 18.185 18.087 17.985 17.885 17.785 17.692 17.612 17.537 17.465 17.403 17.358 17.32 17.278 17.233 17.185 17.138 17.093 17.045 16.99 16.928 16.865 16.805 16.745 16.685 16.625 16.565 16.505 16.46 16.46 16.538 16.655 16.757 16.822 16.807 16.715 16.587 16.46 16.353 16.267 16.172 16.052 15.925 15.8 15.69 15.59 15.482 15.37 15.265 15.167 15.09 15.033 14.983 14.937 14.882 14.76 14.585 14.41 14.245 14.128 14.04 13.948 13.855 13.795 13.78 13.78 13.78 13.79 13.815 13.842 13.865 13.877 13.88 13.88 13.88 13.892 13.902 13.897 13.892 13.898 13.95 14.045 14.145 14.227 14.29
18.617 18.82 19.015 19.218 19.42 19.617 19.8 19.922 19.97 19.988 20.018 20.117 20.182 20.155 20.162 20.155 20.072 19.952 19.83 19.722 19.61 19.345 18.855 18.18 16.892 14.91 12.668 10.338 8.851 8.553 8.56 8.545 8.548 8.575 8.597 8.595 8.595 8.62 8.675 8.737 8.772 8.782 8.783 8.785 8.808 8.842 8.86 8.868 8.885 8.91 8.935 8.922 8.878 8.855 8.88 8.948 9.038 9.135 9.232 9.277 9.26 9.245 9.24 9.228 9.255 9.816 11.473 13.828 16.272 17.784 18.07 18.072 18.065 18 17.923 17.868 17.81 17.8 17.893 18.065 18.265 18.465 18.61 18.655 18.65 18.625 18.6 18.598 18.608 18.623 18.643 18.692 18.742 18.797 18.837 18.86 18.993 19.207 19.265 19.155 19.045 18.965 18.872 18.75 18.66 18.6 18.53 18.453 18.38 18.33 18.308 18.295 18.283 18.273 18.292 18.272 18.185 18.092 17.995 17.895 17.798 17.71 17.635 17.565 17.503 17.46 17.43 17.402 17.372 17.335 17.292 17.247 17.2 17.147 17.083 17.015 16.955 16.895 16.835 16.775 16.715 16.655 16.605 16.578 16.588 16.673 16.8 16.917 17.002 16.977 16.855 16.723 16.613 16.533 16.452 16.342 16.215 16.088 15.963 15.853 15.747 15.63 15.508 15.398 15.32 15.26 15.188 15.113 15.055 14.99 14.86 14.688 14.518 14.353 14.235 14.145 14.035 13.913 13.813 13.758 13.74 13.74 13.75 13.775 13.808 13.84 13.862 13.875 13.88 13.88 13.907 13.94 13.942 13.938 13.97 14.058 14.16 14.262 14.357 14.43
18.272 18.467 18.665 18.865 19.063 19.26 19.465 19.655 19.78 19.83 19.883 20.017 20.167 20.212 20.2 20.147 20.045 19.932 19.815 19.702 19.587 19.327 18.85 18.292 17.482 16.01 13.975 11.67 9.513 8.533 8.503 8.518 8.545 8.587 8.617 8.625 8.643 8.68 8.735 8.81 8.872 8.892 8.887 8.88 8.883 8.905 8.917 8.915 8.92 8.94 8.95 8.93 8.918 8.943 8.998 9.073 9.163 9.26 9.342 9.357 9.32 9.295 9.285 9.273 9.578 10.758 12.583 14.66 16.872 17.974 17.975 17.957 17.91 17.82 17.745 17.692 17.64 17.703 17.888 18.088 18.29 18.49 18.647 18.697 18.662 18.595 18.54 18.52 18.513 18.52 18.547 18.582 18.6 18.627 18.615 18.605 18.763 19.015 19.09 19.005 18.96 18.955 18.915 18.83 18.77 18.722 18.655 18.583 18.523 18.473 18.44 18.422 18.41 18.387 18.345 18.275 18.185 18.095 18.002 17.905 17.813 17.733 17.663 17.608 17.568 17.533 17.503 17.478 17.452 17.425 17.392 17.355 17.31 17.252 17.18 17.108 17.045 16.985 16.925 16.865 16.805 16.753 16.72 16.7 16.715 16.808 16.935 17.045 17.107 17.075 16.975 16.873 16.793 16.725 16.63 16.505 16.378 16.253 16.128 16.013 15.898 15.773 15.65 15.553 15.493 15.445 15.372 15.28 15.2 15.107 14.965 14.798 14.633 14.468 14.34 14.235 14.11 13.98 13.868 13.78 13.718 13.695 13.708 13.738 13.775 13.81 13.835 13.855 13.87 13.878 13.91 13.965 13.987 14.003 14.07 14.173 14.275 14.378 14.48 14.54
17.907 18.113 18.32 18.515 18.705 18.9 19.105 19.315 19.507 19.64 19.748 19.903 20.087 20.215 20.212 20.12 20.015 19.907 19.795 19.68 19.562 19.31 18.832 18.258 17.67 16.744 15.087 12.85 10.393 8.791 8.465 8.518 8.56 8.603 8.643 8.675 8.713 8.758 8.82 8.905 8.977 9 8.993 8.985 8.978 8.98 8.98 8.973 8.97 8.978 8.99 9.005 9.045 9.105 9.165 9.228 9.3 9.385 9.437 9.422 9.38 9.347 9.328 9.503 10.388 12.01 13.832 15.73 17.32 17.9 17.87 17.827 17.75 17.645 17.562 17.505 17.495 17.673 17.927 18.123 18.32 18.52 18.677 18.705 18.632 18.548 18.49 18.465 18.443 18.43 18.443 18.46 18.47 18.488 18.51 18.573 18.708 18.875 18.937 18.91 18.91 18.917 18.912 18.907 18.89 18.845 18.785 18.722 18.67 18.62 18.577 18.54 18.505 18.46 18.38 18.285 18.195 18.103 18.01 17.92 17.838 17.768 17.713 17.673 17.64 17.608 17.577 17.552 17.527 17.5 17.472 17.445 17.41 17.355 17.28 17.203 17.135 17.075 17.015 16.955 16.898 16.86 16.84 16.82 16.843 16.94 17.055 17.12 17.127 17.097 17.055 17.025 16.985 16.907 16.795 16.667 16.542 16.415 16.287 16.172 16.063 15.945 15.83 15.74 15.68 15.627 15.555 15.46 15.36 15.242 15.093 14.925 14.755 14.585 14.445 14.328 14.203 14.07 13.948 13.848 13.75 13.675 13.668 13.705 13.748 13.782 13.805 13.825 13.845 13.868 13.913 13.978 14.033 14.098 14.193 14.298 14.4 14.505 14.612 14.642
17.515 17.778 18.037 18.225 18.405 18.59 18.788 18.995 19.203 19.392 19.575 19.76 19.94 20.102 20.145 20.06 19.952 19.847 19.742 19.635 19.525 19.295 18.83 18.25 17.67 17.027 15.707 13.605 11.085 9.065 8.468 8.535 8.585 8.625 8.7 8.785 8.84 8.89 8.96 9.05 9.105 9.11 9.1 9.09 9.083 9.075 9.065 9.058 9.053 9.055 9.085 9.14 9.202 9.265 9.332 9.4 9.465 9.537 9.54 9.468 9.408 9.37 9.588 10.373 11.7 13.285 14.978 16.71 17.697 17.81 17.765 17.652 17.447 17.295 17.272 17.28 17.375 17.677 17.975 18.17 18.365 18.547 18.667 18.667 18.59 18.505 18.445 18.42 18.395 18.37 18.365 18.378 18.395 18.415 18.478 18.587 18.702 18.785 18.82 18.832 18.835 18.837 18.852 18.892 18.922 18.927 18.902 18.845 18.785 18.727 18.67 18.61 18.552 18.497 18.415 18.31 18.215 18.123 18.03 17.958 17.893 17.825 17.78 17.747 17.713 17.68 17.645 17.612 17.585 17.555 17.53 17.505 17.475 17.432 17.372 17.3 17.228 17.165 17.105 17.045 17 16.978 16.96 16.94 16.968 17.06 17.132 17.142 17.128 17.105 17.097 17.12 17.125 17.057 16.932 16.8 16.667 16.532 16.407 16.322 16.25 16.15 16.043 15.945 15.875 15.82 15.735 15.62 15.505 15.387 15.24 15.068 14.893 14.72 14.573 14.45 14.327 14.185 14.05 13.945 13.84 13.745 13.708 13.713 13.73 13.755 13.778 13.803 13.833 13.875 13.933 14 14.095 14.215 14.33 14.44 14.545 14.65 14.76 14.772
17.15 17.505 17.807 17.99 18.162 18.333 18.52 18.723 18.925 19.118 19.335 19.562 19.755 19.912 19.98 19.945 19.857 19.753 19.65 19.55 19.47 19.342 18.972 18.41 17.835 17.252 16.002 13.93 11.263 9.076 8.478 8.555 8.613 8.68 8.813 8.94 9.007 9.06 9.132 9.202 9.222 9.217 9.21 9.2 9.19 9.178 9.168 9.163 9.163 9.178 9.218 9.275 9.34 9.41 9.493 9.58 9.652 9.72 9.692 9.568 9.438 9.653 10.541 11.88 13.348 14.8 16.29 17.454 17.81 17.712 17.54 17.24 16.885 16.74 16.85 17.02 17.275 17.678 18.015 18.212 18.385 18.527 18.612 18.61 18.545 18.463 18.408 18.382 18.358 18.333 18.328 18.345 18.365 18.385 18.45 18.562 18.65 18.682 18.7 18.72 18.727 18.733 18.753 18.795 18.85 18.912 18.942 18.91 18.847 18.782 18.715 18.65 18.59 18.532 18.452 18.345 18.243 18.148 18.06 18.005 17.96 17.898 17.85 17.82 17.787 17.75 17.705 17.66 17.625 17.595 17.568 17.54 17.51 17.477 17.437 17.385 17.32 17.255 17.195 17.145 17.118 17.1 17.08 17.06 17.092 17.14 17.145 17.145 17.135 17.115 17.113 17.135 17.155 17.115 17.01 16.88 16.74 16.6 16.49 16.437 16.402 16.342 16.255 16.153 16.075 16.01 15.905 15.775 15.65 15.532 15.387 15.213 15.04 14.87 14.72 14.592 14.457 14.303 14.163 14.055 13.96 13.885 13.838 13.808 13.775 13.75 13.763 13.803 13.853 13.91 13.975 14.055 14.178 14.337 14.477 14.587 14.693 14.8 14.907 14.902
16.868 17.277 17.572 17.747 17.915 18.078 18.26 18.457 18.652 18.84 19.06 19.32 19.552 19.717 19.785 19.782 19.742 19.655 19.553 19.475 19.438 19.392 19.205 18.747 18.135 17.497 16.257 14.077 11.19 9.011 8.488 8.57 8.635 8.768 8.96 9.087 9.165 9.227 9.295 9.335 9.33 9.323 9.317 9.307 9.295 9.283 9.273 9.275 9.29 9.313 9.35 9.405 9.475 9.558 9.648 9.745 9.835 9.912 9.885 9.743 9.911 10.823 12.218 13.673 15.125 16.487 17.442 17.769 17.575 17.222 16.877 16.48 16.293 16.415 16.653 16.96 17.345 17.748 18.045 18.22 18.355 18.475 18.55 18.542 18.49 18.423 18.373 18.348 18.323 18.298 18.295 18.315 18.338 18.36 18.425 18.512 18.545 18.548 18.565 18.592 18.615 18.625 18.648 18.7 18.768 18.842 18.905 18.917 18.882 18.825 18.758 18.693 18.63 18.57 18.49 18.385 18.278 18.175 18.093 18.045 18.012 17.965 17.92 17.89 17.86 17.82 17.768 17.715 17.668 17.633 17.605 17.575 17.545 17.513 17.475 17.437 17.392 17.337 17.29 17.26 17.24 17.22 17.2 17.18 17.175 17.15 17.125 17.137 17.14 17.125 17.113 17.12 17.122 17.087 17.02 16.927 16.802 16.66 16.568 16.533 16.51 16.482 16.435 16.355 16.275 16.187 16.065 15.935 15.805 15.68 15.532 15.36 15.19 15.02 14.868 14.727 14.575 14.415 14.275 14.173 14.098 14.035 13.98 13.925 13.853 13.783 13.775 13.825 13.885 13.95 14.03 14.128 14.263 14.44 14.61 14.735 14.84 14.95 15.047 15.025
16.638 17.052 17.332 17.497 17.66 17.82 17.995 18.185 18.372 18.558 18.778 19.045 19.312 19.51 19.585 19.59 19.585 19.545 19.485 19.45 19.435 19.39 19.302 19.057 18.522 17.767 16.499 14.197 11.358 9.366 8.763 8.768 8.765 8.903 9.117 9.23 9.313 9.39 9.44 9.45 9.44 9.43 9.423 9.413 9.4 9.39 9.388 9.403 9.428 9.45 9.483 9.54 9.62 9.71 9.803 9.9 10 10.095 10.1 10.331 11.263 12.685 14.177 15.63 16.847 17.604 17.694 17.32 16.745 16.225 15.943 15.778 15.96 16.378 16.753 17.135 17.558 17.922 18.147 18.265 18.353 18.44 18.49 18.473 18.433 18.388 18.348 18.325 18.303 18.278 18.275 18.295 18.315 18.335 18.378 18.415 18.425 18.433 18.445 18.468 18.493 18.51 18.548 18.618 18.695 18.775 18.852 18.892 18.887 18.857 18.802 18.735 18.67 18.608 18.527 18.425 18.315 18.208 18.13 18.093 18.068 18.035 17.998 17.965 17.932 17.887 17.833 17.778 17.723 17.678 17.645 17.618 17.59 17.553 17.51 17.473 17.437 17.397 17.36 17.335 17.312 17.29 17.27 17.242 17.185 17.125 17.11 17.123 17.132 17.13 17.12 17.115 17.095 17.048 16.99 16.927 16.845 16.73 16.653 16.63 16.607 16.582 16.56 16.52 16.447 16.337 16.202 16.067 15.932 15.802 15.66 15.495 15.327 15.16 15.007 14.858 14.693 14.528 14.393 14.305 14.24 14.177 14.107 14.023 13.933 13.855 13.838 13.875 13.925 14.003 14.1 14.205 14.348 14.53 14.717 14.872 14.99 15.1 15.18 15.14
16.467 16.837 17.06 17.21 17.37 17.532 17.707 17.892 18.077 18.265 18.488 18.758 19.04 19.272 19.395 19.435 19.45 19.45 19.442 19.437 19.432 19.387 19.297 19.187 18.84 17.92 16.455 14.218 11.895 10.263 9.443 9.288 9.205 9.23 9.318 9.395 9.488 9.577 9.617 9.608 9.595 9.573 9.553 9.545 9.538 9.533 9.54 9.56 9.583 9.605 9.633 9.685 9.767 9.862 9.957 10.055 10.155 10.255 10.56 11.57 13.097 14.615 16.122 17.264 17.662 17.477 16.937 16.23 15.545 15.268 15.308 15.435 15.845 16.483 17.02 17.418 17.837 18.145 18.287 18.357 18.407 18.458 18.48 18.455 18.42 18.388 18.358 18.335 18.315 18.288 18.28 18.3 18.315 18.33 18.35 18.368 18.383 18.393 18.395 18.405 18.423 18.44 18.48 18.55 18.63 18.708 18.797 18.865 18.88 18.88 18.86 18.803 18.73 18.66 18.583 18.49 18.39 18.29 18.223 18.195 18.173 18.132 18.08 18.04 18.002 17.952 17.898 17.845 17.798 17.755 17.72 17.695 17.662 17.61 17.555 17.51 17.475 17.437 17.393 17.358 17.332 17.307 17.285 17.242 17.173 17.12 17.11 17.12 17.13 17.135 17.13 17.115 17.085 17.035 16.973 16.91 16.852 16.787 16.743 16.722 16.697 16.672 16.65 16.617 16.545 16.425 16.285 16.145 16.007 15.885 15.757 15.605 15.442 15.278 15.14 15.012 14.853 14.68 14.54 14.445 14.375 14.31 14.227 14.133 14.04 13.958 13.935 13.96 13.998 14.078 14.18 14.285 14.43 14.618 14.81 14.99 15.135 15.247 15.31 15.257
16.305 16.587 16.77 16.903 17.05 17.22 17.403 17.588 17.775 17.963 18.19 18.47 18.755 19.002 19.165 19.257 19.325 19.367 19.382 19.39 19.395 19.357 19.272 19.167 18.96 18.05 16.43 14.365 12.483 11.1 10.195 9.928 9.82 9.733 9.645 9.628 9.7 9.792 9.83 9.817 9.79 9.74 9.71 9.707 9.703 9.708 9.725 9.745 9.763 9.78 9.808 9.848 9.905 9.99 10.087 10.19 10.3 10.405 11.1 12.62 14.347 15.954 17.191 17.531 17.077 16.387 15.635 15.043 14.753 14.833 15.065 15.423 16.138 16.917 17.427 17.805 18.142 18.295 18.35 18.407 18.457 18.502 18.515 18.485 18.45 18.42 18.392 18.368 18.342 18.313 18.303 18.32 18.337 18.355 18.375 18.395 18.405 18.402 18.398 18.4 18.41 18.425 18.45 18.495 18.565 18.643 18.745 18.845 18.88 18.892 18.907 18.89 18.83 18.753 18.678 18.6 18.515 18.425 18.368 18.342 18.305 18.24 18.168 18.115 18.07 18.023 17.975 17.933 17.895 17.86 17.83 17.797 17.747 17.683 17.618 17.558 17.513 17.47 17.42 17.378 17.348 17.322 17.29 17.235 17.175 17.135 17.123 17.128 17.137 17.142 17.132 17.11 17.08 17.04 16.98 16.915 16.858 16.823 16.81 16.795 16.777 16.755 16.725 16.672 16.587 16.472 16.335 16.195 16.068 15.96 15.84 15.697 15.545 15.393 15.273 15.172 15.04 14.875 14.725 14.608 14.515 14.44 14.352 14.25 14.153 14.065 14.038 14.063 14.093 14.163 14.265 14.375 14.523 14.708 14.9 15.09 15.265 15.395 15.442 15.382
