ncols         200
nrows         71
xllcorner     548000
yllcorner     259240
cellsize      5
NODATA_value  -9999.0
12.265 12.335 12.453 12.605 12.77 12.917 13.032 13.13 13.227 13.317 13.347 13.295 13.24 13.245 13.283 13.32 13.358 13.395 13.43 13.455 13.478 13.503 13.538 13.585 13.635 13.685 13.735 13.777 13.805 13.828 13.86 13.895 13.928 13.975 14.042 14.072 14.058 14.055 14.08 14.12 14.16 14.2 14.24 14.27 14.292 14.31 14.312 14.305 14.297 14.292 14.26 14.197 14.132 14.07 14.007 13.958 13.925 13.9 13.885 13.878 13.873 13.868 13.87 13.89 13.92 13.955 13.993 14.025 14.055 14.087 14.095 14.065 14.025 13.985 13.985 14.03 14.082 14.135 14.152 14.132 14.11 14.085 14.057 14.03 14.002 13.983 13.995 14.025 14.05 14.078 14.103 14.127 14.147 14.162 14.157 14.122 14.077 14.05 14.035 14.018 14.003 13.998 14.003 14.007 14.005 13.97 13.917 13.875 13.832 13.797 13.777 13.772 13.775 13.772 13.767 13.762 13.76 13.767 13.785 13.807 13.83 13.855 13.882 13.91 13.935 13.96 14.015 14.123 14.282 14.24 13.57 13.558 14.237 14.51 14.747 14.975 15.182 15.255 15.145 14.97 14.782 14.6 14.425 14.318 14.312 14.272 14.163 14.06 14.003 13.985 13.955 13.918 13.883 13.85 13.825 13.807 13.792 13.765 13.637 13.355 13.005 12.793 12.975 13.272 13.372 13.44 13.52 13.575 13.607 13.627 13.64 13.647 13.652 13.652 13.65 13.637 13.62 13.622 13.65 13.69 13.71 13.707 13.692 13.67 13.66 13.66 13.655 13.64 13.62 13.605 13.61 13.62 13.62 13.617 13.597 13.578 13.595 13.647 13.725 13.815
12.33 12.378 12.485 12.645 12.81 12.955 13.067 13.165 13.255 13.32 13.317 13.258 13.248 13.295 13.333 13.365 13.4 13.433 13.465 13.493 13.52 13.55 13.583 13.623 13.67 13.72 13.773 13.832 13.875 13.898 13.928 13.963 14.008 14.073 14.145 14.165 14.138 14.13 14.155 14.195 14.235 14.275 14.302 14.322 14.34 14.345 14.345 14.342 14.34 14.332 14.305 14.252 14.185 14.12 14.055 14 13.965 13.948 13.945 13.94 13.935 13.933 13.95 13.99 14.028 14.063 14.092 14.105 14.115 14.137 14.142 14.12 14.09 14.058 14.065 14.11 14.145 14.177 14.192 14.177 14.152 14.125 14.095 14.065 14.038 14.028 14.065 14.115 14.143 14.17 14.195 14.22 14.245 14.257 14.242 14.2 14.152 14.115 14.09 14.075 14.06 14.05 14.053 14.055 14.06 14.052 14.017 13.97 13.917 13.87 13.852 13.857 13.862 13.865 13.865 13.865 13.865 13.87 13.882 13.897 13.91 13.925 13.95 13.977 14.003 14.028 14.073 14.193 14.385 13.975 13.625 14.032 14.422 14.685 14.9 15.105 15.287 15.407 15.415 15.332 15.222 15.062 14.865 14.688 14.603 14.55 14.448 14.333 14.24 14.195 14.173 14.15 14.09 13.995 13.957 13.957 13.942 13.912 13.782 13.508 13.165 12.99 13.16 13.377 13.482 13.585 13.64 13.66 13.68 13.698 13.71 13.72 13.73 13.74 13.752 13.75 13.737 13.732 13.722 13.708 13.698 13.693 13.675 13.648 13.635 13.638 13.645 13.653 13.657 13.657 13.655 13.655 13.655 13.655 13.65 13.66 13.69 13.735 13.81 13.902
12.408 12.463 12.553 12.69 12.85 12.992 13.102 13.19 13.252 13.285 13.263 13.235 13.278 13.35 13.395 13.42 13.45 13.48 13.51 13.54 13.57 13.6 13.63 13.663 13.705 13.755 13.813 13.887 13.945 13.973 14.003 14.045 14.105 14.175 14.242 14.252 14.213 14.203 14.23 14.27 14.305 14.33 14.337 14.345 14.352 14.345 14.338 14.335 14.335 14.322 14.302 14.275 14.222 14.16 14.098 14.048 14.03 14.035 14.04 14.035 14.03 14.033 14.06 14.107 14.15 14.187 14.2 14.185 14.173 14.17 14.165 14.15 14.132 14.112 14.115 14.142 14.162 14.177 14.19 14.192 14.175 14.145 14.118 14.09 14.073 14.078 14.125 14.195 14.237 14.263 14.287 14.31 14.32 14.312 14.282 14.235 14.195 14.17 14.15 14.135 14.12 14.108 14.105 14.105 14.102 14.092 14.065 14.02 13.965 13.913 13.895 13.902 13.908 13.912 13.917 13.922 13.927 13.937 13.952 13.965 13.978 13.995 14.018 14.043 14.07 14.093 14.14 14.29 14.462 13.89 13.681 14.285 14.575 14.782 14.98 15.155 15.277 15.355 15.392 15.405 15.402 15.347 15.252 15.112 14.953 14.858 14.767 14.645 14.533 14.475 14.447 14.38 14.252 14.098 14.053 14.087 14.087 14.072 14.042 13.922 13.655 13.48 13.463 13.473 13.57 13.702 13.765 13.775 13.785 13.79 13.798 13.813 13.828 13.84 13.852 13.842 13.823 13.81 13.785 13.755 13.73 13.713 13.695 13.678 13.665 13.665 13.678 13.692 13.697 13.68 13.67 13.677 13.68 13.683 13.692 13.715 13.74 13.778 13.848 13.935
12.495 12.555 12.638 12.753 12.893 13.03 13.127 13.185 13.217 13.24 13.233 13.25 13.325 13.402 13.455 13.48 13.503 13.53 13.56 13.59 13.62 13.65 13.68 13.71 13.745 13.79 13.855 13.937 14.007 14.047 14.083 14.138 14.205 14.275 14.335 14.337 14.293 14.28 14.31 14.34 14.355 14.36 14.36 14.36 14.355 14.345 14.335 14.33 14.322 14.303 14.285 14.27 14.242 14.197 14.143 14.113 14.12 14.137 14.142 14.138 14.135 14.14 14.17 14.22 14.267 14.3 14.295 14.265 14.237 14.212 14.19 14.17 14.155 14.143 14.14 14.153 14.168 14.18 14.185 14.19 14.19 14.17 14.143 14.123 14.12 14.133 14.18 14.26 14.322 14.357 14.375 14.38 14.37 14.35 14.32 14.28 14.25 14.23 14.21 14.195 14.18 14.165 14.152 14.14 14.125 14.105 14.082 14.05 14.007 13.96 13.938 13.945 13.952 13.957 13.962 13.968 13.975 13.99 14.01 14.028 14.043 14.063 14.085 14.105 14.125 14.14 14.21 14.392 14.35 13.945 14.008 14.457 14.677 14.857 15.027 15.137 15.217 15.285 15.327 15.345 15.357 15.372 15.385 15.35 15.265 15.185 15.09 14.972 14.857 14.757 14.652 14.505 14.335 14.175 14.128 14.18 14.215 14.217 14.2 14.167 14.047 13.925 13.852 13.768 13.753 13.835 13.9 13.907 13.907 13.903 13.905 13.918 13.932 13.945 13.955 13.94 13.91 13.89 13.865 13.835 13.808 13.785 13.77 13.755 13.735 13.725 13.732 13.737 13.72 13.69 13.68 13.69 13.7 13.708 13.723 13.75 13.777 13.82 13.89 13.97
12.587 12.645 12.73 12.838 12.952 13.057 13.12 13.15 13.175 13.205 13.238 13.295 13.373 13.448 13.507 13.543 13.573 13.603 13.63 13.658 13.683 13.708 13.733 13.76 13.793 13.828 13.893 13.982 14.062 14.122 14.175 14.24 14.31 14.372 14.417 14.417 14.377 14.36 14.375 14.382 14.38 14.377 14.375 14.368 14.355 14.345 14.335 14.327 14.31 14.285 14.268 14.253 14.24 14.217 14.193 14.195 14.215 14.232 14.24 14.24 14.24 14.247 14.277 14.317 14.357 14.375 14.355 14.32 14.282 14.25 14.223 14.203 14.19 14.18 14.18 14.19 14.2 14.205 14.2 14.195 14.195 14.187 14.17 14.163 14.17 14.188 14.238 14.315 14.39 14.435 14.437 14.422 14.408 14.39 14.363 14.333 14.31 14.29 14.27 14.255 14.24 14.217 14.19 14.165 14.143 14.118 14.095 14.068 14.035 14 13.983 13.988 13.995 14.002 14.008 14.015 14.03 14.053 14.08 14.103 14.115 14.13 14.148 14.16 14.17 14.178 14.265 14.467 14.06 13.825 14.295 14.572 14.747 14.895 15 15.075 15.15 15.217 15.262 15.282 15.295 15.31 15.325 15.335 15.347 15.34 15.287 15.177 15.03 14.897 14.755 14.585 14.415 14.255 14.205 14.255 14.307 14.345 14.342 14.315 14.277 14.225 14.155 14.08 14.017 14.01 14.03 14.027 14.022 14.017 14.015 14.023 14.037 14.05 14.055 14.035 14 13.973 13.948 13.92 13.895 13.873 13.853 13.833 13.808 13.788 13.78 13.765 13.738 13.71 13.698 13.708 13.723 13.733 13.748 13.772 13.8 13.845 13.915 13.997
12.667 12.728 12.815 12.922 13.02 13.087 13.125 13.153 13.183 13.233 13.298 13.368 13.44 13.513 13.583 13.633 13.673 13.708 13.733 13.755 13.775 13.79 13.8 13.82 13.852 13.873 13.913 13.997 14.087 14.15 14.2 14.257 14.315 14.367 14.4 14.4 14.385 14.392 14.402 14.397 14.392 14.39 14.392 14.385 14.37 14.36 14.348 14.33 14.305 14.28 14.263 14.248 14.235 14.225 14.23 14.25 14.267 14.277 14.285 14.292 14.297 14.31 14.337 14.367 14.397 14.41 14.39 14.355 14.318 14.285 14.263 14.25 14.24 14.23 14.23 14.24 14.247 14.245 14.235 14.225 14.215 14.21 14.213 14.223 14.233 14.243 14.285 14.36 14.437 14.485 14.485 14.465 14.448 14.433 14.415 14.395 14.373 14.35 14.33 14.312 14.29 14.257 14.225 14.198 14.173 14.148 14.125 14.1 14.07 14.04 14.025 14.028 14.035 14.045 14.058 14.078 14.105 14.135 14.17 14.195 14.203 14.21 14.22 14.23 14.235 14.215 14.295 14.437 13.99 13.918 14.442 14.63 14.767 14.86 14.933 15.007 15.08 15.15 15.197 15.22 15.235 15.248 15.262 15.275 15.285 15.297 15.3 15.205 15.028 14.91 14.815 14.665 14.495 14.333 14.28 14.332 14.385 14.432 14.45 14.422 14.392 14.372 14.332 14.28 14.23 14.182 14.153 14.14 14.135 14.13 14.123 14.123 14.135 14.15 14.145 14.117 14.085 14.058 14.033 14.008 13.985 13.965 13.945 13.925 13.9 13.868 13.838 13.813 13.788 13.758 13.74 13.748 13.763 13.773 13.775 13.785 13.808 13.85 13.92 14.005
12.738 12.803 12.892 12.99 13.07 13.13 13.17 13.2 13.248 13.325 13.4 13.463 13.533 13.605 13.677 13.742 13.79 13.825 13.85 13.87 13.882 13.877 13.873 13.89 13.917 13.917 13.925 13.985 14.072 14.137 14.155 14.173 14.215 14.262 14.285 14.293 14.323 14.375 14.405 14.403 14.4 14.405 14.415 14.412 14.4 14.387 14.367 14.34 14.31 14.283 14.265 14.25 14.238 14.238 14.25 14.267 14.277 14.28 14.285 14.295 14.308 14.328 14.355 14.385 14.415 14.43 14.417 14.387 14.353 14.323 14.305 14.297 14.29 14.28 14.28 14.287 14.287 14.28 14.27 14.26 14.253 14.26 14.28 14.297 14.3 14.293 14.325 14.398 14.472 14.527 14.535 14.515 14.498 14.483 14.472 14.462 14.442 14.418 14.395 14.367 14.33 14.293 14.26 14.235 14.215 14.198 14.18 14.155 14.125 14.095 14.07 14.065 14.075 14.088 14.122 14.165 14.2 14.235 14.267 14.29 14.297 14.303 14.31 14.31 14.282 14.233 14.317 14.21 14.013 14.242 14.512 14.647 14.745 14.798 14.865 14.94 15.012 15.082 15.13 15.157 15.175 15.185 15.198 15.212 15.225 15.235 15.242 15.165 15 14.893 14.837 14.732 14.575 14.41 14.355 14.407 14.457 14.492 14.512 14.505 14.49 14.485 14.455 14.407 14.36 14.31 14.275 14.255 14.243 14.237 14.23 14.223 14.225 14.235 14.222 14.193 14.168 14.142 14.118 14.095 14.08 14.07 14.055 14.032 14 13.955 13.915 13.89 13.86 13.82 13.8 13.805 13.817 13.825 13.815 13.805 13.815 13.853 13.92 14.018
12.818 12.875 12.957 13.037 13.107 13.17 13.215 13.26 13.338 13.43 13.505 13.565 13.63 13.7 13.773 13.847 13.905 13.94 13.965 13.977 13.97 13.945 13.938 13.96 13.975 13.958 13.95 13.988 14.058 14.135 14.142 14.11 14.12 14.153 14.18 14.218 14.28 14.35 14.4 14.41 14.41 14.42 14.43 14.435 14.427 14.407 14.38 14.35 14.32 14.29 14.268 14.255 14.25 14.255 14.267 14.277 14.28 14.28 14.285 14.3 14.32 14.345 14.375 14.405 14.435 14.45 14.44 14.415 14.385 14.363 14.35 14.345 14.34 14.33 14.328 14.327 14.32 14.31 14.3 14.293 14.3 14.33 14.357 14.365 14.355 14.34 14.368 14.435 14.507 14.57 14.585 14.565 14.55 14.538 14.528 14.52 14.51 14.49 14.462 14.425 14.378 14.333 14.298 14.283 14.27 14.255 14.237 14.21 14.18 14.15 14.12 14.108 14.113 14.125 14.177 14.247 14.297 14.335 14.365 14.382 14.39 14.395 14.385 14.35 14.285 14.243 14.355 14.03 13.965 14.412 14.548 14.667 14.73 14.75 14.8 14.87 14.945 15.017 15.062 15.09 15.112 15.125 15.135 15.15 15.165 15.172 15.177 15.117 14.973 14.87 14.827 14.765 14.647 14.488 14.433 14.482 14.52 14.545 14.565 14.58 14.585 14.585 14.565 14.53 14.49 14.443 14.408 14.38 14.355 14.343 14.337 14.33 14.322 14.317 14.3 14.275 14.252 14.228 14.205 14.19 14.185 14.18 14.162 14.13 14.082 14.03 13.993 13.965 13.925 13.88 13.86 13.865 13.875 13.877 13.865 13.845 13.835 13.858 13.93 14.053
12.892 12.938 13.005 13.075 13.145 13.21 13.273 13.35 13.445 13.537 13.61 13.67 13.73 13.795 13.87 13.947 14.012 14.055 14.07 14.06 14.035 14.008 14.005 14.025 14.022 13.995 13.98 14.005 14.063 14.132 14.147 14.1 14.063 14.068 14.115 14.18 14.25 14.32 14.385 14.417 14.425 14.435 14.445 14.455 14.447 14.422 14.392 14.36 14.33 14.3 14.275 14.268 14.273 14.278 14.283 14.285 14.285 14.285 14.293 14.315 14.34 14.363 14.393 14.425 14.455 14.472 14.462 14.44 14.42 14.408 14.4 14.395 14.39 14.383 14.378 14.368 14.355 14.345 14.335 14.34 14.37 14.41 14.437 14.435 14.413 14.393 14.415 14.48 14.55 14.615 14.635 14.618 14.603 14.59 14.58 14.572 14.567 14.555 14.525 14.477 14.425 14.373 14.338 14.33 14.322 14.312 14.298 14.27 14.24 14.213 14.185 14.168 14.17 14.173 14.21 14.295 14.372 14.427 14.462 14.475 14.467 14.45 14.412 14.347 14.273 14.258 14.27 14.075 14.165 14.492 14.605 14.702 14.737 14.733 14.75 14.805 14.878 14.95 14.997 15.023 15.045 15.062 15.075 15.087 15.1 15.105 15.11 15.07 14.948 14.85 14.805 14.76 14.692 14.563 14.508 14.55 14.575 14.598 14.623 14.65 14.665 14.665 14.65 14.625 14.597 14.565 14.538 14.51 14.48 14.455 14.44 14.427 14.412 14.395 14.377 14.36 14.337 14.315 14.3 14.292 14.29 14.285 14.257 14.21 14.158 14.105 14.065 14.03 13.985 13.94 13.92 13.923 13.93 13.93 13.915 13.895 13.875 13.875 13.955 14.102
12.94 12.98 13.04 13.107 13.175 13.248 13.335 13.432 13.527 13.605 13.662 13.715 13.767 13.832 13.915 14.002 14.09 14.147 14.15 14.125 14.098 14.073 14.073 14.082 14.065 14.033 14.008 14.025 14.078 14.135 14.145 14.095 14.048 14.04 14.085 14.155 14.225 14.295 14.378 14.432 14.445 14.455 14.467 14.475 14.46 14.432 14.402 14.37 14.34 14.31 14.295 14.3 14.31 14.315 14.318 14.32 14.318 14.315 14.328 14.353 14.373 14.388 14.413 14.445 14.475 14.497 14.495 14.48 14.465 14.455 14.45 14.443 14.438 14.44 14.437 14.42 14.405 14.393 14.39 14.415 14.455 14.495 14.525 14.52 14.49 14.47 14.48 14.533 14.605 14.67 14.69 14.675 14.66 14.642 14.63 14.62 14.61 14.597 14.567 14.517 14.462 14.408 14.375 14.368 14.362 14.36 14.37 14.367 14.34 14.315 14.29 14.278 14.267 14.235 14.243 14.315 14.402 14.485 14.53 14.525 14.495 14.452 14.4 14.332 14.26 14.27 14.005 14.005 14.4 14.545 14.66 14.737 14.765 14.753 14.73 14.75 14.81 14.882 14.932 14.957 14.98 15 15.015 15.025 15.032 15.035 15.04 15.02 14.923 14.828 14.783 14.738 14.692 14.615 14.58 14.61 14.633 14.66 14.688 14.715 14.732 14.735 14.722 14.698 14.675 14.67 14.675 14.66 14.63 14.57 14.518 14.502 14.485 14.465 14.447 14.43 14.413 14.4 14.392 14.387 14.382 14.375 14.342 14.288 14.235 14.177 14.127 14.09 14.045 14 13.978 13.978 13.983 13.982 13.967 13.945 13.922 13.905 13.975 14.13
12.975 13.013 13.068 13.133 13.205 13.29 13.385 13.477 13.552 13.607 13.652 13.695 13.738 13.798 13.887 13.99 14.095 14.18 14.205 14.187 14.162 14.135 14.132 14.132 14.102 14.068 14.038 14.048 14.095 14.137 14.127 14.078 14.053 14.05 14.075 14.135 14.205 14.29 14.397 14.46 14.47 14.48 14.492 14.492 14.47 14.44 14.41 14.38 14.348 14.323 14.325 14.345 14.36 14.365 14.37 14.375 14.372 14.37 14.38 14.397 14.41 14.42 14.44 14.47 14.5 14.525 14.532 14.525 14.512 14.502 14.495 14.488 14.49 14.502 14.5 14.483 14.468 14.453 14.46 14.497 14.54 14.58 14.615 14.615 14.595 14.59 14.583 14.6 14.663 14.73 14.75 14.735 14.72 14.69 14.662 14.647 14.632 14.615 14.587 14.547 14.497 14.445 14.413 14.403 14.398 14.4 14.435 14.475 14.472 14.447 14.425 14.405 14.355 14.29 14.285 14.335 14.41 14.502 14.547 14.525 14.485 14.437 14.38 14.317 14.25 14.255 13.968 14.035 14.482 14.595 14.702 14.762 14.785 14.782 14.75 14.728 14.75 14.815 14.867 14.892 14.917 14.937 14.952 14.962 14.965 14.968 14.972 14.97 14.897 14.805 14.76 14.715 14.673 14.643 14.645 14.672 14.698 14.725 14.753 14.78 14.802 14.807 14.795 14.773 14.763 14.783 14.815 14.822 14.78 14.66 14.57 14.562 14.55 14.53 14.51 14.493 14.483 14.48 14.475 14.47 14.465 14.455 14.425 14.37 14.307 14.23 14.173 14.145 14.11 14.068 14.04 14.04 14.042 14.037 14.02 13.992 13.965 13.94 13.995 14.135
13.01 13.043 13.093 13.165 13.248 13.335 13.42 13.487 13.535 13.58 13.625 13.665 13.705 13.758 13.843 13.948 14.055 14.162 14.227 14.235 14.22 14.198 14.187 14.172 14.138 14.105 14.073 14.07 14.107 14.125 14.1 14.075 14.07 14.073 14.083 14.12 14.2 14.328 14.445 14.49 14.497 14.505 14.512 14.502 14.475 14.445 14.417 14.387 14.358 14.348 14.36 14.385 14.407 14.415 14.42 14.425 14.422 14.42 14.422 14.43 14.44 14.448 14.465 14.498 14.532 14.56 14.567 14.56 14.552 14.545 14.538 14.54 14.552 14.565 14.562 14.548 14.533 14.52 14.533 14.573 14.617 14.66 14.7 14.72 14.725 14.727 14.71 14.693 14.725 14.79 14.81 14.795 14.767 14.717 14.68 14.665 14.65 14.63 14.603 14.568 14.527 14.48 14.448 14.44 14.435 14.44 14.48 14.54 14.58 14.577 14.547 14.49 14.405 14.338 14.335 14.375 14.428 14.502 14.537 14.512 14.472 14.422 14.365 14.305 14.237 14.09 14.075 14.33 14.54 14.647 14.737 14.78 14.8 14.81 14.79 14.75 14.728 14.755 14.8 14.828 14.853 14.873 14.887 14.895 14.895 14.9 14.907 14.915 14.862 14.783 14.738 14.7 14.678 14.68 14.705 14.735 14.762 14.79 14.818 14.845 14.872 14.88 14.865 14.858 14.878 14.91 14.945 14.962 14.89 14.725 14.623 14.615 14.607 14.59 14.573 14.563 14.56 14.56 14.557 14.552 14.545 14.535 14.505 14.445 14.362 14.265 14.205 14.185 14.162 14.132 14.11 14.105 14.1 14.09 14.07 14.038 14.008 13.983 14.028 14.153
13.04 13.073 13.128 13.21 13.298 13.382 13.442 13.473 13.508 13.553 13.595 13.635 13.675 13.723 13.803 13.91 14.02 14.13 14.22 14.257 14.257 14.25 14.235 14.207 14.175 14.142 14.108 14.095 14.107 14.108 14.095 14.093 14.095 14.097 14.1 14.13 14.238 14.4 14.5 14.517 14.522 14.527 14.527 14.51 14.48 14.45 14.422 14.395 14.38 14.385 14.4 14.422 14.447 14.462 14.467 14.467 14.462 14.457 14.458 14.462 14.468 14.473 14.493 14.528 14.565 14.595 14.602 14.595 14.59 14.588 14.59 14.602 14.615 14.627 14.627 14.613 14.6 14.593 14.61 14.65 14.692 14.73 14.762 14.797 14.83 14.847 14.837 14.81 14.808 14.85 14.87 14.842 14.79 14.733 14.7 14.683 14.668 14.653 14.632 14.6 14.56 14.515 14.48 14.467 14.46 14.463 14.502 14.565 14.627 14.662 14.627 14.54 14.445 14.383 14.385 14.425 14.465 14.51 14.522 14.498 14.46 14.407 14.35 14.29 14.23 13.923 14.05 14.502 14.6 14.702 14.77 14.795 14.81 14.817 14.81 14.782 14.748 14.73 14.745 14.775 14.8 14.818 14.825 14.825 14.828 14.833 14.84 14.85 14.817 14.763 14.73 14.71 14.713 14.735 14.765 14.795 14.825 14.855 14.882 14.908 14.935 14.95 14.952 14.965 14.985 15.002 15.02 15.02 14.927 14.76 14.668 14.66 14.657 14.65 14.642 14.64 14.64 14.64 14.64 14.635 14.627 14.617 14.58 14.502 14.402 14.298 14.235 14.215 14.195 14.175 14.16 14.152 14.147 14.14 14.12 14.087 14.055 14.025 14.063 14.18
13.09 13.123 13.18 13.265 13.352 13.432 13.477 13.49 13.508 13.533 13.568 13.615 13.663 13.713 13.79 13.898 14.01 14.115 14.207 14.255 14.26 14.26 14.25 14.227 14.2 14.167 14.135 14.118 14.113 14.113 14.115 14.118 14.12 14.123 14.135 14.193 14.328 14.465 14.517 14.522 14.527 14.535 14.532 14.512 14.485 14.455 14.428 14.408 14.405 14.412 14.422 14.442 14.467 14.49 14.502 14.502 14.497 14.49 14.49 14.495 14.498 14.508 14.535 14.57 14.605 14.637 14.65 14.645 14.64 14.638 14.643 14.657 14.672 14.687 14.69 14.68 14.672 14.668 14.688 14.725 14.755 14.78 14.805 14.843 14.885 14.915 14.922 14.915 14.91 14.925 14.92 14.867 14.798 14.745 14.72 14.703 14.69 14.68 14.67 14.65 14.613 14.568 14.52 14.483 14.465 14.463 14.5 14.567 14.632 14.68 14.662 14.582 14.488 14.428 14.435 14.475 14.512 14.537 14.533 14.503 14.455 14.395 14.335 14.272 14.162 14.018 14.235 14.567 14.665 14.745 14.78 14.792 14.8 14.8 14.8 14.792 14.772 14.745 14.735 14.76 14.793 14.808 14.808 14.795 14.778 14.77 14.773 14.78 14.783 14.77 14.753 14.745 14.76 14.792 14.825 14.855 14.885 14.917 14.947 14.973 15 15.023 15.028 15.027 15.03 15.03 15.03 15.007 14.907 14.77 14.705 14.7 14.7 14.705 14.707 14.705 14.705 14.705 14.705 14.705 14.705 14.695 14.642 14.545 14.437 14.33 14.265 14.245 14.225 14.205 14.19 14.185 14.182 14.17 14.147 14.12 14.087 14.06 14.098 14.21
13.163 13.188 13.24 13.32 13.4 13.477 13.522 13.535 13.543 13.55 13.578 13.625 13.675 13.73 13.803 13.902 14.007 14.097 14.18 14.23 14.24 14.237 14.23 14.217 14.2 14.175 14.148 14.135 14.135 14.137 14.14 14.143 14.153 14.173 14.205 14.29 14.42 14.492 14.5 14.505 14.51 14.525 14.532 14.51 14.483 14.455 14.43 14.418 14.417 14.42 14.428 14.445 14.465 14.49 14.515 14.53 14.53 14.523 14.523 14.528 14.538 14.558 14.588 14.623 14.658 14.692 14.707 14.702 14.697 14.693 14.69 14.7 14.72 14.732 14.735 14.732 14.732 14.732 14.75 14.78 14.8 14.82 14.845 14.885 14.922 14.945 14.96 14.97 14.98 14.985 14.947 14.875 14.805 14.76 14.743 14.73 14.72 14.71 14.7 14.692 14.672 14.632 14.575 14.51 14.468 14.455 14.49 14.557 14.62 14.667 14.662 14.607 14.528 14.475 14.488 14.522 14.552 14.572 14.567 14.525 14.457 14.388 14.325 14.262 14.015 14.108 14.5 14.632 14.712 14.752 14.765 14.775 14.78 14.78 14.783 14.782 14.77 14.748 14.743 14.775 14.812 14.822 14.82 14.807 14.768 14.73 14.718 14.725 14.77 14.8 14.788 14.79 14.815 14.85 14.885 14.915 14.948 14.982 15.012 15.04 15.083 15.127 15.11 15.053 15.03 15.028 15.025 14.992 14.893 14.785 14.743 14.74 14.745 14.76 14.765 14.758 14.755 14.755 14.755 14.76 14.76 14.742 14.682 14.58 14.467 14.355 14.29 14.272 14.255 14.235 14.22 14.212 14.202 14.18 14.153 14.128 14.108 14.1 14.135 14.238
13.24 13.26 13.303 13.37 13.445 13.525 13.57 13.58 13.59 13.6 13.625 13.665 13.708 13.755 13.815 13.898 13.985 14.065 14.145 14.202 14.217 14.21 14.2 14.19 14.18 14.168 14.158 14.157 14.16 14.163 14.168 14.183 14.213 14.25 14.293 14.385 14.475 14.49 14.483 14.485 14.493 14.52 14.537 14.512 14.48 14.453 14.43 14.42 14.42 14.423 14.432 14.445 14.46 14.483 14.51 14.537 14.555 14.557 14.558 14.568 14.588 14.613 14.642 14.677 14.712 14.75 14.765 14.757 14.752 14.747 14.74 14.743 14.757 14.765 14.765 14.762 14.757 14.752 14.772 14.812 14.84 14.86 14.888 14.922 14.95 14.972 14.99 15 15.007 15.012 14.967 14.88 14.815 14.78 14.765 14.755 14.745 14.737 14.73 14.725 14.717 14.692 14.64 14.565 14.495 14.455 14.48 14.543 14.6 14.652 14.65 14.605 14.55 14.518 14.533 14.56 14.585 14.605 14.595 14.537 14.46 14.385 14.32 14.29 14.05 14.183 14.602 14.682 14.725 14.74 14.75 14.757 14.763 14.765 14.767 14.765 14.75 14.74 14.76 14.8 14.832 14.837 14.825 14.817 14.78 14.715 14.675 14.69 14.765 14.82 14.828 14.845 14.878 14.913 14.948 14.98 15.015 15.05 15.08 15.118 15.188 15.267 15.247 15.148 15.075 15.035 15.02 14.98 14.893 14.813 14.78 14.785 14.8 14.82 14.825 14.815 14.808 14.805 14.802 14.797 14.785 14.757 14.702 14.61 14.49 14.373 14.31 14.295 14.28 14.262 14.247 14.232 14.212 14.188 14.165 14.153 14.15 14.153 14.175 14.265
13.32 13.34 13.375 13.433 13.5 13.572 13.615 13.625 13.635 13.645 13.673 13.715 13.758 13.8 13.843 13.895 13.963 14.038 14.115 14.177 14.192 14.18 14.17 14.165 14.165 14.165 14.17 14.175 14.178 14.19 14.213 14.25 14.295 14.335 14.385 14.455 14.49 14.48 14.47 14.468 14.483 14.522 14.54 14.515 14.483 14.45 14.43 14.425 14.425 14.428 14.435 14.448 14.463 14.48 14.505 14.535 14.565 14.585 14.597 14.615 14.64 14.665 14.692 14.725 14.757 14.792 14.81 14.807 14.802 14.797 14.792 14.79 14.792 14.792 14.785 14.772 14.755 14.738 14.76 14.817 14.865 14.897 14.927 14.955 14.975 14.997 15.015 15.025 15.032 15.037 14.995 14.9 14.83 14.803 14.79 14.78 14.77 14.763 14.758 14.755 14.75 14.74 14.702 14.63 14.547 14.475 14.475 14.533 14.588 14.64 14.65 14.618 14.58 14.565 14.58 14.6 14.62 14.64 14.62 14.55 14.468 14.388 14.325 14.252 14.235 14.442 14.652 14.697 14.715 14.725 14.735 14.742 14.747 14.75 14.752 14.747 14.735 14.753 14.795 14.827 14.855 14.86 14.84 14.827 14.797 14.725 14.65 14.663 14.757 14.835 14.875 14.907 14.945 14.98 15.015 15.05 15.082 15.117 15.153 15.213 15.307 15.395 15.382 15.287 15.19 15.105 15.045 14.983 14.91 14.848 14.825 14.84 14.86 14.88 14.885 14.875 14.865 14.853 14.838 14.82 14.8 14.767 14.717 14.63 14.5 14.385 14.333 14.317 14.3 14.285 14.27 14.248 14.223 14.205 14.2 14.203 14.205 14.208 14.22 14.3
13.4 13.42 13.453 13.505 13.565 13.622 13.66 13.675 13.685 13.695 13.723 13.768 13.813 13.857 13.892 13.918 13.963 14.028 14.098 14.152 14.165 14.16 14.16 14.163 14.17 14.175 14.18 14.188 14.2 14.228 14.263 14.307 14.36 14.407 14.457 14.487 14.485 14.475 14.465 14.458 14.478 14.525 14.542 14.52 14.488 14.455 14.438 14.435 14.435 14.433 14.443 14.465 14.483 14.5 14.525 14.555 14.583 14.608 14.63 14.65 14.675 14.7 14.72 14.745 14.775 14.805 14.827 14.837 14.835 14.83 14.83 14.825 14.817 14.81 14.795 14.775 14.755 14.738 14.748 14.79 14.847 14.902 14.942 14.972 14.997 15.022 15.04 15.042 15.035 15.025 14.977 14.89 14.833 14.817 14.812 14.807 14.8 14.79 14.785 14.78 14.765 14.75 14.72 14.657 14.577 14.498 14.488 14.542 14.592 14.632 14.667 14.67 14.64 14.625 14.638 14.658 14.675 14.695 14.68 14.628 14.558 14.475 14.415 14.153 14.248 14.622 14.672 14.69 14.703 14.718 14.725 14.728 14.732 14.735 14.737 14.728 14.73 14.778 14.827 14.852 14.877 14.885 14.863 14.843 14.822 14.76 14.66 14.658 14.758 14.85 14.905 14.94 14.98 15.015 15.05 15.087 15.12 15.157 15.205 15.28 15.377 15.452 15.442 15.362 15.272 15.18 15.087 15.008 14.94 14.888 14.88 14.9 14.923 14.947 14.955 14.945 14.935 14.913 14.878 14.843 14.813 14.775 14.72 14.63 14.5 14.395 14.355 14.34 14.323 14.307 14.29 14.268 14.248 14.245 14.252 14.255 14.258 14.263 14.273 14.358
13.48 13.503 13.53 13.575 13.632 13.675 13.705 13.727 13.74 13.753 13.78 13.825 13.87 13.912 13.945 13.96 13.985 14.035 14.097 14.135 14.145 14.155 14.165 14.172 14.18 14.187 14.193 14.205 14.235 14.275 14.313 14.35 14.395 14.447 14.492 14.51 14.505 14.495 14.485 14.478 14.49 14.53 14.55 14.527 14.495 14.47 14.453 14.445 14.445 14.435 14.448 14.485 14.512 14.535 14.56 14.59 14.615 14.635 14.655 14.673 14.693 14.717 14.735 14.75 14.775 14.805 14.83 14.847 14.852 14.85 14.85 14.845 14.835 14.825 14.807 14.785 14.765 14.753 14.755 14.773 14.808 14.862 14.912 14.947 14.98 15.007 15.022 15.015 14.992 14.97 14.91 14.843 14.82 14.815 14.815 14.815 14.812 14.802 14.787 14.77 14.745 14.72 14.69 14.642 14.577 14.513 14.513 14.557 14.592 14.62 14.67 14.717 14.71 14.688 14.695 14.72 14.74 14.76 14.755 14.727 14.687 14.632 14.585 14.32 14.353 14.647 14.67 14.683 14.703 14.725 14.727 14.718 14.718 14.722 14.722 14.718 14.748 14.815 14.862 14.878 14.9 14.91 14.887 14.865 14.847 14.78 14.678 14.678 14.768 14.862 14.92 14.945 14.978 15.013 15.05 15.09 15.128 15.17 15.228 15.305 15.385 15.447 15.442 15.372 15.295 15.21 15.12 15.04 14.978 14.943 14.945 14.965 14.99 15.022 15.035 15.025 15.015 14.992 14.95 14.898 14.838 14.773 14.705 14.615 14.495 14.403 14.37 14.36 14.347 14.33 14.31 14.293 14.288 14.297 14.307 14.31 14.313 14.318 14.333 14.43
13.542 13.58 13.61 13.647 13.692 13.717 13.74 13.767 13.79 13.81 13.84 13.885 13.93 13.967 13.995 14.01 14.025 14.055 14.097 14.125 14.14 14.155 14.167 14.18 14.19 14.2 14.213 14.238 14.28 14.325 14.365 14.4 14.433 14.475 14.515 14.54 14.545 14.535 14.528 14.525 14.525 14.545 14.56 14.538 14.51 14.49 14.47 14.458 14.45 14.435 14.448 14.492 14.532 14.565 14.592 14.62 14.645 14.665 14.682 14.698 14.713 14.735 14.755 14.765 14.78 14.803 14.828 14.85 14.862 14.867 14.87 14.862 14.85 14.84 14.822 14.798 14.775 14.768 14.775 14.783 14.793 14.82 14.858 14.89 14.918 14.94 14.95 14.943 14.928 14.905 14.855 14.818 14.813 14.808 14.805 14.805 14.802 14.79 14.763 14.733 14.705 14.68 14.65 14.607 14.558 14.518 14.523 14.552 14.577 14.6 14.65 14.725 14.762 14.753 14.755 14.78 14.802 14.825 14.82 14.792 14.765 14.735 14.7 14.595 14.575 14.647 14.663 14.683 14.712 14.737 14.735 14.715 14.705 14.708 14.708 14.728 14.785 14.852 14.895 14.905 14.922 14.93 14.91 14.89 14.852 14.76 14.678 14.703 14.788 14.88 14.94 14.96 14.98 15.01 15.05 15.093 15.138 15.185 15.245 15.317 15.38 15.432 15.432 15.372 15.305 15.232 15.15 15.073 15.028 15.008 15.01 15.035 15.065 15.097 15.112 15.105 15.097 15.08 15.035 14.965 14.877 14.785 14.698 14.6 14.485 14.405 14.38 14.375 14.367 14.352 14.335 14.325 14.335 14.35 14.36 14.365 14.368 14.373 14.395 14.5
13.582 13.63 13.672 13.71 13.737 13.752 13.773 13.8 13.83 13.857 13.895 13.945 13.99 14.022 14.043 14.06 14.08 14.095 14.108 14.123 14.14 14.155 14.17 14.185 14.198 14.215 14.243 14.283 14.327 14.372 14.415 14.452 14.482 14.51 14.538 14.565 14.58 14.577 14.575 14.572 14.568 14.572 14.572 14.552 14.53 14.507 14.485 14.467 14.448 14.433 14.453 14.498 14.542 14.585 14.617 14.645 14.672 14.695 14.71 14.725 14.74 14.755 14.772 14.785 14.795 14.808 14.828 14.85 14.865 14.877 14.885 14.877 14.865 14.852 14.835 14.81 14.785 14.78 14.787 14.792 14.8 14.81 14.828 14.848 14.865 14.883 14.893 14.888 14.873 14.85 14.825 14.813 14.808 14.803 14.798 14.792 14.785 14.772 14.745 14.708 14.673 14.64 14.608 14.575 14.548 14.525 14.518 14.535 14.56 14.583 14.633 14.71 14.78 14.807 14.818 14.84 14.863 14.887 14.882 14.847 14.812 14.777 14.74 14.687 14.655 14.658 14.67 14.695 14.728 14.75 14.745 14.723 14.703 14.695 14.708 14.755 14.822 14.887 14.927 14.935 14.947 14.952 14.935 14.895 14.817 14.715 14.673 14.728 14.813 14.9 14.96 14.983 14.995 15.015 15.053 15.1 15.153 15.205 15.258 15.315 15.37 15.42 15.422 15.37 15.305 15.238 15.168 15.11 15.085 15.073 15.075 15.102 15.137 15.17 15.185 15.182 15.177 15.155 15.092 14.997 14.897 14.8 14.697 14.59 14.478 14.405 14.388 14.385 14.38 14.373 14.368 14.373 14.387 14.4 14.412 14.42 14.423 14.425 14.455 14.57
13.607 13.652 13.697 13.735 13.76 13.782 13.807 13.833 13.86 13.89 13.932 13.985 14.037 14.082 14.108 14.13 14.152 14.152 14.145 14.15 14.16 14.168 14.18 14.198 14.218 14.243 14.278 14.325 14.37 14.418 14.47 14.51 14.532 14.55 14.573 14.598 14.612 14.612 14.61 14.605 14.6 14.595 14.58 14.557 14.535 14.512 14.49 14.475 14.455 14.44 14.465 14.51 14.552 14.592 14.625 14.655 14.69 14.717 14.727 14.74 14.755 14.765 14.78 14.795 14.805 14.818 14.835 14.855 14.873 14.89 14.897 14.89 14.877 14.857 14.837 14.815 14.79 14.783 14.787 14.795 14.805 14.815 14.825 14.835 14.85 14.865 14.875 14.875 14.86 14.84 14.825 14.818 14.813 14.808 14.797 14.78 14.765 14.755 14.73 14.69 14.65 14.618 14.595 14.58 14.57 14.553 14.528 14.523 14.543 14.568 14.615 14.69 14.772 14.84 14.875 14.898 14.923 14.95 14.937 14.885 14.84 14.8 14.763 14.725 14.698 14.693 14.705 14.73 14.755 14.772 14.777 14.765 14.743 14.728 14.743 14.793 14.858 14.922 14.96 14.965 14.973 14.975 14.942 14.865 14.77 14.693 14.693 14.765 14.847 14.922 14.98 15.012 15.025 15.04 15.075 15.125 15.18 15.233 15.278 15.323 15.365 15.41 15.417 15.368 15.305 15.245 15.188 15.15 15.135 15.125 15.13 15.155 15.19 15.225 15.24 15.24 15.235 15.2 15.115 15.005 14.9 14.8 14.695 14.585 14.475 14.405 14.39 14.39 14.388 14.395 14.408 14.418 14.432 14.445 14.465 14.49 14.5 14.498 14.533 14.655
13.62 13.665 13.702 13.735 13.768 13.802 13.837 13.865 13.89 13.92 13.958 14.005 14.065 14.142 14.197 14.222 14.23 14.207 14.193 14.197 14.197 14.193 14.2 14.222 14.25 14.278 14.318 14.373 14.425 14.48 14.54 14.575 14.583 14.595 14.618 14.64 14.645 14.635 14.628 14.622 14.615 14.597 14.575 14.552 14.53 14.51 14.493 14.485 14.472 14.46 14.485 14.527 14.562 14.595 14.625 14.658 14.705 14.74 14.74 14.743 14.755 14.765 14.78 14.795 14.808 14.823 14.842 14.865 14.885 14.905 14.912 14.902 14.88 14.85 14.83 14.812 14.79 14.78 14.785 14.795 14.805 14.815 14.825 14.835 14.848 14.862 14.875 14.882 14.877 14.86 14.843 14.83 14.825 14.82 14.802 14.775 14.75 14.735 14.71 14.673 14.645 14.633 14.625 14.615 14.605 14.59 14.56 14.53 14.53 14.55 14.595 14.673 14.758 14.847 14.92 14.96 14.99 15.02 15 14.93 14.87 14.825 14.788 14.76 14.74 14.738 14.755 14.775 14.79 14.805 14.822 14.827 14.825 14.83 14.838 14.86 14.903 14.955 14.99 14.997 15.002 14.985 14.917 14.828 14.758 14.715 14.738 14.815 14.885 14.935 14.985 15.037 15.065 15.08 15.115 15.167 15.22 15.267 15.312 15.35 15.38 15.415 15.422 15.38 15.325 15.275 15.225 15.19 15.175 15.165 15.17 15.195 15.23 15.265 15.28 15.28 15.272 15.227 15.13 15.013 14.903 14.8 14.695 14.587 14.48 14.408 14.39 14.395 14.408 14.435 14.455 14.46 14.473 14.485 14.513 14.557 14.587 14.593 14.63 14.755
13.63 13.675 13.708 13.74 13.78 13.823 13.862 13.895 13.923 13.95 13.983 14.025 14.085 14.187 14.28 14.305 14.287 14.253 14.238 14.237 14.227 14.213 14.215 14.243 14.278 14.323 14.38 14.44 14.5 14.56 14.615 14.64 14.643 14.65 14.663 14.68 14.675 14.653 14.642 14.632 14.615 14.593 14.57 14.548 14.525 14.505 14.493 14.49 14.485 14.48 14.5 14.535 14.565 14.595 14.625 14.668 14.727 14.767 14.765 14.755 14.758 14.768 14.783 14.798 14.812 14.828 14.848 14.872 14.895 14.915 14.925 14.91 14.875 14.84 14.82 14.807 14.788 14.778 14.785 14.795 14.805 14.815 14.825 14.835 14.845 14.86 14.875 14.885 14.89 14.88 14.863 14.848 14.838 14.83 14.807 14.775 14.745 14.72 14.695 14.675 14.67 14.667 14.662 14.655 14.645 14.627 14.597 14.56 14.535 14.535 14.578 14.66 14.758 14.87 14.97 15.027 15.06 15.09 15.072 15 14.925 14.86 14.81 14.785 14.777 14.78 14.792 14.805 14.818 14.835 14.852 14.865 14.88 14.905 14.922 14.937 14.962 14.99 15 14.995 14.99 14.96 14.893 14.825 14.785 14.758 14.785 14.852 14.897 14.93 14.975 15.04 15.095 15.122 15.158 15.21 15.257 15.302 15.347 15.385 15.41 15.425 15.42 15.392 15.355 15.312 15.265 15.23 15.215 15.205 15.21 15.235 15.27 15.307 15.325 15.322 15.305 15.25 15.15 15.03 14.913 14.803 14.695 14.59 14.485 14.413 14.403 14.423 14.453 14.487 14.505 14.51 14.518 14.525 14.555 14.605 14.65 14.68 14.73 14.842
13.64 13.682 13.718 13.758 13.803 13.85 13.89 13.923 13.955 13.982 14.01 14.048 14.105 14.215 14.327 14.352 14.322 14.292 14.275 14.265 14.25 14.233 14.235 14.265 14.315 14.388 14.46 14.52 14.58 14.64 14.685 14.7 14.705 14.71 14.712 14.717 14.7 14.67 14.652 14.633 14.61 14.59 14.57 14.548 14.523 14.5 14.49 14.49 14.49 14.495 14.513 14.54 14.568 14.595 14.633 14.687 14.752 14.795 14.795 14.78 14.772 14.775 14.785 14.8 14.815 14.83 14.852 14.877 14.902 14.925 14.93 14.905 14.865 14.828 14.805 14.795 14.78 14.775 14.785 14.795 14.805 14.812 14.82 14.83 14.842 14.86 14.875 14.882 14.89 14.89 14.88 14.865 14.85 14.837 14.813 14.783 14.755 14.725 14.705 14.705 14.71 14.705 14.698 14.692 14.685 14.665 14.632 14.598 14.563 14.538 14.575 14.675 14.795 14.925 15.03 15.09 15.125 15.157 15.145 15.075 14.995 14.915 14.845 14.808 14.805 14.81 14.815 14.828 14.842 14.857 14.87 14.88 14.898 14.925 14.95 14.975 15.005 15.01 14.98 14.948 14.928 14.91 14.877 14.842 14.815 14.792 14.812 14.857 14.89 14.92 14.965 15.03 15.1 15.152 15.195 15.24 15.282 15.325 15.367 15.402 15.417 15.417 15.41 15.392 15.365 15.332 15.298 15.273 15.258 15.245 15.25 15.278 15.313 15.35 15.37 15.362 15.332 15.272 15.175 15.053 14.93 14.813 14.703 14.598 14.493 14.428 14.433 14.467 14.502 14.537 14.557 14.563 14.565 14.568 14.595 14.645 14.695 14.745 14.805 14.887
13.653 13.698 13.738 13.783 13.83 13.877 13.917 13.95 13.982 14.012 14.04 14.073 14.125 14.235 14.332 14.347 14.325 14.297 14.282 14.282 14.275 14.26 14.265 14.305 14.378 14.465 14.54 14.6 14.66 14.715 14.74 14.74 14.745 14.75 14.75 14.74 14.712 14.682 14.657 14.635 14.615 14.593 14.57 14.55 14.525 14.498 14.485 14.485 14.488 14.508 14.535 14.56 14.585 14.605 14.635 14.685 14.75 14.795 14.795 14.78 14.77 14.762 14.767 14.785 14.802 14.822 14.85 14.875 14.898 14.927 14.932 14.897 14.855 14.815 14.79 14.783 14.775 14.773 14.778 14.785 14.795 14.802 14.81 14.81 14.815 14.837 14.857 14.87 14.877 14.882 14.88 14.865 14.852 14.845 14.83 14.81 14.785 14.755 14.74 14.748 14.757 14.755 14.743 14.73 14.72 14.702 14.67 14.64 14.615 14.59 14.615 14.713 14.84 14.97 15.072 15.13 15.162 15.18 15.165 15.112 15.04 14.962 14.885 14.833 14.823 14.828 14.838 14.852 14.865 14.872 14.88 14.893 14.915 14.945 14.97 14.995 15.02 15.007 14.958 14.908 14.873 14.855 14.84 14.82 14.797 14.782 14.795 14.827 14.86 14.895 14.945 15.01 15.08 15.147 15.19 15.22 15.26 15.3 15.34 15.375 15.395 15.4 15.402 15.397 15.377 15.35 15.325 15.312 15.302 15.288 15.29 15.32 15.357 15.392 15.41 15.395 15.355 15.295 15.2 15.077 14.953 14.83 14.723 14.625 14.525 14.458 14.46 14.5 14.537 14.575 14.605 14.617 14.62 14.62 14.635 14.675 14.725 14.777 14.837 14.908
13.693 13.75 13.775 13.81 13.86 13.905 13.942 13.975 14.007 14.04 14.07 14.1 14.148 14.242 14.305 14.305 14.295 14.27 14.26 14.275 14.285 14.285 14.305 14.368 14.455 14.545 14.62 14.68 14.735 14.772 14.777 14.765 14.763 14.767 14.767 14.747 14.715 14.682 14.655 14.635 14.617 14.597 14.575 14.552 14.525 14.495 14.478 14.478 14.495 14.533 14.567 14.592 14.612 14.622 14.633 14.66 14.712 14.757 14.762 14.75 14.74 14.73 14.735 14.755 14.778 14.805 14.835 14.86 14.888 14.927 14.935 14.895 14.85 14.813 14.79 14.783 14.778 14.773 14.768 14.768 14.775 14.785 14.792 14.783 14.773 14.788 14.812 14.837 14.857 14.867 14.865 14.855 14.85 14.852 14.852 14.845 14.825 14.795 14.78 14.793 14.815 14.82 14.805 14.785 14.765 14.752 14.738 14.72 14.705 14.693 14.71 14.773 14.878 15.005 15.1 15.145 15.16 15.15 15.13 15.1 15.05 14.982 14.908 14.855 14.84 14.845 14.857 14.87 14.88 14.887 14.895 14.91 14.935 14.965 14.992 15.017 15.027 15 14.945 14.888 14.838 14.8 14.778 14.76 14.743 14.735 14.75 14.78 14.815 14.863 14.92 14.983 15.048 15.115 15.167 15.183 15.2 15.24 15.278 15.317 15.355 15.375 15.385 15.392 15.39 15.372 15.355 15.347 15.342 15.33 15.333 15.363 15.4 15.437 15.45 15.422 15.375 15.315 15.22 15.1 14.975 14.85 14.745 14.657 14.57 14.493 14.48 14.52 14.56 14.6 14.635 14.662 14.675 14.678 14.685 14.708 14.748 14.795 14.858 14.932
13.76 13.837 13.858 13.863 13.89 13.93 13.967 14 14.033 14.067 14.1 14.13 14.173 14.232 14.26 14.255 14.25 14.235 14.228 14.24 14.265 14.295 14.348 14.432 14.53 14.625 14.7 14.752 14.795 14.817 14.812 14.797 14.785 14.785 14.78 14.75 14.713 14.678 14.648 14.625 14.612 14.6 14.58 14.555 14.525 14.495 14.475 14.483 14.52 14.567 14.602 14.62 14.627 14.632 14.64 14.653 14.68 14.717 14.73 14.72 14.71 14.7 14.705 14.728 14.755 14.787 14.818 14.845 14.885 14.932 14.937 14.898 14.855 14.818 14.795 14.785 14.78 14.777 14.77 14.763 14.76 14.765 14.767 14.755 14.735 14.735 14.76 14.79 14.818 14.838 14.848 14.85 14.853 14.857 14.86 14.86 14.855 14.835 14.823 14.84 14.87 14.885 14.875 14.852 14.82 14.805 14.812 14.815 14.81 14.805 14.828 14.873 14.938 15.042 15.122 15.14 15.13 15.108 15.085 15.062 15.035 14.99 14.923 14.873 14.86 14.865 14.872 14.88 14.89 14.9 14.91 14.928 14.955 14.985 15.015 15.04 15.032 14.987 14.932 14.875 14.82 14.768 14.725 14.7 14.688 14.688 14.703 14.735 14.783 14.84 14.9 14.96 15.02 15.083 15.15 15.175 15.163 15.178 15.213 15.253 15.303 15.35 15.372 15.38 15.385 15.382 15.38 15.38 15.377 15.37 15.378 15.405 15.44 15.48 15.485 15.445 15.395 15.335 15.24 15.12 14.995 14.87 14.765 14.68 14.603 14.525 14.503 14.543 14.585 14.623 14.658 14.692 14.72 14.732 14.743 14.758 14.78 14.818 14.88 14.955
13.833 13.93 13.972 13.96 13.953 13.965 13.993 14.025 14.055 14.09 14.125 14.155 14.192 14.222 14.225 14.218 14.21 14.2 14.198 14.218 14.26 14.31 14.38 14.475 14.577 14.677 14.752 14.797 14.835 14.85 14.837 14.825 14.81 14.8 14.782 14.747 14.71 14.675 14.643 14.618 14.608 14.6 14.583 14.555 14.525 14.495 14.48 14.503 14.55 14.597 14.625 14.632 14.635 14.638 14.648 14.66 14.673 14.693 14.7 14.69 14.68 14.67 14.675 14.702 14.735 14.767 14.802 14.843 14.888 14.935 14.94 14.903 14.865 14.825 14.798 14.788 14.783 14.78 14.775 14.767 14.76 14.755 14.747 14.728 14.7 14.688 14.71 14.75 14.788 14.825 14.858 14.868 14.863 14.86 14.86 14.86 14.865 14.865 14.868 14.89 14.917 14.94 14.937 14.905 14.863 14.845 14.86 14.877 14.887 14.9 14.932 14.977 15.025 15.087 15.125 15.113 15.09 15.065 15.04 15.018 14.995 14.97 14.928 14.895 14.893 14.89 14.888 14.895 14.905 14.913 14.92 14.943 14.975 15.005 15.035 15.052 15.027 14.972 14.917 14.862 14.807 14.753 14.698 14.658 14.645 14.648 14.663 14.703 14.76 14.82 14.88 14.938 14.995 15.055 15.117 15.17 15.17 15.145 15.165 15.215 15.275 15.342 15.372 15.373 15.375 15.38 15.387 15.392 15.395 15.397 15.412 15.442 15.477 15.515 15.512 15.465 15.415 15.357 15.262 15.14 15.015 14.89 14.785 14.705 14.64 14.578 14.558 14.588 14.62 14.65 14.683 14.718 14.752 14.78 14.797 14.813 14.83 14.858 14.915 14.99
13.925 14.02 14.067 14.06 14.042 14.035 14.043 14.06 14.078 14.103 14.137 14.17 14.205 14.232 14.238 14.23 14.22 14.21 14.21 14.238 14.288 14.34 14.408 14.503 14.605 14.695 14.76 14.805 14.837 14.84 14.825 14.815 14.8 14.785 14.767 14.74 14.707 14.672 14.638 14.613 14.6 14.595 14.592 14.575 14.545 14.515 14.5 14.52 14.565 14.612 14.635 14.638 14.642 14.648 14.658 14.672 14.682 14.69 14.69 14.68 14.67 14.665 14.66 14.67 14.7 14.733 14.78 14.84 14.892 14.94 14.945 14.91 14.875 14.835 14.805 14.795 14.79 14.785 14.778 14.768 14.762 14.755 14.738 14.713 14.685 14.67 14.698 14.75 14.8 14.85 14.89 14.902 14.893 14.88 14.878 14.883 14.89 14.9 14.91 14.925 14.947 14.972 14.972 14.935 14.895 14.885 14.9 14.92 14.94 14.967 15.005 15.05 15.1 15.137 15.14 15.118 15.095 15.07 15.045 15.02 14.995 14.973 14.948 14.933 14.937 14.93 14.91 14.91 14.92 14.927 14.935 14.96 14.995 15.025 15.055 15.057 15.015 14.958 14.903 14.848 14.793 14.743 14.698 14.66 14.645 14.65 14.68 14.73 14.78 14.83 14.88 14.925 14.973 15.03 15.09 15.153 15.185 15.163 15.16 15.21 15.275 15.345 15.377 15.373 15.37 15.373 15.38 15.388 15.395 15.408 15.43 15.465 15.502 15.537 15.532 15.482 15.427 15.372 15.285 15.163 15.038 14.92 14.833 14.773 14.72 14.67 14.655 14.675 14.693 14.7 14.718 14.753 14.785 14.817 14.85 14.877 14.9 14.925 14.983 15.063
14.022 14.1 14.14 14.137 14.125 14.123 14.125 14.13 14.135 14.138 14.153 14.18 14.213 14.247 14.272 14.277 14.27 14.26 14.26 14.283 14.323 14.373 14.438 14.528 14.627 14.702 14.752 14.792 14.81 14.8 14.785 14.775 14.762 14.748 14.735 14.722 14.697 14.663 14.63 14.605 14.59 14.585 14.592 14.597 14.582 14.553 14.535 14.545 14.573 14.615 14.64 14.643 14.65 14.663 14.675 14.687 14.695 14.697 14.695 14.688 14.685 14.69 14.675 14.65 14.658 14.688 14.745 14.825 14.892 14.945 14.952 14.92 14.885 14.845 14.818 14.808 14.8 14.795 14.787 14.773 14.76 14.752 14.735 14.71 14.69 14.685 14.72 14.777 14.83 14.88 14.92 14.935 14.932 14.923 14.92 14.93 14.94 14.952 14.96 14.96 14.968 14.987 14.985 14.953 14.928 14.925 14.94 14.963 14.993 15.025 15.058 15.098 15.145 15.18 15.18 15.16 15.14 15.12 15.097 15.07 15.045 15.02 14.995 14.98 14.982 14.977 14.95 14.93 14.93 14.94 14.953 14.98 15.015 15.045 15.07 15.055 15.002 14.945 14.89 14.843 14.798 14.758 14.723 14.693 14.68 14.708 14.77 14.823 14.86 14.9 14.94 14.978 15.018 15.065 15.115 15.163 15.202 15.2 15.19 15.22 15.275 15.345 15.38 15.375 15.368 15.368 15.373 15.383 15.398 15.415 15.44 15.475 15.515 15.552 15.55 15.5 15.44 15.382 15.302 15.193 15.08 14.978 14.91 14.872 14.83 14.78 14.765 14.782 14.785 14.765 14.765 14.795 14.825 14.853 14.892 14.942 14.977 15.003 15.063 15.152
14.1 14.17 14.21 14.215 14.21 14.207 14.207 14.202 14.195 14.18 14.175 14.195 14.225 14.258 14.29 14.315 14.32 14.31 14.313 14.335 14.365 14.408 14.47 14.555 14.64 14.7 14.747 14.775 14.772 14.758 14.745 14.735 14.725 14.712 14.7 14.692 14.677 14.65 14.62 14.598 14.583 14.573 14.578 14.595 14.605 14.587 14.575 14.585 14.598 14.625 14.645 14.653 14.665 14.677 14.69 14.697 14.702 14.705 14.703 14.703 14.71 14.717 14.7 14.66 14.635 14.645 14.705 14.797 14.882 14.945 14.955 14.925 14.892 14.858 14.835 14.825 14.815 14.807 14.8 14.785 14.765 14.75 14.733 14.715 14.705 14.703 14.738 14.8 14.857 14.91 14.95 14.965 14.967 14.967 14.97 14.98 14.992 15.007 15.015 15.012 15.007 15.01 15.002 14.98 14.965 14.965 14.983 15.013 15.05 15.085 15.115 15.148 15.19 15.22 15.217 15.2 15.18 15.162 15.145 15.122 15.097 15.073 15.05 15.035 15.03 15.025 15.005 14.975 14.955 14.953 14.968 14.998 15.032 15.065 15.075 15.042 14.99 14.943 14.9 14.863 14.828 14.792 14.758 14.73 14.735 14.798 14.882 14.932 14.963 15 15.04 15.08 15.12 15.16 15.2 15.24 15.257 15.238 15.23 15.25 15.285 15.345 15.382 15.38 15.37 15.365 15.37 15.385 15.405 15.425 15.453 15.488 15.525 15.565 15.567 15.52 15.46 15.403 15.333 15.243 15.148 15.053 14.988 14.96 14.932 14.89 14.873 14.875 14.855 14.825 14.815 14.835 14.862 14.885 14.925 14.987 15.042 15.078 15.138 15.23
14.17 14.24 14.277 14.285 14.282 14.27 14.257 14.24 14.22 14.2 14.195 14.215 14.245 14.275 14.305 14.337 14.36 14.36 14.365 14.39 14.418 14.45 14.5 14.572 14.64 14.693 14.737 14.747 14.73 14.715 14.705 14.695 14.685 14.675 14.665 14.655 14.645 14.63 14.61 14.593 14.578 14.563 14.565 14.585 14.605 14.612 14.615 14.622 14.63 14.645 14.655 14.662 14.675 14.685 14.697 14.705 14.708 14.712 14.715 14.722 14.735 14.742 14.73 14.695 14.653 14.63 14.675 14.768 14.86 14.94 14.96 14.93 14.9 14.87 14.85 14.84 14.83 14.82 14.81 14.795 14.775 14.755 14.738 14.728 14.72 14.718 14.753 14.817 14.88 14.937 14.98 14.995 14.997 15 15.005 15.017 15.035 15.05 15.052 15.047 15.04 15.03 15.02 15.01 15 15.008 15.035 15.07 15.11 15.145 15.175 15.203 15.237 15.26 15.252 15.235 15.218 15.2 15.183 15.165 15.145 15.125 15.108 15.095 15.083 15.075 15.06 15.03 15 14.978 14.985 15.015 15.05 15.082 15.08 15.043 15 14.963 14.93 14.897 14.862 14.827 14.793 14.775 14.815 14.907 14.997 15.045 15.07 15.105 15.145 15.185 15.223 15.263 15.312 15.34 15.315 15.275 15.27 15.29 15.313 15.353 15.387 15.39 15.383 15.383 15.393 15.41 15.428 15.443 15.468 15.502 15.538 15.575 15.582 15.543 15.49 15.443 15.385 15.307 15.22 15.128 15.065 15.04 15.02 14.993 14.97 14.95 14.92 14.89 14.868 14.873 14.895 14.915 14.958 15.023 15.087 15.142 15.207 15.292
14.245 14.307 14.337 14.33 14.312 14.292 14.277 14.26 14.24 14.22 14.215 14.235 14.265 14.295 14.325 14.355 14.382 14.4 14.417 14.445 14.472 14.5 14.535 14.588 14.648 14.705 14.732 14.717 14.693 14.675 14.665 14.655 14.645 14.635 14.625 14.618 14.613 14.608 14.602 14.592 14.578 14.56 14.56 14.583 14.602 14.617 14.635 14.647 14.652 14.66 14.663 14.665 14.675 14.685 14.7 14.712 14.715 14.718 14.723 14.733 14.748 14.765 14.772 14.75 14.708 14.673 14.688 14.758 14.845 14.935 14.967 14.94 14.91 14.88 14.855 14.84 14.83 14.822 14.817 14.807 14.79 14.77 14.755 14.745 14.735 14.735 14.77 14.835 14.9 14.962 15.007 15.02 15.02 15.02 15.025 15.04 15.06 15.072 15.07 15.057 15.045 15.035 15.025 15.02 15.023 15.04 15.072 15.117 15.165 15.202 15.235 15.26 15.287 15.302 15.29 15.273 15.258 15.243 15.228 15.21 15.195 15.18 15.165 15.155 15.14 15.128 15.115 15.093 15.065 15.045 15.058 15.09 15.112 15.117 15.1 15.068 15.033 14.997 14.963 14.93 14.897 14.862 14.828 14.818 14.875 14.977 15.075 15.142 15.177 15.21 15.25 15.29 15.335 15.39 15.425 15.405 15.355 15.313 15.305 15.325 15.345 15.373 15.4 15.41 15.415 15.428 15.44 15.455 15.465 15.465 15.48 15.517 15.555 15.59 15.607 15.582 15.54 15.5 15.442 15.365 15.282 15.198 15.15 15.138 15.12 15.102 15.05 14.99 14.96 14.93 14.903 14.9 14.92 14.943 14.993 15.06 15.125 15.19 15.252 15.325
14.355 14.377 14.377 14.35 14.32 14.3 14.29 14.277 14.26 14.24 14.235 14.255 14.285 14.315 14.345 14.375 14.4 14.425 14.457 14.49 14.517 14.542 14.573 14.618 14.675 14.725 14.725 14.687 14.65 14.628 14.622 14.615 14.605 14.595 14.585 14.583 14.59 14.595 14.595 14.592 14.582 14.565 14.565 14.587 14.602 14.61 14.63 14.652 14.662 14.67 14.67 14.668 14.675 14.685 14.7 14.715 14.722 14.725 14.73 14.743 14.76 14.785 14.807 14.805 14.773 14.743 14.745 14.78 14.85 14.94 14.972 14.947 14.92 14.89 14.86 14.835 14.823 14.818 14.815 14.812 14.805 14.79 14.775 14.765 14.755 14.755 14.793 14.86 14.925 14.99 15.03 15.037 15.04 15.04 15.045 15.06 15.075 15.082 15.077 15.063 15.05 15.038 15.028 15.03 15.045 15.065 15.09 15.13 15.182 15.237 15.28 15.302 15.327 15.34 15.33 15.32 15.307 15.292 15.28 15.267 15.255 15.242 15.227 15.212 15.198 15.19 15.19 15.18 15.16 15.16 15.182 15.192 15.177 15.152 15.127 15.1 15.067 15.032 14.997 14.963 14.93 14.897 14.863 14.855 14.908 15 15.102 15.197 15.267 15.312 15.355 15.408 15.47 15.512 15.495 15.445 15.398 15.355 15.338 15.353 15.375 15.408 15.44 15.455 15.468 15.48 15.487 15.492 15.49 15.478 15.488 15.53 15.572 15.61 15.635 15.63 15.6 15.56 15.5 15.417 15.33 15.253 15.235 15.25 15.242 15.227 15.15 15.038 14.975 14.94 14.918 14.92 14.94 14.965 15.02 15.095 15.165 15.23 15.285 15.343
14.42 14.41 14.39 14.36 14.33 14.31 14.3 14.29 14.277 14.26 14.253 14.273 14.305 14.335 14.365 14.392 14.418 14.445 14.477 14.512 14.547 14.577 14.61 14.655 14.707 14.727 14.695 14.65 14.605 14.578 14.575 14.572 14.565 14.555 14.545 14.55 14.572 14.585 14.585 14.585 14.582 14.573 14.573 14.587 14.595 14.6 14.618 14.642 14.665 14.68 14.68 14.675 14.675 14.68 14.695 14.712 14.727 14.735 14.74 14.758 14.783 14.807 14.832 14.85 14.835 14.81 14.815 14.838 14.878 14.947 14.977 14.953 14.927 14.9 14.87 14.84 14.82 14.81 14.808 14.81 14.81 14.802 14.793 14.785 14.778 14.778 14.815 14.885 14.952 15.015 15.047 15.052 15.057 15.06 15.065 15.077 15.085 15.087 15.082 15.07 15.057 15.043 15.038 15.05 15.07 15.09 15.11 15.133 15.168 15.225 15.275 15.305 15.345 15.367 15.362 15.355 15.347 15.337 15.325 15.315 15.305 15.295 15.28 15.268 15.265 15.27 15.282 15.282 15.277 15.277 15.265 15.235 15.198 15.17 15.15 15.127 15.1 15.067 15.032 14.997 14.963 14.93 14.898 14.895 14.943 15.02 15.118 15.22 15.32 15.402 15.472 15.547 15.595 15.582 15.535 15.487 15.445 15.405 15.375 15.38 15.415 15.467 15.507 15.52 15.527 15.53 15.522 15.508 15.495 15.483 15.495 15.54 15.587 15.63 15.655 15.662 15.652 15.617 15.555 15.465 15.365 15.3 15.308 15.345 15.362 15.355 15.282 15.148 15.028 14.96 14.935 14.94 14.96 14.985 15.04 15.122 15.202 15.27 15.325 15.375
14.415 14.403 14.387 14.365 14.338 14.32 14.31 14.3 14.29 14.277 14.27 14.29 14.327 14.357 14.385 14.41 14.435 14.462 14.493 14.53 14.57 14.607 14.64 14.672 14.71 14.705 14.655 14.61 14.565 14.53 14.52 14.52 14.517 14.513 14.51 14.525 14.553 14.57 14.575 14.575 14.575 14.573 14.573 14.58 14.585 14.588 14.603 14.63 14.66 14.685 14.692 14.687 14.68 14.678 14.69 14.71 14.73 14.743 14.755 14.778 14.805 14.83 14.855 14.88 14.885 14.878 14.888 14.912 14.935 14.97 14.985 14.96 14.935 14.91 14.883 14.855 14.83 14.815 14.813 14.815 14.815 14.815 14.815 14.81 14.803 14.8 14.835 14.908 14.98 15.037 15.062 15.067 15.072 15.075 15.08 15.087 15.093 15.095 15.09 15.08 15.068 15.055 15.065 15.09 15.11 15.128 15.145 15.165 15.183 15.213 15.255 15.303 15.36 15.39 15.385 15.378 15.372 15.365 15.357 15.35 15.34 15.332 15.327 15.332 15.345 15.355 15.367 15.372 15.362 15.335 15.29 15.248 15.218 15.195 15.175 15.155 15.13 15.1 15.067 15.032 14.997 14.963 14.93 14.935 14.983 15.048 15.14 15.25 15.36 15.462 15.555 15.62 15.63 15.597 15.557 15.522 15.485 15.445 15.41 15.415 15.467 15.532 15.57 15.575 15.575 15.57 15.552 15.53 15.51 15.493 15.505 15.55 15.597 15.642 15.67 15.68 15.685 15.665 15.6 15.5 15.395 15.345 15.37 15.42 15.46 15.475 15.417 15.285 15.138 15.018 14.96 14.96 14.98 15.008 15.065 15.148 15.235 15.313 15.368 15.413
14.407 14.397 14.382 14.362 14.34 14.325 14.315 14.305 14.295 14.282 14.278 14.303 14.345 14.375 14.4 14.427 14.452 14.478 14.51 14.547 14.582 14.612 14.632 14.65 14.672 14.662 14.618 14.572 14.525 14.483 14.463 14.46 14.465 14.48 14.503 14.53 14.555 14.568 14.57 14.573 14.575 14.58 14.588 14.593 14.595 14.595 14.613 14.645 14.673 14.695 14.705 14.7 14.693 14.69 14.698 14.715 14.735 14.753 14.775 14.8 14.825 14.85 14.875 14.9 14.92 14.935 14.95 14.97 14.987 15 15 14.982 14.958 14.933 14.908 14.88 14.855 14.838 14.83 14.833 14.838 14.845 14.85 14.845 14.838 14.835 14.87 14.943 15.01 15.055 15.072 15.08 15.085 15.088 15.093 15.098 15.105 15.118 15.118 15.103 15.09 15.08 15.11 15.157 15.178 15.193 15.21 15.228 15.243 15.263 15.288 15.325 15.38 15.41 15.405 15.398 15.39 15.38 15.372 15.365 15.355 15.35 15.357 15.372 15.385 15.397 15.41 15.412 15.387 15.345 15.3 15.263 15.24 15.22 15.2 15.18 15.157 15.13 15.1 15.067 15.032 14.998 14.965 14.975 15.028 15.093 15.185 15.3 15.41 15.497 15.56 15.585 15.585 15.567 15.537 15.525 15.505 15.467 15.433 15.443 15.5 15.562 15.605 15.612 15.607 15.597 15.582 15.567 15.545 15.515 15.513 15.55 15.595 15.64 15.67 15.68 15.692 15.695 15.637 15.533 15.435 15.39 15.418 15.472 15.522 15.56 15.545 15.445 15.303 15.173 15.105 15.095 15.09 15.08 15.12 15.21 15.308 15.382 15.425 15.465
14.392 14.387 14.377 14.36 14.34 14.325 14.315 14.302 14.29 14.275 14.27 14.303 14.35 14.382 14.41 14.44 14.467 14.492 14.522 14.552 14.575 14.587 14.595 14.608 14.625 14.62 14.582 14.535 14.488 14.443 14.425 14.438 14.46 14.495 14.533 14.562 14.58 14.58 14.575 14.578 14.588 14.605 14.62 14.627 14.63 14.63 14.648 14.68 14.702 14.712 14.715 14.71 14.705 14.708 14.715 14.73 14.75 14.77 14.795 14.82 14.843 14.867 14.892 14.917 14.945 14.972 14.99 15.005 15.015 15.012 15.01 15.007 14.992 14.967 14.94 14.91 14.885 14.865 14.855 14.86 14.87 14.882 14.89 14.885 14.883 14.885 14.918 14.985 15.037 15.062 15.077 15.09 15.095 15.1 15.108 15.118 15.135 15.16 15.165 15.143 15.123 15.108 15.143 15.217 15.255 15.27 15.29 15.305 15.323 15.35 15.363 15.37 15.413 15.45 15.448 15.433 15.418 15.403 15.388 15.373 15.355 15.35 15.365 15.38 15.39 15.402 15.412 15.41 15.39 15.355 15.313 15.28 15.26 15.24 15.22 15.2 15.18 15.157 15.13 15.1 15.067 15.033 15.005 15.02 15.075 15.148 15.245 15.355 15.442 15.492 15.512 15.518 15.522 15.517 15.493 15.49 15.5 15.48 15.448 15.458 15.513 15.572 15.627 15.647 15.64 15.625 15.61 15.6 15.58 15.545 15.53 15.55 15.585 15.63 15.66 15.673 15.693 15.717 15.675 15.573 15.488 15.438 15.453 15.507 15.547 15.56 15.57 15.565 15.497 15.425 15.393 15.358 15.308 15.245 15.24 15.32 15.41 15.465 15.5 15.54
14.378 14.372 14.367 14.357 14.34 14.325 14.312 14.295 14.278 14.26 14.26 14.3 14.352 14.39 14.42 14.45 14.477 14.5 14.52 14.535 14.545 14.553 14.56 14.568 14.578 14.577 14.545 14.498 14.453 14.408 14.408 14.453 14.5 14.545 14.575 14.59 14.592 14.587 14.585 14.59 14.61 14.635 14.65 14.66 14.667 14.67 14.683 14.705 14.72 14.727 14.727 14.723 14.72 14.723 14.733 14.75 14.77 14.79 14.815 14.84 14.86 14.882 14.905 14.933 14.965 14.995 15.017 15.027 15.025 15.018 15.015 15.017 15.015 15 14.975 14.945 14.917 14.893 14.885 14.895 14.905 14.917 14.927 14.927 14.93 14.935 14.965 15.017 15.05 15.068 15.083 15.098 15.108 15.115 15.13 15.153 15.18 15.21 15.215 15.19 15.16 15.135 15.158 15.242 15.317 15.35 15.37 15.388 15.41 15.437 15.447 15.445 15.47 15.512 15.52 15.5 15.48 15.46 15.44 15.41 15.365 15.35 15.37 15.385 15.397 15.407 15.407 15.4 15.387 15.362 15.328 15.303 15.285 15.265 15.245 15.225 15.205 15.185 15.162 15.132 15.1 15.065 15.043 15.068 15.128 15.205 15.302 15.385 15.427 15.442 15.447 15.452 15.457 15.46 15.445 15.44 15.462 15.475 15.463 15.475 15.53 15.585 15.652 15.69 15.678 15.663 15.65 15.635 15.607 15.57 15.555 15.565 15.583 15.62 15.65 15.67 15.7 15.735 15.707 15.62 15.548 15.488 15.485 15.512 15.505 15.478 15.49 15.555 15.683 16.207 16.52 16.273 16.02 15.763 15.523 15.453 15.503 15.535 15.575 15.61
14.363 14.358 14.352 14.347 14.337 14.322 14.305 14.285 14.265 14.245 14.25 14.295 14.352 14.397 14.43 14.46 14.485 14.505 14.518 14.52 14.523 14.525 14.53 14.538 14.543 14.54 14.51 14.465 14.42 14.385 14.405 14.465 14.53 14.585 14.605 14.605 14.6 14.593 14.598 14.615 14.64 14.665 14.68 14.69 14.697 14.702 14.712 14.722 14.73 14.74 14.742 14.74 14.74 14.74 14.75 14.77 14.79 14.81 14.833 14.855 14.875 14.895 14.918 14.95 14.985 15.017 15.037 15.037 15.03 15.023 15.023 15.025 15.025 15.022 15.005 14.975 14.945 14.92 14.915 14.927 14.94 14.95 14.96 14.967 14.975 14.983 15.005 15.035 15.058 15.08 15.1 15.12 15.135 15.148 15.16 15.182 15.22 15.257 15.265 15.237 15.203 15.173 15.178 15.25 15.352 15.42 15.45 15.472 15.5 15.525 15.537 15.54 15.548 15.582 15.6 15.58 15.56 15.537 15.502 15.445 15.375 15.35 15.372 15.39 15.402 15.407 15.4 15.39 15.382 15.37 15.348 15.328 15.31 15.29 15.27 15.25 15.23 15.21 15.19 15.165 15.132 15.098 15.083 15.115 15.183 15.26 15.327 15.36 15.37 15.375 15.38 15.385 15.39 15.397 15.395 15.393 15.41 15.44 15.46 15.488 15.535 15.58 15.672 15.737 15.723 15.71 15.695 15.667 15.63 15.593 15.58 15.59 15.6 15.62 15.645 15.675 15.71 15.742 15.737 15.68 15.613 15.548 15.513 15.49 15.448 15.415 15.45 15.545 15.868 17.082 17.934 17.755 17.577 17.395 17.177 16.535 15.803 15.605 15.638 15.668
14.35 14.343 14.338 14.337 14.325 14.305 14.29 14.27 14.252 14.235 14.243 14.288 14.345 14.4 14.44 14.467 14.492 14.515 14.525 14.525 14.523 14.525 14.538 14.548 14.55 14.54 14.505 14.458 14.41 14.393 14.435 14.503 14.567 14.615 14.625 14.62 14.615 14.603 14.61 14.635 14.66 14.685 14.702 14.715 14.72 14.725 14.735 14.74 14.745 14.752 14.757 14.76 14.76 14.76 14.77 14.79 14.813 14.835 14.855 14.878 14.898 14.915 14.938 14.968 15 15.035 15.052 15.05 15.045 15.035 15.033 15.038 15.04 15.04 15.025 14.995 14.968 14.95 14.945 14.953 14.967 14.98 14.99 15 15.01 15.02 15.043 15.073 15.098 15.123 15.15 15.17 15.18 15.192 15.193 15.198 15.232 15.277 15.295 15.275 15.245 15.215 15.22 15.293 15.395 15.48 15.525 15.547 15.572 15.595 15.615 15.632 15.64 15.665 15.68 15.66 15.63 15.585 15.525 15.455 15.39 15.36 15.375 15.397 15.407 15.405 15.392 15.377 15.37 15.372 15.37 15.355 15.333 15.31 15.29 15.27 15.25 15.23 15.21 15.19 15.165 15.133 15.123 15.165 15.235 15.29 15.312 15.315 15.318 15.32 15.323 15.325 15.328 15.333 15.335 15.338 15.365 15.415 15.468 15.52 15.563 15.605 15.71 15.782 15.77 15.752 15.722 15.685 15.645 15.61 15.613 15.635 15.645 15.655 15.648 15.653 15.685 15.715 15.74 15.732 15.68 15.615 15.56 15.515 15.475 15.455 15.498 15.595 15.973 17.305 18.354 18.435 18.504 18.552 18.566 17.907 16.518 15.783 15.772 15.75
14.338 14.333 14.335 14.335 14.305 14.275 14.265 14.252 14.237 14.22 14.233 14.283 14.34 14.395 14.442 14.475 14.497 14.522 14.532 14.53 14.535 14.558 14.582 14.59 14.582 14.562 14.53 14.483 14.445 14.448 14.498 14.565 14.612 14.64 14.645 14.637 14.63 14.618 14.623 14.647 14.672 14.695 14.715 14.73 14.737 14.745 14.752 14.757 14.762 14.765 14.77 14.777 14.78 14.78 14.79 14.813 14.837 14.862 14.885 14.91 14.932 14.95 14.968 14.985 15.013 15.047 15.065 15.065 15.062 15.055 15.05 15.053 15.055 15.055 15.042 15.015 14.993 14.98 14.975 14.98 14.993 15.005 15.015 15.025 15.035 15.05 15.085 15.13 15.162 15.188 15.215 15.23 15.233 15.237 15.23 15.215 15.23 15.272 15.295 15.29 15.277 15.255 15.278 15.36 15.445 15.525 15.58 15.607 15.63 15.645 15.667 15.702 15.73 15.755 15.757 15.722 15.672 15.613 15.548 15.488 15.433 15.39 15.385 15.402 15.405 15.392 15.375 15.355 15.353 15.37 15.382 15.38 15.362 15.34 15.318 15.295 15.275 15.255 15.235 15.215 15.195 15.168 15.165 15.21 15.26 15.287 15.295 15.295 15.295 15.293 15.29 15.29 15.29 15.293 15.298 15.308 15.358 15.435 15.505 15.58 15.635 15.685 15.777 15.827 15.807 15.775 15.735 15.695 15.655 15.618 15.633 15.682 15.705 15.715 15.68 15.63 15.63 15.655 15.695 15.732 15.732 15.687 15.63 15.588 15.563 15.56 15.598 15.668 16.023 17.3 18.3 18.365 18.392 18.405 18.432 18.239 16.972 15.915 15.895 15.847
14.328 14.335 14.347 14.332 14.285 14.245 14.23 14.227 14.22 14.205 14.22 14.272 14.325 14.368 14.415 14.465 14.5 14.527 14.538 14.543 14.568 14.602 14.625 14.625 14.605 14.58 14.557 14.533 14.525 14.537 14.57 14.612 14.64 14.657 14.662 14.655 14.642 14.63 14.635 14.658 14.682 14.705 14.722 14.737 14.752 14.765 14.77 14.772 14.772 14.773 14.78 14.79 14.797 14.8 14.813 14.837 14.862 14.887 14.912 14.937 14.962 14.985 15 15.01 15.03 15.06 15.075 15.075 15.075 15.072 15.07 15.07 15.07 15.07 15.06 15.038 15.02 15.01 15.008 15.013 15.02 15.03 15.04 15.048 15.055 15.08 15.125 15.175 15.22 15.252 15.275 15.285 15.285 15.282 15.27 15.245 15.24 15.265 15.283 15.285 15.288 15.29 15.33 15.407 15.48 15.555 15.622 15.662 15.682 15.69 15.71 15.75 15.787 15.812 15.805 15.76 15.707 15.655 15.595 15.54 15.485 15.433 15.413 15.407 15.385 15.36 15.34 15.33 15.345 15.37 15.385 15.395 15.392 15.375 15.352 15.328 15.305 15.285 15.265 15.243 15.22 15.198 15.2 15.23 15.255 15.27 15.275 15.275 15.275 15.273 15.273 15.278 15.283 15.29 15.303 15.318 15.368 15.455 15.54 15.632 15.715 15.777 15.84 15.857 15.825 15.785 15.745 15.702 15.66 15.623 15.638 15.702 15.755 15.777 15.74 15.665 15.613 15.603 15.635 15.687 15.732 15.737 15.7 15.67 15.665 15.67 15.71 15.765 16.113 17.322 18.222 18.227 18.22 18.245 18.282 18.159 16.945 15.873 15.877 15.882
14.33 14.345 14.352 14.32 14.265 14.218 14.195 14.195 14.193 14.19 14.21 14.253 14.3 14.348 14.398 14.45 14.495 14.53 14.552 14.572 14.602 14.635 14.652 14.642 14.617 14.595 14.575 14.567 14.577 14.592 14.612 14.635 14.655 14.672 14.677 14.67 14.655 14.64 14.645 14.665 14.688 14.71 14.727 14.745 14.762 14.777 14.785 14.782 14.778 14.778 14.788 14.8 14.81 14.818 14.835 14.86 14.885 14.912 14.937 14.962 14.987 15.012 15.03 15.04 15.053 15.072 15.085 15.085 15.085 15.085 15.085 15.085 15.085 15.085 15.077 15.062 15.05 15.04 15.04 15.045 15.047 15.055 15.065 15.072 15.083 15.115 15.165 15.215 15.265 15.31 15.332 15.335 15.335 15.325 15.305 15.282 15.263 15.265 15.283 15.295 15.308 15.333 15.383 15.45 15.518 15.588 15.66 15.71 15.725 15.725 15.74 15.77 15.795 15.802 15.79 15.76 15.717 15.67 15.617 15.567 15.52 15.47 15.435 15.405 15.363 15.325 15.31 15.32 15.342 15.367 15.385 15.4 15.412 15.405 15.385 15.363 15.34 15.318 15.295 15.272 15.245 15.21 15.198 15.215 15.235 15.245 15.248 15.253 15.258 15.263 15.27 15.28 15.29 15.303 15.318 15.333 15.365 15.445 15.55 15.652 15.74 15.795 15.83 15.842 15.827 15.792 15.75 15.708 15.665 15.628 15.643 15.708 15.775 15.822 15.797 15.722 15.645 15.585 15.588 15.638 15.693 15.737 15.752 15.76 15.772 15.78 15.805 15.828 16.193 17.325 18.067 18.032 18.047 18.092 18.132 18.027 16.87 15.81 15.8 15.83
14.342 14.36 14.355 14.31 14.25 14.193 14.163 14.168 14.18 14.198 14.223 14.258 14.308 14.365 14.423 14.47 14.51 14.545 14.567 14.585 14.61 14.64 14.657 14.647 14.625 14.605 14.588 14.575 14.578 14.595 14.615 14.635 14.655 14.675 14.68 14.67 14.657 14.645 14.653 14.675 14.695 14.715 14.733 14.75 14.767 14.782 14.79 14.785 14.783 14.788 14.798 14.81 14.823 14.833 14.848 14.87 14.895 14.922 14.947 14.972 14.997 15.025 15.045 15.057 15.07 15.082 15.087 15.085 15.085 15.085 15.087 15.092 15.095 15.095 15.09 15.08 15.07 15.062 15.062 15.065 15.067 15.072 15.08 15.09 15.11 15.15 15.2 15.25 15.3 15.35 15.375 15.375 15.365 15.34 15.315 15.295 15.27 15.273 15.31 15.34 15.36 15.388 15.438 15.503 15.567 15.632 15.69 15.73 15.74 15.732 15.74 15.757 15.765 15.755 15.738 15.72 15.687 15.645 15.602 15.557 15.515 15.47 15.422 15.38 15.337 15.298 15.293 15.315 15.335 15.357 15.38 15.4 15.42 15.43 15.42 15.398 15.375 15.352 15.327 15.295 15.25 15.195 15.173 15.19 15.21 15.228 15.24 15.25 15.26 15.27 15.28 15.293 15.305 15.318 15.333 15.35 15.37 15.43 15.535 15.632 15.695 15.727 15.755 15.78 15.795 15.787 15.755 15.715 15.675 15.635 15.648 15.71 15.775 15.835 15.827 15.757 15.68 15.6 15.575 15.613 15.665 15.72 15.762 15.792 15.817 15.835 15.845 15.858 16.068 16.87 17.467 17.482 17.51 17.615 17.847 17.852 16.758 15.745 15.713 15.758
14.347 14.38 14.37 14.318 14.253 14.203 14.183 14.198 14.23 14.26 14.285 14.315 14.355 14.403 14.458 14.507 14.547 14.572 14.58 14.588 14.605 14.628 14.65 14.65 14.63 14.613 14.6 14.588 14.578 14.585 14.605 14.625 14.645 14.667 14.675 14.665 14.655 14.645 14.653 14.677 14.702 14.725 14.74 14.753 14.77 14.785 14.79 14.788 14.79 14.802 14.815 14.825 14.837 14.845 14.855 14.873 14.893 14.917 14.943 14.968 14.995 15.025 15.047 15.063 15.077 15.09 15.087 15.078 15.075 15.073 15.078 15.092 15.1 15.1 15.095 15.087 15.08 15.072 15.07 15.073 15.08 15.085 15.09 15.105 15.138 15.183 15.228 15.275 15.325 15.375 15.4 15.395 15.37 15.333 15.305 15.282 15.258 15.265 15.32 15.38 15.417 15.445 15.493 15.557 15.615 15.66 15.69 15.71 15.717 15.71 15.715 15.727 15.722 15.705 15.685 15.667 15.645 15.612 15.575 15.532 15.487 15.44 15.39 15.345 15.303 15.27 15.275 15.3 15.32 15.34 15.365 15.393 15.418 15.44 15.447 15.432 15.407 15.377 15.337 15.285 15.225 15.168 15.15 15.168 15.19 15.225 15.25 15.26 15.27 15.283 15.295 15.307 15.32 15.333 15.35 15.367 15.383 15.425 15.51 15.587 15.627 15.652 15.677 15.7 15.725 15.745 15.745 15.722 15.682 15.64 15.65 15.713 15.777 15.835 15.83 15.767 15.697 15.623 15.593 15.615 15.658 15.71 15.747 15.77 15.797 15.817 15.817 15.83 15.86 16.11 16.345 16.368 16.408 16.515 17.202 17.619 16.582 15.683 15.673 15.732
14.38 14.4 14.392 14.353 14.31 14.283 14.273 14.288 14.315 14.342 14.372 14.4 14.428 14.463 14.508 14.55 14.58 14.592 14.598 14.605 14.615 14.625 14.643 14.65 14.638 14.625 14.613 14.6 14.585 14.58 14.595 14.618 14.64 14.662 14.67 14.66 14.65 14.64 14.648 14.675 14.705 14.732 14.75 14.76 14.773 14.785 14.79 14.795 14.805 14.818 14.83 14.84 14.85 14.855 14.863 14.878 14.893 14.913 14.938 14.965 14.998 15.03 15.052 15.068 15.085 15.1 15.095 15.078 15.065 15.058 15.065 15.085 15.097 15.102 15.1 15.093 15.085 15.078 15.075 15.08 15.087 15.092 15.1 15.128 15.175 15.22 15.26 15.303 15.348 15.395 15.42 15.402 15.365 15.325 15.295 15.27 15.243 15.245 15.3 15.377 15.442 15.492 15.537 15.582 15.617 15.637 15.652 15.67 15.682 15.683 15.685 15.685 15.672 15.655 15.635 15.615 15.595 15.572 15.542 15.505 15.46 15.41 15.36 15.313 15.268 15.243 15.255 15.28 15.305 15.34 15.373 15.398 15.42 15.44 15.457 15.457 15.427 15.377 15.32 15.26 15.2 15.143 15.125 15.143 15.17 15.22 15.257 15.273 15.285 15.297 15.31 15.32 15.333 15.348 15.365 15.383 15.4 15.425 15.475 15.525 15.55 15.575 15.6 15.62 15.645 15.67 15.692 15.702 15.682 15.645 15.653 15.715 15.78 15.835 15.832 15.775 15.712 15.648 15.62 15.633 15.655 15.698 15.735 15.753 15.772 15.785 15.773 15.76 15.758 15.725 15.685 15.71 15.78 15.841 16.565 16.997 16.195 15.653 15.678 15.715
14.492 14.45 14.425 14.415 14.412 14.4 14.383 14.388 14.4 14.42 14.455 14.485 14.512 14.54 14.57 14.595 14.605 14.608 14.615 14.625 14.632 14.638 14.648 14.655 14.65 14.64 14.628 14.615 14.6 14.588 14.593 14.612 14.635 14.655 14.66 14.65 14.64 14.633 14.645 14.675 14.705 14.735 14.755 14.765 14.775 14.785 14.795 14.807 14.82 14.832 14.842 14.85 14.857 14.862 14.87 14.882 14.897 14.913 14.935 14.968 15.002 15.035 15.057 15.075 15.092 15.107 15.105 15.085 15.065 15.05 15.055 15.075 15.09 15.102 15.105 15.097 15.09 15.083 15.082 15.087 15.092 15.097 15.11 15.155 15.217 15.265 15.305 15.345 15.385 15.427 15.44 15.405 15.36 15.318 15.283 15.257 15.23 15.228 15.28 15.355 15.43 15.505 15.55 15.568 15.583 15.595 15.61 15.63 15.645 15.655 15.655 15.64 15.623 15.608 15.59 15.57 15.55 15.53 15.508 15.475 15.43 15.38 15.33 15.28 15.233 15.22 15.245 15.275 15.315 15.37 15.41 15.43 15.445 15.46 15.472 15.465 15.427 15.368 15.303 15.238 15.175 15.118 15.1 15.123 15.155 15.208 15.26 15.287 15.3 15.31 15.32 15.333 15.347 15.363 15.38 15.4 15.415 15.423 15.45 15.485 15.503 15.52 15.538 15.555 15.575 15.593 15.615 15.64 15.65 15.643 15.658 15.715 15.78 15.837 15.837 15.78 15.72 15.665 15.645 15.655 15.668 15.693 15.72 15.735 15.75 15.757 15.74 15.713 15.685 15.645 15.648 15.712 15.785 15.855 16.192 16.248 15.85 15.685 15.678 15.68
14.565 14.485 14.443 14.45 14.467 14.475 14.475 14.482 14.485 14.498 14.53 14.557 14.58 14.6 14.62 14.632 14.628 14.625 14.632 14.64 14.648 14.655 14.66 14.657 14.652 14.648 14.647 14.645 14.63 14.615 14.605 14.6 14.61 14.63 14.637 14.63 14.625 14.63 14.648 14.673 14.7 14.73 14.752 14.765 14.775 14.785 14.8 14.815 14.825 14.84 14.85 14.855 14.86 14.865 14.875 14.885 14.9 14.915 14.935 14.97 15.005 15.035 15.057 15.075 15.092 15.11 15.107 15.085 15.065 15.048 15.048 15.065 15.082 15.097 15.102 15.097 15.09 15.083 15.08 15.078 15.08 15.085 15.103 15.173 15.262 15.32 15.36 15.403 15.442 15.475 15.467 15.42 15.375 15.333 15.285 15.248 15.22 15.213 15.26 15.338 15.415 15.495 15.542 15.555 15.565 15.575 15.59 15.613 15.633 15.653 15.658 15.638 15.615 15.598 15.58 15.56 15.54 15.52 15.5 15.47 15.425 15.375 15.325 15.275 15.228 15.22 15.253 15.29 15.353 15.417 15.45 15.47 15.487 15.495 15.482 15.455 15.417 15.365 15.3 15.23 15.165 15.108 15.095 15.125 15.158 15.2 15.255 15.295 15.31 15.32 15.333 15.347 15.363 15.38 15.397 15.407 15.407 15.41 15.445 15.487 15.508 15.52 15.53 15.545 15.56 15.57 15.585 15.605 15.623 15.635 15.66 15.713 15.775 15.835 15.837 15.78 15.72 15.67 15.658 15.67 15.685 15.697 15.703 15.71 15.725 15.73 15.71 15.683 15.652 15.615 15.618 15.677 15.75 15.82 15.948 15.935 15.8 15.727 15.688 15.69
14.555 14.475 14.438 14.448 14.465 14.485 14.505 14.527 14.545 14.562 14.587 14.607 14.622 14.64 14.657 14.662 14.653 14.645 14.648 14.655 14.662 14.665 14.66 14.653 14.648 14.65 14.667 14.677 14.667 14.652 14.63 14.603 14.588 14.593 14.6 14.603 14.615 14.635 14.655 14.673 14.695 14.725 14.747 14.76 14.772 14.785 14.798 14.813 14.828 14.845 14.855 14.858 14.86 14.865 14.875 14.885 14.9 14.915 14.935 14.97 15.002 15.03 15.052 15.07 15.09 15.11 15.107 15.083 15.06 15.045 15.045 15.058 15.075 15.092 15.097 15.09 15.083 15.077 15.07 15.063 15.06 15.06 15.09 15.185 15.307 15.385 15.425 15.465 15.497 15.515 15.495 15.448 15.41 15.375 15.32 15.26 15.22 15.208 15.248 15.325 15.405 15.485 15.537 15.555 15.565 15.575 15.593 15.622 15.65 15.675 15.687 15.672 15.648 15.625 15.603 15.58 15.56 15.54 15.517 15.485 15.44 15.39 15.343 15.3 15.26 15.245 15.268 15.315 15.402 15.472 15.492 15.51 15.517 15.502 15.47 15.435 15.402 15.362 15.31 15.245 15.178 15.115 15.105 15.142 15.175 15.208 15.25 15.295 15.32 15.333 15.347 15.362 15.377 15.387 15.392 15.393 15.39 15.4 15.443 15.5 15.532 15.547 15.56 15.573 15.587 15.6 15.61 15.625 15.64 15.648 15.668 15.71 15.768 15.83 15.832 15.777 15.72 15.673 15.665 15.68 15.692 15.702 15.698 15.688 15.695 15.702 15.685 15.657 15.625 15.585 15.58 15.625 15.693 15.765 15.833 15.857 15.817 15.74 15.708 15.727
14.535 14.468 14.435 14.448 14.463 14.48 14.503 14.535 14.575 14.607 14.627 14.643 14.66 14.677 14.69 14.69 14.68 14.67 14.665 14.67 14.672 14.662 14.65 14.648 14.648 14.658 14.682 14.702 14.705 14.69 14.665 14.635 14.605 14.585 14.58 14.593 14.62 14.645 14.662 14.678 14.695 14.72 14.742 14.755 14.768 14.783 14.795 14.81 14.83 14.85 14.86 14.86 14.86 14.865 14.875 14.888 14.902 14.915 14.935 14.967 14.997 15.025 15.047 15.068 15.09 15.11 15.11 15.085 15.06 15.045 15.045 15.055 15.07 15.087 15.092 15.085 15.077 15.07 15.063 15.058 15.053 15.053 15.103 15.213 15.345 15.445 15.49 15.517 15.54 15.547 15.523 15.483 15.455 15.425 15.367 15.295 15.235 15.213 15.25 15.323 15.398 15.472 15.527 15.552 15.567 15.58 15.6 15.635 15.667 15.695 15.71 15.705 15.685 15.658 15.633 15.608 15.585 15.562 15.535 15.5 15.455 15.41 15.37 15.333 15.295 15.27 15.285 15.355 15.457 15.52 15.535 15.535 15.515 15.485 15.45 15.415 15.385 15.35 15.31 15.257 15.19 15.125 15.115 15.155 15.192 15.225 15.258 15.298 15.33 15.347 15.362 15.372 15.377 15.38 15.383 15.387 15.38 15.39 15.443 15.505 15.55 15.575 15.59 15.6 15.613 15.627 15.64 15.652 15.662 15.665 15.683 15.72 15.768 15.825 15.827 15.773 15.718 15.678 15.673 15.687 15.7 15.71 15.705 15.685 15.675 15.677 15.665 15.632 15.595 15.558 15.553 15.585 15.635 15.7 15.755 15.78 15.777 15.74 15.723 15.745
14.49 14.452 14.435 14.45 14.465 14.477 14.505 14.547 14.592 14.635 14.662 14.68 14.697 14.707 14.712 14.71 14.702 14.695 14.685 14.677 14.665 14.645 14.635 14.64 14.65 14.67 14.697 14.722 14.737 14.73 14.705 14.675 14.645 14.615 14.598 14.605 14.628 14.652 14.67 14.685 14.7 14.718 14.737 14.753 14.768 14.783 14.798 14.815 14.835 14.852 14.862 14.865 14.865 14.868 14.875 14.89 14.905 14.917 14.937 14.965 14.995 15.022 15.043 15.063 15.087 15.11 15.11 15.085 15.057 15.037 15.032 15.04 15.05 15.067 15.08 15.077 15.07 15.063 15.063 15.063 15.063 15.075 15.143 15.26 15.385 15.49 15.54 15.557 15.575 15.582 15.562 15.53 15.505 15.472 15.412 15.34 15.268 15.228 15.263 15.335 15.405 15.475 15.527 15.552 15.57 15.587 15.61 15.645 15.682 15.715 15.73 15.73 15.72 15.695 15.67 15.645 15.612 15.577 15.542 15.507 15.47 15.435 15.402 15.365 15.327 15.295 15.318 15.415 15.512 15.555 15.555 15.53 15.495 15.465 15.43 15.395 15.365 15.33 15.295 15.255 15.197 15.135 15.125 15.165 15.207 15.245 15.275 15.308 15.34 15.36 15.373 15.378 15.378 15.385 15.395 15.392 15.365 15.38 15.452 15.512 15.558 15.595 15.617 15.63 15.64 15.655 15.67 15.677 15.68 15.68 15.7 15.74 15.78 15.825 15.825 15.77 15.715 15.683 15.68 15.695 15.71 15.72 15.715 15.695 15.675 15.66 15.64 15.605 15.565 15.53 15.525 15.555 15.593 15.638 15.675 15.695 15.715 15.725 15.738 15.76
14.405 14.39 14.392 14.41 14.427 14.442 14.47 14.512 14.555 14.6 14.632 14.647 14.66 14.67 14.675 14.67 14.662 14.657 14.655 14.647 14.627 14.603 14.597 14.61 14.63 14.662 14.7 14.735 14.76 14.765 14.745 14.715 14.682 14.65 14.633 14.635 14.648 14.665 14.68 14.692 14.705 14.717 14.735 14.758 14.78 14.795 14.81 14.83 14.85 14.862 14.87 14.875 14.875 14.875 14.875 14.883 14.897 14.912 14.932 14.96 14.99 15.017 15.04 15.06 15.082 15.102 15.087 15.047 15.015 14.987 14.977 14.982 14.995 15.03 15.057 15.06 15.055 15.05 15.065 15.082 15.088 15.115 15.2 15.32 15.43 15.515 15.56 15.577 15.592 15.595 15.585 15.572 15.555 15.52 15.457 15.38 15.3 15.258 15.293 15.365 15.435 15.505 15.547 15.558 15.568 15.585 15.612 15.65 15.69 15.727 15.747 15.75 15.747 15.732 15.7 15.66 15.617 15.575 15.535 15.5 15.47 15.44 15.41 15.377 15.347 15.325 15.368 15.482 15.562 15.57 15.545 15.512 15.478 15.445 15.41 15.375 15.345 15.31 15.275 15.24 15.197 15.145 15.135 15.178 15.222 15.262 15.295 15.325 15.358 15.383 15.393 15.395 15.398 15.405 15.407 15.393 15.368 15.388 15.46 15.53 15.575 15.61 15.642 15.66 15.67 15.682 15.695 15.7 15.695 15.7 15.728 15.765 15.805 15.84 15.83 15.778 15.728 15.705 15.71 15.725 15.737 15.735 15.72 15.7 15.68 15.65 15.618 15.585 15.545 15.51 15.51 15.545 15.583 15.618 15.645 15.67 15.7 15.73 15.757 15.78
14.298 14.293 14.303 14.32 14.34 14.362 14.387 14.417 14.455 14.497 14.527 14.54 14.553 14.57 14.582 14.58 14.573 14.573 14.58 14.58 14.567 14.545 14.54 14.56 14.585 14.62 14.665 14.71 14.747 14.775 14.777 14.752 14.718 14.685 14.67 14.675 14.685 14.695 14.693 14.69 14.7 14.71 14.733 14.765 14.792 14.812 14.83 14.85 14.865 14.872 14.88 14.885 14.885 14.885 14.88 14.875 14.883 14.898 14.92 14.953 14.985 15.015 15.04 15.06 15.077 15.087 15.055 14.99 14.938 14.9 14.89 14.905 14.94 14.995 15.03 15.035 15.033 15.033 15.062 15.1 15.113 15.158 15.257 15.365 15.455 15.525 15.562 15.58 15.587 15.575 15.57 15.575 15.572 15.55 15.487 15.4 15.32 15.295 15.338 15.405 15.475 15.542 15.572 15.565 15.565 15.578 15.605 15.645 15.688 15.73 15.75 15.747 15.745 15.735 15.7 15.65 15.605 15.565 15.525 15.488 15.46 15.438 15.41 15.383 15.36 15.365 15.43 15.542 15.592 15.56 15.525 15.495 15.46 15.425 15.392 15.358 15.325 15.29 15.255 15.22 15.185 15.148 15.148 15.192 15.235 15.275 15.31 15.343 15.385 15.422 15.435 15.435 15.435 15.43 15.42 15.415 15.408 15.415 15.468 15.542 15.6 15.633 15.663 15.687 15.7 15.707 15.71 15.705 15.705 15.728 15.763 15.8 15.837 15.86 15.842 15.795 15.76 15.753 15.762 15.772 15.767 15.745 15.72 15.7 15.672 15.633 15.6 15.572 15.535 15.503 15.513 15.555 15.597 15.635 15.667 15.697 15.725 15.755 15.78 15.803
14.2 14.205 14.215 14.228 14.243 14.265 14.29 14.315 14.348 14.383 14.413 14.433 14.45 14.473 14.49 14.493 14.493 14.5 14.507 14.507 14.5 14.485 14.485 14.51 14.537 14.565 14.605 14.65 14.695 14.74 14.767 14.77 14.752 14.725 14.71 14.715 14.728 14.742 14.725 14.693 14.69 14.703 14.728 14.76 14.792 14.822 14.847 14.867 14.875 14.88 14.89 14.895 14.895 14.895 14.89 14.88 14.875 14.883 14.908 14.945 14.982 15.015 15.04 15.055 15.062 15.065 15.03 14.955 14.88 14.82 14.81 14.85 14.905 14.965 15 15.005 15.008 15.015 15.05 15.105 15.14 15.2 15.297 15.382 15.46 15.53 15.567 15.577 15.57 15.548 15.54 15.545 15.547 15.532 15.485 15.41 15.343 15.338 15.385 15.448 15.517 15.577 15.592 15.578 15.57 15.575 15.6 15.64 15.685 15.732 15.747 15.733 15.72 15.705 15.675 15.632 15.59 15.55 15.51 15.478 15.463 15.45 15.425 15.4 15.39 15.428 15.508 15.6 15.612 15.548 15.505 15.475 15.44 15.405 15.375 15.34 15.305 15.27 15.235 15.203 15.17 15.148 15.163 15.205 15.247 15.29 15.325 15.363 15.415 15.465 15.487 15.485 15.47 15.44 15.415 15.422 15.44 15.45 15.488 15.553 15.617 15.662 15.688 15.71 15.725 15.722 15.71 15.708 15.73 15.765 15.798 15.835 15.865 15.875 15.857 15.825 15.81 15.81 15.812 15.802 15.775 15.745 15.72 15.695 15.655 15.61 15.58 15.555 15.523 15.498 15.515 15.562 15.607 15.65 15.69 15.725 15.753 15.78 15.805 15.83
14.12 14.13 14.138 14.145 14.155 14.175 14.2 14.225 14.253 14.28 14.31 14.338 14.363 14.388 14.408 14.418 14.425 14.435 14.438 14.435 14.43 14.423 14.43 14.455 14.487 14.517 14.55 14.59 14.632 14.672 14.705 14.735 14.752 14.752 14.752 14.762 14.78 14.8 14.782 14.73 14.695 14.695 14.72 14.753 14.787 14.82 14.85 14.872 14.882 14.89 14.897 14.902 14.905 14.905 14.9 14.89 14.88 14.875 14.895 14.935 14.975 15.012 15.035 15.04 15.04 15.04 15.008 14.94 14.868 14.8 14.795 14.845 14.895 14.943 14.97 14.978 14.985 14.998 15.035 15.1 15.157 15.225 15.31 15.387 15.462 15.532 15.572 15.57 15.547 15.523 15.513 15.515 15.51 15.485 15.45 15.408 15.37 15.383 15.435 15.495 15.562 15.607 15.607 15.595 15.582 15.575 15.598 15.643 15.69 15.737 15.75 15.727 15.705 15.68 15.642 15.602 15.565 15.525 15.495 15.48 15.475 15.467 15.445 15.42 15.438 15.507 15.58 15.627 15.615 15.547 15.488 15.453 15.42 15.385 15.355 15.32 15.285 15.25 15.215 15.188 15.168 15.16 15.178 15.215 15.26 15.305 15.345 15.39 15.445 15.5 15.525 15.507 15.468 15.42 15.385 15.393 15.43 15.462 15.505 15.567 15.632 15.69 15.72 15.732 15.737 15.72 15.71 15.733 15.767 15.8 15.832 15.862 15.88 15.885 15.875 15.86 15.85 15.842 15.832 15.807 15.775 15.745 15.715 15.68 15.635 15.59 15.56 15.535 15.508 15.493 15.515 15.562 15.608 15.655 15.702 15.75 15.79 15.818 15.84 15.865
14.05 14.057 14.063 14.07 14.08 14.098 14.123 14.148 14.173 14.203 14.238 14.273 14.305 14.33 14.348 14.358 14.365 14.375 14.375 14.37 14.365 14.36 14.368 14.39 14.422 14.455 14.48 14.502 14.532 14.567 14.59 14.61 14.642 14.675 14.7 14.72 14.74 14.765 14.782 14.757 14.707 14.69 14.71 14.745 14.78 14.81 14.84 14.865 14.882 14.897 14.905 14.91 14.915 14.915 14.91 14.9 14.893 14.885 14.898 14.935 14.975 15.012 15.03 15.03 15.033 15.04 15.02 14.963 14.898 14.845 14.848 14.89 14.927 14.953 14.97 14.985 14.993 15.008 15.045 15.1 15.16 15.23 15.31 15.39 15.465 15.535 15.567 15.55 15.52 15.495 15.485 15.482 15.467 15.435 15.418 15.418 15.408 15.425 15.483 15.545 15.595 15.61 15.6 15.587 15.57 15.568 15.605 15.66 15.708 15.747 15.747 15.718 15.692 15.66 15.613 15.563 15.52 15.485 15.475 15.482 15.485 15.48 15.463 15.458 15.502 15.565 15.602 15.607 15.582 15.537 15.48 15.433 15.398 15.365 15.335 15.3 15.265 15.23 15.2 15.185 15.178 15.175 15.188 15.223 15.27 15.312 15.36 15.415 15.47 15.525 15.555 15.535 15.483 15.428 15.385 15.383 15.418 15.463 15.515 15.577 15.642 15.702 15.735 15.745 15.747 15.728 15.723 15.755 15.79 15.82 15.852 15.875 15.882 15.887 15.88 15.86 15.84 15.825 15.812 15.79 15.762 15.74 15.71 15.668 15.623 15.58 15.548 15.523 15.5 15.49 15.513 15.558 15.605 15.655 15.71 15.778 15.842 15.89 15.92 15.943
13.975 13.983 13.99 14 14.01 14.025 14.05 14.075 14.103 14.14 14.182 14.225 14.26 14.287 14.302 14.305 14.308 14.315 14.315 14.308 14.302 14.298 14.303 14.323 14.348 14.377 14.392 14.39 14.403 14.432 14.445 14.443 14.46 14.495 14.53 14.557 14.58 14.615 14.672 14.707 14.69 14.663 14.682 14.732 14.77 14.8 14.83 14.855 14.875 14.9 14.917 14.922 14.922 14.92 14.92 14.915 14.908 14.905 14.918 14.948 14.983 15.017 15.035 15.038 15.048 15.065 15.055 15.005 14.945 14.903 14.91 14.945 14.967 14.975 14.99 15.015 15.027 15.043 15.078 15.123 15.168 15.225 15.3 15.38 15.46 15.53 15.55 15.525 15.495 15.468 15.455 15.445 15.43 15.423 15.438 15.46 15.455 15.47 15.527 15.575 15.587 15.575 15.56 15.545 15.535 15.563 15.625 15.69 15.74 15.77 15.752 15.708 15.675 15.642 15.592 15.53 15.473 15.435 15.438 15.46 15.477 15.487 15.487 15.502 15.54 15.567 15.58 15.57 15.537 15.502 15.462 15.415 15.373 15.342 15.315 15.28 15.245 15.215 15.198 15.195 15.19 15.183 15.193 15.23 15.272 15.297 15.35 15.427 15.487 15.542 15.582 15.58 15.537 15.48 15.43 15.415 15.433 15.468 15.52 15.583 15.647 15.705 15.735 15.745 15.752 15.745 15.74 15.765 15.8 15.827 15.852 15.87 15.877 15.882 15.872 15.843 15.81 15.788 15.778 15.762 15.74 15.73 15.71 15.665 15.62 15.578 15.543 15.52 15.5 15.488 15.508 15.555 15.605 15.665 15.74 15.823 15.9 15.967 16.02 16.057
13.9 13.91 13.92 13.93 13.943 13.958 13.98 14.008 14.04 14.083 14.127 14.17 14.21 14.242 14.255 14.255 14.255 14.26 14.26 14.248 14.24 14.235 14.24 14.26 14.278 14.297 14.302 14.288 14.283 14.298 14.305 14.295 14.293 14.31 14.343 14.375 14.405 14.45 14.515 14.58 14.617 14.607 14.628 14.697 14.752 14.792 14.822 14.848 14.875 14.91 14.932 14.932 14.925 14.92 14.925 14.93 14.925 14.925 14.943 14.968 14.995 15.025 15.045 15.057 15.073 15.09 15.082 15.042 14.993 14.96 14.967 14.985 14.987 14.988 15.005 15.035 15.057 15.075 15.11 15.152 15.185 15.22 15.28 15.36 15.435 15.495 15.512 15.492 15.467 15.44 15.425 15.425 15.435 15.463 15.495 15.512 15.505 15.517 15.552 15.56 15.547 15.53 15.513 15.503 15.518 15.57 15.64 15.712 15.775 15.802 15.775 15.715 15.665 15.63 15.58 15.515 15.453 15.415 15.423 15.448 15.473 15.492 15.497 15.507 15.527 15.54 15.545 15.527 15.493 15.458 15.422 15.385 15.347 15.315 15.288 15.258 15.23 15.213 15.205 15.202 15.195 15.188 15.2 15.23 15.25 15.255 15.308 15.407 15.492 15.557 15.597 15.61 15.587 15.538 15.49 15.468 15.47 15.485 15.525 15.587 15.65 15.702 15.73 15.74 15.747 15.752 15.755 15.773 15.802 15.825 15.845 15.86 15.872 15.88 15.867 15.835 15.795 15.763 15.748 15.738 15.728 15.73 15.715 15.668 15.618 15.573 15.54 15.52 15.5 15.485 15.505 15.558 15.62 15.7 15.792 15.88 15.952 16.02 16.085 16.145
13.83 13.84 13.85 13.86 13.875 13.89 13.91 13.945 13.985 14.028 14.073 14.115 14.16 14.197 14.21 14.208 14.205 14.208 14.205 14.193 14.183 14.175 14.18 14.198 14.213 14.223 14.218 14.2 14.183 14.175 14.17 14.16 14.15 14.148 14.165 14.195 14.235 14.29 14.355 14.42 14.485 14.525 14.563 14.635 14.707 14.77 14.812 14.84 14.87 14.902 14.922 14.927 14.925 14.92 14.922 14.932 14.94 14.947 14.967 14.99 15.01 15.032 15.055 15.075 15.095 15.115 15.11 15.075 15.032 15.007 15.005 15.005 15.003 15.003 15.02 15.052 15.082 15.105 15.137 15.172 15.2 15.228 15.268 15.328 15.385 15.437 15.457 15.44 15.425 15.413 15.433 15.473 15.498 15.525 15.555 15.567 15.552 15.545 15.542 15.525 15.508 15.49 15.473 15.478 15.518 15.582 15.655 15.727 15.797 15.832 15.802 15.737 15.675 15.622 15.567 15.505 15.453 15.435 15.45 15.472 15.49 15.497 15.49 15.48 15.49 15.507 15.507 15.482 15.448 15.413 15.378 15.343 15.31 15.283 15.263 15.248 15.235 15.225 15.218 15.213 15.205 15.198 15.203 15.213 15.213 15.21 15.255 15.358 15.467 15.56 15.612 15.632 15.63 15.597 15.555 15.528 15.523 15.523 15.533 15.575 15.637 15.692 15.72 15.73 15.74 15.75 15.76 15.778 15.798 15.815 15.835 15.85 15.865 15.877 15.865 15.833 15.798 15.768 15.75 15.743 15.745 15.747 15.727 15.687 15.638 15.585 15.55 15.528 15.505 15.488 15.51 15.578 15.66 15.753 15.847 15.935 16.005 16.07 16.135 16.2
13.795 13.81 13.82 13.83 13.84 13.833 13.843 13.89 13.935 13.975 14.02 14.065 14.105 14.14 14.162 14.167 14.163 14.16 14.153 14.14 14.13 14.118 14.12 14.138 14.155 14.162 14.15 14.13 14.113 14.098 14.085 14.075 14.065 14.055 14.05 14.06 14.093 14.148 14.213 14.278 14.343 14.418 14.478 14.53 14.602 14.677 14.737 14.775 14.8 14.825 14.847 14.862 14.872 14.88 14.895 14.915 14.937 14.957 14.972 14.987 15.005 15.03 15.057 15.08 15.102 15.127 15.125 15.09 15.053 15.033 15.028 15.023 15.02 15.018 15.028 15.06 15.095 15.125 15.157 15.187 15.213 15.24 15.27 15.308 15.35 15.39 15.41 15.405 15.4 15.4 15.458 15.552 15.605 15.63 15.642 15.617 15.575 15.55 15.53 15.51 15.49 15.478 15.478 15.495 15.525 15.57 15.635 15.705 15.775 15.817 15.792 15.73 15.665 15.605 15.552 15.498 15.465 15.468 15.485 15.497 15.5 15.5 15.495 15.463 15.443 15.462 15.465 15.437 15.402 15.368 15.335 15.31 15.293 15.28 15.273 15.268 15.263 15.258 15.25 15.243 15.235 15.225 15.22 15.22 15.218 15.218 15.25 15.333 15.44 15.55 15.617 15.64 15.65 15.64 15.615 15.59 15.577 15.567 15.555 15.56 15.605 15.667 15.7 15.71 15.72 15.738 15.765 15.785 15.798 15.815 15.833 15.845 15.858 15.872 15.872 15.85 15.82 15.795 15.78 15.778 15.777 15.765 15.74 15.712 15.677 15.625 15.58 15.553 15.528 15.508 15.538 15.623 15.715 15.808 15.902 15.987 16.057 16.122 16.187 16.253
13.805 13.825 13.835 13.835 13.815 13.77 13.773 13.832 13.882 13.925 13.97 14.012 14.042 14.07 14.1 14.122 14.127 14.122 14.113 14.1 14.085 14.065 14.063 14.08 14.1 14.107 14.095 14.075 14.063 14.055 14.048 14.04 14.027 14.012 13.995 13.983 13.99 14.03 14.09 14.155 14.238 14.345 14.405 14.41 14.453 14.527 14.595 14.647 14.682 14.707 14.73 14.748 14.765 14.793 14.83 14.862 14.9 14.937 14.955 14.97 14.995 15.025 15.052 15.077 15.1 15.125 15.125 15.09 15.06 15.05 15.05 15.045 15.04 15.038 15.043 15.063 15.09 15.125 15.162 15.197 15.225 15.25 15.282 15.315 15.337 15.35 15.37 15.392 15.397 15.4 15.465 15.59 15.695 15.755 15.75 15.66 15.58 15.555 15.535 15.515 15.505 15.513 15.53 15.547 15.558 15.57 15.598 15.648 15.715 15.765 15.747 15.685 15.628 15.578 15.533 15.493 15.483 15.495 15.502 15.502 15.5 15.5 15.5 15.465 15.413 15.408 15.41 15.385 15.352 15.32 15.298 15.298 15.31 15.31 15.305 15.302 15.302 15.302 15.295 15.285 15.275 15.268 15.265 15.263 15.263 15.27 15.293 15.35 15.44 15.545 15.612 15.63 15.635 15.635 15.63 15.622 15.615 15.605 15.595 15.58 15.585 15.633 15.67 15.68 15.703 15.743 15.782 15.8 15.805 15.82 15.835 15.843 15.85 15.865 15.882 15.875 15.848 15.825 15.813 15.81 15.797 15.775 15.752 15.727 15.702 15.665 15.618 15.585 15.563 15.55 15.59 15.678 15.772 15.865 15.957 16.04 16.11 16.175 16.237 16.3
13.822 13.842 13.835 13.8 13.745 13.688 13.695 13.762 13.825 13.875 13.915 13.95 13.975 14 14.03 14.06 14.082 14.087 14.077 14.062 14.04 14.015 14.01 14.025 14.045 14.052 14.043 14.03 14.023 14.017 14.012 14.002 13.985 13.965 13.948 13.93 13.918 13.925 13.973 14.06 14.178 14.307 14.36 14.333 14.325 14.373 14.442 14.505 14.557 14.59 14.61 14.633 14.663 14.705 14.752 14.793 14.845 14.902 14.935 14.96 14.99 15.02 15.047 15.073 15.097 15.122 15.12 15.093 15.075 15.068 15.067 15.067 15.063 15.06 15.065 15.075 15.09 15.118 15.155 15.195 15.23 15.26 15.285 15.3 15.302 15.3 15.323 15.362 15.385 15.403 15.475 15.6 15.725 15.822 15.825 15.712 15.605 15.563 15.545 15.54 15.55 15.57 15.59 15.602 15.61 15.615 15.615 15.63 15.665 15.71 15.702 15.643 15.595 15.55 15.513 15.498 15.5 15.507 15.505 15.5 15.5 15.5 15.5 15.472 15.408 15.368 15.353 15.328 15.3 15.27 15.263 15.285 15.315 15.335 15.337 15.335 15.342 15.345 15.335 15.328 15.32 15.313 15.31 15.31 15.315 15.325 15.34 15.385 15.46 15.547 15.6 15.605 15.605 15.605 15.615 15.63 15.625 15.615 15.612 15.605 15.598 15.613 15.643 15.67 15.715 15.772 15.81 15.82 15.82 15.828 15.84 15.845 15.848 15.858 15.88 15.89 15.872 15.853 15.842 15.832 15.812 15.788 15.765 15.74 15.715 15.69 15.652 15.62 15.605 15.605 15.65 15.733 15.823 15.917 16.01 16.087 16.152 16.215 16.272 16.322
13.825 13.825 13.782 13.722 13.657 13.603 13.615 13.685 13.757 13.817 13.852 13.88 13.905 13.93 13.96 13.99 14.022 14.045 14.04 14.017 13.99 13.965 13.958 13.97 13.99 14 13.995 13.99 13.985 13.98 13.972 13.955 13.935 13.917 13.902 13.885 13.865 13.853 13.893 14.003 14.137 14.26 14.302 14.275 14.245 14.243 14.288 14.353 14.415 14.465 14.498 14.53 14.578 14.63 14.68 14.733 14.8 14.87 14.917 14.95 14.982 15.015 15.042 15.067 15.092 15.117 15.117 15.103 15.095 15.085 15.083 15.087 15.087 15.085 15.09 15.1 15.108 15.12 15.155 15.2 15.24 15.275 15.285 15.275 15.263 15.253 15.273 15.318 15.36 15.395 15.463 15.57 15.677 15.775 15.82 15.755 15.638 15.578 15.575 15.59 15.61 15.63 15.647 15.657 15.662 15.665 15.665 15.665 15.665 15.677 15.667 15.62 15.575 15.535 15.513 15.51 15.51 15.507 15.503 15.5 15.5 15.5 15.497 15.477 15.42 15.35 15.308 15.285 15.263 15.238 15.243 15.273 15.303 15.335 15.357 15.367 15.377 15.385 15.38 15.372 15.365 15.357 15.355 15.36 15.37 15.38 15.39 15.425 15.487 15.55 15.58 15.58 15.58 15.59 15.618 15.637 15.628 15.61 15.603 15.602 15.605 15.605 15.63 15.682 15.742 15.805 15.837 15.84 15.84 15.842 15.847 15.85 15.85 15.855 15.875 15.897 15.895 15.88 15.867 15.847 15.825 15.8 15.775 15.753 15.728 15.705 15.678 15.658 15.658 15.665 15.71 15.79 15.873 15.957 16.042 16.12 16.185 16.237 16.28 16.317
13.77 13.72 13.655 13.595 13.533 13.5 13.535 13.605 13.677 13.745 13.785 13.81 13.835 13.86 13.89 13.917 13.94 13.957 13.952 13.925 13.897 13.885 13.892 13.907 13.925 13.94 13.945 13.945 13.94 13.935 13.925 13.905 13.885 13.867 13.85 13.83 13.81 13.813 13.858 13.953 14.08 14.19 14.222 14.195 14.173 14.168 14.2 14.26 14.318 14.375 14.423 14.463 14.515 14.57 14.623 14.688 14.765 14.84 14.895 14.932 14.967 15.002 15.025 15.045 15.07 15.092 15.107 15.112 15.11 15.1 15.098 15.103 15.108 15.11 15.115 15.122 15.127 15.135 15.17 15.222 15.267 15.3 15.3 15.28 15.265 15.258 15.278 15.323 15.368 15.403 15.44 15.495 15.57 15.66 15.742 15.74 15.645 15.595 15.612 15.635 15.657 15.68 15.69 15.69 15.687 15.685 15.682 15.677 15.67 15.66 15.645 15.62 15.582 15.543 15.525 15.52 15.513 15.508 15.503 15.5 15.5 15.5 15.495 15.485 15.437 15.35 15.295 15.275 15.255 15.24 15.255 15.288 15.315 15.343 15.37 15.39 15.4 15.412 15.415 15.405 15.395 15.385 15.38 15.385 15.395 15.405 15.415 15.442 15.492 15.54 15.56 15.56 15.57 15.598 15.632 15.647 15.635 15.615 15.598 15.59 15.59 15.59 15.62 15.682 15.75 15.815 15.845 15.847 15.852 15.852 15.85 15.85 15.85 15.853 15.87 15.897 15.91 15.902 15.885 15.863 15.843 15.823 15.8 15.78 15.76 15.74 15.718 15.708 15.715 15.725 15.77 15.852 15.922 15.98 16.05 16.13 16.195 16.237 16.27 16.302
13.665 13.56 13.485 13.425 13.388 13.403 13.46 13.528 13.595 13.665 13.715 13.742 13.765 13.782 13.797 13.812 13.82 13.825 13.815 13.788 13.775 13.788 13.815 13.837 13.855 13.87 13.88 13.887 13.887 13.882 13.87 13.85 13.832 13.815 13.795 13.775 13.765 13.793 13.843 13.905 14.01 14.11 14.13 14.11 14.113 14.138 14.185 14.24 14.293 14.348 14.395 14.435 14.478 14.525 14.583 14.658 14.74 14.81 14.86 14.902 14.942 14.977 14.992 14.995 15.01 15.03 15.055 15.077 15.09 15.1 15.112 15.125 15.138 15.148 15.145 15.138 15.14 15.15 15.185 15.245 15.3 15.33 15.325 15.31 15.305 15.305 15.33 15.375 15.41 15.435 15.453 15.47 15.505 15.56 15.635 15.682 15.64 15.605 15.63 15.655 15.675 15.695 15.7 15.687 15.672 15.662 15.655 15.645 15.635 15.627 15.62 15.61 15.59 15.557 15.538 15.53 15.518 15.51 15.507 15.503 15.5 15.5 15.495 15.49 15.45 15.363 15.305 15.285 15.265 15.26 15.285 15.32 15.35 15.375 15.392 15.405 15.415 15.427 15.432 15.425 15.41 15.387 15.378 15.385 15.395 15.405 15.415 15.435 15.478 15.522 15.54 15.55 15.578 15.613 15.65 15.662 15.645 15.622 15.6 15.583 15.575 15.575 15.605 15.67 15.737 15.8 15.83 15.835 15.845 15.85 15.85 15.85 15.847 15.848 15.865 15.892 15.912 15.915 15.907 15.9 15.887 15.87 15.852 15.835 15.818 15.8 15.78 15.77 15.775 15.788 15.835 15.907 15.952 15.985 16.045 16.125 16.185 16.222 16.255 16.285
13.537 13.403 13.315 13.275 13.285 13.33 13.39 13.455 13.518 13.585 13.642 13.67 13.677 13.677 13.675 13.678 13.68 13.685 13.678 13.668 13.683 13.708 13.735 13.762 13.785 13.8 13.81 13.82 13.827 13.827 13.815 13.795 13.778 13.76 13.74 13.725 13.74 13.79 13.84 13.883 13.955 14.03 14.053 14.06 14.088 14.125 14.173 14.227 14.282 14.337 14.387 14.427 14.457 14.49 14.548 14.63 14.715 14.78 14.825 14.867 14.912 14.945 14.952 14.945 14.943 14.953 14.975 15 15.025 15.052 15.087 15.13 15.172 15.202 15.195 15.17 15.158 15.16 15.198 15.263 15.325 15.36 15.36 15.355 15.355 15.355 15.38 15.422 15.45 15.47 15.487 15.5 15.513 15.53 15.565 15.615 15.622 15.615 15.635 15.652 15.667 15.682 15.685 15.67 15.65 15.633 15.62 15.61 15.6 15.593 15.588 15.58 15.57 15.56 15.548 15.535 15.523 15.513 15.51 15.507 15.503 15.5 15.497 15.492 15.455 15.373 15.313 15.292 15.278 15.283 15.315 15.35 15.377 15.397 15.41 15.42 15.43 15.44 15.447 15.44 15.412 15.38 15.37 15.38 15.39 15.4 15.41 15.425 15.465 15.507 15.528 15.555 15.593 15.63 15.667 15.672 15.65 15.628 15.605 15.585 15.57 15.563 15.593 15.657 15.72 15.78 15.812 15.82 15.83 15.84 15.845 15.845 15.843 15.845 15.863 15.885 15.902 15.912 15.917 15.922 15.92 15.91 15.905 15.897 15.88 15.862 15.845 15.835 15.838 15.85 15.892 15.94 15.965 15.988 16.038 16.117 16.175 16.205 16.237 16.27
13.392 13.248 13.165 13.168 13.21 13.26 13.318 13.382 13.445 13.505 13.552 13.567 13.56 13.55 13.545 13.545 13.545 13.547 13.553 13.57 13.6 13.627 13.655 13.682 13.707 13.725 13.732 13.74 13.75 13.757 13.752 13.737 13.722 13.705 13.685 13.685 13.725 13.785 13.835 13.875 13.922 13.972 14.008 14.038 14.075 14.115 14.16 14.215 14.267 14.312 14.357 14.397 14.427 14.455 14.51 14.595 14.682 14.75 14.787 14.815 14.847 14.87 14.875 14.875 14.872 14.875 14.895 14.92 14.943 14.97 15.023 15.095 15.165 15.222 15.252 15.245 15.215 15.198 15.233 15.305 15.362 15.387 15.395 15.402 15.405 15.405 15.428 15.462 15.485 15.505 15.52 15.533 15.547 15.56 15.573 15.588 15.603 15.615 15.627 15.64 15.653 15.667 15.667 15.653 15.635 15.615 15.598 15.583 15.57 15.56 15.56 15.568 15.573 15.58 15.568 15.543 15.53 15.52 15.513 15.51 15.507 15.503 15.497 15.485 15.442 15.37 15.313 15.295 15.295 15.307 15.332 15.362 15.39 15.403 15.41 15.42 15.432 15.445 15.455 15.442 15.405 15.373 15.365 15.372 15.377 15.382 15.387 15.403 15.445 15.495 15.533 15.57 15.61 15.647 15.677 15.677 15.655 15.635 15.615 15.592 15.57 15.555 15.58 15.64 15.7 15.76 15.795 15.807 15.82 15.827 15.832 15.835 15.835 15.84 15.855 15.872 15.885 15.895 15.902 15.907 15.912 15.915 15.92 15.922 15.915 15.91 15.905 15.9 15.9 15.908 15.932 15.96 15.98 16 16.04 16.11 16.16 16.188 16.222 16.255
13.253 13.115 13.058 13.09 13.138 13.188 13.242 13.3 13.357 13.407 13.437 13.435 13.42 13.41 13.407 13.407 13.405 13.408 13.425 13.455 13.485 13.525 13.56 13.58 13.602 13.62 13.627 13.635 13.647 13.662 13.665 13.655 13.645 13.63 13.612 13.627 13.675 13.727 13.775 13.815 13.865 13.922 13.97 14.012 14.057 14.1 14.145 14.19 14.227 14.26 14.295 14.342 14.385 14.415 14.47 14.555 14.637 14.69 14.712 14.727 14.745 14.76 14.767 14.772 14.778 14.795 14.828 14.855 14.878 14.918 14.983 15.06 15.135 15.205 15.272 15.315 15.312 15.29 15.318 15.38 15.405 15.405 15.412 15.427 15.44 15.45 15.47 15.495 15.515 15.535 15.55 15.565 15.577 15.58 15.582 15.585 15.597 15.61 15.618 15.632 15.645 15.657 15.657 15.643 15.628 15.61 15.59 15.57 15.55 15.545 15.565 15.592 15.617 15.635 15.617 15.565 15.533 15.525 15.518 15.513 15.51 15.505 15.49 15.465 15.417 15.353 15.305 15.295 15.3 15.307 15.323 15.358 15.402 15.413 15.408 15.415 15.427 15.44 15.45 15.442 15.41 15.375 15.358 15.355 15.355 15.355 15.355 15.37 15.415 15.477 15.54 15.59 15.627 15.662 15.687 15.685 15.665 15.642 15.62 15.598 15.583 15.578 15.583 15.62 15.682 15.742 15.775 15.79 15.807 15.815 15.818 15.822 15.825 15.833 15.847 15.86 15.87 15.878 15.885 15.893 15.9 15.905 15.908 15.912 15.915 15.917 15.925 15.937 15.945 15.95 15.962 15.978 15.995 16.015 16.045 16.1 16.145 16.173 16.205 16.237
13.163 13.04 12.993 13.028 13.07 13.113 13.155 13.198 13.245 13.29 13.312 13.3 13.275 13.26 13.26 13.262 13.26 13.265 13.285 13.318 13.36 13.417 13.455 13.465 13.48 13.495 13.505 13.518 13.535 13.555 13.56 13.547 13.53 13.51 13.498 13.523 13.572 13.62 13.668 13.718 13.788 13.862 13.917 13.965 14.015 14.062 14.105 14.135 14.16 14.19 14.228 14.282 14.337 14.375 14.428 14.51 14.575 14.6 14.61 14.62 14.635 14.65 14.66 14.665 14.683 14.73 14.777 14.805 14.84 14.898 14.968 15.042 15.115 15.185 15.255 15.325 15.375 15.392 15.415 15.435 15.425 15.413 15.418 15.435 15.447 15.452 15.47 15.5 15.53 15.557 15.572 15.577 15.577 15.57 15.56 15.565 15.592 15.612 15.618 15.628 15.642 15.652 15.652 15.642 15.63 15.615 15.595 15.575 15.55 15.543 15.57 15.605 15.637 15.652 15.645 15.597 15.54 15.525 15.522 15.515 15.51 15.497 15.47 15.442 15.397 15.335 15.298 15.29 15.282 15.28 15.305 15.36 15.425 15.442 15.423 15.415 15.42 15.43 15.44 15.445 15.427 15.39 15.358 15.34 15.328 15.32 15.32 15.338 15.383 15.44 15.522 15.6 15.642 15.68 15.702 15.692 15.67 15.648 15.63 15.62 15.62 15.625 15.613 15.618 15.668 15.727 15.76 15.775 15.792 15.802 15.805 15.81 15.818 15.828 15.842 15.852 15.86 15.865 15.87 15.88 15.887 15.892 15.895 15.898 15.903 15.91 15.925 15.95 15.97 15.98 15.99 16 16.013 16.03 16.053 16.093 16.132 16.158 16.188 16.222
