ncols         200
nrows         82
xllcorner     548000
yllcorner     261505
cellsize      5
NODATA_value  -9999.0
6.928 6.935 6.943 6.945 6.94 6.88 6.708 6.503 6.473 6.623 6.685 6.62 6.5 6.262 5.965 5.673 5.42 5.213 4.998 4.815 4.733 4.72 4.717 4.705 4.68 4.655 4.64 4.64 4.66 4.665 4.62 4.545 4.505 4.618 4.827 5.002 5.115 5.16 5.155 5.007 4.74 4.607 4.81 5.385 5.992 6.177 5.717 4.88 4.443 4.428 4.393 4.328 4.26 4.193 4.168 4.203 4.26 4.317 4.35 4.36 4.37 4.377 4.397 4.432 4.47 4.515 4.545 4.56 4.578 4.595 4.595 4.595 4.707 4.802 4.525 4.513 4.93 5.042 4.825 4.513 4.365 4.395 4.41 4.378 4.365 4.375 4.385 4.388 4.39 4.24 4.005 3.92 3.92 3.92 3.92 3.92 4.09 4.33 4.347 4.24 4.115 3.96 3.795 3.668 3.618 3.595 3.58 3.615 3.68 3.742 3.737 3.652 3.547 3.455 3.385 3.343 3.315 3.29 3.272 3.262 3.257 3.25 3.242 3.227 3.203 3.175 3.153 3.135 3.118 3.1 3.095 3.105 3.115 3.127 3.142 3.157 3.175 3.192 3.21 3.227 3.242 3.26 3.293 3.337 3.38 3.42 3.45 3.478 3.512 3.545 3.522 3.443 3.358 3.29 3.408 3.688 3.96 4.245 4.588 4.97 5.347 5.66 5.787 5.76 5.737 5.732 5.7 5.66 5.617 5.57 5.538 5.53 5.53 5.53 5.53 5.53 5.53 5.53 5.53 5.53 5.53 5.53 5.53 5.53 5.53 5.53 5.53 5.53 5.53 5.53 5.53 5.53 5.53 5.53 5.53 5.53 5.53 5.53 5.53 5.53
6.883 6.89 6.9 6.915 6.915 6.825 6.628 6.385 6.298 6.373 6.415 6.413 6.37 6.19 5.902 5.615 5.328 5.068 4.863 4.745 4.715 4.7 4.67 4.64 4.615 4.6 4.59 4.59 4.61 4.637 4.632 4.578 4.595 4.747 4.93 5.097 5.245 5.36 5.435 5.377 4.925 4.613 5.058 5.802 6.175 5.98 5.258 4.635 4.535 4.53 4.472 4.393 4.32 4.25 4.215 4.24 4.295 4.355 4.387 4.392 4.4 4.41 4.422 4.447 4.482 4.52 4.557 4.582 4.6 4.615 4.615 4.663 4.787 4.555 4.445 4.87 5.06 4.932 4.628 4.35 4.31 4.36 4.383 4.38 4.4 4.422 4.43 4.432 4.3 4.043 3.92 3.92 3.92 3.92 3.92 4.053 4.287 4.325 4.195 4.092 4.01 3.905 3.765 3.653 3.612 3.585 3.572 3.605 3.657 3.702 3.705 3.64 3.537 3.445 3.385 3.355 3.33 3.305 3.287 3.277 3.272 3.265 3.25 3.227 3.203 3.175 3.155 3.14 3.125 3.115 3.115 3.125 3.135 3.145 3.155 3.17 3.19 3.207 3.222 3.24 3.257 3.275 3.308 3.355 3.402 3.452 3.497 3.532 3.567 3.6 3.612 3.572 3.495 3.435 3.565 3.955 4.31 4.488 4.74 5.12 5.482 5.742 5.79 5.725 5.715 5.735 5.72 5.68 5.64 5.59 5.545 5.53 5.53 5.53 5.53 5.53 5.53 5.53 5.53 5.53 5.53 5.53 5.53 5.53 5.53 5.53 5.53 5.53 5.53 5.53 5.53 5.53 5.53 5.53 5.53 5.53 5.53 5.53 5.538 5.56
6.843 6.843 6.853 6.887 6.912 6.865 6.735 6.547 6.44 6.42 6.4 6.385 6.32 6.122 5.837 5.55 5.265 4.993 4.783 4.69 4.66 4.63 4.603 4.578 4.56 4.55 4.538 4.538 4.56 4.59 4.612 4.61 4.683 4.85 5.017 5.185 5.34 5.48 5.485 5.082 4.443 4.178 5.098 6.099 6.137 5.597 4.895 4.678 4.687 4.635 4.557 4.473 4.393 4.32 4.278 4.275 4.308 4.365 4.397 4.402 4.41 4.42 4.425 4.433 4.458 4.495 4.545 4.592 4.62 4.637 4.658 4.795 4.58 4.313 4.74 5.065 4.97 4.79 4.515 4.353 4.358 4.378 4.398 4.42 4.45 4.47 4.475 4.332 4.055 3.92 3.92 3.92 3.92 3.92 4.05 4.28 4.315 4.185 4.053 3.928 3.838 3.773 3.695 3.635 3.282 3.06 3.023 3.163 3.522 3.605 3.63 3.595 3.5 3.438 3.405 3.37 3.34 3.313 3.293 3.283 3.275 3.265 3.25 3.23 3.207 3.18 3.165 3.16 3.147 3.135 3.135 3.145 3.15 3.15 3.158 3.173 3.193 3.215 3.23 3.245 3.263 3.28 3.313 3.36 3.415 3.48 3.537 3.582 3.62 3.65 3.69 3.707 3.66 3.63 3.74 4.117 4.585 4.75 4.898 5.245 5.53 5.697 5.722 5.685 5.695 5.727 5.735 5.702 5.66 5.595 5.54 5.53 5.53 5.53 5.53 5.53 5.53 5.53 5.53 5.53 5.53 5.53 5.53 5.53 5.53 5.53 5.53 5.53 5.53 5.53 5.53 5.53 5.53 5.53 5.53 5.53 5.53 5.53 5.553 5.615
6.81 6.8 6.813 6.86 6.912 6.885 6.775 6.64 6.53 6.448 6.385 6.355 6.27 6.055 5.77 5.493 5.228 4.975 4.748 4.623 4.59 4.563 4.54 4.523 4.51 4.5 4.485 4.485 4.51 4.54 4.573 4.648 4.785 4.943 5.103 5.27 5.432 5.58 5.13 4.291 4.068 4.069 5.105 6.209 5.782 5.07 4.79 4.822 4.787 4.72 4.642 4.555 4.47 4.395 4.353 4.338 4.34 4.375 4.402 4.41 4.42 4.432 4.437 4.435 4.443 4.465 4.51 4.57 4.62 4.655 4.795 4.7 4.306 4.553 5.01 4.985 4.852 4.655 4.483 4.438 4.442 4.445 4.45 4.47 4.5 4.517 4.365 4.065 3.92 3.92 3.92 3.92 3.92 4.048 4.272 4.305 4.175 4.043 3.913 3.79 3.703 3.66 3.637 3.265 2.833 3.005 3.04 3.065 3.113 3.155 3.47 3.537 3.477 3.448 3.435 3.395 3.355 3.32 3.3 3.287 3.275 3.265 3.25 3.23 3.21 3.188 3.175 3.175 3.167 3.155 3.155 3.16 3.155 3.15 3.16 3.178 3.2 3.225 3.24 3.255 3.27 3.285 3.32 3.375 3.44 3.51 3.57 3.62 3.665 3.703 3.743 3.787 3.797 3.825 3.947 4.17 4.53 4.847 5.067 5.3 5.475 5.6 5.647 5.648 5.675 5.707 5.735 5.725 5.672 5.588 5.533 5.53 5.53 5.53 5.53 5.53 5.53 5.53 5.53 5.53 5.53 5.53 5.53 5.53 5.53 5.53 5.53 5.53 5.53 5.53 5.53 5.53 5.53 5.53 5.53 5.53 5.53 5.53 5.568 5.655
6.785 6.763 6.778 6.835 6.902 6.895 6.792 6.67 6.562 6.472 6.395 6.337 6.222 5.995 5.728 5.473 5.227 4.982 4.738 4.575 4.523 4.5 4.483 4.47 4.46 4.447 4.433 4.435 4.46 4.498 4.595 4.76 4.925 5.07 5.218 5.375 5.53 5.272 4.463 4.231 4.73 5.048 5.657 5.79 4.855 4.146 4.243 4.705 4.852 4.795 4.725 4.64 4.552 4.473 4.425 4.41 4.397 4.398 4.41 4.423 4.435 4.447 4.45 4.442 4.435 4.443 4.503 4.583 4.65 4.765 4.74 4.383 4.493 4.957 5 4.87 4.73 4.588 4.518 4.52 4.52 4.52 4.518 4.525 4.55 4.442 4.12 3.92 3.92 3.92 3.92 3.92 4.048 4.275 4.315 4.195 4.075 3.953 3.835 3.725 3.658 3.642 3.31 2.868 3.108 3.602 3.705 3.61 3.283 3.148 3.173 3.168 3.365 3.465 3.46 3.422 3.375 3.333 3.307 3.292 3.28 3.267 3.25 3.23 3.21 3.193 3.185 3.185 3.183 3.175 3.173 3.17 3.16 3.155 3.165 3.188 3.213 3.235 3.253 3.268 3.283 3.298 3.335 3.4 3.47 3.54 3.6 3.652 3.705 3.752 3.795 3.837 3.882 3.947 4.05 4.198 4.45 4.815 5.115 5.272 5.39 5.508 5.582 5.62 5.655 5.685 5.72 5.732 5.677 5.588 5.545 5.543 5.54 5.54 5.535 5.53 5.53 5.53 5.53 5.53 5.53 5.53 5.53 5.53 5.53 5.53 5.53 5.53 5.53 5.53 5.53 5.53 5.53 5.53 5.53 5.53 5.53 5.53 5.58 5.682
6.76 6.768 6.785 6.82 6.89 6.892 6.805 6.688 6.575 6.485 6.407 6.335 6.182 5.94 5.692 5.447 5.205 4.962 4.718 4.535 4.465 4.445 4.43 4.42 4.407 4.393 4.38 4.388 4.425 4.53 4.738 4.94 5.085 5.227 5.37 5.507 5.48 4.738 4.181 4.725 5.495 6.019 6.194 5.567 4.7 4.138 3.878 4.078 4.552 4.832 4.775 4.695 4.61 4.538 4.483 4.452 4.437 4.425 4.425 4.438 4.45 4.455 4.435 4.402 4.38 4.413 4.558 4.695 4.772 4.757 4.415 4.435 4.907 5.017 4.887 4.748 4.618 4.555 4.56 4.567 4.572 4.58 4.585 4.59 4.54 4.247 3.965 3.92 3.92 3.92 3.92 4.048 4.285 4.345 4.245 4.142 4.035 3.925 3.815 3.71 3.655 3.357 2.968 3.148 3.537 3.705 3.795 3.83 3.777 3.612 3.273 3.123 3.168 3.133 3.273 3.407 3.382 3.342 3.305 3.282 3.27 3.255 3.235 3.215 3.198 3.193 3.2 3.205 3.205 3.2 3.195 3.19 3.183 3.18 3.19 3.215 3.24 3.258 3.275 3.293 3.308 3.323 3.365 3.435 3.502 3.565 3.625 3.682 3.737 3.79 3.835 3.878 3.935 3.985 4.055 4.213 4.468 4.795 5.075 5.24 5.355 5.463 5.545 5.595 5.63 5.662 5.697 5.732 5.705 5.63 5.603 5.605 5.603 5.6 5.585 5.55 5.53 5.53 5.53 5.53 5.53 5.53 5.53 5.53 5.53 5.53 5.53 5.53 5.53 5.53 5.53 5.53 5.53 5.53 5.53 5.53 5.53 5.53 5.58 5.685
6.81 6.875 6.863 6.833 6.872 6.875 6.805 6.702 6.585 6.493 6.415 6.332 6.122 5.833 5.587 5.345 5.105 4.862 4.645 4.503 4.443 4.418 4.395 4.375 4.355 4.34 4.33 4.355 4.465 4.675 4.93 5.12 5.247 5.38 5.507 5.62 5.12 4.281 4.405 5.197 5.852 6.157 6 5.407 4.895 4.63 4.24 3.833 4.01 4.597 4.797 4.723 4.655 4.6 4.54 4.483 4.455 4.445 4.445 4.452 4.457 4.452 4.41 4.348 4.298 4.37 4.63 4.842 4.83 4.453 4.353 4.83 5.035 4.907 4.763 4.63 4.525 4.508 4.547 4.565 4.577 4.592 4.605 4.617 4.387 4.035 3.92 3.92 3.92 3.92 3.948 4.19 4.365 4.28 4.19 4.095 3.995 3.895 3.792 3.655 3.358 3.061 3.205 3.492 3.605 3.718 3.802 3.83 3.795 3.697 3.577 3.495 3.36 3.195 3.155 3.055 3.165 3.35 3.295 3.263 3.238 3.223 3.205 3.188 3.183 3.193 3.21 3.225 3.232 3.232 3.228 3.223 3.22 3.22 3.233 3.257 3.277 3.287 3.303 3.327 3.345 3.36 3.405 3.472 3.532 3.58 3.637 3.705 3.765 3.82 3.865 3.918 3.99 4.023 4.06 4.225 4.488 4.8 5.062 5.225 5.35 5.45 5.517 5.562 5.6 5.635 5.67 5.725 5.745 5.705 5.69 5.7 5.705 5.702 5.682 5.615 5.548 5.53 5.53 5.53 5.53 5.53 5.53 5.53 5.53 5.53 5.53 5.53 5.53 5.53 5.53 5.53 5.53 5.53 5.53 5.53 5.53 5.53 5.568 5.66
6.98 7.037 6.97 6.893 6.865 6.84 6.78 6.705 6.597 6.498 6.42 6.312 6.04 5.695 5.435 5.195 4.955 4.74 4.593 4.5 4.445 4.415 4.385 4.355 4.33 4.31 4.305 4.395 4.61 4.867 5.12 5.297 5.395 5.495 5.595 5.427 4.61 4.256 4.908 5.662 6.117 6.137 5.612 4.933 4.65 4.56 4.48 4.252 3.873 4.138 4.695 4.772 4.72 4.67 4.61 4.54 4.488 4.463 4.46 4.462 4.457 4.447 4.405 4.343 4.31 4.418 4.7 4.897 4.538 4.243 4.695 5.027 4.927 4.783 4.645 4.53 4.455 4.465 4.52 4.545 4.56 4.575 4.587 4.432 4.095 3.92 3.92 3.92 3.92 3.92 4.068 4.277 4.295 4.205 4.115 4.022 3.93 3.84 3.607 3.295 3.17 3.405 3.61 3.613 3.705 3.805 3.84 3.832 3.815 3.755 3.68 3.68 3.732 3.707 3.5 3.17 3.135 3.03 3.078 3.3 3.217 3.193 3.178 3.173 3.183 3.198 3.215 3.235 3.252 3.262 3.263 3.26 3.26 3.263 3.277 3.297 3.307 3.313 3.33 3.357 3.38 3.4 3.443 3.5 3.547 3.585 3.64 3.717 3.787 3.845 3.9 3.97 4.05 4.085 4.09 4.238 4.515 4.802 5.037 5.207 5.342 5.427 5.48 5.525 5.567 5.605 5.64 5.705 5.775 5.785 5.78 5.79 5.8 5.805 5.79 5.715 5.61 5.548 5.53 5.53 5.53 5.53 5.53 5.53 5.53 5.53 5.53 5.53 5.53 5.53 5.53 5.53 5.53 5.53 5.53 5.53 5.53 5.53 5.553 5.64
7.167 7.17 7.072 6.952 6.86 6.803 6.74 6.68 6.6 6.507 6.422 6.277 5.965 5.58 5.285 5.045 4.835 4.69 4.595 4.51 4.448 4.415 4.385 4.352 4.32 4.29 4.338 4.515 4.765 5.027 5.282 5.432 5.487 5.565 5.654 5.032 4.346 4.708 5.42 5.992 6.207 5.897 5.245 4.83 4.743 4.668 4.615 4.532 4.207 3.833 4.3 4.852 4.798 4.74 4.675 4.607 4.543 4.49 4.47 4.465 4.455 4.443 4.428 4.423 4.45 4.58 4.835 4.645 4.203 4.523 4.98 4.945 4.803 4.663 4.543 4.445 4.393 4.42 4.487 4.527 4.542 4.555 4.425 4.105 3.92 3.92 3.92 3.92 3.92 4.043 4.262 4.312 4.22 4.13 4.037 3.945 3.852 3.59 3.253 3.173 3.49 3.825 3.852 3.82 3.842 3.865 3.845 3.825 3.827 3.815 3.787 3.795 3.81 3.802 3.76 3.642 3.44 3.073 3.065 3.068 3.015 3.212 3.205 3.187 3.2 3.21 3.225 3.248 3.273 3.293 3.303 3.305 3.305 3.307 3.317 3.327 3.332 3.338 3.355 3.383 3.408 3.433 3.47 3.513 3.55 3.585 3.64 3.72 3.798 3.87 3.947 4.03 4.11 4.162 4.145 4.263 4.585 4.837 5.005 5.185 5.322 5.395 5.44 5.485 5.53 5.572 5.613 5.688 5.795 5.845 5.85 5.862 5.875 5.885 5.882 5.812 5.69 5.58 5.53 5.53 5.53 5.53 5.53 5.53 5.53 5.53 5.53 5.53 5.53 5.53 5.53 5.53 5.53 5.53 5.53 5.53 5.53 5.53 5.55 5.645
7.31 7.212 7.067 6.923 6.83 6.77 6.705 6.645 6.583 6.507 6.422 6.242 5.895 5.485 5.15 4.928 4.788 4.7 4.63 4.558 4.47 4.403 4.37 4.335 4.295 4.305 4.45 4.663 4.888 5.147 5.392 5.507 5.545 5.625 5.35 4.521 4.451 5.14 5.747 6.155 6.077 5.53 5.033 4.923 4.865 4.823 4.787 4.69 4.53 4.038 4.038 4.685 4.89 4.807 4.72 4.655 4.59 4.525 4.49 4.48 4.47 4.483 4.53 4.59 4.645 4.772 4.7 4.275 4.428 4.932 4.962 4.818 4.678 4.563 4.47 4.388 4.355 4.385 4.448 4.502 4.525 4.47 4.183 3.938 3.92 3.92 3.92 3.92 4.048 4.275 4.33 4.237 4.145 4.052 3.955 3.86 3.565 3.21 3.193 3.412 3.677 3.882 3.95 3.937 3.91 3.867 3.825 3.81 3.82 3.825 3.81 3.787 3.775 3.765 3.747 3.682 3.572 3.455 3.307 3.01 2.963 3.033 2.998 3.175 3.297 3.292 3.285 3.293 3.315 3.34 3.355 3.36 3.355 3.332 3.32 3.33 3.34 3.358 3.383 3.41 3.438 3.463 3.495 3.53 3.565 3.603 3.655 3.73 3.813 3.898 3.985 4.072 4.158 4.25 4.318 4.48 4.735 4.862 4.97 5.142 5.237 5.28 5.337 5.395 5.452 5.51 5.572 5.657 5.762 5.822 5.835 5.847 5.86 5.877 5.89 5.842 5.727 5.595 5.53 5.53 5.53 5.53 5.53 5.53 5.53 5.53 5.53 5.53 5.53 5.53 5.53 5.53 5.53 5.53 5.53 5.53 5.53 5.53 5.563 5.67
7.26 7.13 6.958 6.848 6.798 6.74 6.678 6.63 6.582 6.485 6.345 6.177 5.867 5.445 5.11 4.943 4.865 4.803 4.748 4.672 4.535 4.4 4.338 4.303 4.288 4.393 4.612 4.822 5.023 5.262 5.472 5.557 5.602 5.614 4.878 4.378 4.885 5.515 6.04 6.2 5.83 5.253 5.053 5.068 5.033 5.005 4.955 4.837 4.67 4.442 3.931 4.23 4.912 4.855 4.75 4.685 4.62 4.555 4.52 4.51 4.525 4.588 4.672 4.755 4.83 4.742 4.328 4.38 4.89 4.98 4.832 4.69 4.573 4.495 4.42 4.363 4.36 4.383 4.42 4.472 4.505 4.302 4.008 3.92 3.92 3.92 3.92 4.053 4.287 4.342 4.25 4.155 4.057 3.962 3.865 3.54 3.163 3.228 3.452 3.543 3.67 3.865 3.96 3.937 3.892 3.84 3.803 3.798 3.81 3.817 3.8 3.763 3.738 3.728 3.725 3.69 3.597 3.48 3.362 3.245 3.137 2.965 2.925 3.038 3.028 3.202 3.405 3.387 3.385 3.403 3.417 3.407 3.372 3.315 3.288 3.303 3.333 3.388 3.427 3.445 3.47 3.497 3.528 3.563 3.6 3.64 3.69 3.758 3.838 3.922 4.01 4.103 4.205 4.348 4.55 4.74 4.822 4.84 4.935 5.072 5.102 5.103 5.16 5.23 5.3 5.372 5.462 5.575 5.68 5.735 5.75 5.765 5.788 5.818 5.835 5.805 5.72 5.598 5.53 5.53 5.53 5.53 5.53 5.53 5.53 5.53 5.53 5.53 5.53 5.53 5.53 5.53 5.53 5.53 5.53 5.53 5.53 5.53 5.575 5.695
7.025 6.975 6.863 6.815 6.788 6.74 6.695 6.662 6.597 6.445 6.245 6.075 5.84 5.498 5.238 5.108 5.033 4.977 4.922 4.817 4.64 4.455 4.328 4.27 4.33 4.538 4.782 4.987 5.175 5.375 5.532 5.6 5.657 5.205 4.516 4.773 5.387 5.855 6.177 6.035 5.53 5.215 5.27 5.267 5.22 5.185 5.115 4.975 4.8 4.617 4.12 4.008 4.632 4.89 4.783 4.717 4.65 4.585 4.55 4.563 4.625 4.712 4.792 4.867 4.827 4.413 4.305 4.802 4.997 4.847 4.698 4.58 4.505 4.445 4.385 4.363 4.38 4.4 4.423 4.457 4.345 4.065 3.92 3.92 3.92 3.92 3.94 4.175 4.347 4.255 4.158 4.062 3.965 3.867 3.507 3.108 3.248 3.577 3.695 3.717 3.758 3.877 3.96 3.927 3.87 3.815 3.783 3.785 3.8 3.812 3.797 3.753 3.713 3.693 3.69 3.68 3.617 3.505 3.393 3.3 3.233 3.182 3.167 3.09 2.948 3.05 3.045 3.173 3.462 3.47 3.462 3.415 3.348 3.278 3.255 3.29 3.358 3.44 3.487 3.498 3.508 3.53 3.56 3.595 3.637 3.68 3.73 3.79 3.86 3.945 4.045 4.16 4.285 4.45 4.652 4.772 4.802 4.823 4.905 4.985 4.968 4.938 4.968 5.04 5.113 5.188 5.29 5.435 5.575 5.647 5.673 5.703 5.738 5.772 5.785 5.75 5.687 5.595 5.533 5.53 5.53 5.53 5.53 5.53 5.53 5.53 5.53 5.53 5.53 5.53 5.53 5.53 5.53 5.53 5.53 5.53 5.53 5.53 5.588 5.715
7.033 7.143 7.045 6.965 6.843 6.778 6.755 6.707 6.585 6.395 6.195 5.998 5.8 5.6 5.455 5.345 5.23 5.153 5.085 4.95 4.755 4.555 4.373 4.305 4.45 4.712 4.952 5.137 5.295 5.447 5.57 5.645 5.542 4.616 4.428 5.255 5.767 6.142 6.152 5.76 5.348 5.393 5.522 5.487 5.427 5.375 5.272 5.105 4.923 4.74 4.527 3.965 4.17 4.835 4.817 4.747 4.68 4.615 4.593 4.635 4.707 4.78 4.847 4.87 4.458 4.173 4.65 4.98 4.872 4.715 4.588 4.513 4.455 4.4 4.373 4.38 4.4 4.42 4.44 4.405 4.14 3.92 3.92 3.92 3.92 3.92 4.053 4.227 4.235 4.157 4.065 3.968 3.872 3.477 3.046 3.255 3.667 3.8 3.817 3.832 3.86 3.915 3.945 3.905 3.845 3.79 3.765 3.775 3.792 3.807 3.792 3.747 3.703 3.668 3.655 3.655 3.622 3.548 3.47 3.413 3.367 3.32 3.3 3.315 3.31 3.235 2.973 3.028 3.1 3.178 3.462 3.46 3.382 3.283 3.258 3.325 3.415 3.5 3.55 3.56 3.56 3.567 3.593 3.63 3.673 3.718 3.77 3.828 3.893 3.988 4.11 4.245 4.382 4.53 4.647 4.71 4.758 4.795 4.85 4.875 4.848 4.818 4.833 4.895 4.96 5.028 5.14 5.31 5.48 5.575 5.612 5.655 5.692 5.73 5.735 5.69 5.635 5.573 5.533 5.53 5.53 5.53 5.53 5.53 5.53 5.53 5.53 5.53 5.53 5.53 5.53 5.53 5.53 5.53 5.53 5.53 5.53 5.533 5.6 5.73
7.515 7.657 7.475 7.243 6.933 6.803 6.807 6.72 6.55 6.36 6.173 5.988 5.81 5.628 5.492 5.427 5.37 5.322 5.235 5.052 4.83 4.607 4.385 4.353 4.565 4.825 5.037 5.192 5.327 5.462 5.59 5.69 5.018 4.373 5.013 5.745 6.072 6.212 5.997 5.568 5.398 5.565 5.635 5.585 5.535 5.502 5.427 5.272 5.09 4.903 4.72 4.225 3.966 4.53 4.882 4.775 4.703 4.638 4.623 4.667 4.725 4.795 4.89 4.497 4.018 4.42 4.93 4.925 4.768 4.628 4.538 4.48 4.42 4.378 4.375 4.395 4.415 4.435 4.455 4.275 4.003 3.92 3.92 3.92 3.92 4.04 4.235 4.23 4.098 4.035 3.975 3.875 3.447 2.988 3.265 3.75 3.88 3.867 3.833 3.825 3.855 3.895 3.905 3.87 3.815 3.758 3.738 3.755 3.775 3.782 3.772 3.74 3.693 3.653 3.635 3.635 3.627 3.605 3.567 3.52 3.47 3.423 3.408 3.425 3.445 3.455 3.415 3.305 3.023 3.033 3.14 3.15 3.367 3.41 3.347 3.38 3.47 3.55 3.587 3.587 3.585 3.585 3.617 3.67 3.71 3.755 3.81 3.87 3.943 4.053 4.187 4.322 4.457 4.572 4.643 4.688 4.735 4.783 4.805 4.795 4.78 4.768 4.785 4.835 4.888 4.963 5.1 5.285 5.437 5.51 5.547 5.592 5.637 5.677 5.685 5.647 5.595 5.55 5.53 5.53 5.527 5.522 5.525 5.53 5.53 5.53 5.53 5.53 5.53 5.53 5.53 5.53 5.53 5.53 5.53 5.53 5.53 5.545 5.62 5.745
8.252 8.15 7.922 7.688 7.335 6.993 6.835 6.722 6.543 6.368 6.192 6.017 5.842 5.635 5.398 5.273 5.275 5.287 5.235 5.055 4.81 4.565 4.34 4.365 4.625 4.855 5.02 5.16 5.3 5.44 5.58 5.432 4.546 4.633 5.637 6.042 6.202 6.13 5.77 5.448 5.478 5.597 5.62 5.573 5.558 5.582 5.562 5.452 5.3 5.12 4.983 4.8 4.076 4.113 4.81 4.83 4.73 4.65 4.625 4.663 4.74 4.855 4.58 3.976 4.19 4.822 4.947 4.84 4.7 4.598 4.523 4.46 4.4 4.373 4.385 4.405 4.425 4.445 4.36 4.093 3.92 3.92 3.92 3.92 3.968 4.185 4.275 4.113 3.955 3.905 3.882 3.457 2.963 3.208 3.767 3.952 3.925 3.89 3.84 3.795 3.795 3.83 3.842 3.822 3.78 3.723 3.703 3.722 3.732 3.715 3.71 3.712 3.68 3.64 3.625 3.63 3.642 3.645 3.622 3.587 3.545 3.503 3.495 3.51 3.52 3.525 3.532 3.515 3.437 3.32 3.073 3.003 3.13 3.138 3.3 3.472 3.517 3.577 3.59 3.58 3.575 3.573 3.618 3.697 3.75 3.795 3.85 3.92 4.008 4.118 4.25 4.385 4.502 4.595 4.662 4.712 4.757 4.8 4.805 4.775 4.755 4.743 4.76 4.813 4.883 4.99 5.143 5.31 5.407 5.438 5.473 5.52 5.565 5.597 5.612 5.6 5.57 5.543 5.525 5.515 5.505 5.5 5.51 5.525 5.53 5.53 5.53 5.53 5.53 5.53 5.53 5.53 5.53 5.53 5.53 5.53 5.53 5.565 5.655 5.77
8.869 8.522 8.302 8.239 7.924 7.307 6.895 6.735 6.548 6.375 6.21 6.045 5.877 5.692 5.415 5.13 5.03 5.043 5.042 4.942 4.727 4.483 4.315 4.408 4.655 4.835 4.975 5.115 5.263 5.428 5.607 4.865 4.426 5.287 5.94 6.177 6.197 5.957 5.555 5.405 5.495 5.585 5.615 5.608 5.64 5.687 5.672 5.585 5.475 5.335 5.352 5.305 4.51 3.891 4.457 4.925 4.795 4.688 4.64 4.695 4.822 4.602 3.961 4.045 4.69 4.9 4.867 4.77 4.665 4.585 4.51 4.443 4.388 4.375 4.395 4.415 4.435 4.455 4.227 3.955 3.92 3.92 3.92 3.92 4.09 4.265 4.185 4.012 3.84 3.772 3.485 3.008 3.148 3.672 3.932 3.972 3.95 3.912 3.86 3.8 3.76 3.768 3.775 3.76 3.735 3.688 3.668 3.677 3.66 3.62 3.613 3.64 3.65 3.63 3.62 3.635 3.655 3.665 3.655 3.635 3.607 3.58 3.575 3.58 3.58 3.58 3.588 3.602 3.587 3.512 3.415 3.35 3.218 3.09 3.178 3.153 3.31 3.592 3.585 3.575 3.568 3.56 3.603 3.697 3.777 3.835 3.898 3.985 4.08 4.185 4.315 4.437 4.53 4.61 4.677 4.732 4.782 4.817 4.81 4.77 4.738 4.718 4.735 4.805 4.913 5.038 5.187 5.31 5.35 5.365 5.398 5.44 5.475 5.5 5.517 5.52 5.525 5.53 5.508 5.48 5.465 5.468 5.485 5.507 5.525 5.53 5.53 5.53 5.53 5.53 5.53 5.53 5.53 5.53 5.53 5.53 5.535 5.59 5.695 5.803
9.1 8.622 8.175 7.91 7.615 7.232 6.96 6.76 6.558 6.368 6.195 6.035 5.877 5.71 5.452 5.1 4.873 4.81 4.8 4.777 4.635 4.4 4.305 4.448 4.642 4.79 4.938 5.105 5.29 5.492 5.297 4.541 4.825 5.787 6.117 6.21 6.09 5.723 5.428 5.435 5.515 5.592 5.64 5.675 5.722 5.767 5.762 5.685 5.587 5.483 5.53 5.552 5.07 4.023 4.02 4.805 4.885 4.765 4.71 4.792 4.672 3.993 3.848 4.502 4.82 4.82 4.795 4.728 4.65 4.575 4.5 4.428 4.38 4.382 4.405 4.425 4.445 4.337 4.07 3.92 3.92 3.92 3.92 3.978 4.197 4.267 4.087 3.907 3.745 3.45 3.063 3.173 3.582 3.842 3.972 3.98 3.97 3.937 3.885 3.825 3.765 3.725 3.705 3.69 3.677 3.648 3.623 3.605 3.565 3.52 3.51 3.545 3.59 3.613 3.625 3.645 3.665 3.68 3.675 3.655 3.635 3.62 3.617 3.622 3.627 3.635 3.645 3.658 3.672 3.657 3.625 3.622 3.63 3.595 3.437 3.18 3.25 3.223 3.315 3.64 3.627 3.603 3.618 3.695 3.793 3.878 3.963 4.057 4.153 4.255 4.367 4.465 4.545 4.625 4.693 4.75 4.805 4.83 4.81 4.77 4.73 4.698 4.725 4.828 4.955 5.082 5.205 5.272 5.288 5.303 5.325 5.353 5.378 5.4 5.423 5.448 5.493 5.535 5.515 5.46 5.43 5.435 5.458 5.483 5.507 5.525 5.53 5.53 5.53 5.53 5.53 5.53 5.53 5.53 5.53 5.53 5.55 5.622 5.73 5.837
9.052 8.465 7.575 7.016 6.965 7.015 6.967 6.775 6.58 6.383 6.19 6.008 5.84 5.675 5.422 5.12 4.893 4.735 4.625 4.573 4.502 4.32 4.283 4.45 4.618 4.788 4.973 5.178 5.392 5.499 4.778 4.621 5.53 6.027 6.2 6.175 5.885 5.508 5.4 5.465 5.545 5.62 5.672 5.715 5.76 5.805 5.812 5.755 5.662 5.56 5.533 5.587 5.445 4.545 3.791 4.402 4.98 4.938 4.902 4.742 4.07 3.671 4.252 4.705 4.745 4.745 4.735 4.695 4.63 4.555 4.475 4.398 4.358 4.372 4.405 4.432 4.455 4.205 3.933 3.92 3.92 3.92 3.92 4.085 4.247 4.15 3.965 3.78 3.49 3.125 3.188 3.567 3.807 3.94 3.98 3.98 3.977 3.95 3.895 3.832 3.767 3.703 3.66 3.643 3.628 3.605 3.578 3.545 3.505 3.465 3.458 3.498 3.558 3.613 3.64 3.655 3.675 3.69 3.685 3.665 3.645 3.63 3.63 3.64 3.653 3.68 3.705 3.715 3.728 3.742 3.765 3.795 3.817 3.81 3.77 3.73 3.637 3.308 3.355 3.423 3.408 3.682 3.735 3.753 3.828 3.93 4.03 4.125 4.22 4.322 4.415 4.495 4.575 4.658 4.72 4.77 4.825 4.852 4.835 4.793 4.75 4.71 4.745 4.865 4.992 5.12 5.212 5.25 5.268 5.275 5.29 5.315 5.335 5.355 5.38 5.428 5.5 5.567 5.56 5.488 5.425 5.413 5.438 5.463 5.487 5.507 5.52 5.527 5.53 5.53 5.53 5.53 5.53 5.53 5.53 5.53 5.548 5.617 5.722 5.83
9.007 8.18 7.055 6.685 6.828 6.987 6.965 6.775 6.585 6.395 6.2 6.003 5.818 5.637 5.415 5.193 5.007 4.82 4.633 4.483 4.368 4.243 4.275 4.465 4.655 4.863 5.078 5.293 5.507 5.087 4.543 5.14 5.92 6.162 6.205 6.035 5.658 5.41 5.43 5.495 5.575 5.647 5.697 5.738 5.78 5.825 5.832 5.79 5.72 5.625 5.6 5.62 5.53 5.042 3.976 3.958 4.802 5.11 5.014 4.153 3.483 3.968 4.567 4.672 4.675 4.675 4.67 4.647 4.597 4.525 4.438 4.353 4.318 4.34 4.38 4.417 4.38 4.122 3.92 3.92 3.92 3.92 3.958 4.137 4.195 4.017 3.832 3.56 3.2 3.205 3.54 3.772 3.91 3.972 3.98 3.98 3.977 3.95 3.887 3.813 3.74 3.675 3.635 3.615 3.592 3.563 3.537 3.517 3.487 3.45 3.448 3.498 3.57 3.637 3.662 3.665 3.68 3.695 3.69 3.672 3.655 3.638 3.635 3.65 3.68 3.73 3.765 3.775 3.785 3.8 3.825 3.85 3.86 3.85 3.84 3.852 3.855 3.83 3.797 3.53 3.483 3.555 3.53 3.767 3.917 3.987 4.087 4.183 4.285 4.395 4.483 4.555 4.635 4.715 4.765 4.798 4.845 4.885 4.88 4.838 4.795 4.755 4.79 4.905 5.028 5.152 5.237 5.267 5.275 5.27 5.285 5.322 5.35 5.368 5.393 5.445 5.518 5.592 5.602 5.54 5.458 5.41 5.423 5.45 5.47 5.48 5.495 5.515 5.527 5.53 5.53 5.53 5.53 5.53 5.53 5.53 5.533 5.575 5.668 5.78
8.797 7.668 6.778 6.69 6.78 6.95 6.952 6.775 6.585 6.392 6.198 6.005 5.807 5.63 5.462 5.277 5.092 4.905 4.72 4.537 4.35 4.245 4.338 4.548 4.763 4.977 5.193 5.407 5.395 4.676 4.773 5.735 6.1 6.2 6.127 5.795 5.465 5.413 5.458 5.525 5.605 5.675 5.725 5.762 5.8 5.845 5.85 5.807 5.757 5.687 5.64 5.562 5.387 5.13 4.392 3.711 4.24 4.927 4.372 3.476 3.723 4.45 4.635 4.615 4.605 4.605 4.597 4.58 4.55 4.495 4.407 4.31 4.275 4.305 4.353 4.407 4.242 3.985 3.92 3.92 3.92 3.92 4.04 4.152 4.057 3.882 3.65 3.273 3.19 3.5 3.727 3.85 3.942 3.98 3.98 3.977 3.97 3.95 3.89 3.8 3.718 3.65 3.61 3.585 3.552 3.518 3.493 3.48 3.462 3.433 3.44 3.508 3.59 3.662 3.69 3.685 3.69 3.7 3.695 3.678 3.66 3.643 3.645 3.68 3.735 3.792 3.825 3.835 3.845 3.86 3.88 3.887 3.872 3.85 3.84 3.84 3.848 3.87 3.905 3.92 3.9 3.698 3.61 3.688 3.665 3.885 4.147 4.245 4.362 4.48 4.565 4.63 4.703 4.772 4.817 4.843 4.875 4.917 4.92 4.883 4.845 4.805 4.838 4.948 5.065 5.187 5.262 5.275 5.267 5.255 5.273 5.317 5.357 5.382 5.413 5.47 5.54 5.612 5.64 5.59 5.5 5.423 5.41 5.435 5.445 5.45 5.465 5.49 5.512 5.525 5.53 5.533 5.538 5.543 5.545 5.543 5.538 5.548 5.615 5.738
7.9 7.013 6.738 6.718 6.755 6.9 6.927 6.772 6.58 6.388 6.195 6 5.775 5.613 5.5 5.33 5.145 4.962 4.777 4.595 4.435 4.37 4.465 4.663 4.877 5.092 5.307 5.52 5.083 4.721 5.415 6.037 6.187 6.187 5.97 5.585 5.4 5.44 5.485 5.555 5.635 5.705 5.752 5.788 5.825 5.865 5.865 5.822 5.777 5.727 5.627 5.45 5.238 5.012 4.65 3.825 3.67 4.005 3.551 3.653 4.347 4.615 4.645 4.61 4.573 4.55 4.53 4.51 4.49 4.455 4.377 4.273 4.245 4.298 4.36 4.415 4.177 3.92 3.92 3.92 3.92 3.933 4.067 4.102 3.925 3.735 3.348 3.153 3.43 3.672 3.788 3.9 3.967 3.98 3.977 3.97 3.963 3.952 3.9 3.805 3.713 3.633 3.58 3.548 3.51 3.473 3.445 3.433 3.425 3.413 3.443 3.525 3.612 3.69 3.722 3.717 3.712 3.71 3.7 3.683 3.668 3.658 3.678 3.735 3.8 3.855 3.885 3.895 3.905 3.912 3.912 3.9 3.875 3.85 3.84 3.84 3.84 3.873 3.918 3.945 3.975 4.002 4.005 3.843 3.71 3.818 4.068 4.297 4.433 4.563 4.655 4.713 4.773 4.83 4.87 4.898 4.925 4.957 4.962 4.933 4.895 4.855 4.888 5 5.115 5.227 5.282 5.273 5.255 5.24 5.26 5.305 5.35 5.39 5.432 5.495 5.56 5.622 5.655 5.615 5.53 5.445 5.405 5.408 5.413 5.418 5.433 5.46 5.485 5.507 5.535 5.552 5.56 5.57 5.575 5.57 5.563 5.565 5.628 5.75
6.956 6.75 6.82 6.775 6.758 6.85 6.9 6.767 6.575 6.385 6.19 5.967 5.725 5.588 5.522 5.382 5.198 5.015 4.83 4.655 4.553 4.548 4.615 4.775 4.99 5.205 5.42 5.28 4.758 5.085 5.9 6.167 6.2 6.08 5.738 5.453 5.433 5.468 5.52 5.598 5.68 5.742 5.782 5.818 5.855 5.882 5.87 5.83 5.787 5.745 5.617 5.4 5.18 4.99 4.777 4.237 3.448 3.148 3.608 4.237 4.515 4.585 4.645 4.635 4.585 4.535 4.5 4.48 4.458 4.417 4.34 4.258 4.26 4.328 4.395 4.325 4.07 3.92 3.92 3.92 3.92 4.015 4.082 3.967 3.792 3.313 3.051 3.405 3.68 3.783 3.88 3.952 3.98 3.98 3.975 3.965 3.96 3.945 3.89 3.802 3.707 3.615 3.553 3.518 3.48 3.443 3.415 3.403 3.395 3.39 3.435 3.525 3.615 3.697 3.732 3.725 3.717 3.717 3.72 3.715 3.703 3.695 3.728 3.792 3.857 3.905 3.917 3.917 3.922 3.922 3.915 3.9 3.875 3.85 3.84 3.84 3.863 3.953 4.022 4.035 4.055 4.073 4.088 4.105 4.13 4.055 4.14 4.392 4.545 4.682 4.772 4.825 4.867 4.9 4.928 4.955 4.985 5.002 5.007 4.997 4.965 4.925 4.96 5.075 5.187 5.275 5.302 5.285 5.263 5.245 5.268 5.318 5.365 5.413 5.425 5.447 5.505 5.557 5.577 5.537 5.475 5.425 5.398 5.39 5.393 5.395 5.408 5.433 5.458 5.485 5.532 5.577 5.595 5.605 5.607 5.603 5.603 5.62 5.693 5.81
6.743 6.847 6.885 6.835 6.788 6.828 6.875 6.765 6.575 6.382 6.162 5.9 5.68 5.583 5.535 5.425 5.25 5.065 4.88 4.748 4.708 4.73 4.783 4.903 5.103 5.317 5.472 4.878 4.711 5.605 6.11 6.202 6.157 5.895 5.535 5.415 5.465 5.513 5.58 5.665 5.745 5.787 5.815 5.852 5.88 5.89 5.872 5.833 5.79 5.75 5.63 5.418 5.22 5.103 4.955 4.635 3.71 3.406 4.095 4.395 4.45 4.54 4.637 4.65 4.597 4.543 4.505 4.482 4.445 4.385 4.3 4.263 4.307 4.367 4.417 4.205 3.945 3.92 3.92 3.92 3.92 4.067 4.077 3.83 3.383 2.983 3.303 3.732 3.835 3.917 3.962 3.98 3.98 3.98 3.975 3.965 3.95 3.915 3.855 3.78 3.692 3.6 3.538 3.5 3.463 3.43 3.405 3.39 3.38 3.375 3.42 3.51 3.595 3.675 3.71 3.703 3.705 3.72 3.745 3.762 3.757 3.748 3.78 3.845 3.9 3.927 3.917 3.903 3.9 3.9 3.9 3.895 3.875 3.85 3.84 3.853 3.93 4.077 4.162 4.17 4.185 4.205 4.22 4.238 4.273 4.327 4.422 4.56 4.715 4.842 4.915 4.952 4.965 4.973 4.993 5.02 5.04 5.04 5.045 5.06 5.047 5.013 5.053 5.162 5.252 5.312 5.332 5.318 5.295 5.28 5.305 5.363 5.415 5.467 5.438 5.368 5.383 5.432 5.433 5.405 5.413 5.418 5.4 5.39 5.39 5.39 5.395 5.41 5.433 5.463 5.515 5.58 5.622 5.64 5.642 5.64 5.653 5.685 5.758 5.865
6.862 6.947 6.945 6.895 6.843 6.83 6.852 6.765 6.572 6.355 6.095 5.815 5.638 5.58 5.535 5.452 5.3 5.115 4.96 4.893 4.888 4.913 4.968 5.053 5.218 5.432 5.152 4.681 5.133 5.905 6.187 6.19 6.027 5.675 5.435 5.458 5.518 5.585 5.66 5.742 5.807 5.83 5.848 5.877 5.89 5.89 5.875 5.837 5.795 5.755 5.64 5.448 5.313 5.26 5.152 4.877 4.3 3.805 3.99 4.3 4.383 4.51 4.632 4.66 4.605 4.547 4.507 4.472 4.415 4.345 4.283 4.288 4.337 4.372 4.4 4.165 3.92 3.92 3.92 3.92 3.92 4.03 3.997 3.715 3.113 3.193 3.81 3.9 3.945 3.977 3.98 3.98 3.98 3.98 3.975 3.955 3.917 3.87 3.812 3.745 3.67 3.585 3.52 3.483 3.45 3.418 3.393 3.378 3.365 3.36 3.405 3.492 3.572 3.647 3.682 3.685 3.7 3.72 3.75 3.785 3.802 3.8 3.83 3.885 3.917 3.932 3.92 3.895 3.88 3.875 3.875 3.877 3.87 3.85 3.84 3.898 4.043 4.215 4.305 4.31 4.318 4.335 4.355 4.39 4.453 4.525 4.62 4.743 4.885 4.995 5.035 5.045 5.042 5.043 5.06 5.082 5.082 5.07 5.073 5.095 5.11 5.1 5.143 5.23 5.287 5.335 5.365 5.358 5.343 5.335 5.358 5.415 5.475 5.53 5.49 5.365 5.295 5.298 5.32 5.37 5.452 5.472 5.42 5.39 5.39 5.39 5.39 5.395 5.408 5.438 5.495 5.565 5.627 5.667 5.68 5.688 5.715 5.752 5.812 5.892
6.967 7.012 6.98 6.937 6.897 6.853 6.847 6.765 6.55 6.29 6.01 5.743 5.608 5.577 5.53 5.47 5.347 5.183 5.088 5.07 5.073 5.1 5.155 5.218 5.345 5.357 4.658 4.666 5.555 6.017 6.195 6.107 5.807 5.488 5.44 5.515 5.587 5.662 5.74 5.817 5.862 5.87 5.877 5.888 5.89 5.89 5.877 5.843 5.8 5.76 5.655 5.523 5.458 5.42 5.322 5.082 4.76 4.083 3.588 3.93 4.315 4.445 4.57 4.612 4.572 4.53 4.49 4.44 4.375 4.308 4.278 4.3 4.327 4.345 4.32 4.102 3.92 3.92 3.92 3.92 4 4.052 3.877 3.313 3.08 3.61 3.967 3.98 3.98 3.98 3.98 3.98 3.98 3.98 3.965 3.925 3.875 3.823 3.765 3.703 3.635 3.56 3.503 3.47 3.438 3.403 3.38 3.365 3.35 3.343 3.383 3.465 3.545 3.62 3.662 3.68 3.7 3.72 3.75 3.787 3.82 3.842 3.872 3.902 3.92 3.937 3.93 3.9 3.873 3.855 3.85 3.853 3.853 3.845 3.875 4 4.177 4.352 4.445 4.45 4.455 4.475 4.515 4.575 4.647 4.723 4.82 4.935 5.05 5.117 5.122 5.117 5.115 5.115 5.123 5.125 5.113 5.098 5.098 5.12 5.153 5.175 5.215 5.273 5.318 5.363 5.398 5.405 5.4 5.395 5.413 5.465 5.527 5.58 5.54 5.418 5.298 5.245 5.308 5.427 5.525 5.517 5.433 5.39 5.39 5.39 5.39 5.393 5.4 5.428 5.485 5.553 5.62 5.682 5.712 5.727 5.752 5.775 5.83 5.897
7.007 7.045 7.005 6.933 6.897 6.875 6.862 6.742 6.485 6.207 5.93 5.695 5.6 5.575 5.525 5.475 5.383 5.283 5.25 5.248 5.255 5.29 5.345 5.4 5.49 5.017 4.598 5.115 5.772 6.122 6.16 5.955 5.6 5.42 5.482 5.56 5.635 5.71 5.79 5.86 5.892 5.895 5.9 5.908 5.91 5.91 5.895 5.858 5.813 5.77 5.705 5.638 5.592 5.545 5.437 5.207 4.912 4.535 3.965 3.521 3.81 4.285 4.422 4.477 4.46 4.442 4.422 4.375 4.313 4.265 4.258 4.275 4.295 4.312 4.185 3.985 3.92 3.92 3.92 3.92 4.062 4.045 3.73 3.155 3.263 3.885 3.98 3.98 3.98 3.98 3.975 3.97 3.97 3.967 3.945 3.9 3.85 3.798 3.738 3.675 3.613 3.545 3.493 3.46 3.428 3.393 3.37 3.355 3.34 3.333 3.36 3.428 3.505 3.582 3.635 3.66 3.682 3.712 3.747 3.783 3.82 3.857 3.875 3.882 3.897 3.915 3.922 3.905 3.875 3.853 3.865 3.89 3.893 3.888 3.963 4.127 4.3 4.437 4.492 4.492 4.502 4.57 4.677 4.765 4.835 4.913 5.012 5.115 5.167 5.17 5.165 5.162 5.16 5.188 5.21 5.2 5.19 5.178 5.183 5.213 5.245 5.263 5.29 5.335 5.38 5.425 5.455 5.457 5.45 5.445 5.448 5.483 5.54 5.585 5.575 5.492 5.373 5.305 5.365 5.495 5.592 5.56 5.443 5.39 5.39 5.39 5.405 5.425 5.433 5.455 5.508 5.573 5.64 5.68 5.687 5.697 5.71 5.723 5.792 5.89
7.02 7.07 7.047 6.943 6.855 6.83 6.797 6.627 6.36 6.095 5.833 5.65 5.6 5.58 5.54 5.503 5.453 5.425 5.43 5.422 5.432 5.477 5.525 5.56 5.367 4.586 4.755 5.622 5.962 6.162 6.055 5.73 5.45 5.438 5.508 5.582 5.655 5.73 5.81 5.872 5.902 5.91 5.918 5.932 5.942 5.945 5.925 5.885 5.84 5.795 5.765 5.737 5.692 5.64 5.517 5.272 4.995 4.762 4.547 3.988 3.533 3.745 4.135 4.315 4.318 4.318 4.322 4.29 4.248 4.235 4.238 4.245 4.26 4.277 4.103 3.92 3.92 3.92 3.92 3.92 4.02 3.94 3.418 3.28 3.695 3.942 3.98 3.98 3.98 3.98 3.967 3.953 3.947 3.94 3.92 3.887 3.845 3.795 3.735 3.67 3.607 3.54 3.488 3.453 3.42 3.388 3.363 3.347 3.333 3.325 3.348 3.398 3.46 3.535 3.59 3.618 3.653 3.7 3.742 3.78 3.817 3.847 3.85 3.843 3.85 3.865 3.885 3.892 3.877 3.858 3.89 3.952 3.985 3.993 4.073 4.225 4.345 4.41 4.425 4.423 4.465 4.598 4.777 4.925 5.015 5.095 5.187 5.237 5.21 5.178 5.175 5.183 5.22 5.305 5.352 5.343 5.333 5.323 5.333 5.36 5.375 5.365 5.38 5.425 5.467 5.507 5.53 5.518 5.493 5.483 5.475 5.48 5.518 5.555 5.567 5.545 5.465 5.385 5.425 5.555 5.665 5.635 5.485 5.4 5.39 5.39 5.42 5.467 5.487 5.508 5.555 5.62 5.657 5.632 5.605 5.613 5.625 5.64 5.718 5.852
7.03 7.08 7.09 7.007 6.875 6.78 6.67 6.48 6.26 6.04 5.813 5.648 5.6 5.592 5.577 5.565 5.555 5.555 5.56 5.555 5.56 5.587 5.615 5.645 5.013 4.563 5.215 5.867 6.122 6.125 5.885 5.53 5.398 5.463 5.532 5.605 5.675 5.75 5.825 5.88 5.912 5.927 5.935 5.947 5.962 5.972 5.955 5.915 5.872 5.828 5.803 5.797 5.777 5.735 5.597 5.355 5.118 4.913 4.75 4.605 4.117 3.695 3.593 3.853 4.197 4.203 4.215 4.208 4.208 4.22 4.22 4.22 4.228 4.242 4.085 3.92 3.92 3.92 3.92 3.92 3.975 3.827 3.031 3.1 3.845 3.952 3.98 3.98 3.98 3.977 3.96 3.935 3.923 3.912 3.89 3.865 3.837 3.795 3.735 3.668 3.603 3.535 3.483 3.448 3.413 3.38 3.355 3.34 3.328 3.32 3.343 3.385 3.433 3.493 3.543 3.583 3.635 3.692 3.737 3.775 3.81 3.835 3.832 3.813 3.808 3.818 3.835 3.855 3.865 3.855 3.885 3.962 4.032 4.085 4.155 4.24 4.29 4.32 4.338 4.368 4.465 4.615 4.81 5.022 5.175 5.272 5.317 5.29 5.225 5.188 5.203 5.255 5.35 5.467 5.522 5.512 5.495 5.48 5.482 5.49 5.477 5.455 5.47 5.512 5.547 5.58 5.602 5.59 5.553 5.528 5.515 5.503 5.505 5.523 5.53 5.535 5.517 5.455 5.483 5.615 5.742 5.73 5.552 5.42 5.39 5.39 5.42 5.48 5.527 5.557 5.6 5.632 5.605 5.545 5.518 5.53 5.545 5.56 5.633 5.782
7.04 7.092 7.132 7.075 6.91 6.778 6.663 6.49 6.305 6.11 5.893 5.69 5.6 5.6 5.6 5.6 5.6 5.6 5.6 5.6 5.6 5.613 5.647 5.43 4.601 4.81 5.752 6.042 6.147 6 5.668 5.418 5.425 5.485 5.552 5.625 5.697 5.772 5.835 5.88 5.917 5.94 5.95 5.957 5.967 5.977 5.965 5.937 5.905 5.863 5.84 5.84 5.837 5.82 5.695 5.475 5.265 5.067 4.895 4.743 4.592 4.305 3.83 3.541 3.828 4.145 4.145 4.165 4.192 4.2 4.2 4.2 4.205 4.202 4.057 3.92 3.92 3.92 3.92 3.92 3.94 3.717 3.1 3.233 3.83 3.95 3.98 3.98 3.98 3.975 3.955 3.925 3.903 3.885 3.86 3.835 3.815 3.787 3.735 3.668 3.603 3.538 3.483 3.445 3.41 3.373 3.348 3.335 3.323 3.318 3.34 3.383 3.43 3.478 3.525 3.58 3.64 3.692 3.73 3.762 3.795 3.82 3.817 3.795 3.778 3.773 3.785 3.808 3.83 3.84 3.88 3.963 4.045 4.125 4.207 4.253 4.26 4.27 4.29 4.368 4.503 4.65 4.833 5.06 5.275 5.39 5.375 5.31 5.245 5.228 5.293 5.395 5.51 5.62 5.647 5.615 5.592 5.57 5.56 5.56 5.555 5.542 5.555 5.592 5.625 5.655 5.677 5.66 5.612 5.57 5.542 5.522 5.508 5.508 5.51 5.513 5.515 5.495 5.545 5.683 5.817 5.782 5.555 5.41 5.39 5.393 5.425 5.485 5.545 5.59 5.605 5.578 5.52 5.465 5.44 5.45 5.465 5.48 5.55 5.698
6.977 7.08 7.102 7.035 6.87 6.79 6.757 6.62 6.425 6.21 5.985 5.765 5.628 5.6 5.6 5.6 5.6 5.6 5.6 5.6 5.613 5.653 5.717 5.05 4.578 5.3 5.942 6.115 6.08 5.805 5.475 5.395 5.455 5.505 5.563 5.637 5.712 5.787 5.845 5.885 5.922 5.942 5.947 5.952 5.957 5.96 5.952 5.937 5.915 5.887 5.872 5.87 5.867 5.86 5.78 5.602 5.397 5.2 5.035 4.89 4.74 4.605 4.475 3.983 3.591 3.848 4.11 4.167 4.187 4.185 4.183 4.178 4.18 4.15 4.018 3.92 3.92 3.92 3.92 3.925 3.905 3.543 3.215 3.462 3.79 3.93 3.98 3.975 3.962 3.945 3.932 3.912 3.88 3.855 3.832 3.808 3.788 3.777 3.747 3.688 3.62 3.555 3.5 3.458 3.42 3.38 3.355 3.345 3.33 3.325 3.353 3.4 3.45 3.495 3.545 3.605 3.657 3.69 3.715 3.745 3.775 3.797 3.795 3.772 3.753 3.753 3.77 3.795 3.82 3.84 3.89 3.973 4.055 4.138 4.247 4.335 4.35 4.338 4.368 4.475 4.62 4.763 4.903 5.093 5.325 5.435 5.397 5.333 5.295 5.333 5.433 5.547 5.665 5.73 5.68 5.603 5.565 5.537 5.522 5.527 5.54 5.58 5.62 5.64 5.67 5.7 5.717 5.69 5.635 5.582 5.545 5.523 5.513 5.515 5.515 5.515 5.513 5.543 5.643 5.78 5.865 5.75 5.505 5.4 5.415 5.425 5.453 5.505 5.565 5.617 5.612 5.558 5.505 5.48 5.473 5.46 5.45 5.443 5.49 5.63
6.603 6.75 6.815 6.837 6.815 6.83 6.852 6.742 6.533 6.315 6.1 5.885 5.69 5.603 5.6 5.6 5.6 5.6 5.6 5.6 5.645 5.725 5.432 4.658 4.955 5.834 6.055 6.105 5.94 5.6 5.395 5.428 5.477 5.518 5.57 5.643 5.718 5.795 5.857 5.897 5.922 5.93 5.93 5.935 5.94 5.94 5.935 5.92 5.903 5.892 5.882 5.875 5.87 5.86 5.805 5.68 5.505 5.308 5.153 5.03 4.89 4.752 4.602 4.427 4.018 3.683 3.788 4.037 4.175 4.177 4.17 4.163 4.16 4.09 3.97 3.92 3.92 3.92 3.92 3.957 3.907 3.553 3.298 3.11 3.238 3.71 3.9 3.932 3.905 3.875 3.857 3.862 3.855 3.827 3.805 3.783 3.773 3.777 3.762 3.715 3.652 3.588 3.53 3.483 3.44 3.4 3.375 3.365 3.353 3.348 3.375 3.427 3.48 3.525 3.575 3.63 3.662 3.675 3.695 3.725 3.75 3.767 3.762 3.74 3.74 3.765 3.79 3.815 3.837 3.858 3.91 3.988 4.068 4.155 4.27 4.4 4.475 4.483 4.533 4.663 4.807 4.935 5.028 5.16 5.37 5.47 5.423 5.388 5.413 5.483 5.58 5.695 5.78 5.772 5.675 5.56 5.49 5.455 5.44 5.445 5.483 5.603 5.687 5.68 5.688 5.715 5.725 5.687 5.63 5.578 5.538 5.523 5.525 5.53 5.53 5.53 5.558 5.643 5.765 5.867 5.852 5.677 5.488 5.438 5.47 5.49 5.51 5.548 5.6 5.657 5.657 5.603 5.578 5.6 5.61 5.583 5.55 5.52 5.535 5.635
6.898 6.541 6.451 6.61 6.732 6.825 6.887 6.83 6.65 6.445 6.232 6.012 5.788 5.638 5.6 5.6 5.6 5.6 5.6 5.625 5.71 5.789 5.01 4.636 5.45 5.96 6.09 6.027 5.723 5.433 5.403 5.452 5.49 5.525 5.578 5.648 5.725 5.805 5.87 5.905 5.915 5.913 5.913 5.917 5.92 5.92 5.915 5.903 5.893 5.89 5.88 5.868 5.86 5.847 5.79 5.69 5.57 5.407 5.26 5.147 5.025 4.895 4.743 4.593 4.47 4.127 3.733 3.665 3.94 4.167 4.163 4.157 4.152 4.048 3.933 3.92 3.92 3.92 3.92 4.027 4.04 3.815 3.635 3.26 3.13 3.205 3.22 3.552 3.777 3.79 3.76 3.76 3.787 3.792 3.777 3.768 3.775 3.785 3.767 3.73 3.682 3.62 3.56 3.51 3.463 3.423 3.398 3.388 3.38 3.375 3.398 3.45 3.505 3.553 3.6 3.637 3.65 3.658 3.68 3.705 3.72 3.732 3.728 3.723 3.75 3.785 3.81 3.833 3.853 3.875 3.93 4.005 4.083 4.173 4.29 4.43 4.55 4.62 4.708 4.85 4.995 5.107 5.18 5.263 5.422 5.505 5.478 5.508 5.57 5.638 5.73 5.82 5.835 5.777 5.675 5.545 5.435 5.375 5.36 5.388 5.495 5.675 5.772 5.753 5.73 5.735 5.735 5.69 5.625 5.57 5.535 5.53 5.54 5.545 5.545 5.573 5.655 5.765 5.872 5.892 5.79 5.613 5.49 5.493 5.53 5.555 5.578 5.61 5.648 5.697 5.7 5.675 5.698 5.74 5.75 5.727 5.7 5.675 5.685 5.74
8.52 7.661 7.073 6.741 6.556 6.658 6.822 6.842 6.727 6.56 6.365 6.14 5.915 5.713 5.61 5.6 5.6 5.6 5.618 5.693 5.8 5.427 4.911 5.295 5.877 6.032 6.06 5.87 5.53 5.383 5.43 5.465 5.498 5.533 5.583 5.655 5.735 5.815 5.875 5.897 5.9 5.898 5.898 5.9 5.9 5.902 5.9 5.893 5.89 5.887 5.877 5.865 5.855 5.835 5.77 5.673 5.577 5.465 5.345 5.232 5.12 5.005 4.89 4.782 4.675 4.547 4.24 3.785 3.531 3.828 4.157 4.152 4.15 4.035 3.92 3.92 3.92 3.92 3.92 4.085 4.207 4.062 3.94 3.9 3.782 3.38 3.053 3.108 3.118 3.338 3.642 3.65 3.663 3.707 3.737 3.757 3.782 3.795 3.775 3.738 3.7 3.65 3.595 3.542 3.49 3.448 3.423 3.415 3.415 3.415 3.435 3.483 3.538 3.588 3.62 3.633 3.635 3.643 3.66 3.675 3.685 3.698 3.708 3.73 3.767 3.803 3.833 3.853 3.87 3.895 3.95 4.025 4.1 4.19 4.31 4.45 4.585 4.722 4.872 5.022 5.167 5.272 5.335 5.398 5.498 5.565 5.598 5.662 5.727 5.795 5.867 5.895 5.855 5.782 5.675 5.545 5.415 5.313 5.293 5.385 5.56 5.76 5.857 5.84 5.805 5.777 5.75 5.695 5.628 5.565 5.535 5.54 5.55 5.558 5.585 5.663 5.765 5.867 5.942 5.89 5.74 5.585 5.518 5.548 5.585 5.615 5.642 5.675 5.705 5.74 5.757 5.782 5.835 5.882 5.892 5.867 5.84 5.825 5.847 5.892
10.565 9.705 8.848 7.99 7.298 6.908 6.651 6.608 6.69 6.62 6.47 6.272 6.048 5.823 5.685 5.655 5.643 5.635 5.678 5.782 5.829 5.135 5.08 5.787 5.962 6.052 5.965 5.663 5.415 5.433 5.495 5.523 5.553 5.583 5.615 5.673 5.75 5.83 5.88 5.89 5.89 5.89 5.885 5.875 5.873 5.877 5.882 5.885 5.885 5.88 5.87 5.86 5.85 5.822 5.755 5.665 5.57 5.475 5.375 5.265 5.155 5.042 4.952 4.88 4.795 4.697 4.557 4.292 3.833 3.503 3.708 4.012 4.07 3.998 3.92 3.92 3.92 3.92 3.92 4.095 4.26 4.207 4.142 4.097 4.05 3.937 3.652 3.255 2.933 3.038 3.038 3.155 3.52 3.57 3.622 3.662 3.705 3.747 3.767 3.75 3.715 3.677 3.627 3.572 3.52 3.488 3.478 3.475 3.478 3.483 3.503 3.548 3.602 3.642 3.655 3.655 3.653 3.648 3.65 3.66 3.673 3.688 3.71 3.745 3.785 3.835 3.877 3.895 3.91 3.94 3.998 4.073 4.143 4.218 4.33 4.468 4.615 4.798 4.992 5.16 5.31 5.42 5.485 5.55 5.608 5.66 5.725 5.792 5.86 5.897 5.902 5.9 5.865 5.787 5.675 5.545 5.41 5.303 5.275 5.38 5.57 5.762 5.86 5.84 5.8 5.787 5.767 5.705 5.638 5.57 5.54 5.55 5.56 5.575 5.635 5.735 5.832 5.927 5.977 5.92 5.78 5.643 5.603 5.635 5.66 5.665 5.675 5.705 5.732 5.767 5.767 5.767 5.82 5.882 5.94 5.95 5.92 5.91 5.94 5.985
12.337 11.719 10.892 10.035 9.175 8.315 7.506 7.006 6.701 6.51 6.485 6.38 6.182 5.958 5.815 5.773 5.753 5.755 5.793 5.877 5.418 5.05 5.517 5.897 5.995 6.012 5.797 5.483 5.41 5.52 5.6 5.63 5.655 5.672 5.685 5.71 5.768 5.845 5.887 5.89 5.89 5.89 5.88 5.855 5.84 5.84 5.852 5.87 5.872 5.867 5.86 5.85 5.83 5.79 5.73 5.657 5.57 5.475 5.375 5.265 5.15 5.033 4.94 4.872 4.805 4.73 4.607 4.44 4.317 3.895 3.75 4.038 4.083 4 3.92 3.92 3.92 3.92 3.92 4.095 4.255 4.225 4.195 4.157 4.107 4.045 3.902 3.637 3.427 3.285 2.923 2.98 3.075 3.048 3.367 3.505 3.565 3.632 3.695 3.732 3.73 3.7 3.652 3.6 3.56 3.555 3.565 3.565 3.565 3.57 3.59 3.632 3.677 3.7 3.705 3.702 3.69 3.67 3.663 3.67 3.685 3.7 3.723 3.763 3.818 3.89 3.94 3.958 3.978 4.015 4.075 4.142 4.192 4.245 4.348 4.49 4.668 4.875 5.08 5.272 5.44 5.56 5.635 5.692 5.727 5.76 5.82 5.89 5.905 5.827 5.762 5.775 5.792 5.755 5.65 5.52 5.433 5.395 5.373 5.398 5.505 5.667 5.76 5.743 5.738 5.788 5.795 5.727 5.655 5.585 5.553 5.56 5.573 5.595 5.663 5.767 5.867 5.952 5.99 5.97 5.885 5.763 5.723 5.75 5.74 5.69 5.675 5.703 5.733 5.782 5.752 5.663 5.665 5.738 5.85 5.942 5.95 5.943 5.973 6.012
13.075 12.882 12.479 11.932 11.177 10.33 9.482 8.638 7.786 7.168 6.776 6.448 6.263 6.09 5.948 5.905 5.895 5.923 5.96 5.894 5.033 5.008 5.835 5.952 6.005 5.907 5.605 5.413 5.493 5.627 5.707 5.732 5.75 5.76 5.77 5.78 5.805 5.857 5.89 5.89 5.89 5.89 5.877 5.847 5.818 5.805 5.818 5.842 5.855 5.855 5.85 5.83 5.79 5.742 5.69 5.63 5.557 5.472 5.375 5.26 5.138 5.02 4.93 4.857 4.785 4.71 4.593 4.458 4.383 4.352 4.325 4.297 4.237 4.055 3.92 3.92 3.92 3.92 3.92 4.095 4.242 4.2 4.182 4.167 4.135 4.08 4.002 3.855 3.658 3.522 3.437 3.352 3.043 2.948 3.008 2.97 3.252 3.497 3.572 3.645 3.695 3.705 3.677 3.635 3.62 3.64 3.655 3.655 3.655 3.657 3.675 3.707 3.735 3.75 3.755 3.742 3.715 3.688 3.678 3.685 3.698 3.71 3.74 3.8 3.875 3.955 4.005 4.028 4.055 4.093 4.147 4.197 4.223 4.263 4.365 4.533 4.74 4.955 5.16 5.365 5.557 5.7 5.782 5.822 5.84 5.862 5.895 5.885 5.78 5.615 5.54 5.575 5.625 5.655 5.62 5.563 5.56 5.565 5.545 5.523 5.528 5.595 5.66 5.69 5.75 5.835 5.835 5.755 5.678 5.605 5.57 5.578 5.595 5.62 5.69 5.8 5.902 5.97 5.99 5.99 5.965 5.887 5.845 5.837 5.78 5.703 5.675 5.703 5.748 5.807 5.775 5.638 5.555 5.593 5.715 5.855 5.942 5.975 6 6.027
13.055 13.045 13.035 12.909 12.579 12.109 11.435 10.605 9.767 8.92 8.073 7.351 6.835 6.358 6.073 6.05 6.05 6.087 6.049 5.412 4.943 5.462 5.915 5.957 5.955 5.717 5.45 5.463 5.592 5.71 5.777 5.805 5.825 5.842 5.852 5.857 5.862 5.877 5.89 5.89 5.89 5.887 5.867 5.832 5.797 5.773 5.778 5.805 5.827 5.84 5.83 5.79 5.743 5.697 5.645 5.585 5.52 5.45 5.367 5.257 5.133 5.01 4.913 4.837 4.765 4.69 4.61 4.558 4.542 4.53 4.5 4.432 4.337 4.105 3.92 3.92 3.92 3.92 3.92 4.09 4.227 4.178 4.158 4.153 4.142 4.107 4.04 3.957 3.835 3.715 3.635 3.56 3.492 3.417 3.138 2.918 2.96 2.92 3.15 3.485 3.565 3.632 3.672 3.685 3.7 3.727 3.735 3.725 3.715 3.707 3.73 3.765 3.785 3.8 3.797 3.772 3.74 3.708 3.7 3.718 3.73 3.743 3.785 3.863 3.945 4.022 4.072 4.103 4.135 4.168 4.203 4.23 4.245 4.28 4.4 4.6 4.82 5.035 5.24 5.445 5.65 5.825 5.91 5.917 5.91 5.912 5.885 5.767 5.603 5.44 5.38 5.43 5.488 5.548 5.615 5.7 5.747 5.727 5.695 5.665 5.63 5.598 5.625 5.708 5.795 5.877 5.87 5.785 5.705 5.628 5.59 5.6 5.62 5.645 5.715 5.822 5.927 5.985 5.99 5.99 5.99 5.967 5.93 5.877 5.797 5.715 5.68 5.712 5.77 5.827 5.785 5.637 5.493 5.493 5.635 5.785 5.925 5.995 6.01 6.03
13.035 13.025 13.015 13.005 12.995 12.937 12.672 12.249 11.65 10.84 10.005 9.175 8.345 7.51 6.856 6.353 6.09 5.825 5.25 4.731 5.088 5.792 5.937 5.95 5.832 5.543 5.43 5.545 5.647 5.72 5.777 5.822 5.847 5.87 5.885 5.89 5.89 5.89 5.89 5.89 5.887 5.87 5.835 5.795 5.755 5.723 5.725 5.752 5.777 5.792 5.78 5.74 5.695 5.65 5.595 5.532 5.467 5.405 5.345 5.262 5.145 5.018 4.9 4.81 4.737 4.663 4.635 4.655 4.675 4.682 4.617 4.473 4.402 4.167 3.92 3.92 3.92 3.92 3.92 4.09 4.227 4.178 4.158 4.155 4.155 4.135 4.075 3.992 3.91 3.83 3.755 3.69 3.627 3.572 3.517 3.422 3.168 2.86 2.905 2.878 3.048 3.452 3.545 3.615 3.655 3.68 3.68 3.66 3.655 3.678 3.735 3.797 3.827 3.842 3.835 3.805 3.77 3.718 3.73 3.782 3.798 3.815 3.865 3.945 4.025 4.097 4.152 4.193 4.225 4.255 4.273 4.28 4.29 4.33 4.47 4.683 4.9 5.115 5.31 5.485 5.652 5.81 5.875 5.855 5.835 5.832 5.8 5.687 5.535 5.378 5.313 5.35 5.405 5.47 5.583 5.737 5.822 5.81 5.77 5.73 5.68 5.603 5.613 5.727 5.83 5.905 5.897 5.82 5.74 5.66 5.618 5.62 5.635 5.658 5.725 5.83 5.935 5.99 5.99 5.99 5.99 5.962 5.897 5.827 5.755 5.693 5.655 5.663 5.71 5.755 5.7 5.545 5.458 5.54 5.708 5.863 5.972 6.005 6.013 6.03
13.018 13.005 12.995 12.985 12.972 12.96 12.947 12.935 12.744 12.347 11.812 11.075 10.245 9.41 8.553 7.578 6.745 5.581 4.362 4.596 5.415 5.722 5.8 5.81 5.635 5.44 5.48 5.57 5.627 5.67 5.73 5.795 5.832 5.855 5.872 5.885 5.892 5.895 5.895 5.887 5.865 5.825 5.78 5.74 5.695 5.658 5.66 5.685 5.702 5.705 5.697 5.68 5.642 5.597 5.542 5.475 5.41 5.35 5.302 5.252 5.162 5.042 4.913 4.793 4.703 4.633 4.623 4.662 4.692 4.705 4.635 4.488 4.442 4.197 3.92 3.92 3.92 3.92 3.92 4.095 4.242 4.198 4.183 4.185 4.185 4.167 4.107 4.025 3.947 3.87 3.795 3.733 3.683 3.645 3.615 3.567 3.487 3.385 3.187 2.81 2.853 2.95 3 3.337 3.47 3.502 3.503 3.51 3.555 3.628 3.712 3.792 3.85 3.88 3.875 3.837 3.782 3.705 3.735 3.842 3.882 3.905 3.96 4.037 4.11 4.177 4.24 4.292 4.33 4.357 4.37 4.375 4.39 4.435 4.573 4.78 4.982 5.15 5.27 5.385 5.515 5.642 5.69 5.668 5.665 5.685 5.685 5.63 5.517 5.365 5.288 5.3 5.34 5.403 5.515 5.667 5.792 5.827 5.79 5.745 5.672 5.565 5.568 5.717 5.855 5.925 5.92 5.855 5.775 5.7 5.66 5.653 5.653 5.665 5.728 5.83 5.932 5.987 5.99 5.99 5.967 5.882 5.78 5.71 5.665 5.668 5.65 5.585 5.563 5.587 5.53 5.433 5.503 5.692 5.87 5.99 6.022 6.013 6.018 6.035
13 12.985 12.975 12.962 12.948 12.935 12.925 12.915 12.905 12.895 12.772 12.444 11.979 11.307 10.475 9.55 8.412 6.828 5.369 5.093 5.392 5.482 5.505 5.5 5.383 5.36 5.48 5.537 5.577 5.615 5.675 5.752 5.812 5.842 5.857 5.872 5.887 5.897 5.892 5.865 5.82 5.77 5.722 5.677 5.63 5.593 5.593 5.607 5.61 5.608 5.605 5.602 5.582 5.542 5.485 5.418 5.353 5.293 5.248 5.212 5.16 5.062 4.935 4.8 4.683 4.61 4.603 4.627 4.637 4.64 4.605 4.538 4.495 4.203 3.92 3.92 3.92 3.92 3.92 4.1 4.26 4.22 4.205 4.212 4.215 4.2 4.142 4.06 3.985 3.91 3.84 3.79 3.755 3.725 3.695 3.66 3.612 3.537 3.435 3.335 3.21 2.9 2.853 2.93 2.925 3.192 3.377 3.437 3.52 3.602 3.687 3.77 3.847 3.905 3.905 3.847 3.767 3.683 3.713 3.855 3.95 3.995 4.053 4.125 4.19 4.253 4.315 4.375 4.43 4.465 4.48 4.498 4.525 4.563 4.688 4.875 5.037 5.155 5.205 5.25 5.333 5.445 5.5 5.495 5.518 5.547 5.545 5.515 5.46 5.345 5.27 5.273 5.29 5.338 5.448 5.595 5.737 5.82 5.807 5.74 5.635 5.515 5.513 5.675 5.855 5.942 5.935 5.882 5.808 5.743 5.713 5.7 5.69 5.685 5.733 5.83 5.93 5.985 5.99 5.985 5.912 5.773 5.66 5.615 5.633 5.695 5.7 5.59 5.473 5.433 5.403 5.443 5.63 5.847 6 6.047 6.035 6.02 6.023 6.04
12.592 12.882 12.955 12.942 12.928 12.915 12.905 12.895 12.885 12.875 12.865 12.855 12.8 12.539 12.119 11.477 10.39 9.077 7.662 6.098 5.223 5.17 5.188 5.143 5.088 5.183 5.322 5.39 5.455 5.525 5.602 5.687 5.767 5.815 5.83 5.835 5.84 5.847 5.832 5.792 5.745 5.697 5.652 5.607 5.56 5.525 5.517 5.517 5.512 5.51 5.51 5.51 5.505 5.482 5.43 5.362 5.295 5.238 5.195 5.16 5.125 5.055 4.94 4.807 4.678 4.59 4.568 4.57 4.57 4.57 4.563 4.602 4.572 4.208 3.92 3.92 3.92 3.92 3.92 4.1 4.265 4.235 4.225 4.235 4.242 4.23 4.175 4.095 4.02 3.942 3.88 3.845 3.815 3.787 3.76 3.727 3.697 3.657 3.587 3.505 3.42 3.33 3.235 2.963 2.798 2.87 2.888 3.133 3.417 3.502 3.592 3.682 3.767 3.847 3.862 3.802 3.73 3.655 3.683 3.83 3.975 4.072 4.137 4.202 4.267 4.33 4.39 4.45 4.512 4.562 4.592 4.62 4.65 4.685 4.783 4.923 5.053 5.172 5.225 5.228 5.248 5.298 5.33 5.345 5.38 5.41 5.405 5.375 5.345 5.293 5.255 5.258 5.26 5.283 5.378 5.52 5.663 5.79 5.805 5.705 5.585 5.465 5.458 5.615 5.815 5.927 5.932 5.897 5.837 5.788 5.767 5.75 5.732 5.713 5.738 5.825 5.927 5.985 5.99 5.97 5.852 5.668 5.573 5.595 5.665 5.742 5.742 5.63 5.475 5.35 5.358 5.52 5.742 5.957 6.067 6.065 6.045 6.03 6.03 6.045
11.317 12.084 12.475 12.775 12.91 12.895 12.885 12.875 12.865 12.855 12.845 12.835 12.825 12.817 12.81 12.614 12.079 11.297 10.031 7.337 5.268 5.01 5.066 5.231 5.143 4.983 5.015 5.115 5.218 5.322 5.422 5.515 5.605 5.68 5.727 5.74 5.735 5.735 5.717 5.677 5.632 5.59 5.55 5.51 5.465 5.427 5.412 5.41 5.407 5.402 5.397 5.39 5.382 5.37 5.325 5.255 5.203 5.178 5.15 5.115 5.077 5.01 4.9 4.77 4.653 4.578 4.548 4.538 4.535 4.535 4.535 4.64 4.625 4.213 3.92 3.92 3.92 3.92 3.92 4.092 4.257 4.25 4.245 4.245 4.255 4.247 4.195 4.115 4.037 3.953 3.893 3.867 3.84 3.812 3.785 3.757 3.732 3.707 3.665 3.595 3.515 3.442 3.39 3.317 3.215 2.99 2.773 2.838 2.853 3.06 3.407 3.5 3.592 3.685 3.707 3.655 3.61 3.608 3.69 3.84 4 4.127 4.207 4.27 4.332 4.39 4.457 4.53 4.59 4.645 4.685 4.715 4.75 4.808 4.895 5 5.113 5.207 5.245 5.245 5.248 5.25 5.253 5.263 5.28 5.295 5.293 5.278 5.263 5.253 5.25 5.25 5.25 5.255 5.333 5.475 5.625 5.785 5.802 5.673 5.54 5.415 5.403 5.54 5.702 5.802 5.832 5.832 5.83 5.822 5.805 5.782 5.757 5.733 5.745 5.82 5.922 5.982 5.99 5.97 5.84 5.623 5.538 5.6 5.68 5.755 5.75 5.637 5.487 5.333 5.353 5.557 5.775 5.99 6.087 6.072 6.055 6.045 6.053 6.073
9.56 10.597 11.222 11.84 12.295 12.6 12.807 12.855 12.847 12.84 12.833 12.825 12.818 12.815 12.81 12.805 12.77 12.561 10.743 7.375 5.406 5.241 5.998 6.84 6.583 5.831 5.368 5.101 4.981 5.05 5.158 5.255 5.345 5.435 5.522 5.585 5.605 5.605 5.59 5.552 5.51 5.473 5.435 5.392 5.34 5.295 5.28 5.28 5.275 5.262 5.247 5.232 5.22 5.202 5.158 5.11 5.105 5.122 5.112 5.077 5.025 4.942 4.828 4.708 4.625 4.58 4.555 4.538 4.525 4.52 4.52 4.64 4.625 4.208 3.923 3.92 3.92 3.92 3.92 4.09 4.265 4.28 4.275 4.255 4.255 4.252 4.205 4.125 4.04 3.945 3.885 3.867 3.845 3.815 3.788 3.763 3.738 3.717 3.677 3.605 3.538 3.488 3.48 3.472 3.4 3.3 3.2 3.03 2.785 2.838 2.823 2.95 3.352 3.48 3.5 3.48 3.515 3.61 3.75 3.902 4.05 4.175 4.262 4.325 4.377 4.42 4.495 4.592 4.667 4.725 4.768 4.805 4.863 4.948 5.045 5.145 5.227 5.255 5.25 5.25 5.25 5.25 5.25 5.25 5.25 5.25 5.25 5.25 5.25 5.25 5.25 5.25 5.25 5.25 5.323 5.473 5.638 5.807 5.82 5.675 5.528 5.388 5.33 5.403 5.515 5.597 5.643 5.683 5.76 5.815 5.815 5.797 5.772 5.748 5.755 5.823 5.917 5.977 5.99 5.96 5.832 5.62 5.523 5.58 5.66 5.735 5.725 5.617 5.48 5.33 5.355 5.558 5.768 5.985 6.09 6.078 6.07 6.078 6.095 6.118
7.713 8.945 9.66 10.285 10.91 11.552 12.032 12.287 12.619 12.839 12.835 12.83 12.825 12.825 12.82 12.812 12.777 12.331 9.429 6.264 5.338 5.871 7.99 9.434 8.989 7.878 6.893 6.146 5.648 5.341 5.076 4.993 5.085 5.175 5.27 5.365 5.435 5.467 5.462 5.43 5.392 5.357 5.317 5.265 5.2 5.153 5.14 5.135 5.117 5.095 5.075 5.058 5.045 5.028 5.005 5.01 5.045 5.08 5.077 5.03 4.957 4.867 4.763 4.675 4.628 4.595 4.568 4.545 4.525 4.51 4.505 4.577 4.5 4.143 3.928 3.92 3.92 3.92 3.92 4.1 4.295 4.32 4.317 4.29 4.268 4.257 4.215 4.13 4.035 3.938 3.88 3.862 3.842 3.817 3.793 3.768 3.748 3.732 3.69 3.623 3.57 3.53 3.53 3.562 3.552 3.48 3.393 3.342 3.315 3.19 2.84 2.818 2.853 2.903 3.252 3.425 3.547 3.68 3.817 3.96 4.095 4.222 4.315 4.367 4.405 4.438 4.513 4.625 4.725 4.802 4.858 4.918 5.005 5.102 5.197 5.277 5.305 5.275 5.25 5.25 5.25 5.25 5.25 5.25 5.25 5.25 5.25 5.25 5.25 5.25 5.25 5.25 5.26 5.283 5.35 5.49 5.665 5.832 5.837 5.69 5.537 5.38 5.278 5.28 5.33 5.395 5.465 5.55 5.675 5.767 5.795 5.792 5.78 5.763 5.765 5.825 5.907 5.967 5.977 5.907 5.775 5.598 5.505 5.555 5.635 5.707 5.687 5.58 5.46 5.33 5.365 5.565 5.77 5.982 6.092 6.095 6.105 6.125 6.145 6.165
6.331 7.273 8.098 8.743 9.405 10.027 10.457 10.91 11.455 11.95 12.529 12.842 12.837 12.835 12.83 12.82 12.784 10.697 7.264 5.636 5.456 6.963 9.592 10.846 10.607 9.944 9.032 8.063 7.323 6.675 6.031 5.556 5.241 5.021 5.01 5.105 5.2 5.28 5.317 5.305 5.27 5.232 5.182 5.122 5.055 5.01 4.993 4.975 4.95 4.925 4.905 4.885 4.885 4.885 4.865 4.89 4.955 5.017 5.025 4.957 4.875 4.795 4.725 4.678 4.642 4.61 4.583 4.56 4.537 4.515 4.5 4.472 4.325 4.07 3.93 3.92 3.92 3.92 3.92 4.108 4.315 4.352 4.36 4.335 4.302 4.275 4.22 4.125 4.025 3.93 3.875 3.858 3.84 3.82 3.798 3.778 3.763 3.745 3.708 3.655 3.61 3.57 3.57 3.61 3.645 3.637 3.597 3.57 3.547 3.52 3.475 3.352 2.978 2.848 2.895 3.04 3.437 3.652 3.79 3.932 4.075 4.217 4.325 4.38 4.42 4.455 4.528 4.645 4.765 4.878 4.968 5.055 5.155 5.255 5.335 5.357 5.327 5.28 5.255 5.253 5.25 5.25 5.25 5.25 5.25 5.25 5.25 5.263 5.285 5.31 5.34 5.368 5.405 5.443 5.49 5.588 5.718 5.857 5.852 5.695 5.535 5.373 5.278 5.273 5.285 5.318 5.378 5.475 5.61 5.715 5.755 5.762 5.765 5.762 5.77 5.817 5.882 5.935 5.925 5.825 5.692 5.548 5.478 5.525 5.605 5.667 5.635 5.525 5.417 5.318 5.37 5.572 5.777 5.982 6.1 6.127 6.152 6.175 6.195 6.215
5.945 6.256 6.74 7.275 7.975 8.402 8.62 9.17 9.765 10.195 10.895 11.697 12.387 12.787 12.84 12.829 11.849 8.441 5.829 5.401 6.056 8.485 10.549 11.137 11.167 11.059 10.659 9.997 9.235 8.5 7.835 7.135 6.41 5.781 5.363 5.053 4.941 5.033 5.12 5.14 5.105 5.062 5.005 4.95 4.903 4.89 4.892 4.873 4.843 4.813 4.783 4.773 4.805 4.812 4.74 4.69 4.735 4.82 4.832 4.755 4.695 4.695 4.697 4.672 4.647 4.622 4.595 4.567 4.54 4.512 4.487 4.417 4.27 4.058 3.928 3.92 3.92 3.92 3.92 4.115 4.33 4.375 4.387 4.36 4.327 4.29 4.22 4.12 4.02 3.935 3.89 3.875 3.863 3.865 3.868 3.853 3.835 3.805 3.755 3.7 3.655 3.613 3.608 3.642 3.68 3.705 3.7 3.68 3.657 3.635 3.622 3.61 3.56 3.465 3.123 2.993 3.06 3.223 3.605 3.81 3.96 4.115 4.237 4.305 4.355 4.428 4.565 4.725 4.86 4.988 5.103 5.205 5.305 5.39 5.43 5.41 5.365 5.32 5.295 5.29 5.303 5.358 5.413 5.408 5.363 5.333 5.39 5.47 5.483 5.51 5.57 5.628 5.675 5.692 5.72 5.788 5.865 5.947 5.932 5.803 5.66 5.52 5.418 5.39 5.405 5.428 5.458 5.515 5.598 5.678 5.72 5.73 5.738 5.745 5.75 5.765 5.805 5.852 5.825 5.71 5.58 5.468 5.433 5.485 5.56 5.607 5.567 5.46 5.355 5.288 5.368 5.567 5.77 5.97 6.097 6.14 6.17 6.2 6.232 6.26
6.015 6.093 6.165 6.315 6.678 6.863 6.976 7.418 8.13 8.625 8.845 9.316 10.367 11.462 12.206 12.617 10.092 6.637 5.593 5.504 7.178 9.842 11.147 11.385 11.4 11.362 11.285 11.129 10.747 10.232 9.625 8.902 8.175 7.445 6.723 6.005 5.488 5.176 4.968 4.92 4.903 4.858 4.815 4.778 4.75 4.76 4.81 4.852 4.847 4.813 4.77 4.753 4.782 4.772 4.663 4.528 4.468 4.51 4.515 4.468 4.498 4.597 4.655 4.64 4.625 4.61 4.582 4.55 4.517 4.485 4.457 4.412 4.29 4.063 3.923 3.92 3.92 3.92 3.92 4.123 4.345 4.387 4.397 4.367 4.33 4.292 4.225 4.125 4.038 3.975 3.94 3.925 3.93 3.975 4.007 3.995 3.965 3.912 3.84 3.768 3.713 3.665 3.643 3.655 3.683 3.707 3.702 3.68 3.663 3.645 3.64 3.65 3.665 3.682 3.635 3.52 3.22 3.143 3.223 3.398 3.77 3.965 4.095 4.17 4.245 4.38 4.587 4.81 4.99 5.132 5.25 5.355 5.435 5.475 5.482 5.467 5.432 5.388 5.365 5.375 5.435 5.557 5.69 5.77 5.755 5.715 5.793 5.86 5.815 5.803 5.85 5.905 5.932 5.93 5.955 6.02 6.08 6.115 6.102 6.045 5.95 5.83 5.71 5.618 5.588 5.603 5.633 5.667 5.693 5.705 5.71 5.713 5.72 5.73 5.72 5.69 5.693 5.735 5.702 5.58 5.47 5.398 5.383 5.435 5.492 5.52 5.487 5.39 5.298 5.265 5.365 5.558 5.755 5.955 6.082 6.125 6.16 6.203 6.247 6.287
6.1 6.132 6.137 6.075 6.118 6.208 6.243 6.356 6.74 7.198 7.455 7.485 7.783 8.615 9.422 9.522 7.608 5.714 5.358 6.123 8.672 10.767 11.435 11.615 11.625 11.605 11.54 11.427 11.27 11.087 10.807 10.452 9.927 9.21 8.482 7.76 7.043 6.325 5.708 5.281 4.906 4.688 4.663 4.638 4.613 4.603 4.663 4.77 4.842 4.855 4.817 4.773 4.767 4.732 4.607 4.453 4.313 4.243 4.24 4.293 4.405 4.532 4.602 4.602 4.588 4.572 4.55 4.517 4.482 4.45 4.422 4.395 4.3 4.075 3.925 3.92 3.92 3.92 3.955 4.163 4.355 4.395 4.407 4.377 4.335 4.297 4.232 4.15 4.09 4.04 4.003 4 4.04 4.11 4.152 4.135 4.082 4.015 3.94 3.86 3.785 3.725 3.69 3.68 3.688 3.707 3.707 3.685 3.67 3.655 3.65 3.665 3.693 3.722 3.73 3.717 3.67 3.577 3.318 3.283 3.38 3.575 3.927 4.062 4.195 4.365 4.575 4.818 5.05 5.25 5.395 5.477 5.51 5.517 5.517 5.51 5.49 5.455 5.445 5.5 5.61 5.743 5.895 6.065 6.18 6.235 6.26 6.227 6.16 6.113 6.13 6.167 6.172 6.165 6.19 6.242 6.275 6.287 6.282 6.265 6.22 6.137 6.03 5.91 5.818 5.785 5.805 5.822 5.802 5.76 5.73 5.723 5.723 5.725 5.7 5.645 5.608 5.62 5.577 5.473 5.405 5.355 5.338 5.372 5.407 5.425 5.405 5.325 5.263 5.26 5.365 5.555 5.748 5.942 6.067 6.115 6.16 6.207 6.252 6.3
6.178 6.165 6.138 6.115 6.175 6.255 6.267 6.223 6.21 6.36 6.555 6.2 6.086 6.653 6.798 6.349 5.883 5.543 5.368 6.898 9.676 11.152 11.495 11.667 11.735 11.76 11.632 11.397 11.208 11.102 11.062 11.067 10.922 10.584 10.147 9.522 8.797 8.078 7.363 6.628 5.848 5.226 4.786 4.528 4.478 4.455 4.495 4.602 4.712 4.772 4.772 4.757 4.755 4.692 4.54 4.372 4.205 4.09 4.118 4.24 4.368 4.49 4.562 4.567 4.553 4.54 4.517 4.48 4.442 4.412 4.387 4.365 4.295 4.098 3.94 3.92 3.92 3.92 4.013 4.222 4.357 4.395 4.412 4.385 4.34 4.3 4.247 4.192 4.147 4.1 4.073 4.1 4.165 4.237 4.277 4.25 4.187 4.117 4.04 3.96 3.878 3.803 3.755 3.733 3.72 3.72 3.715 3.695 3.68 3.668 3.67 3.695 3.73 3.767 3.788 3.788 3.783 3.785 3.752 3.655 3.435 3.45 3.548 3.675 4.092 4.392 4.597 4.835 5.08 5.325 5.492 5.545 5.55 5.552 5.552 5.545 5.535 5.528 5.565 5.67 5.8 5.93 6.078 6.245 6.395 6.482 6.487 6.455 6.422 6.39 6.39 6.405 6.405 6.4 6.412 6.437 6.45 6.452 6.437 6.407 6.372 6.325 6.245 6.147 6.052 5.98 5.95 5.915 5.85 5.798 5.783 5.788 5.793 5.788 5.728 5.64 5.575 5.535 5.48 5.415 5.37 5.323 5.293 5.295 5.315 5.335 5.325 5.278 5.25 5.26 5.365 5.555 5.745 5.935 6.062 6.12 6.17 6.21 6.247 6.295
6.403 6.36 6.268 6.19 6.203 6.267 6.327 6.34 6.263 6.297 6.025 5.206 5.516 6.305 6.183 5.94 5.75 5.498 5.566 7.205 9.474 10.594 11.09 11.412 11.572 11.61 11.43 11.205 11.11 11.055 11 10.973 10.987 11.02 10.962 10.714 10.367 9.835 9.115 8.362 7.545 6.69 5.835 5.163 4.698 4.393 4.338 4.415 4.49 4.543 4.59 4.637 4.68 4.612 4.42 4.225 4.088 4.043 4.108 4.233 4.355 4.47 4.535 4.535 4.52 4.502 4.467 4.427 4.39 4.36 4.345 4.332 4.287 4.122 3.958 3.92 3.92 3.92 3.978 4.175 4.335 4.38 4.402 4.377 4.332 4.293 4.255 4.212 4.17 4.133 4.135 4.19 4.26 4.327 4.357 4.33 4.28 4.217 4.14 4.057 3.975 3.9 3.828 3.783 3.77 3.758 3.74 3.723 3.708 3.695 3.705 3.738 3.775 3.818 3.865 3.895 3.903 3.907 3.895 3.862 3.832 3.775 3.585 3.588 3.76 4.043 4.545 4.917 5.167 5.395 5.535 5.575 5.582 5.588 5.59 5.608 5.645 5.693 5.773 5.878 5.993 6.12 6.265 6.405 6.49 6.517 6.52 6.52 6.517 6.505 6.5 6.512 6.522 6.522 6.525 6.532 6.54 6.54 6.517 6.477 6.43 6.38 6.315 6.24 6.17 6.11 6.055 5.985 5.92 5.895 5.905 5.923 5.93 5.915 5.825 5.693 5.598 5.525 5.465 5.42 5.375 5.32 5.27 5.253 5.26 5.27 5.268 5.255 5.25 5.26 5.368 5.56 5.75 5.942 6.072 6.13 6.172 6.195 6.218 6.257
6.632 6.535 6.397 6.268 6.215 6.25 6.3 6.35 6.365 6.127 5.318 5.118 5.942 6.22 5.928 5.725 5.575 5.418 5.43 6.555 8.165 9.14 9.897 10.522 11.019 11.262 11.202 11.11 11.06 11.005 10.95 10.903 10.885 10.908 10.94 10.97 11.005 10.849 10.502 10.02 9.287 8.437 7.588 6.74 5.89 5.176 4.683 4.376 4.295 4.353 4.423 4.495 4.565 4.57 4.368 4.113 4.03 4.035 4.105 4.23 4.342 4.445 4.505 4.505 4.482 4.447 4.4 4.36 4.325 4.295 4.288 4.29 4.272 4.13 3.963 3.92 3.92 3.92 3.93 4.11 4.305 4.36 4.385 4.36 4.32 4.285 4.25 4.21 4.178 4.163 4.193 4.257 4.325 4.392 4.417 4.387 4.35 4.305 4.232 4.15 4.075 4.01 3.925 3.848 3.82 3.805 3.785 3.768 3.75 3.735 3.745 3.78 3.823 3.87 3.937 4.002 4.03 4.035 4.018 3.995 4.003 4.035 4.03 3.955 3.743 3.678 4.16 4.855 5.267 5.455 5.562 5.593 5.605 5.678 5.753 5.798 5.878 5.96 6.045 6.133 6.225 6.33 6.43 6.495 6.52 6.53 6.535 6.532 6.515 6.478 6.468 6.497 6.522 6.53 6.535 6.54 6.542 6.542 6.527 6.497 6.457 6.407 6.342 6.27 6.213 6.18 6.142 6.078 6.04 6.053 6.075 6.085 6.075 6.045 5.95 5.8 5.665 5.568 5.508 5.46 5.402 5.327 5.268 5.25 5.25 5.25 5.25 5.25 5.25 5.26 5.37 5.567 5.762 5.957 6.085 6.132 6.155 6.163 6.178 6.208
6.705 6.587 6.455 6.325 6.24 6.245 6.293 6.337 6.277 5.485 5.033 5.765 6.174 5.948 5.693 5.543 5.43 5.32 5.228 5.588 6.46 7.33 8.122 8.917 9.712 10.34 10.742 10.975 11.01 10.957 10.903 10.85 10.808 10.803 10.83 10.86 10.893 10.927 10.975 10.917 10.612 10.149 9.482 8.64 7.795 6.95 6.105 5.351 4.836 4.466 4.318 4.39 4.46 4.532 4.415 4.165 4.05 4.035 4.103 4.22 4.32 4.415 4.475 4.47 4.43 4.38 4.33 4.29 4.255 4.228 4.225 4.232 4.232 4.112 3.958 3.92 3.92 3.92 4.008 4.182 4.292 4.342 4.367 4.347 4.315 4.285 4.25 4.218 4.203 4.21 4.255 4.323 4.39 4.46 4.48 4.448 4.418 4.385 4.322 4.248 4.185 4.127 4.045 3.938 3.875 3.855 3.835 3.815 3.793 3.775 3.788 3.828 3.875 3.925 3.993 4.077 4.14 4.16 4.155 4.173 4.23 4.285 4.267 4.162 4.047 3.723 4.093 5.005 5.342 5.497 5.59 5.64 5.753 5.958 6.097 6.125 6.173 6.243 6.327 6.41 6.467 6.507 6.532 6.533 6.533 6.54 6.54 6.52 6.48 6.43 6.423 6.465 6.507 6.53 6.537 6.54 6.54 6.54 6.53 6.507 6.477 6.432 6.37 6.315 6.285 6.265 6.23 6.19 6.19 6.22 6.24 6.235 6.21 6.175 6.08 5.927 5.773 5.638 5.548 5.48 5.405 5.32 5.263 5.25 5.25 5.25 5.25 5.25 5.25 5.26 5.37 5.57 5.77 5.967 6.087 6.115 6.123 6.128 6.14 6.165
6.77 6.645 6.515 6.385 6.268 6.24 6.287 6.335 5.88 5.118 5.5 6.122 5.955 5.713 5.54 5.448 5.373 5.295 5.215 5.165 5.378 5.798 6.343 7.083 7.87 8.657 9.435 10.087 10.507 10.772 10.855 10.8 10.75 10.715 10.72 10.75 10.78 10.823 10.905 11.017 11.067 11.017 10.754 10.317 9.737 8.952 8.107 7.265 6.438 5.626 5.036 4.666 4.436 4.428 4.44 4.292 4.125 4.063 4.095 4.195 4.293 4.388 4.437 4.418 4.365 4.313 4.265 4.223 4.185 4.163 4.165 4.17 4.175 4.08 3.95 3.92 3.92 3.92 4.07 4.242 4.285 4.33 4.357 4.345 4.315 4.285 4.258 4.245 4.245 4.265 4.32 4.39 4.46 4.527 4.542 4.515 4.49 4.46 4.412 4.352 4.297 4.242 4.162 4.045 3.945 3.9 3.883 3.865 3.843 3.823 3.838 3.885 3.935 3.985 4.05 4.132 4.21 4.267 4.317 4.385 4.465 4.52 4.475 4.345 4.21 3.925 4.5 5.36 5.463 5.558 5.685 5.853 6.082 6.325 6.44 6.452 6.472 6.512 6.56 6.595 6.607 6.602 6.595 6.583 6.57 6.563 6.54 6.493 6.438 6.383 6.378 6.425 6.475 6.518 6.538 6.54 6.538 6.535 6.528 6.51 6.488 6.457 6.418 6.387 6.37 6.35 6.325 6.315 6.33 6.35 6.365 6.362 6.34 6.305 6.21 6.055 5.905 5.768 5.645 5.54 5.438 5.333 5.265 5.25 5.25 5.25 5.25 5.25 5.25 5.28 5.4 5.593 5.798 5.99 6.087 6.095 6.098 6.1 6.115 6.143
6.787 6.69 6.572 6.44 6.308 6.25 6.282 6.172 5.321 5.235 5.992 6 5.768 5.575 5.475 5.415 5.34 5.262 5.185 5.11 5.098 5.138 5.301 5.628 6.096 6.793 7.6 8.387 9.142 9.825 10.272 10.527 10.665 10.65 10.625 10.64 10.67 10.738 10.855 10.99 11.08 11.08 11.045 11.015 10.839 10.459 9.964 9.267 8.427 7.602 6.793 5.985 5.316 4.866 4.556 4.353 4.25 4.225 4.248 4.298 4.35 4.4 4.422 4.395 4.343 4.295 4.24 4.183 4.14 4.12 4.125 4.133 4.142 4.05 3.935 3.92 3.92 3.92 4.065 4.232 4.272 4.312 4.345 4.347 4.325 4.295 4.278 4.277 4.283 4.315 4.38 4.45 4.517 4.58 4.6 4.577 4.552 4.525 4.487 4.442 4.392 4.337 4.255 4.135 4.028 3.975 3.958 3.943 3.923 3.893 3.9 3.95 4 4.032 4.08 4.157 4.237 4.327 4.42 4.507 4.592 4.617 4.532 4.395 4 4.163 5.04 5.517 5.637 5.705 5.87 6.125 6.357 6.52 6.585 6.605 6.625 6.645 6.657 6.662 6.667 6.667 6.657 6.642 6.625 6.605 6.565 6.505 6.445 6.4 6.398 6.435 6.488 6.54 6.563 6.558 6.553 6.55 6.545 6.53 6.51 6.49 6.465 6.44 6.417 6.395 6.382 6.385 6.395 6.405 6.417 6.43 6.432 6.422 6.345 6.205 6.07 5.943 5.818 5.693 5.568 5.465 5.355 5.268 5.25 5.25 5.25 5.25 5.285 5.388 5.5 5.65 5.86 6.027 6.09 6.09 6.09 6.09 6.113 6.155
6.752 6.685 6.597 6.487 6.365 6.278 6.277 5.725 5.091 5.59 6.07 5.88 5.653 5.478 5.405 5.367 5.305 5.227 5.15 5.073 5.03 5.055 5.103 5.098 5.151 5.428 5.816 6.468 7.33 8.117 8.85 9.505 9.982 10.27 10.465 10.54 10.577 10.678 10.812 10.95 11.072 11.112 11.085 11.055 11.02 10.985 10.897 10.607 10.167 9.557 8.767 7.96 7.153 6.34 5.583 5.018 4.578 4.378 4.403 4.41 4.415 4.42 4.425 4.41 4.37 4.322 4.26 4.18 4.12 4.098 4.1 4.113 4.13 4.032 3.923 3.92 3.92 3.92 4.063 4.22 4.25 4.285 4.32 4.34 4.337 4.315 4.3 4.302 4.308 4.348 4.422 4.495 4.562 4.622 4.645 4.63 4.607 4.58 4.547 4.512 4.467 4.412 4.322 4.21 4.13 4.085 4.063 4.045 4.015 3.973 3.973 4.02 4.05 4.048 4.078 4.155 4.248 4.352 4.45 4.54 4.6 4.57 4.457 4.32 4.063 4.633 5.48 5.657 5.815 5.918 6.075 6.31 6.477 6.56 6.597 6.62 6.64 6.657 6.67 6.685 6.702 6.712 6.71 6.695 6.675 6.655 6.615 6.555 6.513 6.503 6.503 6.513 6.553 6.605 6.62 6.603 6.593 6.59 6.585 6.572 6.555 6.535 6.5 6.46 6.433 6.41 6.4 6.405 6.413 6.423 6.435 6.45 6.467 6.477 6.452 6.372 6.257 6.13 6.003 5.878 5.778 5.712 5.565 5.365 5.268 5.25 5.25 5.288 5.415 5.587 5.66 5.735 5.925 6.06 6.09 6.09 6.09 6.09 6.118 6.175
6.702 6.64 6.57 6.492 6.402 6.305 6.067 5.236 5.23 5.929 5.917 5.745 5.535 5.38 5.323 5.297 5.257 5.192 5.115 5.04 4.988 4.975 5.02 5.072 5.06 5.01 4.961 5.193 5.636 6.188 7.005 7.827 8.537 9.165 9.67 10.022 10.337 10.6 10.762 10.907 11.042 11.125 11.125 11.095 11.06 11.025 10.992 10.955 10.912 10.694 10.292 9.789 9.09 8.272 7.45 6.628 5.79 5.146 4.688 4.426 4.403 4.41 4.415 4.415 4.395 4.35 4.292 4.203 4.113 4.073 4.073 4.09 4.115 4.025 3.92 3.92 3.92 3.968 4.118 4.217 4.225 4.255 4.29 4.315 4.332 4.33 4.32 4.325 4.333 4.373 4.452 4.532 4.607 4.667 4.685 4.675 4.66 4.635 4.605 4.575 4.537 4.482 4.398 4.313 4.25 4.198 4.165 4.135 4.09 4.045 4.045 4.07 4.062 4.045 4.078 4.165 4.27 4.38 4.48 4.552 4.562 4.5 4.385 4.05 4.403 5.272 5.615 5.793 5.97 6.105 6.265 6.437 6.52 6.57 6.612 6.64 6.657 6.67 6.683 6.697 6.712 6.727 6.735 6.73 6.72 6.705 6.668 6.625 6.615 6.625 6.625 6.618 6.63 6.665 6.675 6.655 6.64 6.633 6.625 6.615 6.602 6.582 6.542 6.49 6.453 6.43 6.423 6.427 6.433 6.44 6.453 6.467 6.477 6.478 6.485 6.48 6.422 6.317 6.19 6.088 6.035 5.977 5.815 5.57 5.368 5.27 5.26 5.43 5.662 5.81 5.855 5.855 5.98 6.082 6.09 6.09 6.09 6.093 6.123 6.18
6.647 6.592 6.525 6.455 6.385 6.302 5.58 5.066 5.602 5.905 5.76 5.6 5.415 5.285 5.238 5.213 5.185 5.145 5.08 5.015 4.983 4.965 4.985 5.038 5.052 5.02 4.97 4.92 4.871 5.003 5.401 5.886 6.645 7.522 8.21 8.812 9.39 9.905 10.322 10.645 10.855 11.017 11.095 11.085 11.047 11.002 10.957 10.91 10.86 10.815 10.795 10.692 10.372 9.937 9.327 8.522 7.697 6.858 5.975 5.253 4.751 4.458 4.403 4.41 4.407 4.377 4.327 4.24 4.13 4.06 4.05 4.075 4.107 4.022 3.92 3.92 3.92 4.057 4.222 4.24 4.228 4.235 4.26 4.285 4.31 4.33 4.337 4.345 4.355 4.398 4.478 4.562 4.645 4.707 4.725 4.715 4.705 4.69 4.665 4.635 4.6 4.55 4.485 4.417 4.355 4.297 4.25 4.205 4.155 4.11 4.092 4.082 4.058 4.043 4.088 4.19 4.3 4.41 4.505 4.535 4.5 4.427 4.19 4.153 4.895 5.572 5.75 5.927 6.105 6.262 6.395 6.482 6.53 6.58 6.625 6.655 6.67 6.68 6.695 6.71 6.723 6.743 6.755 6.755 6.755 6.75 6.735 6.727 6.732 6.74 6.742 6.735 6.73 6.735 6.733 6.715 6.698 6.683 6.668 6.655 6.645 6.627 6.587 6.532 6.483 6.45 6.445 6.45 6.455 6.463 6.47 6.477 6.477 6.473 6.48 6.502 6.51 6.472 6.4 6.345 6.317 6.245 6.065 5.82 5.575 5.395 5.328 5.483 5.89 6.155 6.125 6.04 6.048 6.09 6.09 6.093 6.098 6.103 6.133 6.193
6.62 6.54 6.47 6.4 6.325 6.015 5.163 5.225 5.845 5.75 5.623 5.5 5.353 5.235 5.185 5.155 5.125 5.093 5.055 5.028 5.018 5.01 5.04 5.075 5.073 5.055 5.037 5.032 4.972 4.86 4.78 4.791 5.131 5.633 6.27 7.137 7.875 8.507 9.15 9.717 10.182 10.582 10.832 10.9 10.887 10.86 10.832 10.8 10.76 10.725 10.72 10.717 10.68 10.63 10.404 9.989 9.477 8.77 7.935 7.055 6.125 5.351 4.816 4.491 4.403 4.395 4.36 4.277 4.165 4.068 4.038 4.07 4.097 4.012 3.92 3.92 3.92 4.097 4.265 4.25 4.237 4.23 4.245 4.273 4.3 4.325 4.34 4.35 4.368 4.42 4.5 4.585 4.67 4.737 4.76 4.75 4.74 4.73 4.71 4.677 4.642 4.6 4.545 4.48 4.415 4.352 4.297 4.25 4.2 4.158 4.128 4.103 4.078 4.058 4.105 4.215 4.325 4.435 4.507 4.49 4.43 4.355 4.093 4.63 5.497 5.7 5.87 6.037 6.207 6.342 6.415 6.465 6.515 6.565 6.61 6.642 6.665 6.687 6.707 6.723 6.74 6.773 6.795 6.795 6.795 6.79 6.797 6.817 6.827 6.835 6.84 6.835 6.827 6.823 6.815 6.8 6.775 6.74 6.71 6.695 6.68 6.652 6.607 6.555 6.505 6.473 6.47 6.478 6.483 6.49 6.495 6.488 6.475 6.468 6.478 6.5 6.527 6.55 6.565 6.59 6.6 6.515 6.305 6.038 5.828 5.758 5.758 5.7 5.768 5.962 6.205 6.312 6.215 6.17 6.16 6.165 6.163 6.143 6.16 6.225
6.7 6.55 6.423 6.328 6.24 5.438 5.016 5.587 5.77 5.655 5.553 5.457 5.342 5.228 5.165 5.13 5.095 5.068 5.058 5.067 5.07 5.06 5.1 5.157 5.145 5.098 5.092 5.13 5.115 5.047 5.013 5.007 4.928 4.776 4.896 5.368 5.94 6.663 7.427 8.102 8.78 9.425 9.962 10.384 10.599 10.637 10.66 10.675 10.667 10.64 10.638 10.652 10.632 10.585 10.535 10.487 10.362 10.042 9.604 8.984 8.135 7.208 6.255 5.448 4.881 4.521 4.38 4.313 4.17 4.055 4.04 4.067 4.072 3.99 3.92 3.92 3.92 4.09 4.252 4.243 4.238 4.238 4.253 4.28 4.305 4.32 4.33 4.345 4.38 4.443 4.52 4.605 4.692 4.765 4.787 4.775 4.768 4.762 4.745 4.708 4.668 4.627 4.575 4.51 4.445 4.38 4.325 4.28 4.235 4.2 4.173 4.148 4.122 4.093 4.13 4.24 4.35 4.457 4.5 4.448 4.37 4.038 4.238 5.14 5.627 5.79 5.95 6.112 6.255 6.332 6.375 6.423 6.47 6.52 6.565 6.6 6.635 6.682 6.72 6.74 6.768 6.815 6.842 6.84 6.837 6.828 6.838 6.872 6.9 6.915 6.917 6.915 6.918 6.92 6.915 6.892 6.847 6.79 6.75 6.73 6.7 6.655 6.605 6.558 6.52 6.5 6.503 6.515 6.52 6.525 6.527 6.513 6.49 6.48 6.488 6.51 6.543 6.575 6.625 6.702 6.76 6.695 6.47 6.27 6.243 6.352 6.49 6.37 5.89 5.521 5.575 5.895 6.247 6.367 6.32 6.292 6.25 6.195 6.203 6.262
6.867 6.663 6.475 6.315 5.905 5.096 5.225 5.785 5.705 5.62 5.525 5.425 5.322 5.215 5.145 5.113 5.085 5.068 5.07 5.092 5.11 5.113 5.155 5.232 5.22 5.125 5.085 5.115 5.155 5.195 5.235 5.272 5.235 5.13 4.985 4.821 4.826 5.168 5.541 6.006 6.725 7.445 8.165 8.89 9.47 9.89 10.295 10.522 10.557 10.552 10.555 10.58 10.58 10.545 10.495 10.445 10.395 10.345 10.295 10.072 9.649 9.094 8.29 7.337 6.385 5.548 4.948 4.451 4.113 4.04 4.05 4.067 4.037 3.958 3.92 3.92 3.92 4.085 4.247 4.247 4.25 4.253 4.265 4.285 4.3 4.31 4.32 4.348 4.4 4.465 4.54 4.625 4.715 4.79 4.812 4.803 4.8 4.8 4.782 4.742 4.698 4.655 4.605 4.54 4.475 4.41 4.355 4.315 4.28 4.25 4.22 4.192 4.162 4.128 4.16 4.265 4.375 4.48 4.502 4.43 4.302 4.076 4.708 5.555 5.698 5.85 6.012 6.16 6.252 6.297 6.338 6.38 6.425 6.475 6.518 6.558 6.613 6.68 6.732 6.765 6.808 6.862 6.887 6.882 6.875 6.863 6.873 6.912 6.955 6.987 6.997 7 7.012 7.02 7.002 6.957 6.897 6.832 6.785 6.75 6.705 6.655 6.608 6.57 6.545 6.53 6.535 6.55 6.557 6.565 6.562 6.548 6.538 6.543 6.55 6.56 6.578 6.6 6.645 6.71 6.767 6.762 6.675 6.647 6.732 6.835 6.937 6.925 6.48 5.88 5.518 5.458 5.613 5.915 6.3 6.412 6.315 6.235 6.24 6.282
7.037 6.798 6.6 6.252 5.308 5.043 5.6 5.692 5.63 5.565 5.482 5.39 5.295 5.193 5.128 5.105 5.088 5.073 5.08 5.105 5.13 5.15 5.192 5.262 5.262 5.167 5.095 5.105 5.145 5.182 5.22 5.26 5.302 5.35 5.327 5.185 5.035 4.928 4.753 4.786 5.076 5.506 6.165 6.895 7.63 8.375 9.122 9.692 10.057 10.342 10.475 10.5 10.517 10.5 10.452 10.405 10.355 10.305 10.255 10.2 10.16 10.074 9.739 9.214 8.5 7.577 6.64 5.68 4.615 4.053 4.062 4.072 4.01 3.93 3.92 3.92 3.92 4.08 4.242 4.25 4.26 4.285 4.32 4.335 4.335 4.335 4.343 4.385 4.455 4.53 4.62 4.703 4.768 4.823 4.843 4.84 4.84 4.84 4.82 4.777 4.732 4.685 4.63 4.567 4.502 4.435 4.382 4.352 4.325 4.295 4.265 4.235 4.2 4.165 4.193 4.288 4.395 4.495 4.49 4.382 4.058 4.41 5.307 5.65 5.78 5.92 6.065 6.167 6.22 6.263 6.305 6.345 6.388 6.433 6.483 6.543 6.612 6.685 6.747 6.8 6.855 6.91 6.932 6.925 6.912 6.898 6.908 6.945 6.987 7.032 7.057 7.065 7.077 7.077 7.042 6.982 6.92 6.857 6.81 6.77 6.718 6.665 6.623 6.595 6.578 6.563 6.565 6.58 6.59 6.6 6.605 6.608 6.622 6.642 6.65 6.65 6.648 6.653 6.675 6.718 6.768 6.81 6.845 6.872 6.91 6.955 7.002 7.06 6.88 6.492 6.215 5.925 5.576 5.516 5.645 5.923 6.29 6.352 6.29 6.288
7.137 6.932 6.627 5.812 5.066 5.36 5.71 5.585 5.51 5.452 5.375 5.3 5.238 5.17 5.128 5.113 5.098 5.083 5.065 5.065 5.087 5.11 5.15 5.197 5.217 5.19 5.118 5.093 5.13 5.168 5.208 5.255 5.307 5.36 5.377 5.307 5.245 5.135 4.94 4.81 4.7 4.733 4.976 5.331 5.903 6.63 7.358 8.085 8.787 9.402 9.835 10.162 10.397 10.445 10.407 10.36 10.305 10.245 10.205 10.193 10.21 10.265 10.255 10.157 9.864 9.362 8.747 7.719 5.547 4.058 4.073 4.087 4.008 3.92 3.92 3.92 3.92 4.078 4.24 4.268 4.318 4.385 4.452 4.475 4.463 4.435 4.43 4.49 4.575 4.658 4.788 4.895 4.935 4.943 4.925 4.918 4.91 4.9 4.86 4.8 4.75 4.697 4.64 4.577 4.51 4.43 4.37 4.345 4.32 4.295 4.272 4.245 4.21 4.188 4.228 4.32 4.425 4.487 4.425 4.165 4.133 4.885 5.58 5.742 5.87 5.997 6.1 6.163 6.208 6.255 6.303 6.345 6.385 6.425 6.473 6.535 6.605 6.675 6.745 6.81 6.87 6.927 6.96 6.957 6.942 6.928 6.933 6.965 7.005 7.05 7.08 7.09 7.092 7.07 7.03 6.977 6.915 6.855 6.817 6.795 6.75 6.695 6.658 6.635 6.618 6.605 6.61 6.625 6.635 6.635 6.642 6.665 6.69 6.715 6.73 6.732 6.727 6.723 6.728 6.758 6.81 6.865 6.89 6.888 6.898 6.92 6.96 7.018 7.03 6.86 6.62 6.447 6.272 5.99 5.613 5.548 5.668 5.92 6.292 6.382
7.052 6.865 6.28 5.248 5.19 5.707 5.62 5.48 5.395 5.345 5.285 5.238 5.203 5.168 5.143 5.128 5.115 5.1 5.055 5.008 4.998 5.01 5.047 5.08 5.097 5.122 5.115 5.095 5.118 5.163 5.21 5.26 5.313 5.365 5.4 5.382 5.342 5.22 5.045 4.945 4.877 4.813 4.725 4.683 4.861 5.161 5.651 6.368 7.095 7.797 8.437 9.065 9.612 10 10.24 10.285 10.237 10.22 10.24 10.293 10.36 10.427 10.417 10.322 10.215 10.117 9.877 8.676 5.873 4.078 4.1 4.117 4.02 3.92 3.92 3.92 3.92 4.098 4.3 4.365 4.45 4.535 4.615 4.65 4.622 4.555 4.535 4.62 4.722 4.808 4.985 5.142 5.185 5.137 5.06 5.043 5.022 4.995 4.923 4.82 4.748 4.693 4.635 4.572 4.492 4.39 4.32 4.295 4.275 4.26 4.245 4.22 4.198 4.208 4.268 4.362 4.447 4.437 4.32 4.055 4.563 5.44 5.697 5.837 5.955 6.06 6.132 6.178 6.225 6.275 6.325 6.37 6.412 6.455 6.49 6.53 6.588 6.655 6.725 6.79 6.852 6.912 6.957 6.975 6.967 6.953 6.955 6.983 7.018 7.06 7.09 7.097 7.082 7.04 6.997 6.955 6.902 6.845 6.81 6.802 6.782 6.737 6.7 6.683 6.67 6.665 6.675 6.685 6.68 6.66 6.66 6.685 6.713 6.747 6.777 6.792 6.792 6.788 6.798 6.828 6.873 6.925 6.95 6.945 6.943 6.953 6.985 7.033 7.075 7.05 6.925 6.762 6.597 6.435 6.275 6.002 5.623 5.573 5.685 5.925
6.79 6.522 5.595 5.068 5.51 5.68 5.553 5.425 5.345 5.315 5.285 5.252 5.218 5.185 5.16 5.145 5.132 5.117 5.075 5.005 4.95 4.928 4.94 4.955 4.965 4.995 5.04 5.075 5.113 5.165 5.217 5.27 5.32 5.37 5.412 5.422 5.395 5.292 5.155 5.068 5.002 4.935 4.867 4.803 4.738 4.64 4.733 5.046 5.473 6.108 6.808 7.455 8.1 8.77 9.355 9.76 10.057 10.27 10.38 10.455 10.525 10.592 10.582 10.493 10.403 10.327 10.022 8.539 5.723 4.126 4.147 4.14 4.02 3.92 3.92 3.92 3.92 4.11 4.357 4.465 4.565 4.665 4.765 4.805 4.747 4.643 4.625 4.735 4.86 4.963 5.165 5.367 5.412 5.315 5.203 5.17 5.137 5.1 5.015 4.883 4.768 4.69 4.627 4.555 4.455 4.34 4.273 4.253 4.24 4.232 4.218 4.2 4.21 4.248 4.313 4.4 4.43 4.35 3.993 4.165 5.042 5.595 5.797 5.915 6.015 6.105 6.17 6.208 6.248 6.295 6.345 6.393 6.438 6.482 6.52 6.55 6.588 6.64 6.705 6.77 6.835 6.895 6.94 6.972 6.985 6.98 6.985 7.008 7.035 7.072 7.1 7.095 7.06 7.01 6.965 6.925 6.882 6.833 6.8 6.793 6.787 6.77 6.75 6.742 6.74 6.74 6.737 6.725 6.702 6.675 6.673 6.7 6.735 6.773 6.807 6.837 6.852 6.855 6.87 6.903 6.943 6.987 7.01 7.013 7.02 7.04 7.065 7.087 7.105 7.112 7.067 6.965 6.835 6.69 6.55 6.41 6.27 6.012 5.65 5.598
6.467 5.98 5.183 5.295 5.762 5.645 5.538 5.425 5.335 5.307 5.297 5.267 5.233 5.2 5.178 5.162 5.148 5.132 5.092 5.022 4.95 4.883 4.853 4.855 4.868 4.905 4.965 5.035 5.097 5.15 5.205 5.262 5.317 5.372 5.425 5.437 5.405 5.347 5.267 5.192 5.125 5.057 4.992 4.925 4.86 4.795 4.728 4.653 4.686 4.923 5.283 5.815 6.48 7.145 7.81 8.485 9.145 9.692 10.112 10.37 10.51 10.65 10.722 10.69 10.625 10.56 9.977 8.18 5.548 4.176 4.185 4.122 3.99 3.92 3.92 3.92 3.945 4.148 4.38 4.49 4.605 4.725 4.828 4.855 4.782 4.683 4.688 4.815 4.97 5.11 5.327 5.57 5.612 5.465 5.328 5.27 5.232 5.195 5.11 4.975 4.838 4.72 4.625 4.528 4.415 4.3 4.238 4.223 4.21 4.205 4.203 4.213 4.25 4.295 4.36 4.405 4.362 4.245 4.015 4.573 5.442 5.702 5.857 5.955 6.047 6.14 6.205 6.243 6.28 6.323 6.37 6.418 6.463 6.51 6.55 6.58 6.61 6.645 6.695 6.755 6.818 6.878 6.923 6.955 6.982 7 7.015 7.035 7.06 7.09 7.102 7.078 7.03 6.98 6.935 6.895 6.855 6.818 6.795 6.788 6.785 6.788 6.79 6.79 6.79 6.785 6.772 6.75 6.723 6.698 6.695 6.725 6.765 6.8 6.83 6.862 6.895 6.917 6.942 6.977 7.015 7.052 7.07 7.077 7.087 7.097 7.107 7.112 7.118 7.127 7.115 7.065 6.987 6.895 6.795 6.67 6.527 6.39 6.292 6.072
6.115 5.271 5.063 5.657 5.732 5.63 5.532 5.43 5.323 5.278 5.285 5.275 5.247 5.215 5.193 5.177 5.162 5.145 5.105 5.037 4.957 4.86 4.808 4.81 4.83 4.878 4.94 5.01 5.075 5.128 5.175 5.23 5.29 5.35 5.405 5.42 5.39 5.352 5.305 5.245 5.182 5.12 5.062 5.002 4.942 4.885 4.825 4.765 4.707 4.648 4.618 4.785 5.098 5.553 6.2 6.888 7.58 8.277 8.967 9.55 10.027 10.365 10.547 10.635 10.64 10.622 9.829 7.79 5.373 4.223 4.215 4.09 3.95 3.92 3.92 3.92 4.003 4.225 4.435 4.548 4.64 4.761 4.961 4.95 4.765 4.698 4.7 4.798 4.907 5.002 5.26 5.627 5.74 5.572 5.4 5.32 5.285 5.255 5.17 5.03 4.895 4.76 4.643 4.548 4.443 4.33 4.268 4.25 4.235 4.223 4.245 4.29 4.323 4.355 4.38 4.352 4.265 3.99 4.308 5.14 5.547 5.732 5.847 5.94 6.037 6.15 6.235 6.28 6.32 6.36 6.403 6.445 6.49 6.54 6.58 6.61 6.64 6.67 6.713 6.77 6.828 6.88 6.92 6.95 6.98 7.005 7.025 7.047 7.072 7.1 7.112 7.088 7.04 6.988 6.938 6.9 6.868 6.838 6.815 6.803 6.8 6.805 6.81 6.81 6.805 6.79 6.782 6.775 6.753 6.728 6.728 6.76 6.797 6.83 6.843 6.858 6.895 6.935 6.975 7.01 7.045 7.08 7.1 7.11 7.115 7.117 7.122 7.128 7.138 7.157 7.147 7.1 7.047 6.997 6.945 6.86 6.757 6.64 6.513 6.425
5.627 5.046 5.363 5.835 5.703 5.585 5.495 5.412 5.315 5.245 5.243 5.26 5.257 5.232 5.208 5.192 5.175 5.157 5.117 5.045 4.95 4.838 4.783 4.79 4.82 4.87 4.925 4.985 5.05 5.112 5.158 5.2 5.255 5.312 5.355 5.367 5.347 5.307 5.26 5.207 5.15 5.09 5.037 4.99 4.94 4.887 4.832 4.78 4.727 4.672 4.62 4.563 4.503 4.62 4.933 5.348 5.94 6.65 7.365 8.08 8.81 9.42 9.91 10.232 10.347 10.387 9.527 7.232 5.033 4.26 4.235 4.075 3.928 3.92 3.92 3.92 4.043 4.28 4.502 4.658 5.413 6.265 6.415 6.098 5.571 5.166 4.863 4.773 4.765 4.743 4.873 5.2 5.485 5.545 5.437 5.34 5.31 5.287 5.2 5.053 4.915 4.78 4.673 4.597 4.515 4.415 4.35 4.33 4.312 4.29 4.328 4.415 4.46 4.48 4.397 4.265 4.063 4.05 4.73 5.372 5.557 5.687 5.792 5.888 6.005 6.15 6.255 6.312 6.36 6.4 6.44 6.48 6.523 6.57 6.61 6.64 6.67 6.7 6.745 6.802 6.852 6.895 6.93 6.957 6.98 6.997 7.015 7.038 7.068 7.107 7.132 7.125 7.095 7.047 6.993 6.95 6.92 6.89 6.86 6.835 6.823 6.825 6.83 6.825 6.81 6.79 6.785 6.792 6.785 6.76 6.76 6.795 6.832 6.862 6.863 6.85 6.87 6.912 6.957 7 7.037 7.07 7.095 7.112 7.125 7.132 7.137 7.145 7.163 7.187 7.175 7.125 7.078 7.04 7.005 6.952 6.902 6.845 6.745 6.633
5.123 5.19 5.817 5.842 5.685 5.548 5.45 5.375 5.297 5.215 5.19 5.217 5.237 5.237 5.222 5.205 5.185 5.17 5.127 5.037 4.925 4.81 4.755 4.773 4.815 4.865 4.918 4.97 5.025 5.09 5.147 5.188 5.228 5.275 5.305 5.31 5.3 5.262 5.207 5.15 5.09 5.03 4.975 4.928 4.882 4.832 4.78 4.727 4.673 4.62 4.567 4.513 4.46 4.433 4.488 4.603 4.793 5.158 5.705 6.343 7.043 7.815 8.61 9.267 9.747 9.992 9.152 6.54 4.546 4.283 4.245 4.073 3.92 3.92 3.92 3.92 4.058 4.315 4.55 5.218 7.494 9.138 8.765 8.097 7.35 6.595 5.92 5.421 5.013 4.776 4.73 4.785 5.018 5.275 5.372 5.365 5.342 5.32 5.23 5.08 4.938 4.8 4.695 4.627 4.562 4.485 4.43 4.407 4.385 4.36 4.4 4.517 4.615 4.66 4.447 4.177 3.948 4.418 5.19 5.375 5.505 5.632 5.74 5.853 6.003 6.16 6.267 6.332 6.392 6.44 6.48 6.52 6.56 6.602 6.64 6.67 6.7 6.73 6.772 6.822 6.865 6.905 6.935 6.955 6.97 6.983 7 7.028 7.073 7.125 7.15 7.15 7.14 7.112 7.067 7.017 6.975 6.94 6.91 6.88 6.855 6.845 6.845 6.832 6.81 6.79 6.785 6.8 6.807 6.79 6.793 6.83 6.867 6.897 6.897 6.87 6.86 6.888 6.935 6.985 7.027 7.06 7.085 7.105 7.125 7.14 7.15 7.165 7.19 7.215 7.2 7.158 7.128 7.102 7.068 7.025 6.99 6.962 6.92 6.845
5.023 5.5 5.835 5.765 5.622 5.495 5.403 5.33 5.262 5.187 5.148 5.16 5.182 5.205 5.21 5.197 5.182 5.167 5.117 5.015 4.895 4.78 4.73 4.76 4.81 4.862 4.915 4.965 5.015 5.07 5.132 5.182 5.215 5.24 5.25 5.25 5.247 5.212 5.15 5.09 5.03 4.968 4.913 4.865 4.818 4.772 4.725 4.673 4.62 4.568 4.513 4.46 4.408 4.36 4.46 4.627 4.613 4.548 4.643 4.916 5.403 6.055 6.803 7.622 8.44 9.032 8.416 5.975 4.328 4.3 4.26 4.08 3.92 3.92 3.92 3.92 4.073 4.345 4.593 5.816 8.939 10.766 10.397 9.919 9.237 8.492 7.75 7.008 6.263 5.685 5.273 4.953 4.88 5.013 5.215 5.335 5.35 5.347 5.265 5.115 4.967 4.822 4.717 4.637 4.537 4.498 4.502 4.48 4.455 4.43 4.473 4.595 4.722 4.8 4.525 3.963 4.06 4.78 5.195 5.32 5.445 5.575 5.705 5.855 6.02 6.17 6.275 6.34 6.405 6.467 6.512 6.547 6.582 6.62 6.655 6.685 6.717 6.75 6.79 6.835 6.875 6.912 6.935 6.948 6.96 6.97 6.993 7.035 7.09 7.142 7.165 7.165 7.16 7.147 7.12 7.077 7.032 6.995 6.962 6.93 6.9 6.873 6.855 6.835 6.81 6.79 6.785 6.8 6.815 6.815 6.83 6.867 6.9 6.925 6.92 6.89 6.862 6.868 6.91 6.96 7.007 7.05 7.083 7.105 7.125 7.147 7.162 7.182 7.215 7.242 7.24 7.215 7.192 7.167 7.14 7.11 7.077 7.048 7.022 6.995
5.26 5.805 5.69 5.575 5.483 5.41 5.337 5.257 5.187 5.122 5.08 5.08 5.102 5.132 5.155 5.155 5.145 5.13 5.112 5.042 4.893 4.75 4.713 4.755 4.805 4.858 4.91 4.96 5.01 5.063 5.12 5.172 5.205 5.207 5.2 5.2 5.195 5.155 5.09 5.028 4.965 4.903 4.848 4.802 4.755 4.708 4.663 4.623 4.583 4.533 4.478 4.425 4.375 4.33 4.433 4.647 4.712 4.622 4.503 4.45 4.543 4.793 5.238 5.89 6.678 7.439 6.994 5.288 4.353 4.315 4.275 4.088 3.92 3.92 3.92 3.92 4.088 4.382 4.655 5.996 9.099 10.947 10.89 10.759 10.459 10.127 9.594 8.865 8.132 7.395 6.655 6.01 5.533 5.186 5.108 5.218 5.26 5.227 5.125 4.987 4.852 4.74 4.645 4.527 4.445 4.503 4.57 4.552 4.528 4.5 4.553 4.703 4.867 4.847 4.465 4.015 4.445 5.112 5.245 5.375 5.503 5.61 5.735 5.9 6.06 6.175 6.25 6.315 6.38 6.45 6.507 6.547 6.58 6.612 6.647 6.68 6.715 6.75 6.792 6.842 6.882 6.917 6.94 6.95 6.957 6.96 6.98 7.027 7.085 7.137 7.162 7.162 7.155 7.145 7.122 7.087 7.052 7.022 7 6.972 6.94 6.907 6.878 6.85 6.825 6.8 6.783 6.788 6.8 6.812 6.837 6.87 6.895 6.902 6.885 6.855 6.83 6.833 6.87 6.92 6.975 7.045 7.097 7.123 7.145 7.16 7.168 7.19 7.225 7.255 7.272 7.27 7.252 7.23 7.21 7.185 7.155 7.13 7.108 7.085
5.63 5.827 5.618 5.443 5.373 5.332 5.267 5.175 5.09 5.018 4.978 4.983 5.013 5.05 5.082 5.092 5.085 5.073 5.092 5.102 4.987 4.808 4.728 4.758 4.81 4.86 4.91 4.96 5.013 5.068 5.12 5.17 5.187 5.168 5.155 5.152 5.142 5.102 5.035 4.965 4.9 4.84 4.785 4.738 4.693 4.65 4.618 4.595 4.565 4.52 4.47 4.423 4.38 4.355 4.468 4.615 4.642 4.607 4.537 4.46 4.37 4.345 4.455 4.718 5.148 5.77 5.498 4.618 4.363 4.325 4.285 4.092 3.92 3.92 3.92 3.92 4.105 4.435 4.731 6.263 9.309 10.854 10.71 10.665 10.657 10.675 10.517 10.229 9.839 9.212 8.487 7.765 7.04 6.318 5.786 5.456 5.183 4.978 4.818 4.675 4.528 4.473 4.438 4.365 4.413 4.56 4.642 4.627 4.603 4.6 4.72 4.928 5.035 4.77 4.111 4.21 4.947 5.275 5.415 5.542 5.647 5.715 5.815 5.97 6.09 6.147 6.2 6.265 6.33 6.4 6.467 6.525 6.567 6.6 6.635 6.67 6.703 6.738 6.785 6.842 6.887 6.922 6.945 6.955 6.955 6.945 6.955 6.995 7.05 7.105 7.135 7.14 7.135 7.125 7.1 7.065 7.04 7.023 7.012 7 6.972 6.94 6.91 6.882 6.855 6.823 6.79 6.77 6.773 6.788 6.81 6.835 6.842 6.83 6.805 6.778 6.765 6.78 6.82 6.875 6.953 7.057 7.125 7.15 7.167 7.162 7.165 7.193 7.225 7.255 7.277 7.29 7.295 7.287 7.267 7.245 7.23 7.22 7.205 7.185
5.81 5.765 5.595 5.425 5.333 5.27 5.202 5.107 5.008 4.92 4.878 4.893 4.93 4.97 5.005 5.025 5.025 5.015 5.038 5.095 5.1 4.975 4.853 4.833 4.84 4.873 4.928 4.982 5.037 5.09 5.14 5.19 5.185 5.133 5.108 5.1 5.087 5.052 4.987 4.913 4.843 4.78 4.725 4.678 4.643 4.617 4.597 4.58 4.555 4.52 4.48 4.44 4.4 4.395 4.475 4.54 4.542 4.532 4.48 4.405 4.355 4.34 4.343 4.363 4.425 4.675 4.663 4.435 4.387 4.335 4.27 4.07 3.92 3.92 3.92 3.935 4.15 4.502 4.808 6.743 9.732 10.767 10.565 10.51 10.468 10.428 10.42 10.485 10.474 10.292 10.044 9.559 8.837 8.115 7.393 6.665 6.008 5.473 5.053 4.765 4.538 4.383 4.303 4.323 4.465 4.63 4.715 4.71 4.718 4.773 4.98 5.242 5.095 4.475 4.096 4.58 5.21 5.44 5.582 5.675 5.74 5.79 5.887 6.005 6.062 6.095 6.148 6.213 6.28 6.35 6.42 6.485 6.54 6.585 6.622 6.658 6.69 6.725 6.775 6.835 6.89 6.93 6.947 6.947 6.937 6.925 6.935 6.97 7.015 7.065 7.095 7.105 7.11 7.105 7.082 7.055 7.04 7.027 7.018 7.012 7 6.972 6.943 6.915 6.882 6.85 6.815 6.778 6.758 6.76 6.775 6.782 6.77 6.75 6.725 6.708 6.71 6.73 6.773 6.848 6.958 7.082 7.155 7.172 7.172 7.158 7.165 7.195 7.225 7.252 7.273 7.29 7.31 7.32 7.322 7.325 7.325 7.325 7.312 7.287
5.737 5.653 5.545 5.425 5.32 5.228 5.14 5.04 4.935 4.84 4.79 4.808 4.85 4.89 4.925 4.95 4.96 4.958 4.985 5.045 5.102 5.1 5.052 5.007 4.96 4.943 4.958 5 5.057 5.112 5.167 5.215 5.192 5.11 5.06 5.045 5.03 4.997 4.94 4.865 4.79 4.72 4.663 4.62 4.59 4.567 4.542 4.517 4.517 4.515 4.482 4.447 4.413 4.402 4.422 4.437 4.44 4.442 4.422 4.385 4.37 4.367 4.362 4.362 4.363 4.38 4.405 4.407 4.372 4.332 4.202 4 3.92 3.92 3.92 3.95 4.198 4.572 4.886 7.422 10.351 10.705 10.448 10.36 10.32 10.285 10.25 10.22 10.218 10.282 10.415 10.362 10.104 9.764 9.187 8.462 7.728 6.983 6.285 5.705 5.215 4.843 4.615 4.498 4.493 4.65 4.8 4.827 4.862 4.94 5.212 5.392 4.947 4.193 4.38 5.065 5.355 5.58 5.697 5.755 5.805 5.857 5.927 5.985 6.015 6.048 6.098 6.165 6.238 6.31 6.375 6.438 6.5 6.557 6.607 6.647 6.68 6.715 6.765 6.825 6.885 6.93 6.942 6.93 6.915 6.905 6.918 6.952 6.99 7.03 7.055 7.065 7.075 7.077 7.065 7.05 7.04 7.027 7.02 7.015 7.01 6.997 6.972 6.942 6.91 6.88 6.845 6.805 6.768 6.743 6.73 6.713 6.69 6.67 6.653 6.65 6.66 6.68 6.743 6.85 6.975 7.102 7.175 7.18 7.167 7.155 7.165 7.195 7.222 7.248 7.27 7.29 7.307 7.323 7.35 7.385 7.412 7.427 7.412 7.38
5.712 5.613 5.507 5.402 5.297 5.185 5.07 4.963 4.865 4.783 4.733 4.733 4.768 4.81 4.845 4.87 4.887 4.9 4.935 4.992 5.048 5.115 5.157 5.145 5.115 5.087 5.065 5.058 5.075 5.12 5.18 5.205 5.152 5.057 4.995 4.972 4.957 4.932 4.877 4.802 4.727 4.652 4.588 4.537 4.5 4.47 4.44 4.42 4.453 4.485 4.465 4.435 4.407 4.383 4.353 4.338 4.34 4.345 4.347 4.345 4.342 4.335 4.325 4.317 4.317 4.327 4.33 4.32 4.31 4.3 4.125 3.938 3.92 3.92 3.92 3.948 4.203 4.607 4.954 7.699 10.635 10.832 10.555 10.36 10.263 10.23 10.203 10.173 10.138 10.108 10.118 10.21 10.365 10.442 10.279 9.972 9.484 8.78 8.035 7.29 6.568 5.96 5.45 5.045 4.808 4.745 4.74 4.778 4.855 4.935 5.32 5.337 4.508 4.173 4.727 5.23 5.49 5.652 5.727 5.78 5.83 5.892 5.947 5.978 6.005 6.04 6.083 6.143 6.218 6.29 6.348 6.398 6.455 6.515 6.582 6.64 6.675 6.71 6.76 6.82 6.88 6.925 6.932 6.915 6.9 6.895 6.905 6.93 6.965 7 7.02 7.03 7.04 7.042 7.035 7.025 7.015 7.007 7.002 6.997 6.992 6.977 6.952 6.927 6.902 6.877 6.852 6.82 6.777 6.735 6.703 6.675 6.648 6.63 6.625 6.628 6.635 6.653 6.725 6.845 6.967 7.092 7.162 7.165 7.157 7.153 7.165 7.193 7.22 7.25 7.273 7.287 7.303 7.32 7.35 7.395 7.445 7.47 7.465 7.445
5.685 5.577 5.465 5.36 5.255 5.122 4.985 4.883 4.808 4.748 4.703 4.678 4.688 4.727 4.762 4.782 4.8 4.825 4.875 4.937 4.993 5.075 5.162 5.192 5.187 5.182 5.172 5.15 5.135 5.147 5.165 5.14 5.062 4.975 4.92 4.893 4.873 4.855 4.805 4.728 4.65 4.575 4.505 4.443 4.395 4.36 4.33 4.333 4.392 4.445 4.44 4.413 4.395 4.377 4.323 4.26 4.243 4.247 4.252 4.257 4.257 4.252 4.245 4.238 4.25 4.277 4.282 4.27 4.263 4.255 4.085 3.92 3.92 3.92 3.92 3.938 4.188 4.607 4.966 6.788 9.384 10.449 10.662 10.637 10.455 10.32 10.228 10.188 10.16 10.14 10.13 10.153 10.223 10.325 10.435 10.525 10.409 10.084 9.662 9.067 8.345 7.6 6.858 6.22 5.7 5.268 4.978 4.863 4.82 4.96 5.345 5.135 4.316 4.43 5.105 5.385 5.57 5.657 5.713 5.768 5.83 5.91 5.972 6.003 6.035 6.08 6.113 6.148 6.21 6.282 6.337 6.37 6.413 6.47 6.545 6.622 6.675 6.715 6.765 6.822 6.877 6.92 6.925 6.908 6.9 6.905 6.908 6.91 6.935 6.97 6.99 7 7.007 7.005 6.995 6.985 6.978 6.972 6.965 6.96 6.947 6.917 6.89 6.867 6.845 6.827 6.82 6.807 6.772 6.73 6.698 6.673 6.65 6.64 6.64 6.64 6.645 6.66 6.713 6.808 6.92 7.042 7.107 7.11 7.118 7.14 7.182 7.225 7.258 7.293 7.293 7.283 7.3 7.32 7.35 7.395 7.43 7.435 7.445 7.462
5.652 5.54 5.425 5.317 5.2 5.045 4.905 4.825 4.77 4.72 4.675 4.643 4.628 4.645 4.672 4.683 4.693 4.715 4.782 4.872 4.938 5.03 5.157 5.217 5.212 5.202 5.192 5.182 5.172 5.162 5.125 5.053 4.968 4.893 4.848 4.82 4.795 4.777 4.732 4.655 4.575 4.498 4.428 4.363 4.303 4.255 4.228 4.255 4.335 4.405 4.415 4.395 4.39 4.38 4.322 4.233 4.17 4.15 4.155 4.165 4.17 4.167 4.163 4.17 4.2 4.232 4.237 4.225 4.22 4.215 4.065 3.92 3.92 3.92 3.92 3.925 4.13 4.492 4.868 5.791 7.313 8.732 9.687 10.169 10.437 10.497 10.355 10.243 10.193 10.178 10.168 10.165 10.185 10.255 10.347 10.395 10.392 10.395 10.357 10.154 9.822 9.297 8.602 7.897 7.168 6.5 5.953 5.503 5.19 5.165 5.377 4.99 4.533 4.863 5.282 5.49 5.585 5.645 5.7 5.763 5.845 5.935 5.997 6.035 6.08 6.127 6.157 6.178 6.215 6.277 6.327 6.35 6.38 6.428 6.5 6.587 6.665 6.72 6.767 6.82 6.87 6.91 6.917 6.91 6.918 6.93 6.927 6.915 6.918 6.94 6.96 6.967 6.97 6.967 6.958 6.948 6.942 6.935 6.927 6.917 6.89 6.853 6.825 6.803 6.78 6.765 6.765 6.77 6.76 6.73 6.698 6.678 6.665 6.66 6.657 6.658 6.663 6.675 6.715 6.783 6.87 6.977 7.035 7.045 7.075 7.125 7.195 7.265 7.32 7.367 7.35 7.3 7.3 7.32 7.35 7.385 7.392 7.378 7.39 7.432
5.615 5.5 5.385 5.27 5.127 4.958 4.835 4.78 4.737 4.69 4.648 4.618 4.59 4.578 4.583 4.585 4.588 4.595 4.66 4.775 4.873 4.988 5.132 5.217 5.222 5.205 5.188 5.17 5.153 5.135 5.077 4.978 4.878 4.808 4.773 4.748 4.723 4.7 4.657 4.585 4.505 4.425 4.355 4.29 4.223 4.163 4.143 4.193 4.278 4.36 4.395 4.39 4.39 4.382 4.327 4.235 4.148 4.088 4.073 4.078 4.083 4.083 4.09 4.12 4.158 4.185 4.192 4.185 4.18 4.175 4.045 3.92 3.92 3.92 3.92 3.948 4.11 4.355 4.7 5.318 5.925 6.676 7.69 8.55 9.29 9.834 10.142 10.292 10.27 10.22 10.208 10.205 10.205 10.223 10.255 10.268 10.26 10.255 10.268 10.287 10.31 10.17 9.904 9.489 8.835 8.137 7.443 6.778 6.205 5.733 5.555 5.36 5.093 5.238 5.48 5.515 5.53 5.617 5.698 5.78 5.873 5.965 6.03 6.075 6.125 6.167 6.197 6.22 6.242 6.277 6.313 6.335 6.358 6.39 6.455 6.545 6.635 6.71 6.762 6.81 6.857 6.9 6.92 6.925 6.94 6.955 6.952 6.94 6.928 6.925 6.933 6.933 6.93 6.93 6.923 6.913 6.905 6.895 6.885 6.862 6.825 6.788 6.76 6.74 6.72 6.705 6.705 6.715 6.722 6.715 6.7 6.69 6.682 6.677 6.672 6.675 6.68 6.688 6.725 6.788 6.855 6.93 6.983 7.015 7.06 7.118 7.188 7.265 7.337 7.395 7.4 7.347 7.31 7.318 7.345 7.357 7.343 7.323 7.338 7.383
5.57 5.447 5.325 5.197 5.045 4.875 4.763 4.717 4.682 4.648 4.623 4.603 4.578 4.555 4.545 4.545 4.545 4.543 4.595 4.713 4.823 4.943 5.087 5.2 5.23 5.21 5.19 5.168 5.143 5.11 5.037 4.93 4.823 4.748 4.713 4.688 4.663 4.64 4.597 4.525 4.445 4.365 4.293 4.228 4.16 4.1 4.1 4.168 4.253 4.337 4.385 4.39 4.39 4.387 4.355 4.285 4.205 4.133 4.098 4.095 4.095 4.095 4.113 4.145 4.173 4.178 4.16 4.145 4.14 4.135 4.025 3.92 3.92 3.92 3.92 4.025 4.24 4.43 4.71 5.038 5.21 5.406 5.913 6.643 7.385 8.127 8.87 9.479 9.869 10.142 10.26 10.252 10.245 10.23 10.215 10.21 10.21 10.21 10.21 10.21 10.215 10.215 10.247 10.157 9.912 9.574 9.03 8.362 7.673 6.995 6.433 6.085 5.78 5.658 5.71 5.603 5.495 5.553 5.74 5.905 6.003 6.052 6.07 6.11 6.152 6.177 6.192 6.21 6.232 6.262 6.31 6.352 6.375 6.403 6.465 6.555 6.635 6.695 6.735 6.775 6.82 6.865 6.895 6.905 6.92 6.945 6.965 6.965 6.952 6.938 6.93 6.925 6.918 6.915 6.91 6.898 6.885 6.87 6.848 6.815 6.778 6.745 6.72 6.7 6.683 6.67 6.67 6.678 6.685 6.685 6.677 6.672 6.667 6.662 6.665 6.68 6.69 6.695 6.738 6.81 6.875 6.93 6.975 7.013 7.053 7.11 7.175 7.235 7.29 7.34 7.365 7.35 7.327 7.322 7.325 7.32 7.308 7.298 7.32 7.365
5.5 5.37 5.24 5.105 4.957 4.793 4.683 4.643 4.618 4.608 4.608 4.602 4.585 4.565 4.555 4.553 4.55 4.548 4.603 4.712 4.8 4.9 5.04 5.18 5.237 5.217 5.192 5.167 5.14 5.09 5.005 4.9 4.798 4.72 4.675 4.645 4.62 4.597 4.547 4.47 4.39 4.31 4.238 4.175 4.118 4.073 4.093 4.173 4.258 4.342 4.387 4.39 4.39 4.39 4.392 4.375 4.315 4.245 4.213 4.208 4.205 4.208 4.223 4.245 4.26 4.245 4.18 4.118 4.1 4.095 4.005 3.92 3.92 3.92 3.92 4.113 4.42 4.623 4.897 5.032 4.9 4.893 5.07 5.408 5.838 6.35 7.038 7.785 8.532 9.222 9.722 10.069 10.247 10.25 10.23 10.215 10.21 10.21 10.21 10.21 10.192 10.142 10.078 10.038 10.082 10.087 9.92 9.652 9.18 8.53 7.877 7.205 6.668 6.293 6.04 5.93 5.853 5.865 6.012 6.145 6.182 6.145 6.11 6.13 6.147 6.15 6.148 6.158 6.185 6.228 6.302 6.382 6.425 6.455 6.52 6.597 6.647 6.675 6.695 6.723 6.76 6.805 6.835 6.848 6.873 6.915 6.955 6.972 6.972 6.962 6.953 6.945 6.935 6.93 6.925 6.912 6.892 6.86 6.825 6.793 6.758 6.725 6.703 6.685 6.668 6.655 6.655 6.66 6.66 6.65 6.635 6.63 6.625 6.618 6.63 6.662 6.685 6.693 6.743 6.83 6.902 6.96 7 7.03 7.055 7.082 7.12 7.162 7.205 7.247 7.272 7.28 7.292 7.305 7.307 7.305 7.305 7.305 7.33 7.375
5.407 5.28 5.15 5.012 4.865 4.708 4.605 4.58 4.58 4.59 4.6 4.602 4.592 4.575 4.565 4.56 4.553 4.553 4.613 4.707 4.775 4.863 4.995 5.152 5.232 5.212 5.18 5.153 5.122 5.065 4.975 4.875 4.78 4.7 4.645 4.608 4.578 4.547 4.492 4.415 4.335 4.255 4.185 4.133 4.09 4.058 4.088 4.175 4.262 4.347 4.39 4.39 4.39 4.39 4.405 4.425 4.41 4.36 4.33 4.325 4.32 4.323 4.335 4.35 4.357 4.347 4.265 4.143 4.075 4.055 3.985 3.92 3.92 3.92 3.95 4.21 4.567 4.8 5.007 5.007 4.845 4.785 4.87 5.055 5.188 5.358 5.693 6.148 6.78 7.53 8.28 9.01 9.557 9.915 10.137 10.207 10.215 10.21 10.205 10.18 10.122 10.048 9.97 9.9 9.863 9.875 9.945 10.02 9.925 9.714 9.314 8.685 8.04 7.39 6.855 6.483 6.245 6.183 6.207 6.235 6.237 6.177 6.128 6.127 6.128 6.125 6.123 6.128 6.148 6.193 6.275 6.372 6.45 6.505 6.557 6.6 6.625 6.645 6.665 6.685 6.71 6.748 6.778 6.803 6.845 6.895 6.937 6.965 6.98 6.982 6.975 6.965 6.955 6.95 6.942 6.922 6.89 6.845 6.805 6.775 6.742 6.71 6.688 6.672 6.655 6.638 6.635 6.635 6.625 6.61 6.595 6.588 6.583 6.575 6.59 6.632 6.67 6.688 6.738 6.83 6.917 6.987 7.027 7.045 7.047 7.045 7.055 7.08 7.115 7.155 7.18 7.198 7.225 7.263 7.292 7.305 7.312 7.315 7.338 7.38
5.303 5.185 5.06 4.92 4.773 4.63 4.553 4.553 4.568 4.58 4.59 4.595 4.592 4.585 4.578 4.57 4.56 4.563 4.613 4.685 4.745 4.828 4.963 5.135 5.23 5.215 5.178 5.142 5.097 5.03 4.945 4.855 4.768 4.683 4.62 4.58 4.543 4.5 4.44 4.368 4.29 4.213 4.15 4.11 4.075 4.05 4.09 4.178 4.265 4.35 4.39 4.39 4.393 4.395 4.41 4.437 4.457 4.452 4.44 4.437 4.435 4.435 4.44 4.442 4.442 4.442 4.372 4.232 4.108 4.025 3.958 3.92 3.92 3.92 3.988 4.283 4.647 4.912 5.065 5.045 4.947 4.845 4.803 4.905 5.06 5.14 5.18 5.28 5.56 5.958 6.53 7.28 8.017 8.732 9.317 9.737 10.025 10.145 10.16 10.117 10.04 9.963 9.885 9.808 9.733 9.69 9.703 9.74 9.815 9.952 9.922 9.722 9.399 8.84 8.19 7.533 6.948 6.53 6.26 6.163 6.185 6.18 6.14 6.12 6.12 6.12 6.12 6.12 6.125 6.163 6.245 6.345 6.445 6.525 6.562 6.578 6.595 6.615 6.635 6.655 6.678 6.708 6.74 6.78 6.828 6.875 6.922 6.952 6.967 6.977 6.977 6.972 6.967 6.965 6.947 6.91 6.87 6.827 6.79 6.757 6.725 6.698 6.675 6.658 6.643 6.628 6.618 6.608 6.593 6.578 6.563 6.553 6.548 6.543 6.56 6.603 6.643 6.675 6.733 6.823 6.917 7 7.042 7.043 7.03 7.023 7.025 7.035 7.053 7.078 7.103 7.138 7.183 7.23 7.268 7.29 7.307 7.32 7.343 7.38
5.208 5.098 4.992 4.873 4.73 4.598 4.538 4.548 4.56 4.572 4.582 4.585 4.588 4.592 4.592 4.585 4.575 4.573 4.608 4.67 4.735 4.82 4.953 5.125 5.23 5.225 5.185 5.137 5.072 4.995 4.918 4.84 4.758 4.673 4.608 4.568 4.527 4.475 4.41 4.34 4.268 4.193 4.138 4.103 4.075 4.085 4.15 4.235 4.32 4.385 4.405 4.405 4.408 4.413 4.428 4.453 4.475 4.487 4.49 4.49 4.487 4.46 4.432 4.427 4.43 4.46 4.425 4.297 4.157 4.013 3.93 3.92 3.92 3.92 4.058 4.365 4.675 4.95 5.092 5.077 5.022 4.947 4.855 4.818 4.92 5.035 5.08 5.123 5.168 5.21 5.428 5.825 6.338 7.02 7.747 8.447 9.065 9.53 9.87 10.022 10.002 9.935 9.85 9.773 9.69 9.61 9.573 9.59 9.633 9.675 9.733 9.867 9.92 9.757 9.477 8.99 8.332 7.658 7.033 6.578 6.275 6.15 6.143 6.125 6.12 6.12 6.12 6.12 6.125 6.155 6.23 6.333 6.435 6.517 6.555 6.565 6.58 6.605 6.638 6.665 6.69 6.72 6.755 6.8 6.845 6.88 6.897 6.902 6.91 6.92 6.922 6.92 6.92 6.92 6.897 6.857 6.82 6.792 6.77 6.737 6.705 6.685 6.678 6.665 6.65 6.64 6.625 6.608 6.593 6.578 6.563 6.55 6.543 6.54 6.56 6.598 6.633 6.673 6.733 6.82 6.915 6.992 7.042 7.052 7.04 7.033 7.038 7.053 7.065 7.075 7.1 7.143 7.188 7.23 7.258 7.275 7.295 7.315 7.342 7.377
