ncols         200
nrows         75
xllcorner     548000
yllcorner     260570
cellsize      5
NODATA_value  -9999.0
4.285 4.283 4.312 4.352 4.362 4.347 4.35 4.385 4.41 4.415 4.478 4.6 4.69 4.672 4.555 4.322 4.04 3.92 3.92 3.92 3.92 3.993 4.18 4.355 4.44 4.487 4.505 4.485 4.458 4.44 4.428 4.418 4.413 4.415 4.432 4.45 4.447 4.422 4.365 4.288 4.298 4.415 4.563 4.7 4.787 4.827 4.828 4.815 4.85 4.935 5.03 5.112 5.19 5.27 5.332 5.365 5.372 5.338 5.385 5.54 5.682 5.812 5.935 6.025 6.158 6.325 6.445 6.565 6.708 6.86 6.995 7.125 7.265 7.408 7.552 7.67 7.655 7.4 7.013 6.69 6.595 6.663 6.685 6.668 6.65 6.633 6.66 6.722 6.772 6.82 6.87 6.92 6.97 7.02 7.08 7.15 7.21 7.258 7.333 7.437 7.527 7.587 7.638 7.715 7.818 7.918 8.028 8.18 8.37 8.572 8.715 8.777 8.77 8.705 8.7 8.76 8.838 8.94 9.032 9.077 9.082 9.07 9.053 9.038 9.022 9.005 8.973 8.935 8.908 8.885 8.873 8.868 8.865 8.865 8.873 8.888 8.908 8.933 8.97 9.02 9.065 9.108 9.155 9.207 9.26 9.305 9.35 9.397 9.44 9.48 9.525 9.572 9.615 9.655 9.685 9.718 9.775 9.848 9.94 10.042 10.13 10.228 10.43 11.015 11.44 11.468 11.497 11.365 11.29 11.413 11.665 11.902 11.992 12.035 12.065 12.1 12.14 12.18 12.24 12.322 12.397 12.46 12.505 12.532 12.55 12.563 12.578 12.598 12.638 12.695 12.735 12.74 12.72 12.69 12.7 12.758 12.822 12.88 12.907 12.913
4.265 4.275 4.318 4.375 4.422 4.445 4.457 4.467 4.457 4.453 4.507 4.585 4.617 4.567 4.342 4.045 3.92 3.92 3.92 3.92 4.028 4.22 4.362 4.442 4.49 4.54 4.562 4.55 4.535 4.525 4.512 4.497 4.485 4.48 4.48 4.47 4.442 4.407 4.353 4.308 4.35 4.48 4.62 4.71 4.762 4.802 4.818 4.853 4.953 5.065 5.157 5.242 5.327 5.41 5.475 5.497 5.467 5.408 5.458 5.622 5.782 5.93 6.05 6.123 6.24 6.392 6.508 6.623 6.75 6.89 7.01 7.123 7.255 7.4 7.545 7.67 7.672 7.462 7.147 6.84 6.723 6.775 6.775 6.743 6.715 6.69 6.71 6.762 6.805 6.85 6.9 6.95 7 7.05 7.11 7.172 7.22 7.263 7.337 7.422 7.472 7.51 7.553 7.625 7.73 7.832 7.925 8.03 8.173 8.352 8.48 8.545 8.582 8.558 8.563 8.64 8.74 8.85 8.947 9 9.02 9.025 9.015 9 8.98 8.96 8.93 8.888 8.848 8.818 8.805 8.803 8.8 8.798 8.805 8.825 8.85 8.88 8.92 8.968 9.01 9.05 9.095 9.143 9.188 9.233 9.278 9.32 9.36 9.4 9.445 9.495 9.543 9.585 9.615 9.635 9.668 9.725 9.813 9.918 10.025 10.178 10.653 11.185 11.373 11.487 11.39 11.203 11.24 11.388 11.665 11.885 11.947 11.98 12.01 12.043 12.078 12.12 12.19 12.28 12.365 12.437 12.485 12.512 12.535 12.555 12.57 12.58 12.6 12.645 12.682 12.69 12.682 12.665 12.688 12.752 12.812 12.865 12.897 12.907
4.248 4.27 4.323 4.38 4.437 4.49 4.515 4.505 4.482 4.47 4.48 4.488 4.485 4.447 4.165 3.92 3.92 3.92 3.92 3.978 4.21 4.407 4.455 4.5 4.545 4.595 4.625 4.625 4.615 4.605 4.592 4.572 4.55 4.53 4.505 4.47 4.433 4.395 4.368 4.39 4.46 4.552 4.635 4.687 4.733 4.775 4.83 4.93 5.06 5.172 5.262 5.35 5.44 5.527 5.6 5.607 5.553 5.49 5.54 5.703 5.868 6.03 6.152 6.218 6.32 6.457 6.572 6.685 6.8 6.92 7.03 7.133 7.25 7.39 7.515 7.575 7.565 7.452 7.23 6.97 6.865 6.905 6.895 6.847 6.803 6.763 6.765 6.805 6.843 6.883 6.93 6.98 7.03 7.08 7.135 7.185 7.225 7.27 7.325 7.37 7.403 7.438 7.473 7.54 7.645 7.75 7.845 7.935 8.035 8.153 8.243 8.305 8.368 8.398 8.443 8.54 8.65 8.76 8.862 8.922 8.947 8.962 8.96 8.947 8.932 8.917 8.887 8.843 8.8 8.763 8.745 8.743 8.738 8.733 8.743 8.77 8.803 8.835 8.875 8.92 8.958 8.995 9.04 9.085 9.125 9.168 9.21 9.25 9.29 9.33 9.375 9.425 9.475 9.523 9.553 9.57 9.59 9.625 9.71 9.838 9.985 10.265 10.862 11.282 11.395 11.427 11.215 11.103 11.19 11.363 11.66 11.852 11.892 11.925 11.955 11.985 12.015 12.06 12.135 12.225 12.315 12.4 12.455 12.482 12.51 12.535 12.555 12.57 12.58 12.605 12.627 12.63 12.63 12.638 12.675 12.735 12.79 12.84 12.875 12.892
4.235 4.27 4.328 4.385 4.442 4.492 4.517 4.51 4.493 4.485 4.455 4.418 4.402 4.267 4.03 3.92 3.92 3.92 3.92 4.095 4.36 4.472 4.518 4.563 4.607 4.647 4.667 4.665 4.655 4.655 4.645 4.612 4.58 4.552 4.52 4.48 4.44 4.408 4.408 4.452 4.522 4.585 4.625 4.663 4.705 4.745 4.828 4.957 5.092 5.207 5.272 5.335 5.425 5.522 5.63 5.7 5.685 5.625 5.653 5.795 5.962 6.117 6.232 6.307 6.403 6.522 6.632 6.737 6.848 6.963 7.068 7.16 7.258 7.36 7.415 7.405 7.37 7.312 7.163 7.008 6.978 6.997 6.985 6.94 6.89 6.84 6.833 6.87 6.905 6.938 6.98 7.03 7.08 7.123 7.165 7.21 7.25 7.295 7.325 7.343 7.373 7.408 7.44 7.485 7.57 7.675 7.77 7.86 7.948 8.025 8.085 8.14 8.203 8.265 8.34 8.443 8.555 8.665 8.772 8.837 8.855 8.862 8.86 8.85 8.84 8.85 8.847 8.81 8.768 8.738 8.733 8.73 8.72 8.713 8.725 8.758 8.793 8.828 8.873 8.92 8.958 8.995 9.035 9.078 9.12 9.16 9.2 9.24 9.28 9.318 9.35 9.39 9.44 9.488 9.513 9.525 9.545 9.57 9.655 9.798 10.013 10.508 11.032 11.287 11.42 11.247 11.015 11.05 11.138 11.335 11.605 11.747 11.807 11.855 11.882 11.907 11.945 12.003 12.065 12.14 12.23 12.32 12.38 12.41 12.44 12.48 12.517 12.535 12.547 12.557 12.557 12.555 12.56 12.595 12.647 12.698 12.752 12.805 12.84 12.86
4.228 4.275 4.335 4.392 4.442 4.485 4.51 4.505 4.498 4.51 4.472 4.408 4.325 4.09 3.92 3.92 3.92 3.92 4.03 4.28 4.462 4.532 4.582 4.627 4.66 4.675 4.677 4.67 4.668 4.687 4.685 4.64 4.598 4.567 4.535 4.495 4.465 4.453 4.455 4.478 4.528 4.587 4.622 4.645 4.68 4.72 4.803 4.933 5.073 5.207 5.26 5.268 5.32 5.425 5.57 5.712 5.802 5.795 5.79 5.898 6.06 6.195 6.295 6.38 6.467 6.567 6.67 6.773 6.893 7.027 7.137 7.223 7.308 7.365 7.353 7.303 7.253 7.2 7.108 7.043 7.047 7.052 7.042 7.01 6.965 6.918 6.913 6.95 6.982 7.01 7.05 7.1 7.142 7.17 7.203 7.247 7.293 7.337 7.36 7.365 7.383 7.413 7.445 7.473 7.52 7.605 7.7 7.79 7.87 7.94 8.002 8.058 8.123 8.193 8.258 8.338 8.443 8.555 8.66 8.722 8.735 8.735 8.73 8.72 8.733 8.788 8.815 8.785 8.75 8.74 8.752 8.76 8.755 8.745 8.755 8.788 8.82 8.855 8.903 8.955 9 9.04 9.077 9.115 9.155 9.197 9.24 9.28 9.317 9.347 9.368 9.39 9.43 9.475 9.495 9.5 9.513 9.538 9.625 9.813 10.168 10.752 11.177 11.355 11.32 11.03 10.915 11 11.085 11.267 11.465 11.568 11.67 11.747 11.78 11.805 11.875 11.965 12.013 12.053 12.123 12.21 12.272 12.305 12.345 12.41 12.46 12.477 12.485 12.477 12.465 12.46 12.49 12.56 12.617 12.658 12.71 12.765 12.8 12.82
4.245 4.283 4.34 4.392 4.435 4.475 4.502 4.505 4.51 4.53 4.502 4.42 4.205 3.978 3.92 3.92 3.92 3.92 4.15 4.427 4.517 4.592 4.645 4.675 4.685 4.682 4.68 4.683 4.7 4.732 4.732 4.685 4.628 4.583 4.548 4.52 4.51 4.51 4.515 4.525 4.548 4.595 4.63 4.643 4.665 4.698 4.775 4.91 5.06 5.21 5.29 5.295 5.313 5.398 5.528 5.658 5.8 5.897 5.92 6.003 6.147 6.26 6.352 6.435 6.513 6.595 6.693 6.803 6.943 7.102 7.22 7.302 7.385 7.442 7.425 7.355 7.275 7.188 7.115 7.088 7.093 7.1 7.092 7.067 7.037 7 6.995 7.027 7.057 7.085 7.122 7.162 7.19 7.21 7.24 7.285 7.335 7.38 7.4 7.4 7.405 7.423 7.45 7.478 7.505 7.553 7.63 7.715 7.788 7.855 7.923 7.988 8.06 8.135 8.198 8.255 8.33 8.433 8.527 8.577 8.597 8.605 8.603 8.618 8.675 8.755 8.785 8.76 8.748 8.755 8.768 8.782 8.787 8.783 8.793 8.82 8.85 8.885 8.93 8.983 9.035 9.08 9.12 9.155 9.19 9.233 9.275 9.312 9.345 9.372 9.392 9.405 9.428 9.465 9.485 9.485 9.485 9.503 9.623 9.91 10.432 10.955 11.24 11.35 11.097 10.83 10.865 10.95 11.038 11.163 11.295 11.4 11.513 11.612 11.665 11.718 11.838 11.945 11.985 12.005 12.04 12.103 12.163 12.21 12.273 12.35 12.4 12.412 12.402 12.38 12.365 12.375 12.443 12.537 12.595 12.63 12.673 12.722 12.76 12.793
4.328 4.31 4.34 4.385 4.428 4.47 4.497 4.505 4.515 4.532 4.527 4.44 4.143 3.92 3.92 3.92 3.92 4.008 4.258 4.47 4.565 4.647 4.69 4.693 4.69 4.688 4.688 4.705 4.74 4.777 4.78 4.735 4.673 4.615 4.575 4.56 4.562 4.565 4.57 4.58 4.59 4.612 4.637 4.65 4.663 4.68 4.745 4.877 5.027 5.177 5.315 5.395 5.425 5.48 5.575 5.683 5.803 5.928 6.01 6.1 6.222 6.325 6.415 6.493 6.565 6.638 6.723 6.84 7 7.175 7.3 7.38 7.46 7.53 7.52 7.432 7.33 7.225 7.153 7.133 7.138 7.145 7.137 7.115 7.095 7.07 7.07 7.1 7.13 7.16 7.187 7.21 7.23 7.25 7.283 7.33 7.38 7.42 7.435 7.435 7.435 7.44 7.46 7.488 7.513 7.54 7.593 7.668 7.743 7.818 7.888 7.953 8.023 8.093 8.153 8.205 8.258 8.33 8.395 8.428 8.455 8.478 8.505 8.565 8.645 8.725 8.76 8.753 8.758 8.772 8.785 8.798 8.807 8.813 8.828 8.855 8.883 8.915 8.96 9.01 9.065 9.12 9.165 9.203 9.24 9.28 9.315 9.343 9.37 9.4 9.42 9.43 9.443 9.463 9.475 9.475 9.475 9.498 9.69 10.108 10.69 11.12 11.315 11.207 10.843 10.73 10.815 10.908 11.005 11.098 11.193 11.288 11.383 11.48 11.565 11.67 11.82 11.922 11.955 11.975 11.995 12.025 12.07 12.135 12.215 12.295 12.335 12.327 12.308 12.283 12.273 12.318 12.412 12.512 12.575 12.61 12.645 12.685 12.73 12.785
4.405 4.36 4.37 4.413 4.458 4.487 4.495 4.49 4.483 4.48 4.485 4.315 4.03 3.92 3.92 3.92 3.92 4.125 4.397 4.515 4.615 4.705 4.742 4.735 4.73 4.733 4.74 4.763 4.798 4.832 4.835 4.793 4.738 4.683 4.623 4.583 4.577 4.582 4.59 4.597 4.607 4.622 4.637 4.65 4.662 4.665 4.703 4.818 4.96 5.123 5.312 5.472 5.557 5.61 5.69 5.793 5.898 5.995 6.085 6.19 6.305 6.41 6.505 6.585 6.655 6.725 6.795 6.9 7.06 7.24 7.375 7.46 7.537 7.587 7.565 7.48 7.375 7.268 7.195 7.18 7.188 7.193 7.192 7.182 7.165 7.143 7.145 7.175 7.203 7.23 7.253 7.27 7.29 7.31 7.343 7.39 7.435 7.457 7.457 7.455 7.455 7.455 7.473 7.507 7.535 7.56 7.603 7.668 7.745 7.825 7.895 7.958 8.023 8.085 8.14 8.19 8.24 8.283 8.313 8.34 8.37 8.4 8.455 8.535 8.615 8.695 8.747 8.765 8.775 8.79 8.805 8.815 8.828 8.855 8.893 8.925 8.953 8.985 9.033 9.088 9.145 9.203 9.25 9.29 9.33 9.368 9.395 9.415 9.44 9.465 9.48 9.493 9.503 9.51 9.528 9.54 9.545 9.588 9.83 10.387 10.925 11.197 11.295 10.98 10.645 10.68 10.78 10.895 10.995 11.078 11.16 11.243 11.325 11.4 11.5 11.64 11.79 11.89 11.925 11.942 11.96 11.977 12 12.055 12.137 12.217 12.257 12.25 12.228 12.203 12.2 12.258 12.357 12.457 12.522 12.557 12.59 12.627 12.682 12.752
4.448 4.418 4.43 4.475 4.502 4.497 4.485 4.475 4.455 4.43 4.415 4.165 3.92 3.92 3.92 3.92 3.92 4.165 4.462 4.568 4.675 4.775 4.82 4.815 4.818 4.833 4.845 4.858 4.883 4.915 4.912 4.87 4.818 4.765 4.69 4.605 4.568 4.568 4.575 4.583 4.595 4.615 4.632 4.645 4.65 4.635 4.645 4.74 4.893 5.083 5.282 5.47 5.627 5.725 5.81 5.907 6.002 6.087 6.17 6.283 6.405 6.51 6.61 6.7 6.775 6.845 6.913 7.005 7.138 7.3 7.445 7.54 7.6 7.612 7.58 7.517 7.427 7.323 7.253 7.235 7.24 7.247 7.252 7.255 7.247 7.228 7.225 7.25 7.278 7.305 7.33 7.347 7.365 7.385 7.418 7.46 7.485 7.485 7.475 7.468 7.465 7.468 7.49 7.53 7.562 7.59 7.63 7.688 7.758 7.835 7.907 7.972 8.035 8.092 8.147 8.197 8.235 8.255 8.275 8.307 8.34 8.37 8.425 8.505 8.582 8.655 8.727 8.777 8.797 8.813 8.825 8.838 8.873 8.938 8.995 9.035 9.07 9.103 9.15 9.21 9.267 9.322 9.37 9.41 9.447 9.48 9.505 9.525 9.547 9.567 9.58 9.592 9.597 9.598 9.627 9.667 9.685 9.743 10.05 10.677 11.11 11.265 11.117 10.69 10.553 10.658 10.783 10.902 10.99 11.065 11.145 11.227 11.302 11.36 11.458 11.602 11.74 11.842 11.89 11.907 11.92 11.925 11.933 11.965 12.033 12.107 12.157 12.177 12.167 12.143 12.145 12.19 12.27 12.367 12.432 12.467 12.503 12.545 12.605 12.68
4.508 4.483 4.487 4.512 4.505 4.48 4.465 4.462 4.45 4.42 4.387 4.145 3.92 3.92 3.92 3.92 4.03 4.295 4.505 4.617 4.73 4.837 4.895 4.905 4.925 4.95 4.962 4.968 4.983 5.01 5.005 4.957 4.903 4.85 4.772 4.665 4.583 4.553 4.558 4.573 4.59 4.61 4.627 4.632 4.62 4.595 4.585 4.665 4.843 5.055 5.255 5.44 5.625 5.785 5.91 6.005 6.082 6.155 6.248 6.375 6.502 6.61 6.71 6.807 6.892 6.965 7.038 7.133 7.248 7.378 7.515 7.605 7.632 7.625 7.587 7.532 7.465 7.375 7.315 7.298 7.293 7.3 7.307 7.315 7.317 7.31 7.308 7.325 7.355 7.385 7.41 7.425 7.44 7.46 7.49 7.515 7.515 7.503 7.493 7.485 7.48 7.483 7.505 7.547 7.587 7.62 7.663 7.718 7.778 7.85 7.922 7.985 8.045 8.1 8.15 8.187 8.205 8.215 8.238 8.273 8.307 8.34 8.395 8.47 8.537 8.6 8.68 8.767 8.817 8.837 8.853 8.888 8.963 9.047 9.105 9.15 9.192 9.225 9.27 9.33 9.385 9.44 9.49 9.527 9.56 9.59 9.615 9.635 9.653 9.67 9.685 9.69 9.685 9.68 9.713 9.772 9.815 9.898 10.335 10.942 11.207 11.26 10.875 10.473 10.543 10.673 10.802 10.905 10.98 11.052 11.127 11.197 11.252 11.308 11.413 11.55 11.675 11.787 11.85 11.865 11.867 11.863 11.87 11.893 11.938 11.997 12.042 12.075 12.092 12.088 12.1 12.14 12.193 12.275 12.34 12.378 12.423 12.468 12.525 12.603
4.567 4.537 4.522 4.512 4.485 4.458 4.445 4.448 4.44 4.415 4.385 4.145 3.92 3.92 3.92 3.92 4.15 4.435 4.537 4.637 4.74 4.842 4.917 4.975 5.035 5.067 5.077 5.082 5.09 5.107 5.097 5.045 4.99 4.938 4.858 4.75 4.645 4.568 4.55 4.568 4.585 4.605 4.613 4.6 4.58 4.558 4.538 4.615 4.808 5.025 5.225 5.425 5.645 5.86 6.002 6.075 6.145 6.218 6.323 6.462 6.597 6.707 6.805 6.905 7 7.082 7.163 7.26 7.375 7.49 7.592 7.645 7.65 7.637 7.595 7.54 7.485 7.42 7.378 7.363 7.353 7.353 7.36 7.37 7.377 7.38 7.385 7.405 7.435 7.465 7.487 7.503 7.52 7.537 7.55 7.548 7.535 7.52 7.51 7.505 7.5 7.5 7.52 7.565 7.61 7.65 7.698 7.753 7.808 7.87 7.935 7.995 8.055 8.108 8.14 8.155 8.165 8.175 8.2 8.238 8.275 8.313 8.363 8.425 8.485 8.545 8.625 8.727 8.812 8.862 8.91 8.985 9.08 9.162 9.215 9.26 9.305 9.345 9.393 9.45 9.505 9.56 9.61 9.645 9.675 9.705 9.728 9.745 9.76 9.775 9.782 9.775 9.765 9.76 9.795 9.86 9.92 10.103 10.662 11.152 11.27 11.1 10.65 10.465 10.59 10.718 10.828 10.908 10.975 11.035 11.09 11.142 11.188 11.253 11.36 11.487 11.61 11.73 11.8 11.81 11.805 11.8 11.81 11.83 11.858 11.893 11.928 11.96 11.99 12.02 12.055 12.095 12.138 12.195 12.25 12.295 12.345 12.393 12.45 12.528
4.6 4.565 4.535 4.51 4.48 4.45 4.438 4.442 4.437 4.415 4.382 4.143 3.92 3.92 3.92 3.92 4.138 4.397 4.482 4.572 4.672 4.765 4.835 4.915 5 5.055 5.087 5.107 5.132 5.18 5.192 5.15 5.103 5.053 4.973 4.868 4.755 4.635 4.583 4.595 4.61 4.62 4.615 4.6 4.583 4.565 4.57 4.69 4.89 5.08 5.28 5.515 5.778 5.997 6.1 6.145 6.21 6.285 6.398 6.542 6.68 6.795 6.895 6.997 7.1 7.195 7.285 7.385 7.492 7.592 7.66 7.677 7.673 7.66 7.625 7.575 7.525 7.48 7.453 7.438 7.425 7.418 7.42 7.43 7.44 7.448 7.463 7.493 7.525 7.552 7.568 7.58 7.597 7.612 7.612 7.595 7.578 7.56 7.55 7.548 7.545 7.545 7.565 7.608 7.653 7.7 7.75 7.805 7.86 7.908 7.96 8.02 8.08 8.132 8.155 8.16 8.168 8.183 8.215 8.255 8.295 8.333 8.365 8.408 8.465 8.525 8.605 8.703 8.798 8.88 8.97 9.075 9.18 9.265 9.312 9.35 9.39 9.45 9.517 9.573 9.628 9.69 9.748 9.788 9.82 9.85 9.87 9.885 9.903 9.902 9.88 9.86 9.85 9.845 9.878 9.943 10.023 10.375 10.965 11.27 11.277 10.915 10.578 10.613 10.695 10.815 10.91 10.975 11.02 11.033 11.05 11.09 11.135 11.203 11.3 11.418 11.54 11.66 11.735 11.752 11.75 11.745 11.755 11.775 11.785 11.793 11.82 11.855 11.89 11.94 11.992 12.035 12.08 12.125 12.17 12.218 12.265 12.318 12.383 12.463
4.61 4.575 4.545 4.52 4.49 4.46 4.445 4.445 4.435 4.41 4.377 4.14 3.92 3.92 3.92 4.018 4.207 4.303 4.355 4.463 4.567 4.645 4.7 4.76 4.835 4.915 4.988 5.05 5.128 5.23 5.282 5.272 5.245 5.197 5.117 5.002 4.865 4.715 4.648 4.66 4.662 4.65 4.648 4.647 4.633 4.615 4.675 4.873 5.092 5.268 5.46 5.705 5.972 6.142 6.192 6.225 6.278 6.355 6.473 6.612 6.745 6.867 6.975 7.08 7.187 7.282 7.38 7.485 7.577 7.662 7.712 7.715 7.703 7.692 7.68 7.647 7.605 7.565 7.538 7.523 7.51 7.503 7.503 7.508 7.515 7.525 7.545 7.582 7.622 7.65 7.66 7.663 7.673 7.687 7.687 7.67 7.647 7.623 7.613 7.615 7.615 7.615 7.635 7.675 7.72 7.767 7.818 7.872 7.92 7.958 8.005 8.065 8.125 8.18 8.205 8.21 8.223 8.25 8.29 8.33 8.367 8.397 8.415 8.435 8.478 8.535 8.615 8.71 8.795 8.878 8.98 9.097 9.22 9.325 9.38 9.413 9.468 9.56 9.642 9.698 9.763 9.843 9.907 9.95 9.987 10.02 10.042 10.057 10.06 10.03 9.985 9.953 9.938 9.935 9.965 10.038 10.19 10.7 11.202 11.325 11.185 10.84 10.743 10.817 10.845 10.945 11.037 11.085 11.085 11.045 11.025 11.05 11.098 11.165 11.25 11.35 11.465 11.585 11.662 11.69 11.697 11.695 11.705 11.717 11.71 11.7 11.72 11.758 11.805 11.865 11.92 11.965 12.007 12.05 12.095 12.143 12.193 12.253 12.325 12.407
4.625 4.585 4.555 4.53 4.5 4.47 4.455 4.445 4.425 4.402 4.36 4.125 3.92 3.92 3.92 4.122 4.305 4.263 4.278 4.37 4.455 4.52 4.59 4.66 4.748 4.848 4.945 5.05 5.168 5.292 5.36 5.37 5.367 5.337 5.25 5.107 4.947 4.785 4.713 4.715 4.692 4.668 4.677 4.695 4.685 4.675 4.795 5.05 5.3 5.502 5.688 5.91 6.14 6.26 6.287 6.313 6.35 6.428 6.545 6.675 6.805 6.93 7.042 7.14 7.222 7.287 7.39 7.532 7.642 7.722 7.757 7.75 7.735 7.725 7.725 7.715 7.69 7.655 7.625 7.61 7.603 7.598 7.595 7.595 7.6 7.61 7.63 7.67 7.717 7.752 7.762 7.755 7.753 7.762 7.762 7.742 7.717 7.69 7.678 7.682 7.685 7.685 7.705 7.745 7.788 7.833 7.882 7.93 7.967 8.003 8.05 8.11 8.17 8.227 8.255 8.268 8.295 8.33 8.37 8.405 8.435 8.46 8.475 8.485 8.505 8.548 8.623 8.712 8.79 8.863 8.96 9.085 9.225 9.357 9.432 9.488 9.58 9.687 9.767 9.833 9.918 10.01 10.075 10.115 10.155 10.19 10.215 10.217 10.187 10.14 10.095 10.055 10.028 10.02 10.058 10.168 10.453 10.995 11.342 11.365 11.055 10.84 11.005 11.05 11.03 11.08 11.147 11.152 11.112 11.058 11.02 11.02 11.063 11.135 11.218 11.305 11.4 11.51 11.585 11.615 11.635 11.642 11.65 11.647 11.63 11.613 11.623 11.668 11.73 11.795 11.848 11.89 11.93 11.97 12.015 12.07 12.133 12.198 12.272 12.342
4.645 4.598 4.563 4.537 4.51 4.48 4.46 4.442 4.418 4.395 4.32 4.088 3.92 3.92 3.92 4.127 4.31 4.265 4.253 4.305 4.383 4.458 4.543 4.63 4.727 4.83 4.945 5.082 5.222 5.357 5.43 5.432 5.43 5.412 5.317 5.162 5.007 4.853 4.768 4.742 4.705 4.683 4.7 4.732 4.738 4.768 4.945 5.22 5.49 5.727 5.925 6.125 6.282 6.347 6.375 6.4 6.425 6.503 6.628 6.755 6.883 7.008 7.095 7.143 7.185 7.23 7.343 7.52 7.677 7.772 7.792 7.78 7.765 7.755 7.755 7.755 7.75 7.732 7.715 7.705 7.697 7.692 7.69 7.69 7.693 7.698 7.718 7.76 7.807 7.847 7.862 7.855 7.845 7.842 7.835 7.81 7.783 7.758 7.745 7.748 7.75 7.755 7.778 7.815 7.855 7.898 7.94 7.978 8.015 8.05 8.095 8.155 8.215 8.275 8.313 8.34 8.378 8.413 8.445 8.473 8.498 8.52 8.535 8.545 8.555 8.575 8.63 8.708 8.78 8.85 8.948 9.085 9.237 9.382 9.49 9.585 9.695 9.802 9.9 9.992 10.087 10.177 10.24 10.28 10.32 10.357 10.372 10.347 10.3 10.248 10.203 10.165 10.13 10.113 10.18 10.348 10.768 11.232 11.39 11.32 10.998 10.99 11.247 11.257 11.222 11.222 11.232 11.2 11.148 11.095 11.055 11.05 11.093 11.16 11.235 11.31 11.383 11.46 11.513 11.54 11.568 11.59 11.595 11.578 11.553 11.528 11.535 11.593 11.668 11.738 11.788 11.823 11.858 11.895 11.945 12.008 12.075 12.142 12.207 12.252
4.652 4.605 4.565 4.537 4.51 4.482 4.46 4.44 4.417 4.392 4.32 4.09 3.92 3.92 3.92 4.12 4.297 4.258 4.255 4.315 4.403 4.488 4.573 4.657 4.702 4.743 4.868 5.05 5.235 5.377 5.442 5.447 5.432 5.407 5.315 5.167 5.022 4.875 4.78 4.74 4.703 4.68 4.703 4.757 4.785 4.88 5.115 5.393 5.672 5.925 6.13 6.287 6.365 6.39 6.412 6.438 6.493 6.615 6.76 6.89 7.018 7.142 7.2 7.2 7.215 7.248 7.363 7.55 7.727 7.822 7.825 7.81 7.798 7.788 7.785 7.788 7.793 7.795 7.792 7.785 7.778 7.78 7.785 7.785 7.785 7.788 7.805 7.843 7.887 7.93 7.947 7.942 7.935 7.922 7.912 7.895 7.865 7.84 7.833 7.838 7.84 7.848 7.873 7.91 7.948 7.983 8.018 8.053 8.09 8.125 8.168 8.225 8.285 8.345 8.39 8.425 8.465 8.502 8.528 8.548 8.573 8.595 8.605 8.61 8.62 8.633 8.673 8.74 8.808 8.868 8.943 9.068 9.217 9.362 9.492 9.605 9.717 9.835 9.962 10.092 10.212 10.315 10.372 10.4 10.427 10.475 10.495 10.452 10.4 10.363 10.338 10.31 10.28 10.26 10.35 10.598 11.057 11.39 11.422 11.188 10.995 11.212 11.375 11.355 11.335 11.33 11.322 11.293 11.245 11.195 11.158 11.158 11.198 11.255 11.318 11.383 11.445 11.47 11.47 11.49 11.52 11.55 11.555 11.533 11.505 11.475 11.483 11.545 11.625 11.702 11.755 11.785 11.815 11.843 11.885 11.947 12.012 12.08 12.135 12.168
4.648 4.603 4.563 4.533 4.505 4.478 4.455 4.435 4.415 4.392 4.357 4.127 3.92 3.92 3.92 4.115 4.275 4.248 4.293 4.378 4.47 4.555 4.64 4.685 4.673 4.705 4.853 5.065 5.242 5.335 5.38 5.407 5.407 5.385 5.295 5.147 5 4.853 4.76 4.723 4.693 4.67 4.68 4.737 4.828 5.018 5.295 5.578 5.862 6.105 6.277 6.362 6.377 6.39 6.41 6.463 6.59 6.767 6.93 7.065 7.195 7.317 7.37 7.365 7.373 7.395 7.495 7.68 7.822 7.865 7.857 7.843 7.833 7.828 7.828 7.838 7.85 7.857 7.857 7.853 7.853 7.865 7.875 7.875 7.878 7.885 7.9 7.925 7.965 8.01 8.025 8.017 8.01 7.998 7.992 7.987 7.967 7.943 7.938 7.95 7.957 7.963 7.985 8.025 8.057 8.085 8.12 8.155 8.19 8.225 8.265 8.318 8.375 8.435 8.48 8.515 8.555 8.595 8.62 8.635 8.658 8.68 8.687 8.685 8.69 8.705 8.745 8.81 8.867 8.905 8.953 9.038 9.163 9.31 9.44 9.55 9.67 9.8 9.94 10.087 10.23 10.35 10.405 10.42 10.46 10.547 10.587 10.543 10.508 10.515 10.525 10.51 10.488 10.468 10.548 10.89 11.29 11.44 11.402 11.13 11.075 11.33 11.4 11.388 11.393 11.405 11.415 11.412 11.382 11.338 11.305 11.295 11.315 11.365 11.425 11.487 11.517 11.487 11.46 11.468 11.49 11.52 11.525 11.505 11.48 11.45 11.463 11.525 11.598 11.675 11.73 11.76 11.785 11.803 11.833 11.885 11.945 12.01 12.065 12.102
4.645 4.6 4.56 4.528 4.5 4.47 4.448 4.43 4.41 4.39 4.37 4.14 3.92 3.92 3.92 4.115 4.285 4.285 4.35 4.44 4.537 4.625 4.682 4.698 4.72 4.8 4.962 5.135 5.225 5.265 5.3 5.34 5.367 5.362 5.275 5.125 4.975 4.83 4.743 4.713 4.69 4.67 4.658 4.688 4.865 5.172 5.482 5.772 6.052 6.27 6.372 6.392 6.388 6.39 6.433 6.553 6.73 6.92 7.095 7.24 7.375 7.495 7.542 7.548 7.57 7.6 7.68 7.815 7.89 7.895 7.89 7.88 7.875 7.878 7.885 7.9 7.915 7.922 7.925 7.928 7.938 7.955 7.965 7.968 7.975 7.985 8 8.02 8.05 8.087 8.102 8.092 8.08 8.07 8.065 8.067 8.065 8.047 8.043 8.057 8.07 8.078 8.098 8.132 8.162 8.188 8.22 8.255 8.29 8.325 8.365 8.415 8.468 8.525 8.572 8.608 8.645 8.685 8.712 8.728 8.745 8.765 8.775 8.77 8.768 8.778 8.818 8.872 8.91 8.935 8.978 9.043 9.13 9.258 9.387 9.505 9.635 9.77 9.908 10.05 10.185 10.305 10.368 10.41 10.505 10.63 10.672 10.65 10.668 10.71 10.737 10.73 10.71 10.693 10.783 11.167 11.457 11.467 11.315 11.133 11.222 11.387 11.44 11.45 11.467 11.48 11.49 11.5 11.497 11.475 11.452 11.44 11.443 11.478 11.535 11.567 11.537 11.48 11.455 11.455 11.465 11.487 11.492 11.475 11.453 11.43 11.453 11.515 11.578 11.65 11.705 11.73 11.745 11.758 11.788 11.833 11.883 11.943 11.997 12.04
4.645 4.6 4.56 4.525 4.495 4.465 4.443 4.425 4.408 4.39 4.37 4.14 3.92 3.92 3.92 4.07 4.272 4.35 4.418 4.507 4.602 4.69 4.743 4.788 4.855 4.93 5.03 5.11 5.15 5.187 5.22 5.252 5.29 5.31 5.237 5.092 4.945 4.808 4.735 4.715 4.698 4.683 4.665 4.708 4.945 5.305 5.642 5.957 6.232 6.385 6.412 6.41 6.408 6.425 6.518 6.688 6.88 7.07 7.255 7.415 7.56 7.677 7.727 7.75 7.777 7.805 7.852 7.907 7.93 7.933 7.933 7.93 7.93 7.935 7.945 7.96 7.975 7.988 8 8.013 8.028 8.045 8.058 8.065 8.075 8.085 8.1 8.12 8.145 8.172 8.18 8.168 8.153 8.14 8.135 8.14 8.145 8.143 8.148 8.163 8.177 8.19 8.21 8.238 8.265 8.292 8.323 8.358 8.393 8.428 8.468 8.515 8.565 8.618 8.665 8.703 8.74 8.777 8.805 8.822 8.838 8.855 8.862 8.858 8.853 8.853 8.88 8.915 8.938 8.963 9.005 9.07 9.14 9.225 9.34 9.47 9.605 9.74 9.875 10.01 10.135 10.255 10.353 10.455 10.587 10.722 10.79 10.815 10.865 10.915 10.95 10.95 10.93 10.913 11.058 11.39 11.495 11.437 11.263 11.15 11.295 11.407 11.475 11.512 11.54 11.555 11.565 11.572 11.577 11.577 11.575 11.577 11.582 11.597 11.615 11.592 11.535 11.483 11.458 11.455 11.455 11.46 11.46 11.445 11.428 11.42 11.45 11.51 11.57 11.635 11.68 11.692 11.7 11.713 11.743 11.788 11.835 11.885 11.935 11.98
4.637 4.595 4.558 4.54 4.525 4.493 4.46 4.43 4.408 4.39 4.372 4.143 3.92 3.92 3.92 3.973 4.198 4.405 4.48 4.56 4.642 4.73 4.81 4.877 4.942 5.005 5.03 5.043 5.078 5.112 5.13 5.143 5.175 5.205 5.145 5.005 4.865 4.758 4.735 4.745 4.735 4.725 4.71 4.818 5.108 5.45 5.79 6.122 6.37 6.455 6.458 6.463 6.485 6.558 6.675 6.83 7.015 7.205 7.395 7.565 7.712 7.827 7.887 7.92 7.945 7.97 7.99 7.99 7.988 7.995 7.998 7.998 8.005 8.013 8.023 8.038 8.055 8.078 8.098 8.115 8.133 8.148 8.16 8.17 8.18 8.193 8.21 8.233 8.257 8.275 8.27 8.255 8.24 8.225 8.22 8.225 8.23 8.238 8.253 8.268 8.283 8.298 8.318 8.342 8.368 8.395 8.43 8.47 8.508 8.543 8.58 8.623 8.67 8.72 8.765 8.805 8.842 8.875 8.9 8.917 8.933 8.947 8.952 8.948 8.94 8.928 8.93 8.95 8.973 8.998 9.033 9.09 9.16 9.225 9.313 9.435 9.57 9.707 9.842 9.975 10.1 10.218 10.345 10.485 10.625 10.765 10.88 10.95 11 11.05 11.087 11.092 11.077 11.13 11.377 11.582 11.542 11.403 11.22 11.18 11.295 11.395 11.47 11.527 11.57 11.602 11.622 11.625 11.625 11.63 11.64 11.655 11.67 11.682 11.667 11.615 11.563 11.523 11.498 11.488 11.48 11.475 11.47 11.455 11.438 11.433 11.465 11.525 11.585 11.63 11.647 11.653 11.66 11.673 11.703 11.75 11.797 11.84 11.893 11.948
4.623 4.58 4.558 4.57 4.58 4.557 4.52 4.478 4.44 4.41 4.382 4.145 3.92 3.92 3.92 3.92 4.153 4.422 4.495 4.567 4.65 4.745 4.835 4.91 4.975 5.025 5.022 4.998 5.013 5.04 5.04 5.03 5.048 5.075 5.015 4.878 4.763 4.695 4.71 4.765 4.787 4.785 4.793 4.968 5.292 5.62 5.947 6.235 6.435 6.522 6.54 6.565 6.643 6.763 6.878 6.995 7.148 7.33 7.517 7.682 7.825 7.942 8.01 8.047 8.075 8.1 8.11 8.093 8.075 8.075 8.078 8.085 8.1 8.108 8.118 8.135 8.16 8.19 8.212 8.228 8.245 8.262 8.275 8.283 8.293 8.31 8.333 8.357 8.375 8.38 8.37 8.355 8.34 8.325 8.32 8.325 8.333 8.343 8.358 8.375 8.39 8.405 8.425 8.448 8.473 8.5 8.54 8.587 8.63 8.665 8.7 8.738 8.78 8.83 8.875 8.912 8.945 8.975 9 9.015 9.03 9.045 9.05 9.042 9.022 8.995 8.983 8.993 9.015 9.04 9.065 9.108 9.168 9.233 9.31 9.41 9.533 9.67 9.807 9.945 10.075 10.193 10.325 10.472 10.615 10.755 10.89 11 11.072 11.125 11.157 11.16 11.165 11.318 11.647 11.772 11.667 11.45 11.22 11.195 11.278 11.377 11.452 11.505 11.537 11.572 11.625 11.652 11.655 11.66 11.673 11.688 11.705 11.73 11.72 11.668 11.623 11.59 11.565 11.548 11.533 11.525 11.52 11.505 11.483 11.468 11.495 11.555 11.602 11.62 11.62 11.623 11.628 11.638 11.67 11.717 11.76 11.8 11.858 11.93
4.61 4.573 4.573 4.6 4.625 4.627 4.597 4.553 4.51 4.47 4.435 4.17 3.92 3.92 3.92 3.92 4.145 4.405 4.478 4.56 4.655 4.755 4.847 4.932 5.005 5.045 5.03 4.983 4.965 4.97 4.96 4.94 4.933 4.947 4.89 4.773 4.695 4.643 4.658 4.733 4.795 4.83 4.908 5.143 5.47 5.785 6.06 6.27 6.45 6.582 6.643 6.715 6.845 6.98 7.092 7.195 7.313 7.465 7.637 7.795 7.935 8.055 8.125 8.165 8.2 8.227 8.23 8.208 8.183 8.168 8.165 8.175 8.19 8.2 8.215 8.24 8.273 8.305 8.327 8.342 8.358 8.375 8.39 8.4 8.415 8.435 8.457 8.475 8.48 8.48 8.47 8.455 8.44 8.425 8.42 8.425 8.435 8.445 8.46 8.48 8.497 8.515 8.535 8.555 8.58 8.608 8.648 8.7 8.747 8.787 8.822 8.858 8.895 8.94 8.982 9.015 9.045 9.075 9.097 9.112 9.127 9.142 9.147 9.13 9.095 9.058 9.043 9.048 9.06 9.08 9.105 9.14 9.183 9.24 9.32 9.41 9.508 9.63 9.77 9.91 10.045 10.17 10.305 10.455 10.6 10.74 10.877 11.01 11.122 11.197 11.23 11.243 11.278 11.425 11.702 11.82 11.725 11.525 11.335 11.28 11.29 11.36 11.432 11.465 11.475 11.495 11.565 11.642 11.677 11.69 11.708 11.728 11.75 11.78 11.77 11.725 11.69 11.66 11.635 11.615 11.595 11.58 11.567 11.547 11.523 11.503 11.523 11.57 11.592 11.595 11.595 11.595 11.595 11.605 11.638 11.68 11.72 11.76 11.815 11.892
4.608 4.58 4.6 4.63 4.663 4.687 4.672 4.633 4.598 4.565 4.54 4.32 4.015 3.92 3.92 3.92 4.112 4.365 4.47 4.562 4.657 4.747 4.832 4.925 5.017 5.062 5.04 4.99 4.95 4.915 4.885 4.865 4.845 4.835 4.785 4.705 4.645 4.598 4.628 4.718 4.808 4.893 5.045 5.323 5.645 5.93 6.137 6.305 6.475 6.643 6.78 6.913 7.065 7.197 7.305 7.407 7.512 7.628 7.763 7.905 8.045 8.167 8.24 8.28 8.32 8.36 8.373 8.355 8.34 8.31 8.285 8.29 8.303 8.315 8.335 8.363 8.393 8.422 8.442 8.458 8.472 8.487 8.502 8.52 8.54 8.56 8.575 8.58 8.58 8.58 8.573 8.558 8.54 8.525 8.523 8.53 8.54 8.55 8.565 8.585 8.605 8.625 8.645 8.665 8.69 8.715 8.755 8.81 8.86 8.905 8.942 8.977 9.012 9.05 9.085 9.115 9.145 9.172 9.19 9.205 9.22 9.232 9.227 9.197 9.16 9.12 9.105 9.11 9.115 9.125 9.148 9.182 9.215 9.258 9.33 9.42 9.505 9.603 9.73 9.87 10.01 10.145 10.285 10.435 10.58 10.722 10.862 10.997 11.13 11.245 11.312 11.352 11.405 11.49 11.625 11.697 11.667 11.58 11.487 11.432 11.385 11.378 11.398 11.405 11.405 11.413 11.47 11.575 11.667 11.715 11.74 11.767 11.795 11.825 11.82 11.787 11.76 11.73 11.702 11.677 11.655 11.632 11.607 11.583 11.56 11.54 11.545 11.565 11.57 11.57 11.57 11.573 11.578 11.59 11.615 11.648 11.683 11.72 11.773 11.848
4.718 4.65 4.668 4.695 4.725 4.753 4.747 4.72 4.7 4.68 4.662 4.515 4.148 3.92 3.92 3.92 4.003 4.25 4.462 4.552 4.635 4.712 4.795 4.893 4.997 5.057 5.042 4.995 4.96 4.91 4.84 4.8 4.78 4.755 4.71 4.648 4.598 4.595 4.688 4.823 4.933 5.035 5.21 5.495 5.8 6.042 6.22 6.383 6.55 6.75 6.945 7.105 7.247 7.362 7.465 7.565 7.665 7.772 7.895 8.028 8.165 8.287 8.36 8.4 8.448 8.512 8.552 8.55 8.53 8.475 8.435 8.438 8.445 8.458 8.478 8.503 8.527 8.545 8.558 8.573 8.587 8.597 8.61 8.63 8.65 8.677 8.695 8.693 8.69 8.69 8.685 8.673 8.655 8.64 8.64 8.65 8.66 8.668 8.683 8.705 8.725 8.745 8.763 8.78 8.805 8.83 8.868 8.922 8.97 9.007 9.045 9.08 9.115 9.15 9.18 9.21 9.24 9.262 9.267 9.272 9.285 9.297 9.285 9.247 9.21 9.178 9.17 9.175 9.18 9.18 9.193 9.225 9.255 9.288 9.345 9.428 9.512 9.598 9.7 9.83 9.97 10.11 10.247 10.39 10.535 10.68 10.82 10.955 11.09 11.232 11.345 11.405 11.462 11.525 11.598 11.64 11.64 11.64 11.602 11.537 11.482 11.418 11.378 11.373 11.37 11.398 11.478 11.59 11.69 11.73 11.742 11.77 11.802 11.84 11.845 11.817 11.792 11.772 11.752 11.725 11.697 11.672 11.645 11.62 11.6 11.588 11.588 11.588 11.585 11.578 11.573 11.583 11.595 11.61 11.63 11.655 11.683 11.708 11.74 11.805
4.92 4.793 4.78 4.805 4.83 4.85 4.84 4.803 4.78 4.765 4.745 4.595 4.188 3.92 3.92 3.92 3.92 4.158 4.437 4.52 4.595 4.67 4.755 4.855 4.962 5.037 5.04 5.003 4.985 4.942 4.848 4.763 4.718 4.69 4.645 4.6 4.595 4.645 4.785 4.97 5.117 5.23 5.393 5.662 5.93 6.13 6.302 6.47 6.668 6.91 7.115 7.255 7.37 7.467 7.565 7.663 7.765 7.888 8.025 8.162 8.297 8.415 8.485 8.53 8.595 8.68 8.745 8.747 8.695 8.62 8.58 8.583 8.59 8.603 8.623 8.647 8.665 8.67 8.675 8.69 8.702 8.705 8.713 8.73 8.758 8.8 8.822 8.818 8.818 8.823 8.818 8.803 8.788 8.773 8.77 8.78 8.79 8.798 8.813 8.835 8.855 8.875 8.89 8.903 8.923 8.948 8.985 9.035 9.072 9.1 9.135 9.17 9.205 9.242 9.272 9.3 9.327 9.345 9.34 9.328 9.33 9.342 9.332 9.295 9.26 9.24 9.24 9.245 9.245 9.235 9.238 9.265 9.295 9.323 9.37 9.44 9.518 9.603 9.693 9.803 9.935 10.072 10.2 10.328 10.465 10.61 10.752 10.888 11.03 11.192 11.317 11.38 11.435 11.508 11.605 11.685 11.717 11.727 11.67 11.583 11.522 11.44 11.385 11.38 11.408 11.49 11.6 11.71 11.755 11.725 11.718 11.745 11.785 11.832 11.842 11.815 11.798 11.795 11.787 11.765 11.735 11.708 11.683 11.66 11.65 11.655 11.66 11.657 11.645 11.618 11.605 11.62 11.635 11.65 11.67 11.695 11.71 11.707 11.72 11.773
5.095 4.948 4.9 4.922 4.945 4.965 4.945 4.883 4.838 4.815 4.767 4.612 4.263 3.975 3.92 3.92 3.92 4.17 4.442 4.49 4.553 4.63 4.718 4.82 4.93 5.022 5.045 5.025 5.02 4.98 4.885 4.775 4.685 4.63 4.6 4.605 4.645 4.713 4.858 5.062 5.255 5.41 5.575 5.807 6.03 6.21 6.385 6.58 6.817 7.067 7.252 7.365 7.465 7.56 7.655 7.76 7.88 8.015 8.155 8.295 8.425 8.537 8.612 8.672 8.755 8.835 8.892 8.897 8.842 8.765 8.725 8.73 8.74 8.75 8.767 8.785 8.787 8.785 8.792 8.805 8.81 8.81 8.818 8.84 8.88 8.927 8.947 8.948 8.955 8.965 8.96 8.94 8.923 8.908 8.905 8.913 8.92 8.93 8.945 8.965 8.985 9.007 9.025 9.033 9.043 9.065 9.102 9.14 9.165 9.19 9.223 9.258 9.295 9.335 9.365 9.387 9.407 9.422 9.42 9.4 9.385 9.387 9.377 9.348 9.325 9.31 9.31 9.31 9.3 9.285 9.283 9.305 9.332 9.358 9.403 9.465 9.53 9.61 9.7 9.795 9.908 10.035 10.16 10.28 10.405 10.543 10.685 10.83 10.993 11.17 11.292 11.353 11.415 11.5 11.603 11.702 11.78 11.815 11.737 11.625 11.55 11.455 11.403 11.428 11.51 11.618 11.727 11.8 11.775 11.705 11.693 11.733 11.785 11.832 11.84 11.825 11.823 11.827 11.827 11.807 11.775 11.745 11.723 11.715 11.725 11.74 11.742 11.73 11.7 11.663 11.648 11.66 11.675 11.69 11.71 11.72 11.707 11.685 11.698 11.753
5.15 5.037 5.005 5.03 5.05 5.065 5.037 4.972 4.913 4.87 4.792 4.645 4.412 4.093 3.92 3.92 3.92 4.055 4.355 4.527 4.56 4.608 4.68 4.788 4.9 5.005 5.052 5.052 5.055 5.02 4.93 4.82 4.71 4.628 4.618 4.66 4.71 4.78 4.93 5.137 5.342 5.537 5.727 5.927 6.12 6.303 6.485 6.698 6.937 7.172 7.352 7.462 7.558 7.652 7.755 7.875 8.01 8.15 8.29 8.425 8.545 8.652 8.732 8.795 8.865 8.927 8.96 8.957 8.93 8.885 8.865 8.875 8.885 8.895 8.905 8.907 8.903 8.9 8.905 8.91 8.91 8.91 8.925 8.96 9.005 9.052 9.077 9.085 9.095 9.105 9.102 9.085 9.065 9.048 9.043 9.048 9.053 9.06 9.075 9.095 9.118 9.142 9.16 9.167 9.175 9.19 9.215 9.24 9.26 9.283 9.313 9.35 9.388 9.425 9.452 9.47 9.485 9.5 9.5 9.48 9.455 9.44 9.428 9.41 9.395 9.38 9.372 9.362 9.347 9.333 9.328 9.345 9.37 9.393 9.435 9.495 9.555 9.625 9.71 9.8 9.895 10.005 10.123 10.24 10.36 10.483 10.623 10.788 10.965 11.145 11.27 11.345 11.433 11.53 11.623 11.713 11.807 11.877 11.805 11.668 11.583 11.495 11.465 11.533 11.64 11.745 11.832 11.84 11.77 11.69 11.675 11.73 11.79 11.837 11.852 11.852 11.857 11.862 11.867 11.85 11.815 11.79 11.78 11.79 11.807 11.82 11.812 11.78 11.74 11.703 11.69 11.703 11.717 11.727 11.73 11.715 11.685 11.66 11.68 11.743
5.103 5.048 5.072 5.117 5.14 5.15 5.117 5.055 4.993 4.937 4.855 4.707 4.52 4.17 3.92 3.92 3.92 3.92 4.268 4.622 4.635 4.638 4.68 4.785 4.895 4.992 5.05 5.065 5.072 5.06 4.99 4.88 4.758 4.673 4.68 4.728 4.783 4.863 5.005 5.202 5.407 5.613 5.83 6.045 6.235 6.42 6.613 6.813 7.023 7.247 7.445 7.57 7.657 7.737 7.837 7.967 8.1 8.238 8.407 8.542 8.63 8.727 8.807 8.865 8.915 8.962 8.977 8.96 8.945 8.96 8.995 9.015 9.022 9.025 9.025 9.023 9.02 9.023 9.03 9.035 9.035 9.035 9.055 9.098 9.145 9.182 9.202 9.215 9.225 9.235 9.24 9.232 9.215 9.195 9.188 9.193 9.195 9.2 9.215 9.238 9.262 9.28 9.29 9.3 9.31 9.32 9.335 9.358 9.378 9.395 9.418 9.45 9.488 9.522 9.548 9.563 9.578 9.587 9.577 9.555 9.53 9.505 9.485 9.467 9.452 9.437 9.422 9.407 9.392 9.378 9.37 9.383 9.405 9.428 9.468 9.525 9.585 9.648 9.725 9.818 9.91 10.008 10.118 10.233 10.35 10.468 10.615 10.793 10.97 11.145 11.275 11.37 11.47 11.567 11.658 11.745 11.835 11.912 11.845 11.715 11.655 11.585 11.575 11.66 11.76 11.837 11.872 11.845 11.775 11.695 11.685 11.745 11.797 11.837 11.86 11.867 11.872 11.877 11.882 11.872 11.842 11.82 11.822 11.837 11.85 11.857 11.842 11.805 11.765 11.735 11.733 11.747 11.757 11.75 11.727 11.7 11.673 11.653 11.678 11.743
5.075 5.06 5.11 5.182 5.22 5.227 5.192 5.13 5.073 5.022 4.935 4.775 4.58 4.233 3.953 3.92 3.92 3.92 4.235 4.627 4.7 4.685 4.715 4.807 4.902 4.982 5.042 5.067 5.08 5.102 5.06 4.942 4.793 4.713 4.748 4.81 4.888 4.978 5.093 5.26 5.465 5.68 5.92 6.162 6.367 6.555 6.748 6.943 7.138 7.34 7.54 7.672 7.735 7.78 7.853 7.985 8.158 8.35 8.54 8.642 8.685 8.76 8.842 8.905 8.955 8.987 8.985 8.963 8.945 9.025 9.127 9.15 9.152 9.145 9.14 9.14 9.143 9.15 9.165 9.18 9.187 9.19 9.21 9.252 9.287 9.302 9.313 9.327 9.34 9.35 9.362 9.37 9.365 9.35 9.343 9.348 9.353 9.358 9.373 9.397 9.415 9.42 9.425 9.435 9.445 9.455 9.47 9.492 9.51 9.523 9.538 9.56 9.593 9.627 9.652 9.665 9.675 9.675 9.655 9.625 9.598 9.575 9.548 9.518 9.498 9.483 9.467 9.45 9.435 9.42 9.413 9.423 9.438 9.46 9.5 9.553 9.61 9.673 9.75 9.842 9.935 10.03 10.14 10.258 10.378 10.503 10.653 10.835 11.02 11.182 11.307 11.41 11.51 11.605 11.695 11.785 11.86 11.905 11.84 11.75 11.725 11.682 11.682 11.745 11.805 11.842 11.845 11.815 11.767 11.71 11.705 11.755 11.795 11.827 11.852 11.862 11.865 11.87 11.875 11.875 11.857 11.833 11.835 11.85 11.857 11.86 11.847 11.815 11.783 11.77 11.777 11.787 11.777 11.75 11.72 11.69 11.668 11.655 11.683 11.75
5.085 5.088 5.135 5.222 5.287 5.302 5.267 5.212 5.16 5.107 5.005 4.835 4.64 4.377 4.068 3.92 3.92 3.92 4.05 4.457 4.727 4.713 4.738 4.81 4.89 4.965 5.035 5.072 5.093 5.135 5.112 4.982 4.82 4.773 4.842 4.93 5.025 5.115 5.21 5.34 5.528 5.76 6.015 6.27 6.498 6.7 6.898 7.098 7.298 7.495 7.66 7.75 7.785 7.81 7.898 8.08 8.315 8.552 8.697 8.737 8.758 8.803 8.878 8.945 8.992 9.007 8.99 8.968 8.955 9.103 9.262 9.275 9.27 9.262 9.258 9.258 9.268 9.28 9.295 9.315 9.335 9.347 9.365 9.392 9.405 9.41 9.42 9.435 9.452 9.465 9.477 9.492 9.505 9.502 9.497 9.505 9.515 9.522 9.537 9.555 9.56 9.56 9.563 9.57 9.58 9.59 9.605 9.622 9.635 9.648 9.663 9.68 9.703 9.732 9.755 9.76 9.76 9.755 9.735 9.703 9.67 9.645 9.615 9.578 9.548 9.528 9.51 9.493 9.478 9.463 9.458 9.465 9.475 9.493 9.53 9.58 9.635 9.698 9.775 9.865 9.958 10.055 10.165 10.288 10.415 10.545 10.683 10.87 11.077 11.227 11.34 11.445 11.547 11.645 11.732 11.802 11.84 11.852 11.817 11.768 11.745 11.722 11.722 11.747 11.773 11.797 11.795 11.763 11.735 11.71 11.713 11.748 11.778 11.81 11.842 11.857 11.86 11.863 11.865 11.87 11.865 11.848 11.848 11.857 11.86 11.86 11.852 11.83 11.813 11.812 11.817 11.807 11.775 11.74 11.71 11.685 11.67 11.66 11.69 11.757
5.112 5.113 5.16 5.25 5.335 5.367 5.332 5.275 5.217 5.157 5.055 4.892 4.7 4.505 4.165 3.92 3.92 3.92 3.92 4.332 4.74 4.733 4.755 4.815 4.885 4.955 5.025 5.072 5.102 5.14 5.117 4.98 4.805 4.772 4.87 4.97 5.07 5.17 5.27 5.398 5.605 5.868 6.133 6.398 6.663 6.9 7.105 7.31 7.505 7.662 7.76 7.812 7.845 7.9 8.063 8.305 8.555 8.742 8.815 8.833 8.848 8.87 8.92 8.982 9.02 9.018 8.993 8.97 9 9.215 9.395 9.395 9.385 9.378 9.375 9.38 9.392 9.405 9.42 9.44 9.462 9.485 9.5 9.507 9.512 9.517 9.527 9.545 9.562 9.577 9.59 9.602 9.617 9.627 9.637 9.65 9.662 9.677 9.69 9.695 9.695 9.695 9.697 9.705 9.715 9.725 9.735 9.745 9.757 9.772 9.787 9.802 9.82 9.84 9.85 9.848 9.843 9.835 9.815 9.785 9.75 9.718 9.685 9.645 9.608 9.578 9.555 9.538 9.523 9.508 9.503 9.51 9.52 9.53 9.56 9.61 9.665 9.725 9.8 9.89 9.983 10.085 10.203 10.33 10.46 10.588 10.715 10.895 11.112 11.265 11.37 11.475 11.58 11.68 11.742 11.768 11.78 11.8 11.797 11.765 11.735 11.71 11.708 11.725 11.743 11.762 11.763 11.74 11.725 11.715 11.723 11.75 11.778 11.805 11.835 11.855 11.86 11.86 11.86 11.863 11.862 11.857 11.857 11.86 11.86 11.86 11.857 11.85 11.845 11.847 11.842 11.813 11.77 11.733 11.703 11.685 11.675 11.668 11.698 11.763
5.105 5.118 5.173 5.26 5.347 5.395 5.37 5.307 5.243 5.182 5.092 4.942 4.76 4.567 4.205 3.93 3.92 3.92 3.92 4.128 4.54 4.75 4.78 4.838 4.903 4.967 5.002 5.04 5.09 5.12 5.085 4.945 4.753 4.658 4.72 4.827 4.932 5.04 5.198 5.428 5.71 6.007 6.285 6.558 6.852 7.132 7.355 7.537 7.675 7.76 7.82 7.878 7.933 8.06 8.298 8.593 8.847 8.962 8.983 8.99 8.998 9.003 9.015 9.033 9.068 9.085 9.078 9.083 9.148 9.367 9.522 9.515 9.505 9.495 9.495 9.505 9.515 9.525 9.538 9.555 9.575 9.597 9.612 9.615 9.618 9.62 9.625 9.64 9.655 9.667 9.682 9.695 9.707 9.722 9.74 9.757 9.772 9.79 9.8 9.802 9.805 9.807 9.822 9.842 9.855 9.862 9.863 9.865 9.877 9.89 9.902 9.917 9.935 9.95 9.95 9.943 9.935 9.925 9.908 9.878 9.843 9.808 9.77 9.73 9.69 9.648 9.615 9.595 9.58 9.565 9.55 9.55 9.56 9.568 9.593 9.64 9.695 9.755 9.833 9.925 10.015 10.12 10.257 10.397 10.525 10.653 10.778 10.918 11.112 11.285 11.392 11.497 11.605 11.715 11.765 11.76 11.753 11.775 11.782 11.745 11.715 11.693 11.695 11.712 11.728 11.745 11.755 11.75 11.74 11.73 11.738 11.763 11.79 11.815 11.838 11.855 11.86 11.86 11.86 11.86 11.86 11.86 11.86 11.86 11.86 11.86 11.86 11.86 11.86 11.86 11.855 11.832 11.793 11.75 11.72 11.703 11.688 11.68 11.708 11.77
5.068 5.1 5.163 5.247 5.332 5.392 5.385 5.33 5.268 5.212 5.13 4.985 4.812 4.627 4.347 4.043 3.92 3.92 3.92 3.92 4.343 4.775 4.808 4.863 4.927 4.96 4.925 4.948 5.04 5.09 5.047 4.907 4.715 4.52 4.49 4.6 4.728 4.913 5.188 5.51 5.827 6.137 6.435 6.722 7.025 7.332 7.552 7.67 7.745 7.805 7.865 7.948 8.115 8.388 8.71 9.005 9.185 9.247 9.26 9.26 9.26 9.255 9.243 9.218 9.218 9.25 9.283 9.315 9.365 9.527 9.647 9.635 9.625 9.613 9.61 9.622 9.635 9.645 9.655 9.668 9.685 9.705 9.717 9.722 9.722 9.72 9.72 9.725 9.735 9.745 9.76 9.775 9.79 9.807 9.823 9.84 9.858 9.875 9.885 9.89 9.898 9.905 9.93 9.967 9.99 9.997 9.995 9.988 9.99 10 10.013 10.028 10.042 10.057 10.06 10.05 10.04 10.03 10.012 9.982 9.947 9.91 9.87 9.83 9.782 9.728 9.688 9.665 9.648 9.632 9.61 9.593 9.593 9.6 9.628 9.675 9.728 9.785 9.865 9.962 10.055 10.158 10.305 10.47 10.607 10.735 10.86 10.97 11.118 11.285 11.407 11.515 11.635 11.767 11.827 11.807 11.773 11.773 11.77 11.728 11.695 11.678 11.683 11.698 11.715 11.735 11.75 11.755 11.752 11.743 11.75 11.777 11.802 11.825 11.845 11.857 11.86 11.86 11.86 11.86 11.86 11.86 11.86 11.86 11.86 11.86 11.86 11.86 11.86 11.86 11.86 11.855 11.83 11.79 11.76 11.74 11.728 11.73 11.75 11.79
5.04 5.083 5.148 5.232 5.32 5.39 5.395 5.347 5.29 5.242 5.167 5.025 4.855 4.68 4.495 4.16 3.92 3.92 3.92 3.92 4.348 4.797 4.837 4.89 4.917 4.875 4.8 4.828 4.957 5.047 5.015 4.877 4.687 4.433 4.303 4.423 4.663 4.965 5.303 5.628 5.94 6.253 6.575 6.873 7.16 7.452 7.602 7.643 7.7 7.813 7.995 8.225 8.545 8.925 9.237 9.412 9.495 9.545 9.57 9.575 9.577 9.575 9.557 9.527 9.49 9.483 9.515 9.552 9.588 9.692 9.77 9.755 9.742 9.728 9.725 9.737 9.75 9.76 9.77 9.78 9.795 9.815 9.825 9.825 9.822 9.818 9.815 9.815 9.818 9.825 9.84 9.858 9.873 9.89 9.907 9.925 9.945 9.965 9.975 9.98 9.99 10.003 10.03 10.075 10.115 10.135 10.132 10.118 10.11 10.115 10.127 10.14 10.15 10.165 10.17 10.16 10.147 10.135 10.117 10.087 10.05 10.01 9.97 9.922 9.862 9.803 9.763 9.74 9.718 9.698 9.677 9.653 9.635 9.633 9.66 9.71 9.76 9.815 9.895 9.995 10.09 10.19 10.335 10.515 10.68 10.817 10.937 11.045 11.155 11.293 11.425 11.545 11.685 11.83 11.885 11.847 11.8 11.778 11.757 11.713 11.675 11.66 11.668 11.685 11.705 11.725 11.743 11.755 11.762 11.758 11.763 11.787 11.812 11.835 11.852 11.86 11.86 11.86 11.86 11.86 11.86 11.86 11.86 11.86 11.86 11.86 11.86 11.86 11.86 11.86 11.86 11.86 11.852 11.827 11.803 11.795 11.803 11.818 11.83 11.845
5.023 5.07 5.133 5.215 5.305 5.385 5.4 5.357 5.307 5.267 5.2 5.06 4.893 4.725 4.55 4.19 3.92 3.92 3.92 3.92 4.34 4.797 4.855 4.872 4.827 4.743 4.673 4.715 4.855 4.982 4.98 4.847 4.667 4.428 4.278 4.425 4.758 5.093 5.43 5.765 6.098 6.433 6.777 7.042 7.26 7.482 7.558 7.625 7.815 8.073 8.398 8.76 9.14 9.457 9.637 9.722 9.787 9.847 9.88 9.885 9.89 9.892 9.875 9.842 9.807 9.773 9.763 9.79 9.822 9.867 9.887 9.87 9.855 9.84 9.84 9.85 9.86 9.87 9.882 9.895 9.907 9.922 9.93 9.925 9.92 9.915 9.91 9.91 9.91 9.913 9.925 9.943 9.958 9.975 9.993 10.01 10.03 10.05 10.065 10.075 10.085 10.1 10.13 10.175 10.222 10.257 10.262 10.25 10.237 10.23 10.235 10.245 10.255 10.267 10.27 10.257 10.242 10.23 10.215 10.185 10.147 10.11 10.062 10.002 9.94 9.88 9.838 9.815 9.792 9.768 9.745 9.72 9.695 9.68 9.7 9.748 9.795 9.85 9.928 10.025 10.123 10.225 10.37 10.548 10.725 10.89 11.017 11.117 11.215 11.325 11.448 11.582 11.727 11.867 11.915 11.87 11.822 11.785 11.748 11.7 11.658 11.643 11.655 11.675 11.695 11.723 11.748 11.76 11.77 11.77 11.775 11.795 11.818 11.84 11.855 11.86 11.863 11.865 11.863 11.86 11.86 11.86 11.86 11.86 11.865 11.875 11.878 11.873 11.865 11.86 11.86 11.86 11.863 11.863 11.863 11.875 11.895 11.912 11.922 11.927
5.01 5.06 5.12 5.2 5.29 5.377 5.4 5.352 5.297 5.272 5.23 5.1 4.933 4.765 4.595 4.323 4.028 3.92 3.92 3.92 4.228 4.677 4.835 4.81 4.728 4.653 4.608 4.668 4.81 4.912 4.88 4.778 4.692 4.533 4.408 4.565 4.9 5.233 5.583 5.945 6.307 6.67 7 7.22 7.372 7.543 7.705 7.935 8.268 8.62 8.975 9.262 9.515 9.73 9.847 9.94 10.032 10.125 10.177 10.18 10.172 10.162 10.142 10.112 10.08 10.047 10.002 9.982 9.997 10.01 9.997 9.973 9.955 9.94 9.943 9.955 9.965 9.975 9.99 10.005 10.015 10.025 10.027 10.022 10.017 10.013 10.01 10.01 10.01 10.01 10.018 10.033 10.05 10.07 10.08 10.088 10.105 10.125 10.145 10.16 10.17 10.185 10.21 10.247 10.29 10.33 10.345 10.335 10.322 10.312 10.315 10.325 10.332 10.34 10.34 10.327 10.315 10.305 10.29 10.262 10.227 10.192 10.14 10.075 10.015 9.955 9.913 9.888 9.865 9.842 9.818 9.792 9.768 9.75 9.77 9.815 9.86 9.913 9.988 10.083 10.18 10.283 10.423 10.598 10.775 10.94 11.07 11.172 11.267 11.363 11.47 11.597 11.735 11.872 11.92 11.875 11.83 11.792 11.748 11.695 11.645 11.633 11.66 11.693 11.725 11.765 11.798 11.808 11.805 11.78 11.775 11.802 11.825 11.845 11.86 11.868 11.873 11.877 11.875 11.87 11.868 11.873 11.883 11.89 11.903 11.92 11.925 11.915 11.9 11.885 11.885 11.893 11.9 11.913 11.93 11.95 11.97 11.982 11.987 11.992
5.023 5.07 5.113 5.163 5.24 5.33 5.347 5.287 5.227 5.205 5.19 5.115 4.982 4.822 4.655 4.48 4.155 3.92 3.92 3.92 4.02 4.455 4.79 4.75 4.685 4.648 4.63 4.693 4.81 4.827 4.763 4.73 4.735 4.667 4.57 4.715 5.05 5.388 5.75 6.127 6.5 6.837 7.052 7.187 7.385 7.7 8.09 8.457 8.757 9.025 9.29 9.482 9.65 9.832 9.957 10.057 10.17 10.29 10.377 10.412 10.407 10.382 10.358 10.332 10.297 10.24 10.165 10.118 10.115 10.122 10.107 10.075 10.05 10.035 10.038 10.052 10.065 10.075 10.09 10.105 10.115 10.125 10.125 10.118 10.113 10.108 10.105 10.107 10.11 10.11 10.115 10.13 10.148 10.165 10.17 10.168 10.178 10.195 10.212 10.227 10.243 10.26 10.278 10.3 10.335 10.375 10.39 10.38 10.373 10.37 10.375 10.382 10.388 10.395 10.392 10.38 10.37 10.36 10.345 10.322 10.292 10.26 10.21 10.145 10.085 10.025 9.985 9.962 9.938 9.915 9.89 9.865 9.845 9.835 9.86 9.905 9.95 9.998 10.07 10.167 10.262 10.358 10.49 10.665 10.83 10.965 11.085 11.2 11.302 11.398 11.495 11.603 11.728 11.865 11.917 11.875 11.833 11.8 11.757 11.702 11.643 11.633 11.682 11.74 11.795 11.842 11.877 11.875 11.825 11.765 11.76 11.8 11.832 11.855 11.87 11.882 11.89 11.892 11.892 11.89 11.898 11.925 11.948 11.955 11.968 11.982 11.985 11.975 11.96 11.94 11.938 11.952 11.965 11.975 11.99 12.01 12.022 12.02 12.02 12.032
5.068 5.115 5.14 5.145 5.168 5.223 5.232 5.178 5.125 5.085 5.065 5.035 4.962 4.862 4.727 4.555 4.193 3.92 3.92 3.92 3.92 4.198 4.61 4.725 4.7 4.69 4.68 4.725 4.777 4.755 4.735 4.745 4.755 4.745 4.713 4.865 5.202 5.543 5.903 6.29 6.65 6.865 6.923 7.05 7.463 7.995 8.468 8.89 9.197 9.342 9.41 9.55 9.76 9.947 10.075 10.165 10.263 10.375 10.477 10.555 10.6 10.6 10.575 10.532 10.462 10.367 10.285 10.248 10.238 10.237 10.222 10.185 10.15 10.13 10.133 10.148 10.162 10.175 10.19 10.205 10.217 10.23 10.227 10.215 10.208 10.203 10.2 10.203 10.207 10.21 10.215 10.23 10.245 10.26 10.265 10.258 10.255 10.265 10.28 10.295 10.315 10.335 10.352 10.368 10.39 10.422 10.437 10.433 10.43 10.43 10.433 10.438 10.443 10.45 10.447 10.435 10.423 10.41 10.395 10.375 10.352 10.327 10.282 10.217 10.155 10.098 10.058 10.035 10.012 9.988 9.963 9.943 9.93 9.925 9.95 9.995 10.037 10.08 10.15 10.247 10.342 10.435 10.563 10.72 10.855 10.975 11.095 11.217 11.332 11.43 11.525 11.625 11.733 11.857 11.91 11.878 11.845 11.815 11.772 11.712 11.645 11.63 11.685 11.755 11.822 11.877 11.91 11.88 11.785 11.725 11.743 11.788 11.83 11.86 11.878 11.892 11.905 11.91 11.91 11.923 11.96 12.007 12.03 12.03 12.035 12.047 12.05 12.037 12.02 12 11.995 12.01 12.025 12.035 12.047 12.06 12.06 12.05 12.053 12.067
5.125 5.175 5.202 5.192 5.17 5.17 5.153 5.095 5.038 4.98 4.935 4.895 4.845 4.795 4.72 4.605 4.305 3.995 3.92 3.92 3.92 3.985 4.395 4.737 4.732 4.727 4.712 4.725 4.74 4.735 4.745 4.755 4.765 4.772 4.803 5.003 5.347 5.692 6.045 6.422 6.715 6.813 6.855 7.21 7.93 8.547 8.932 9.275 9.542 9.652 9.675 9.725 9.87 10.06 10.19 10.28 10.37 10.465 10.557 10.642 10.725 10.78 10.762 10.68 10.577 10.475 10.408 10.383 10.365 10.355 10.335 10.295 10.258 10.23 10.228 10.243 10.26 10.275 10.288 10.302 10.317 10.33 10.327 10.315 10.305 10.298 10.295 10.298 10.302 10.308 10.315 10.33 10.345 10.357 10.36 10.35 10.343 10.343 10.353 10.37 10.39 10.408 10.425 10.443 10.46 10.48 10.49 10.49 10.49 10.49 10.49 10.495 10.5 10.505 10.503 10.49 10.478 10.462 10.445 10.425 10.402 10.38 10.342 10.282 10.22 10.167 10.13 10.105 10.085 10.062 10.042 10.03 10.02 10.015 10.038 10.08 10.12 10.16 10.23 10.325 10.42 10.515 10.628 10.753 10.868 10.985 11.105 11.228 11.35 11.46 11.56 11.658 11.755 11.862 11.91 11.887 11.86 11.83 11.782 11.715 11.645 11.62 11.66 11.717 11.772 11.825 11.857 11.815 11.723 11.693 11.73 11.778 11.823 11.863 11.89 11.905 11.918 11.928 11.943 11.983 12.04 12.092 12.112 12.11 12.11 12.115 12.115 12.1 12.08 12.06 12.055 12.068 12.082 12.092 12.095 12.095 12.09 12.083 12.085 12.092
5.17 5.21 5.237 5.245 5.23 5.207 5.155 5.08 5.013 4.948 4.893 4.848 4.8 4.75 4.703 4.637 4.452 4.115 3.92 3.92 3.92 3.92 4.325 4.702 4.652 4.605 4.605 4.667 4.707 4.712 4.717 4.725 4.735 4.743 4.82 5.078 5.435 5.785 6.162 6.495 6.703 6.808 6.953 7.583 8.487 9.045 9.332 9.572 9.735 9.83 9.915 9.962 10.04 10.182 10.305 10.392 10.475 10.555 10.63 10.705 10.79 10.875 10.867 10.772 10.677 10.588 10.535 10.515 10.495 10.475 10.445 10.405 10.37 10.343 10.338 10.353 10.37 10.38 10.385 10.4 10.415 10.422 10.42 10.41 10.4 10.393 10.39 10.393 10.398 10.405 10.418 10.433 10.447 10.457 10.455 10.445 10.438 10.438 10.45 10.468 10.483 10.493 10.503 10.52 10.54 10.557 10.565 10.563 10.558 10.553 10.553 10.56 10.565 10.57 10.567 10.555 10.54 10.515 10.488 10.465 10.44 10.415 10.38 10.325 10.268 10.225 10.197 10.172 10.15 10.13 10.115 10.107 10.1 10.098 10.12 10.16 10.2 10.248 10.323 10.418 10.513 10.613 10.72 10.828 10.935 11.045 11.155 11.273 11.4 11.52 11.625 11.723 11.817 11.897 11.922 11.9 11.873 11.845 11.795 11.725 11.66 11.628 11.63 11.645 11.675 11.72 11.757 11.723 11.675 11.695 11.74 11.79 11.838 11.888 11.922 11.938 11.95 11.97 12.01 12.065 12.125 12.177 12.197 12.192 12.185 12.175 12.167 12.16 12.142 12.12 12.115 12.13 12.14 12.137 12.132 12.127 12.12 12.118 12.11 12.1
5.185 5.202 5.218 5.262 5.285 5.26 5.2 5.115 5.04 4.975 4.925 4.887 4.847 4.8 4.75 4.672 4.527 4.178 3.92 3.92 3.92 3.92 4.242 4.537 4.435 4.37 4.453 4.592 4.667 4.675 4.675 4.678 4.683 4.688 4.8 5.1 5.47 5.825 6.257 6.645 6.808 6.865 7.058 7.865 8.83 9.28 9.527 9.745 9.87 9.95 10.045 10.14 10.225 10.32 10.417 10.492 10.567 10.645 10.71 10.768 10.843 10.925 10.92 10.835 10.76 10.7 10.665 10.647 10.625 10.592 10.555 10.515 10.485 10.465 10.463 10.475 10.485 10.485 10.485 10.497 10.507 10.51 10.505 10.495 10.488 10.485 10.487 10.49 10.498 10.51 10.525 10.54 10.55 10.555 10.552 10.545 10.543 10.555 10.572 10.585 10.59 10.588 10.59 10.603 10.62 10.64 10.65 10.645 10.632 10.618 10.618 10.63 10.637 10.642 10.64 10.627 10.6 10.56 10.525 10.498 10.47 10.445 10.41 10.358 10.31 10.28 10.26 10.235 10.213 10.195 10.18 10.175 10.173 10.173 10.195 10.238 10.285 10.345 10.428 10.525 10.628 10.74 10.855 10.955 11.055 11.16 11.26 11.368 11.49 11.612 11.717 11.812 11.89 11.932 11.935 11.913 11.89 11.867 11.82 11.75 11.7 11.675 11.65 11.628 11.623 11.63 11.653 11.653 11.668 11.722 11.77 11.823 11.878 11.935 11.97 11.985 12.01 12.05 12.1 12.155 12.215 12.255 12.262 12.252 12.237 12.22 12.21 12.21 12.202 12.187 12.182 12.19 12.185 12.17 12.165 12.16 12.155 12.157 12.14 12.113
5.17 5.177 5.183 5.237 5.31 5.31 5.247 5.16 5.075 5.003 4.953 4.92 4.887 4.847 4.792 4.7 4.57 4.253 3.963 3.92 3.92 3.92 4.045 4.31 4.368 4.295 4.378 4.522 4.62 4.645 4.645 4.645 4.648 4.67 4.82 5.133 5.5 5.885 6.372 6.897 7.105 7.01 7.133 8.06 9.072 9.472 9.722 9.902 9.99 10.068 10.163 10.258 10.358 10.46 10.535 10.59 10.658 10.732 10.797 10.85 10.908 10.977 10.972 10.903 10.855 10.823 10.8 10.777 10.745 10.705 10.665 10.63 10.608 10.593 10.588 10.592 10.592 10.583 10.583 10.592 10.595 10.595 10.59 10.583 10.58 10.58 10.585 10.593 10.603 10.618 10.632 10.645 10.65 10.65 10.648 10.648 10.66 10.68 10.695 10.7 10.695 10.685 10.685 10.695 10.705 10.72 10.727 10.717 10.7 10.683 10.683 10.697 10.71 10.715 10.707 10.685 10.647 10.603 10.565 10.535 10.503 10.475 10.44 10.398 10.365 10.34 10.32 10.298 10.278 10.26 10.248 10.245 10.248 10.25 10.27 10.32 10.383 10.45 10.535 10.64 10.755 10.875 10.992 11.09 11.18 11.28 11.38 11.48 11.588 11.705 11.807 11.877 11.92 11.945 11.947 11.927 11.905 11.885 11.842 11.788 11.76 11.747 11.725 11.695 11.665 11.63 11.608 11.628 11.688 11.752 11.805 11.863 11.925 11.985 12.022 12.048 12.09 12.14 12.192 12.24 12.275 12.29 12.287 12.28 12.27 12.255 12.245 12.245 12.242 12.235 12.23 12.227 12.215 12.2 12.195 12.195 12.2 12.202 12.182 12.148
5.142 5.15 5.158 5.19 5.282 5.34 5.292 5.205 5.112 5.03 4.98 4.95 4.92 4.887 4.825 4.72 4.6 4.385 4.075 3.92 3.92 3.92 3.92 4.265 4.557 4.45 4.4 4.463 4.567 4.615 4.615 4.625 4.66 4.725 4.89 5.193 5.553 5.935 6.447 7.072 7.365 7.175 7.236 8.27 9.297 9.657 9.907 10.05 10.11 10.185 10.28 10.38 10.49 10.597 10.668 10.715 10.77 10.828 10.885 10.94 10.99 11.045 11.05 11.01 10.983 10.958 10.932 10.897 10.855 10.815 10.78 10.755 10.735 10.717 10.707 10.702 10.695 10.68 10.678 10.682 10.68 10.68 10.678 10.678 10.68 10.68 10.685 10.698 10.71 10.725 10.737 10.743 10.748 10.75 10.753 10.765 10.785 10.805 10.812 10.805 10.795 10.785 10.782 10.79 10.797 10.805 10.802 10.785 10.765 10.75 10.75 10.765 10.78 10.785 10.767 10.73 10.69 10.645 10.605 10.575 10.543 10.51 10.478 10.45 10.425 10.4 10.38 10.36 10.342 10.325 10.317 10.32 10.325 10.33 10.355 10.415 10.485 10.557 10.65 10.765 10.885 11.005 11.125 11.225 11.305 11.392 11.49 11.59 11.69 11.79 11.867 11.905 11.93 11.955 11.957 11.94 11.92 11.9 11.872 11.845 11.83 11.817 11.792 11.755 11.715 11.667 11.623 11.64 11.715 11.785 11.843 11.905 11.97 12.027 12.07 12.107 12.155 12.205 12.247 12.272 12.285 12.29 12.29 12.287 12.28 12.272 12.27 12.265 12.255 12.245 12.24 12.24 12.235 12.227 12.23 12.24 12.25 12.25 12.227 12.19
5.11 5.12 5.13 5.145 5.187 5.257 5.25 5.16 5.075 5.025 5.002 4.975 4.945 4.912 4.867 4.758 4.618 4.482 4.163 3.92 3.92 3.92 3.92 4.33 4.71 4.64 4.557 4.515 4.548 4.583 4.605 4.655 4.728 4.813 4.973 5.27 5.592 5.89 6.383 7.032 7.457 7.455 7.503 8.49 9.497 9.835 10.075 10.18 10.23 10.308 10.408 10.52 10.643 10.75 10.823 10.875 10.925 10.97 11.005 11.045 11.095 11.145 11.165 11.145 11.12 11.097 11.065 11.023 10.98 10.933 10.888 10.86 10.842 10.825 10.81 10.8 10.79 10.778 10.773 10.773 10.77 10.77 10.773 10.78 10.785 10.785 10.793 10.807 10.82 10.835 10.847 10.85 10.853 10.853 10.86 10.88 10.9 10.915 10.91 10.895 10.885 10.875 10.87 10.872 10.88 10.885 10.875 10.855 10.838 10.83 10.838 10.853 10.865 10.865 10.835 10.788 10.743 10.698 10.655 10.62 10.587 10.553 10.525 10.505 10.48 10.452 10.427 10.405 10.387 10.372 10.37 10.375 10.38 10.385 10.415 10.48 10.552 10.627 10.737 10.87 10.99 11.11 11.23 11.322 11.39 11.467 11.557 11.655 11.755 11.845 11.892 11.913 11.937 11.96 11.96 11.942 11.927 11.91 11.892 11.877 11.862 11.847 11.82 11.775 11.725 11.673 11.64 11.67 11.737 11.807 11.875 11.937 12.002 12.05 12.08 12.117 12.162 12.207 12.235 12.232 12.232 12.242 12.242 12.235 12.238 12.255 12.267 12.265 12.255 12.245 12.238 12.237 12.237 12.235 12.242 12.255 12.27 12.277 12.255 12.215
5.067 5.08 5.092 5.08 4.98 4.988 5.077 5.043 5 5.01 5.017 4.995 4.965 4.928 4.9 4.837 4.678 4.512 4.185 3.92 3.92 3.92 3.92 4.337 4.745 4.715 4.672 4.617 4.575 4.585 4.65 4.735 4.815 4.898 5.055 5.337 5.582 5.778 6.228 6.785 7.24 7.627 7.813 8.67 9.67 10.007 10.225 10.297 10.355 10.448 10.568 10.693 10.815 10.922 11 11.055 11.105 11.152 11.17 11.178 11.218 11.267 11.29 11.28 11.26 11.24 11.207 11.162 11.112 11.05 10.99 10.95 10.928 10.91 10.898 10.89 10.882 10.873 10.865 10.865 10.865 10.865 10.872 10.887 10.895 10.895 10.905 10.92 10.933 10.95 10.965 10.97 10.967 10.958 10.96 10.98 10.995 11 10.99 10.975 10.965 10.953 10.948 10.95 10.955 10.96 10.95 10.933 10.925 10.93 10.942 10.955 10.957 10.945 10.91 10.863 10.818 10.775 10.725 10.673 10.633 10.6 10.575 10.552 10.525 10.495 10.465 10.438 10.415 10.4 10.4 10.405 10.41 10.415 10.448 10.515 10.587 10.66 10.78 10.937 11.07 11.19 11.305 11.385 11.443 11.513 11.595 11.688 11.783 11.872 11.912 11.92 11.942 11.96 11.957 11.94 11.923 11.907 11.89 11.872 11.855 11.84 11.815 11.772 11.725 11.675 11.658 11.698 11.75 11.813 11.895 11.965 12.025 12.055 12.06 12.09 12.135 12.175 12.2 12.185 12.158 12.15 12.15 12.158 12.185 12.22 12.24 12.245 12.245 12.24 12.233 12.23 12.225 12.22 12.225 12.24 12.27 12.29 12.27 12.23
5.02 5.032 4.992 4.903 4.763 4.755 4.913 4.973 4.983 5.017 5.035 5.017 4.98 4.938 4.908 4.892 4.805 4.605 4.29 4.008 3.92 3.92 3.92 4.158 4.575 4.74 4.705 4.66 4.61 4.603 4.68 4.797 4.9 4.985 5.138 5.367 5.535 5.665 5.998 6.41 6.82 7.53 7.985 8.82 9.827 10.16 10.355 10.425 10.515 10.628 10.757 10.882 10.992 11.097 11.18 11.235 11.285 11.335 11.35 11.338 11.353 11.39 11.41 11.405 11.395 11.38 11.35 11.3 11.232 11.16 11.1 11.055 11.018 10.99 10.98 10.977 10.975 10.967 10.958 10.955 10.955 10.958 10.968 10.985 11 11.007 11.018 11.033 11.05 11.07 11.082 11.082 11.075 11.06 11.06 11.075 11.08 11.077 11.067 11.055 11.042 11.028 11.023 11.027 11.032 11.035 11.028 11.02 11.025 11.035 11.045 11.047 11.037 11.02 10.985 10.94 10.9 10.86 10.807 10.745 10.69 10.65 10.625 10.597 10.565 10.533 10.503 10.475 10.448 10.43 10.43 10.435 10.44 10.448 10.483 10.55 10.62 10.69 10.81 10.98 11.137 11.272 11.377 11.445 11.498 11.56 11.64 11.728 11.815 11.902 11.94 11.938 11.95 11.96 11.952 11.937 11.92 11.903 11.885 11.868 11.85 11.832 11.805 11.765 11.725 11.678 11.67 11.715 11.755 11.808 11.905 11.995 12.042 12.052 12.043 12.063 12.102 12.14 12.167 12.155 12.118 12.103 12.105 12.12 12.155 12.19 12.21 12.215 12.223 12.233 12.23 12.22 12.21 12.203 12.21 12.238 12.28 12.307 12.29 12.25
4.975 4.982 4.913 4.798 4.713 4.733 4.873 4.97 5.003 5.033 5.052 5.035 4.992 4.943 4.905 4.892 4.882 4.782 4.512 4.128 3.92 3.92 3.92 3.948 4.37 4.757 4.735 4.695 4.645 4.608 4.66 4.797 4.93 5.047 5.192 5.345 5.46 5.568 5.795 6.123 6.615 7.537 8.123 8.96 9.96 10.285 10.492 10.592 10.71 10.83 10.947 11.06 11.165 11.27 11.352 11.405 11.457 11.505 11.52 11.51 11.507 11.52 11.528 11.523 11.52 11.515 11.482 11.42 11.345 11.27 11.213 11.167 11.12 11.08 11.065 11.063 11.06 11.057 11.052 11.05 11.05 11.053 11.063 11.08 11.1 11.117 11.132 11.147 11.165 11.185 11.192 11.185 11.175 11.16 11.155 11.16 11.157 11.153 11.145 11.132 11.117 11.103 11.098 11.102 11.105 11.108 11.11 11.115 11.125 11.135 11.137 11.127 11.112 11.095 11.062 11.02 10.98 10.94 10.89 10.83 10.765 10.708 10.673 10.643 10.608 10.573 10.543 10.518 10.49 10.468 10.463 10.465 10.47 10.48 10.518 10.585 10.655 10.728 10.848 11.015 11.185 11.342 11.447 11.505 11.555 11.613 11.688 11.773 11.86 11.932 11.96 11.96 11.962 11.962 11.95 11.933 11.917 11.9 11.88 11.865 11.85 11.83 11.8 11.76 11.723 11.68 11.678 11.72 11.755 11.803 11.91 12.017 12.052 12.048 12.035 12.043 12.07 12.103 12.133 12.14 12.133 12.14 12.145 12.143 12.153 12.168 12.185 12.2 12.218 12.24 12.242 12.228 12.213 12.198 12.208 12.248 12.292 12.322 12.31 12.27
4.937 4.945 4.92 4.852 4.768 4.785 4.905 4.995 5.037 5.065 5.077 5.055 5.007 4.937 4.873 4.847 4.84 4.827 4.627 4.178 3.92 3.92 3.92 3.92 4.345 4.765 4.76 4.755 4.725 4.675 4.69 4.8 4.94 5.082 5.212 5.318 5.413 5.503 5.695 5.998 6.57 7.62 8.255 9.093 10.067 10.38 10.617 10.745 10.865 10.985 11.097 11.202 11.307 11.412 11.492 11.545 11.595 11.632 11.645 11.642 11.64 11.65 11.655 11.65 11.65 11.642 11.59 11.512 11.445 11.377 11.322 11.272 11.22 11.173 11.15 11.147 11.143 11.143 11.145 11.145 11.145 11.148 11.16 11.18 11.197 11.215 11.235 11.25 11.265 11.28 11.282 11.275 11.265 11.252 11.243 11.238 11.233 11.23 11.222 11.205 11.187 11.173 11.167 11.17 11.173 11.18 11.19 11.2 11.21 11.217 11.212 11.197 11.182 11.165 11.135 11.095 11.052 11.007 10.955 10.895 10.832 10.775 10.733 10.7 10.668 10.635 10.608 10.583 10.555 10.533 10.525 10.525 10.53 10.54 10.583 10.655 10.728 10.813 10.933 11.09 11.26 11.407 11.502 11.562 11.615 11.668 11.74 11.83 11.902 11.942 11.962 11.97 11.97 11.965 11.95 11.93 11.915 11.902 11.885 11.868 11.853 11.837 11.81 11.77 11.728 11.688 11.688 11.723 11.755 11.798 11.905 12.025 12.06 12.053 12.048 12.05 12.07 12.1 12.133 12.17 12.2 12.22 12.225 12.215 12.205 12.188 12.188 12.213 12.238 12.262 12.267 12.25 12.23 12.208 12.218 12.262 12.305 12.335 12.325 12.285
4.903 4.915 4.92 4.892 4.823 4.833 4.93 5.01 5.07 5.107 5.112 5.077 5.007 4.915 4.82 4.768 4.76 4.708 4.585 4.218 3.92 3.92 3.92 3.92 4.347 4.767 4.773 4.8 4.812 4.787 4.77 4.845 4.985 5.117 5.23 5.325 5.412 5.475 5.613 5.88 6.5 7.67 8.383 9.228 10.177 10.465 10.707 10.847 10.975 11.095 11.21 11.317 11.423 11.527 11.61 11.66 11.697 11.727 11.74 11.74 11.748 11.775 11.792 11.79 11.785 11.762 11.687 11.588 11.515 11.455 11.407 11.362 11.307 11.255 11.23 11.23 11.23 11.235 11.24 11.24 11.24 11.243 11.255 11.275 11.29 11.305 11.325 11.34 11.35 11.352 11.352 11.352 11.345 11.335 11.325 11.315 11.31 11.31 11.297 11.273 11.253 11.238 11.23 11.233 11.24 11.25 11.257 11.265 11.275 11.282 11.277 11.262 11.247 11.23 11.2 11.16 11.115 11.062 11.005 10.945 10.89 10.845 10.808 10.775 10.745 10.718 10.692 10.665 10.64 10.623 10.615 10.615 10.623 10.638 10.683 10.758 10.843 10.943 11.055 11.198 11.362 11.475 11.542 11.612 11.672 11.73 11.805 11.877 11.915 11.935 11.952 11.965 11.97 11.965 11.95 11.933 11.92 11.907 11.892 11.875 11.86 11.85 11.827 11.79 11.748 11.71 11.71 11.74 11.768 11.808 11.918 12.037 12.075 12.075 12.075 12.083 12.103 12.13 12.168 12.222 12.272 12.3 12.305 12.295 12.27 12.225 12.21 12.235 12.26 12.285 12.29 12.27 12.247 12.22 12.23 12.275 12.312 12.342 12.335 12.292
4.87 4.88 4.892 4.895 4.863 4.87 4.945 5.02 5.09 5.142 5.142 5.08 4.985 4.883 4.778 4.705 4.698 4.65 4.595 4.32 3.98 3.92 3.92 3.92 4.35 4.772 4.78 4.813 4.847 4.862 4.853 4.903 5.025 5.145 5.247 5.34 5.412 5.45 5.535 5.783 6.44 7.71 8.513 9.363 10.302 10.562 10.79 10.94 11.08 11.205 11.32 11.43 11.537 11.645 11.725 11.762 11.79 11.82 11.835 11.845 11.873 11.907 11.927 11.925 11.912 11.877 11.79 11.673 11.575 11.505 11.463 11.432 11.39 11.34 11.313 11.313 11.323 11.335 11.34 11.34 11.34 11.34 11.35 11.367 11.38 11.395 11.412 11.422 11.422 11.418 11.418 11.422 11.422 11.417 11.41 11.4 11.393 11.387 11.372 11.345 11.32 11.3 11.293 11.3 11.31 11.32 11.325 11.33 11.338 11.345 11.342 11.328 11.312 11.295 11.265 11.22 11.17 11.117 11.06 11.005 10.96 10.92 10.885 10.855 10.828 10.802 10.778 10.753 10.733 10.715 10.705 10.71 10.723 10.74 10.788 10.873 10.973 11.077 11.183 11.31 11.445 11.52 11.575 11.652 11.722 11.79 11.85 11.882 11.9 11.92 11.938 11.955 11.967 11.965 11.952 11.938 11.925 11.913 11.898 11.885 11.875 11.865 11.845 11.81 11.77 11.735 11.735 11.77 11.81 11.863 11.965 12.06 12.092 12.102 12.108 12.12 12.14 12.163 12.203 12.265 12.33 12.375 12.385 12.36 12.307 12.248 12.233 12.258 12.283 12.307 12.31 12.287 12.26 12.233 12.243 12.282 12.317 12.35 12.345 12.3
4.843 4.848 4.855 4.867 4.87 4.887 4.945 5.015 5.082 5.145 5.15 5.075 4.975 4.873 4.77 4.69 4.68 4.695 4.687 4.5 4.118 3.92 3.92 3.92 4.163 4.59 4.792 4.827 4.86 4.89 4.91 4.955 5.052 5.165 5.265 5.342 5.387 5.41 5.455 5.71 6.403 7.747 8.635 9.49 10.437 10.667 10.87 11.025 11.17 11.305 11.425 11.532 11.637 11.742 11.815 11.847 11.877 11.91 11.935 11.962 11.997 12.03 12.052 12.052 12.037 11.99 11.89 11.77 11.655 11.563 11.51 11.483 11.453 11.418 11.4 11.405 11.42 11.435 11.44 11.44 11.44 11.44 11.448 11.46 11.473 11.488 11.495 11.493 11.485 11.48 11.483 11.49 11.498 11.5 11.495 11.485 11.475 11.465 11.45 11.425 11.395 11.368 11.36 11.37 11.38 11.39 11.395 11.4 11.405 11.41 11.407 11.393 11.378 11.36 11.327 11.277 11.223 11.17 11.12 11.075 11.035 10.995 10.963 10.938 10.913 10.888 10.865 10.845 10.825 10.808 10.803 10.813 10.828 10.845 10.9 11 11.105 11.21 11.315 11.425 11.51 11.55 11.605 11.688 11.773 11.842 11.878 11.893 11.908 11.925 11.943 11.96 11.975 11.973 11.958 11.943 11.93 11.92 11.908 11.898 11.89 11.882 11.865 11.832 11.795 11.76 11.77 11.822 11.88 11.942 12.017 12.077 12.108 12.128 12.143 12.163 12.185 12.208 12.25 12.313 12.38 12.44 12.447 12.395 12.33 12.273 12.26 12.288 12.313 12.332 12.327 12.3 12.27 12.243 12.25 12.285 12.317 12.345 12.337 12.3
4.83 4.82 4.813 4.822 4.837 4.855 4.885 4.94 5.005 5.07 5.1 5.07 4.995 4.895 4.798 4.728 4.72 4.762 4.78 4.645 4.22 3.92 3.92 3.92 3.948 4.383 4.805 4.832 4.86 4.887 4.912 4.965 5.067 5.185 5.275 5.325 5.35 5.37 5.393 5.66 6.37 7.785 8.745 9.605 10.567 10.77 10.947 11.097 11.242 11.387 11.51 11.61 11.71 11.812 11.882 11.917 11.952 11.985 12.02 12.055 12.087 12.12 12.142 12.147 12.142 12.1 12 11.88 11.763 11.658 11.593 11.563 11.535 11.51 11.505 11.515 11.53 11.545 11.55 11.55 11.55 11.56 11.565 11.565 11.578 11.592 11.595 11.585 11.575 11.568 11.57 11.583 11.593 11.59 11.58 11.57 11.56 11.553 11.54 11.515 11.485 11.458 11.438 11.435 11.445 11.455 11.462 11.47 11.475 11.48 11.475 11.46 11.445 11.417 11.38 11.335 11.283 11.23 11.183 11.142 11.105 11.07 11.048 11.027 11.003 10.978 10.965 10.955 10.938 10.923 10.92 10.93 10.945 10.955 11.008 11.115 11.22 11.322 11.427 11.522 11.58 11.608 11.66 11.748 11.845 11.92 11.958 11.978 11.993 12.008 12.023 12.038 12.043 12.023 11.99 11.97 11.96 11.948 11.93 11.918 11.91 11.902 11.885 11.855 11.82 11.79 11.808 11.862 11.92 11.98 12.042 12.1 12.14 12.165 12.19 12.22 12.245 12.275 12.325 12.385 12.435 12.472 12.462 12.402 12.338 12.298 12.305 12.333 12.355 12.357 12.335 12.305 12.275 12.25 12.255 12.285 12.315 12.325 12.305 12.277
4.83 4.797 4.763 4.768 4.782 4.793 4.8 4.825 4.878 4.942 4.99 5.01 4.995 4.925 4.838 4.79 4.78 4.825 4.862 4.735 4.268 3.92 3.92 3.92 3.92 4.353 4.795 4.815 4.837 4.86 4.885 4.95 5.068 5.202 5.288 5.32 5.348 5.373 5.485 5.835 6.428 7.81 8.842 9.71 10.675 10.852 11.015 11.163 11.31 11.462 11.585 11.678 11.775 11.877 11.945 11.98 12.015 12.045 12.08 12.117 12.152 12.185 12.205 12.212 12.215 12.19 12.115 12.007 11.893 11.793 11.723 11.68 11.653 11.63 11.625 11.635 11.648 11.662 11.67 11.67 11.678 11.71 11.72 11.698 11.695 11.707 11.71 11.7 11.693 11.685 11.685 11.697 11.7 11.685 11.67 11.663 11.655 11.65 11.637 11.61 11.583 11.56 11.533 11.51 11.51 11.52 11.53 11.537 11.542 11.547 11.542 11.527 11.502 11.462 11.425 11.39 11.345 11.295 11.248 11.208 11.175 11.15 11.135 11.12 11.1 11.075 11.07 11.077 11.07 11.055 11.05 11.062 11.067 11.058 11.103 11.21 11.317 11.42 11.525 11.61 11.66 11.693 11.745 11.835 11.935 12.02 12.075 12.107 12.13 12.145 12.16 12.17 12.152 12.11 12.063 12.028 12.01 11.995 11.97 11.948 11.938 11.93 11.91 11.878 11.848 11.83 11.843 11.883 11.93 11.985 12.05 12.122 12.18 12.212 12.245 12.282 12.313 12.352 12.397 12.43 12.45 12.46 12.447 12.4 12.348 12.338 12.362 12.385 12.39 12.367 12.335 12.305 12.278 12.26 12.263 12.285 12.305 12.295 12.268 12.242
4.815 4.757 4.708 4.71 4.727 4.74 4.745 4.748 4.768 4.815 4.86 4.89 4.917 4.912 4.867 4.825 4.79 4.805 4.865 4.8 4.348 3.953 3.92 3.92 3.92 4.342 4.77 4.785 4.805 4.828 4.86 4.938 5.078 5.252 5.357 5.385 5.413 5.48 5.713 6.092 6.498 7.8 8.912 9.823 10.78 10.923 11.08 11.23 11.383 11.537 11.662 11.755 11.845 11.94 12.005 12.038 12.07 12.1 12.135 12.177 12.217 12.25 12.27 12.275 12.272 12.257 12.207 12.122 12.028 11.945 11.875 11.81 11.77 11.75 11.745 11.755 11.765 11.78 11.79 11.793 11.818 11.87 11.887 11.855 11.828 11.825 11.825 11.815 11.81 11.805 11.805 11.807 11.795 11.778 11.765 11.758 11.753 11.75 11.735 11.708 11.683 11.66 11.635 11.605 11.585 11.585 11.595 11.602 11.61 11.615 11.607 11.585 11.545 11.5 11.465 11.435 11.4 11.357 11.313 11.275 11.25 11.23 11.215 11.205 11.192 11.173 11.17 11.185 11.192 11.185 11.18 11.185 11.172 11.153 11.198 11.303 11.41 11.517 11.622 11.697 11.74 11.778 11.833 11.923 12.025 12.117 12.18 12.22 12.257 12.282 12.297 12.29 12.25 12.2 12.15 12.103 12.068 12.045 12.02 11.99 11.968 11.957 11.94 11.913 11.893 11.88 11.888 11.92 11.953 12.045 12.133 12.158 12.208 12.258 12.295 12.338 12.375 12.403 12.415 12.418 12.425 12.435 12.435 12.405 12.38 12.393 12.415 12.422 12.4 12.365 12.335 12.305 12.283 12.27 12.265 12.277 12.282 12.26 12.232 12.205
4.782 4.703 4.65 4.65 4.67 4.688 4.695 4.695 4.695 4.713 4.748 4.785 4.825 4.865 4.855 4.792 4.733 4.72 4.77 4.745 4.48 4.098 3.92 3.92 3.92 4.237 4.655 4.76 4.775 4.802 4.838 4.935 5.115 5.32 5.457 5.5 5.52 5.61 5.858 6.195 6.53 7.807 8.965 9.942 10.917 11.02 11.153 11.3 11.455 11.61 11.735 11.83 11.918 12.005 12.065 12.095 12.125 12.155 12.19 12.233 12.275 12.315 12.337 12.335 12.33 12.325 12.287 12.223 12.16 12.097 12.03 11.958 11.9 11.87 11.865 11.875 11.885 11.898 11.908 11.925 11.97 12.03 12.052 12.025 11.985 11.958 11.945 11.935 11.93 11.925 11.92 11.91 11.89 11.875 11.865 11.855 11.85 11.85 11.835 11.81 11.787 11.762 11.735 11.705 11.675 11.655 11.655 11.665 11.675 11.682 11.667 11.63 11.585 11.54 11.505 11.475 11.445 11.412 11.38 11.355 11.333 11.31 11.298 11.29 11.28 11.27 11.273 11.288 11.302 11.307 11.305 11.292 11.268 11.245 11.29 11.397 11.502 11.61 11.712 11.78 11.82 11.86 11.918 12.01 12.115 12.212 12.28 12.32 12.365 12.405 12.417 12.39 12.34 12.29 12.24 12.19 12.142 12.103 12.073 12.045 12.013 11.99 11.975 11.96 11.947 11.933 11.93 11.948 11.995 12.175 12.307 12.288 12.295 12.318 12.35 12.403 12.452 12.468 12.453 12.445 12.443 12.44 12.435 12.425 12.43 12.45 12.455 12.435 12.4 12.365 12.333 12.305 12.29 12.28 12.27 12.265 12.253 12.225 12.195 12.175
4.767 4.678 4.62 4.623 4.648 4.67 4.68 4.68 4.685 4.7 4.71 4.733 4.78 4.83 4.82 4.743 4.665 4.638 4.633 4.603 4.552 4.22 3.92 3.92 3.92 4.04 4.455 4.75 4.745 4.755 4.803 4.928 5.12 5.322 5.502 5.605 5.643 5.705 5.925 6.265 6.6 7.852 9.017 10.04 11.052 11.148 11.243 11.385 11.538 11.687 11.812 11.91 12 12.087 12.142 12.17 12.2 12.23 12.265 12.305 12.345 12.38 12.4 12.4 12.395 12.395 12.38 12.34 12.29 12.235 12.172 12.105 12.04 11.995 11.985 11.995 12.005 12.018 12.03 12.06 12.112 12.165 12.192 12.172 12.127 12.083 12.06 12.055 12.047 12.042 12.032 12.018 12 11.983 11.97 11.96 11.955 11.955 11.94 11.915 11.892 11.868 11.84 11.81 11.78 11.748 11.735 11.745 11.755 11.757 11.73 11.683 11.635 11.59 11.555 11.525 11.495 11.465 11.455 11.45 11.428 11.405 11.393 11.385 11.378 11.375 11.383 11.398 11.41 11.425 11.427 11.408 11.38 11.353 11.385 11.483 11.587 11.695 11.792 11.857 11.9 11.94 11.998 12.088 12.192 12.292 12.365 12.41 12.452 12.495 12.497 12.455 12.405 12.355 12.305 12.257 12.21 12.168 12.133 12.098 12.063 12.033 12.015 12.005 11.995 11.983 11.993 12.02 12.095 12.295 12.435 12.432 12.415 12.4 12.423 12.48 12.54 12.565 12.553 12.538 12.523 12.505 12.483 12.485 12.51 12.527 12.513 12.468 12.423 12.38 12.345 12.33 12.328 12.323 12.318 12.285 12.24 12.21 12.185 12.188
4.77 4.69 4.635 4.64 4.665 4.69 4.7 4.705 4.723 4.752 4.75 4.733 4.753 4.795 4.79 4.712 4.62 4.575 4.568 4.588 4.585 4.238 3.92 3.92 3.92 3.933 4.355 4.775 4.745 4.7 4.758 4.903 5.083 5.28 5.482 5.655 5.752 5.803 5.993 6.332 6.67 7.897 9.06 10.11 11.17 11.28 11.345 11.485 11.632 11.772 11.895 11.997 12.09 12.18 12.235 12.26 12.29 12.318 12.35 12.39 12.422 12.437 12.45 12.462 12.465 12.465 12.465 12.452 12.417 12.365 12.305 12.243 12.185 12.153 12.15 12.163 12.167 12.162 12.155 12.16 12.195 12.242 12.275 12.272 12.237 12.19 12.168 12.167 12.162 12.157 12.147 12.135 12.12 12.1 12.085 12.073 12.065 12.062 12.047 12.025 12 11.975 11.95 11.917 11.882 11.848 11.835 11.845 11.847 11.835 11.8 11.75 11.7 11.653 11.615 11.585 11.555 11.528 11.528 11.54 11.532 11.513 11.498 11.49 11.488 11.49 11.498 11.513 11.528 11.55 11.555 11.532 11.505 11.475 11.493 11.568 11.665 11.775 11.867 11.93 11.975 12.015 12.073 12.158 12.258 12.357 12.432 12.482 12.527 12.565 12.55 12.493 12.443 12.395 12.345 12.298 12.26 12.237 12.205 12.155 12.113 12.08 12.06 12.05 12.037 12.023 12.048 12.127 12.235 12.382 12.485 12.505 12.502 12.49 12.51 12.563 12.62 12.657 12.657 12.642 12.622 12.59 12.56 12.57 12.602 12.62 12.6 12.548 12.492 12.43 12.393 12.4 12.41 12.413 12.405 12.345 12.268 12.225 12.21 12.233
4.765 4.71 4.67 4.675 4.69 4.713 4.728 4.743 4.773 4.807 4.807 4.775 4.758 4.77 4.762 4.695 4.628 4.6 4.628 4.685 4.647 4.263 3.93 3.92 3.92 3.92 4.358 4.827 4.79 4.693 4.735 4.885 5.05 5.235 5.438 5.64 5.81 5.903 6.075 6.398 6.738 7.945 9.09 10.168 11.285 11.407 11.448 11.582 11.722 11.855 11.972 12.077 12.177 12.27 12.325 12.35 12.377 12.403 12.435 12.465 12.48 12.485 12.495 12.515 12.53 12.535 12.535 12.537 12.53 12.492 12.435 12.388 12.362 12.357 12.357 12.352 12.335 12.302 12.27 12.248 12.25 12.285 12.32 12.332 12.327 12.297 12.275 12.275 12.275 12.272 12.262 12.25 12.237 12.22 12.205 12.19 12.178 12.17 12.155 12.132 12.107 12.082 12.055 12.02 11.98 11.945 11.933 11.935 11.927 11.91 11.872 11.82 11.768 11.718 11.678 11.645 11.615 11.593 11.595 11.615 11.627 11.617 11.603 11.6 11.602 11.605 11.613 11.632 11.655 11.68 11.685 11.66 11.63 11.6 11.613 11.675 11.755 11.855 11.942 12 12.045 12.088 12.15 12.235 12.328 12.422 12.497 12.55 12.6 12.63 12.6 12.535 12.48 12.432 12.385 12.345 12.325 12.315 12.285 12.233 12.18 12.135 12.108 12.093 12.075 12.055 12.073 12.195 12.357 12.467 12.525 12.555 12.575 12.578 12.6 12.65 12.702 12.75 12.762 12.74 12.702 12.653 12.628 12.65 12.687 12.712 12.692 12.635 12.567 12.488 12.455 12.48 12.502 12.515 12.492 12.415 12.323 12.255 12.243 12.28
4.76 4.73 4.715 4.725 4.735 4.745 4.76 4.785 4.82 4.855 4.862 4.837 4.805 4.785 4.763 4.725 4.705 4.7 4.715 4.747 4.69 4.4 4.05 3.92 3.92 3.92 4.355 4.845 4.82 4.715 4.755 4.893 5.035 5.198 5.393 5.595 5.797 5.967 6.163 6.46 6.803 7.992 9.087 10.193 11.387 11.522 11.545 11.667 11.8 11.93 12.047 12.152 12.257 12.355 12.41 12.435 12.46 12.485 12.51 12.522 12.53 12.535 12.545 12.565 12.585 12.597 12.602 12.607 12.61 12.597 12.565 12.535 12.52 12.507 12.5 12.492 12.462 12.418 12.383 12.36 12.343 12.343 12.36 12.375 12.387 12.387 12.38 12.38 12.38 12.382 12.377 12.362 12.35 12.335 12.32 12.307 12.295 12.282 12.265 12.24 12.212 12.187 12.157 12.12 12.08 12.045 12.025 12.013 12 11.985 11.947 11.893 11.838 11.788 11.745 11.708 11.673 11.653 11.66 11.682 11.705 11.715 11.712 11.712 11.715 11.715 11.725 11.75 11.777 11.805 11.807 11.78 11.75 11.723 11.735 11.795 11.865 11.945 12.017 12.07 12.118 12.168 12.238 12.323 12.408 12.493 12.563 12.618 12.672 12.69 12.647 12.583 12.52 12.47 12.435 12.415 12.405 12.395 12.365 12.315 12.26 12.208 12.18 12.158 12.125 12.095 12.1 12.23 12.43 12.537 12.57 12.6 12.63 12.652 12.682 12.732 12.785 12.837 12.852 12.815 12.762 12.708 12.695 12.73 12.77 12.797 12.77 12.697 12.617 12.538 12.515 12.545 12.575 12.6 12.567 12.475 12.375 12.293 12.283 12.33
4.81 4.79 4.788 4.803 4.81 4.798 4.793 4.815 4.847 4.88 4.905 4.9 4.87 4.838 4.803 4.78 4.775 4.77 4.765 4.757 4.702 4.56 4.192 3.92 3.92 3.92 4.228 4.705 4.81 4.738 4.795 4.925 5.055 5.2 5.383 5.588 5.795 6.005 6.213 6.388 6.618 7.902 9.032 10.168 11.437 11.567 11.618 11.74 11.87 11.997 12.115 12.222 12.325 12.415 12.467 12.492 12.517 12.542 12.557 12.565 12.572 12.58 12.59 12.602 12.62 12.637 12.647 12.65 12.652 12.655 12.647 12.627 12.6 12.57 12.568 12.597 12.592 12.545 12.505 12.477 12.455 12.435 12.425 12.433 12.448 12.462 12.47 12.47 12.47 12.472 12.475 12.467 12.452 12.437 12.425 12.412 12.4 12.39 12.37 12.34 12.312 12.287 12.255 12.217 12.18 12.145 12.123 12.105 12.09 12.072 12.032 11.978 11.923 11.87 11.825 11.785 11.743 11.713 11.713 11.732 11.755 11.775 11.785 11.785 11.785 11.792 11.807 11.83 11.857 11.885 11.885 11.855 11.828 11.82 11.853 11.915 11.985 12.047 12.098 12.145 12.2 12.268 12.35 12.438 12.52 12.598 12.663 12.718 12.76 12.752 12.697 12.63 12.568 12.525 12.505 12.495 12.485 12.475 12.447 12.397 12.343 12.303 12.297 12.282 12.24 12.2 12.185 12.27 12.452 12.585 12.63 12.66 12.69 12.717 12.743 12.778 12.827 12.882 12.897 12.86 12.805 12.76 12.765 12.802 12.837 12.847 12.802 12.725 12.643 12.578 12.573 12.605 12.632 12.635 12.58 12.485 12.38 12.31 12.32 12.37
4.91 4.89 4.885 4.892 4.882 4.85 4.83 4.838 4.86 4.89 4.925 4.947 4.935 4.902 4.863 4.825 4.805 4.797 4.785 4.745 4.697 4.612 4.233 3.92 3.92 3.92 4.015 4.465 4.785 4.76 4.835 4.965 5.108 5.268 5.453 5.66 5.873 6.09 6.297 6.395 6.468 7.79 8.952 10.123 11.452 11.57 11.68 11.807 11.935 12.062 12.18 12.285 12.377 12.455 12.502 12.528 12.555 12.58 12.595 12.602 12.61 12.625 12.632 12.633 12.645 12.662 12.672 12.675 12.677 12.68 12.677 12.667 12.647 12.62 12.625 12.682 12.715 12.682 12.63 12.593 12.57 12.55 12.53 12.52 12.525 12.54 12.55 12.55 12.55 12.55 12.552 12.555 12.547 12.533 12.52 12.508 12.498 12.492 12.472 12.438 12.408 12.382 12.35 12.313 12.28 12.25 12.23 12.215 12.195 12.17 12.127 12.075 12.017 11.958 11.91 11.87 11.828 11.788 11.768 11.773 11.79 11.81 11.817 11.818 11.828 11.848 11.865 11.88 11.903 11.927 11.925 11.898 11.893 11.923 11.975 12.04 12.107 12.15 12.183 12.233 12.303 12.393 12.485 12.575 12.657 12.73 12.795 12.84 12.845 12.81 12.75 12.683 12.635 12.613 12.595 12.578 12.565 12.555 12.53 12.48 12.433 12.41 12.42 12.43 12.402 12.363 12.348 12.38 12.485 12.625 12.7 12.728 12.757 12.78 12.795 12.81 12.84 12.887 12.915 12.887 12.843 12.82 12.833 12.865 12.877 12.855 12.805 12.733 12.658 12.618 12.628 12.66 12.66 12.61 12.535 12.447 12.35 12.313 12.342 12.375
5.005 4.987 4.98 4.965 4.93 4.893 4.875 4.873 4.878 4.903 4.937 4.97 4.985 4.967 4.927 4.883 4.845 4.825 4.802 4.748 4.69 4.622 4.248 3.92 3.92 3.92 3.92 4.345 4.762 4.783 4.883 5.03 5.195 5.375 5.567 5.775 5.99 6.21 6.43 6.6 6.651 7.792 8.823 10.068 11.489 11.613 11.745 11.872 12 12.127 12.242 12.335 12.415 12.49 12.537 12.565 12.592 12.617 12.632 12.64 12.655 12.675 12.68 12.675 12.678 12.688 12.697 12.7 12.7 12.702 12.702 12.697 12.687 12.665 12.68 12.75 12.815 12.815 12.758 12.71 12.685 12.665 12.645 12.628 12.618 12.62 12.627 12.63 12.63 12.63 12.63 12.632 12.635 12.627 12.615 12.607 12.605 12.6 12.577 12.54 12.505 12.477 12.447 12.413 12.383 12.358 12.337 12.32 12.295 12.265 12.225 12.17 12.107 12.045 11.995 11.953 11.91 11.87 11.84 11.83 11.833 11.845 11.853 11.86 11.885 11.91 11.925 11.935 11.95 11.97 11.97 11.968 12 12.05 12.103 12.165 12.217 12.238 12.27 12.338 12.425 12.525 12.622 12.712 12.792 12.865 12.92 12.932 12.905 12.86 12.803 12.748 12.723 12.717 12.7 12.673 12.65 12.635 12.61 12.57 12.538 12.523 12.535 12.562 12.557 12.533 12.535 12.555 12.593 12.685 12.767 12.798 12.82 12.84 12.855 12.865 12.88 12.908 12.935 12.923 12.898 12.89 12.897 12.907 12.885 12.847 12.805 12.743 12.693 12.675 12.682 12.685 12.637 12.563 12.487 12.405 12.33 12.313 12.332 12.343
5.085 5.065 5.042 5.01 4.972 4.938 4.92 4.918 4.915 4.925 4.95 4.98 5.012 5.022 4.992 4.947 4.902 4.865 4.822 4.76 4.688 4.625 4.345 4.005 3.92 3.92 3.92 4.335 4.752 4.803 4.927 5.087 5.252 5.417 5.632 5.882 6.11 6.33 6.55 6.762 6.87 7.817 8.648 10 11.544 11.685 11.81 11.937 12.065 12.19 12.292 12.37 12.445 12.52 12.572 12.602 12.627 12.652 12.67 12.685 12.705 12.722 12.727 12.722 12.718 12.72 12.725 12.725 12.725 12.728 12.728 12.723 12.718 12.708 12.735 12.81 12.89 12.922 12.887 12.835 12.8 12.78 12.76 12.742 12.722 12.702 12.7 12.705 12.707 12.71 12.71 12.707 12.707 12.707 12.702 12.7 12.697 12.692 12.672 12.635 12.6 12.57 12.54 12.512 12.485 12.46 12.437 12.415 12.39 12.36 12.317 12.257 12.195 12.135 12.083 12.035 11.99 11.948 11.918 11.903 11.89 11.888 11.898 11.918 11.945 11.972 11.987 11.995 12.005 12.018 12.038 12.077 12.13 12.18 12.23 12.28 12.305 12.318 12.373 12.462 12.56 12.66 12.757 12.847 12.927 12.995 13.02 12.995 12.955 12.91 12.86 12.828 12.82 12.82 12.805 12.778 12.75 12.725 12.7 12.675 12.65 12.635 12.65 12.68 12.695 12.702 12.72 12.742 12.765 12.802 12.852 12.88 12.893 12.908 12.923 12.935 12.948 12.96 12.975 12.975 12.965 12.96 12.947 12.92 12.88 12.845 12.808 12.768 12.745 12.735 12.717 12.667 12.593 12.515 12.44 12.378 12.343 12.333 12.328 12.323
5.132 5.1 5.062 5.03 4.997 4.975 4.97 4.97 4.97 4.97 4.985 5.015 5.045 5.06 5.012 4.942 4.892 4.845 4.802 4.755 4.692 4.627 4.492 4.153 3.92 3.92 3.92 4.225 4.645 4.797 4.88 4.997 5.145 5.308 5.56 5.87 6.15 6.42 6.667 6.89 7.07 7.857 8.47 9.928 11.614 11.752 11.845 11.985 12.11 12.232 12.322 12.392 12.467 12.542 12.597 12.627 12.655 12.68 12.7 12.72 12.74 12.755 12.767 12.77 12.765 12.763 12.76 12.76 12.76 12.763 12.767 12.765 12.76 12.758 12.788 12.858 12.935 12.982 12.967 12.917 12.872 12.845 12.822 12.797 12.772 12.75 12.742 12.747 12.752 12.755 12.755 12.752 12.75 12.752 12.755 12.755 12.752 12.752 12.737 12.702 12.667 12.635 12.605 12.58 12.557 12.542 12.52 12.487 12.46 12.43 12.385 12.325 12.265 12.212 12.165 12.115 12.07 12.023 11.99 11.975 11.96 11.948 11.955 11.982 12.007 12.03 12.045 12.055 12.065 12.075 12.103 12.155 12.212 12.267 12.322 12.372 12.392 12.405 12.47 12.57 12.667 12.765 12.86 12.945 13.025 13.085 13.085 13.045 13.007 12.965 12.93 12.928 12.943 12.958 12.933 12.888 12.86 12.83 12.805 12.785 12.763 12.75 12.763 12.79 12.805 12.81 12.827 12.855 12.882 12.905 12.93 12.962 12.982 12.993 13.008 13.02 13.033 13.045 13.053 13.048 13.038 13.03 12.995 12.938 12.89 12.853 12.82 12.803 12.795 12.785 12.74 12.66 12.58 12.5 12.425 12.393 12.398 12.395 12.38 12.365
5.152 5.105 5.065 5.035 5.013 5.015 5.025 5.027 5.03 5.028 5.04 5.07 5.09 5.09 4.982 4.853 4.797 4.753 4.725 4.7 4.662 4.617 4.557 4.22 3.92 3.92 3.92 4.018 4.442 4.785 4.818 4.878 4.968 5.123 5.403 5.735 6.055 6.375 6.67 6.94 7.203 7.857 8.29 9.838 11.617 11.737 11.82 11.997 12.137 12.255 12.342 12.41 12.48 12.555 12.612 12.645 12.675 12.7 12.72 12.74 12.757 12.77 12.79 12.81 12.815 12.81 12.805 12.805 12.805 12.808 12.815 12.82 12.82 12.815 12.838 12.898 12.967 13.017 13.005 12.95 12.89 12.848 12.822 12.795 12.773 12.763 12.76 12.763 12.765 12.768 12.77 12.77 12.773 12.78 12.785 12.785 12.788 12.795 12.782 12.747 12.712 12.678 12.648 12.625 12.613 12.615 12.595 12.55 12.513 12.48 12.437 12.38 12.325 12.283 12.242 12.195 12.145 12.093 12.058 12.042 12.028 12.013 12.018 12.045 12.067 12.075 12.087 12.11 12.125 12.135 12.155 12.193 12.245 12.305 12.365 12.425 12.472 12.495 12.548 12.645 12.74 12.835 12.925 12.997 13.072 13.132 13.132 13.095 13.06 13.043 13.058 13.088 13.115 13.145 13.107 13.02 12.97 12.94 12.915 12.895 12.875 12.865 12.877 12.895 12.887 12.865 12.868 12.895 12.922 12.947 12.973 13.02 13.067 13.087 13.1 13.113 13.127 13.14 13.145 13.132 13.113 13.102 13.062 12.983 12.915 12.87 12.843 12.838 12.837 12.83 12.777 12.685 12.598 12.515 12.453 12.445 12.467 12.472 12.46 12.445
5.162 5.11 5.068 5.048 5.05 5.065 5.075 5.08 5.085 5.082 5.092 5.112 5.12 5.115 4.97 4.773 4.693 4.658 4.635 4.61 4.585 4.565 4.537 4.22 3.92 3.92 3.92 3.92 4.263 4.697 4.81 4.85 4.905 5.02 5.26 5.583 5.905 6.222 6.537 6.855 7.17 7.757 8.121 9.72 11.497 11.638 11.773 11.972 12.147 12.277 12.365 12.43 12.495 12.567 12.625 12.66 12.692 12.72 12.74 12.757 12.772 12.785 12.803 12.83 12.852 12.857 12.855 12.853 12.85 12.853 12.86 12.87 12.877 12.875 12.895 12.948 13.007 13.055 13.04 12.975 12.905 12.85 12.82 12.8 12.785 12.78 12.78 12.78 12.78 12.783 12.788 12.793 12.8 12.81 12.815 12.818 12.825 12.835 12.825 12.79 12.755 12.72 12.693 12.683 12.685 12.695 12.675 12.625 12.575 12.535 12.492 12.44 12.398 12.36 12.32 12.272 12.215 12.16 12.125 12.11 12.095 12.078 12.083 12.102 12.112 12.11 12.12 12.152 12.18 12.195 12.213 12.24 12.278 12.33 12.392 12.455 12.517 12.567 12.62 12.708 12.807 12.9 12.98 13.045 13.113 13.172 13.177 13.15 13.138 13.15 13.202 13.262 13.31 13.347 13.305 13.195 13.105 13.053 13.025 13.005 12.988 12.978 12.987 12.987 12.96 12.93 12.918 12.933 12.958 12.983 13.008 13.058 13.127 13.175 13.195 13.207 13.222 13.235 13.235 13.217 13.193 13.177 13.132 13.043 12.955 12.893 12.868 12.87 12.877 12.875 12.82 12.718 12.618 12.53 12.49 12.505 12.53 12.545 12.54 12.505
5.165 5.115 5.083 5.085 5.103 5.118 5.128 5.132 5.137 5.125 5.117 5.125 5.127 5.127 4.985 4.728 4.595 4.575 4.565 4.555 4.545 4.535 4.53 4.275 3.97 3.92 3.92 3.92 4.05 4.475 4.79 4.845 4.94 5.05 5.188 5.435 5.755 6.07 6.385 6.708 7.063 7.607 7.956 9.477 11.237 11.555 11.74 11.94 12.135 12.292 12.387 12.453 12.518 12.583 12.635 12.673 12.708 12.74 12.763 12.775 12.788 12.8 12.818 12.845 12.875 12.898 12.905 12.903 12.9 12.9 12.905 12.915 12.925 12.93 12.955 13.005 13.057 13.095 13.067 12.995 12.925 12.86 12.823 12.813 12.805 12.8 12.8 12.803 12.808 12.81 12.815 12.825 12.833 12.84 12.848 12.855 12.865 12.875 12.865 12.83 12.792 12.76 12.745 12.752 12.765 12.777 12.757 12.705 12.65 12.597 12.55 12.505 12.47 12.435 12.392 12.34 12.28 12.228 12.195 12.178 12.163 12.145 12.14 12.145 12.143 12.138 12.15 12.185 12.22 12.245 12.268 12.295 12.325 12.363 12.42 12.488 12.55 12.615 12.68 12.765 12.873 12.96 13.03 13.095 13.16 13.217 13.235 13.233 13.242 13.257 13.302 13.377 13.452 13.51 13.48 13.377 13.275 13.192 13.145 13.12 13.102 13.09 13.085 13.067 13.032 13 12.975 12.973 12.993 13.018 13.043 13.09 13.168 13.245 13.285 13.297 13.312 13.322 13.315 13.295 13.272 13.252 13.197 13.105 13.01 12.928 12.898 12.905 12.915 12.915 12.86 12.758 12.653 12.563 12.538 12.565 12.592 12.607 12.585 12.512
5.17 5.12 5.108 5.135 5.16 5.175 5.185 5.182 5.16 5.112 5.085 5.095 5.102 5.107 4.97 4.695 4.55 4.55 4.563 4.568 4.57 4.573 4.567 4.417 4.098 3.92 3.92 3.92 3.92 4.288 4.737 4.883 5.015 5.142 5.228 5.348 5.603 5.92 6.238 6.598 7.02 7.507 7.845 8.86 10.607 11.522 11.737 11.953 12.175 12.347 12.435 12.498 12.563 12.623 12.668 12.705 12.743 12.778 12.808 12.825 12.835 12.845 12.865 12.898 12.93 12.96 12.975 12.975 12.97 12.96 12.96 12.97 12.98 12.993 13.015 13.055 13.105 13.137 13.107 13.033 12.96 12.895 12.863 12.858 12.853 12.843 12.838 12.843 12.85 12.858 12.863 12.87 12.878 12.883 12.885 12.888 12.895 12.905 12.895 12.862 12.825 12.795 12.79 12.805 12.822 12.835 12.815 12.762 12.705 12.645 12.597 12.56 12.522 12.487 12.442 12.385 12.328 12.285 12.265 12.25 12.233 12.218 12.203 12.193 12.188 12.185 12.2 12.233 12.265 12.298 12.335 12.37 12.4 12.433 12.483 12.55 12.618 12.683 12.755 12.85 12.955 13.038 13.103 13.168 13.232 13.275 13.295 13.31 13.32 13.328 13.368 13.445 13.52 13.58 13.56 13.467 13.375 13.285 13.222 13.197 13.182 13.162 13.142 13.12 13.085 13.05 13.02 13.023 13.05 13.073 13.093 13.135 13.215 13.307 13.362 13.38 13.39 13.382 13.365 13.345 13.322 13.295 13.235 13.142 13.048 12.975 12.955 12.965 12.972 12.96 12.907 12.82 12.715 12.625 12.605 12.635 12.657 12.64 12.575 12.487
5.175 5.128 5.125 5.167 5.207 5.23 5.22 5.18 5.12 5.05 5.023 5.04 5.055 5.06 4.922 4.675 4.525 4.52 4.582 4.61 4.612 4.617 4.597 4.522 4.195 3.92 3.92 3.92 3.92 4.078 4.555 4.955 5.105 5.235 5.322 5.378 5.51 5.775 6.133 6.565 7.03 7.487 7.83 8.251 9.643 11.164 11.722 12.012 12.287 12.435 12.505 12.565 12.625 12.68 12.722 12.76 12.797 12.832 12.867 12.897 12.915 12.925 12.945 12.98 13.017 13.05 13.062 13.057 13.045 13.03 13.03 13.04 13.053 13.07 13.085 13.108 13.148 13.182 13.16 13.088 13.02 12.965 12.938 12.932 12.922 12.9 12.89 12.897 12.903 12.91 12.917 12.923 12.93 12.935 12.93 12.923 12.923 12.93 12.92 12.89 12.855 12.825 12.82 12.835 12.852 12.86 12.84 12.795 12.74 12.68 12.633 12.597 12.56 12.522 12.477 12.423 12.375 12.345 12.332 12.322 12.307 12.292 12.278 12.263 12.255 12.253 12.268 12.3 12.33 12.363 12.407 12.455 12.49 12.525 12.578 12.643 12.71 12.778 12.858 12.955 13.052 13.137 13.205 13.265 13.312 13.33 13.34 13.355 13.365 13.373 13.415 13.492 13.552 13.592 13.57 13.485 13.395 13.308 13.25 13.23 13.212 13.177 13.15 13.137 13.11 13.075 13.045 13.065 13.125 13.16 13.178 13.218 13.288 13.375 13.437 13.452 13.442 13.415 13.39 13.367 13.34 13.305 13.247 13.16 13.08 13.04 13.035 13.042 13.032 12.995 12.947 12.887 12.797 12.708 12.685 12.707 12.695 12.63 12.545 12.462
5.183 5.138 5.14 5.185 5.217 5.23 5.197 5.123 5.05 4.983 4.96 4.98 5 5.007 4.89 4.675 4.49 4.44 4.525 4.6 4.642 4.657 4.622 4.552 4.218 3.92 3.92 3.92 3.92 3.92 4.41 4.995 5.175 5.325 5.42 5.477 5.54 5.733 6.123 6.593 7.067 7.517 7.85 8.09 8.736 9.945 11.207 11.984 12.312 12.492 12.572 12.627 12.682 12.735 12.777 12.815 12.85 12.885 12.92 12.955 12.987 13.005 13.025 13.06 13.1 13.135 13.145 13.132 13.115 13.098 13.095 13.11 13.132 13.152 13.168 13.183 13.203 13.232 13.215 13.15 13.095 13.045 13.015 13.002 12.98 12.95 12.94 12.95 12.957 12.963 12.97 12.975 12.978 12.982 12.98 12.97 12.96 12.96 12.95 12.917 12.883 12.855 12.85 12.862 12.872 12.877 12.86 12.817 12.77 12.717 12.67 12.633 12.597 12.56 12.515 12.47 12.438 12.413 12.395 12.387 12.38 12.367 12.352 12.337 12.325 12.318 12.333 12.365 12.397 12.43 12.473 12.527 12.577 12.62 12.673 12.738 12.803 12.87 12.955 13.052 13.147 13.237 13.307 13.347 13.362 13.368 13.378 13.392 13.407 13.42 13.463 13.525 13.565 13.595 13.58 13.505 13.418 13.335 13.283 13.255 13.217 13.17 13.14 13.135 13.122 13.095 13.07 13.1 13.18 13.245 13.282 13.325 13.385 13.455 13.505 13.502 13.472 13.44 13.413 13.382 13.348 13.31 13.257 13.188 13.14 13.12 13.112 13.105 13.07 13.02 12.975 12.93 12.867 12.79 12.757 12.745 12.685 12.6 12.515 12.437
5.198 5.15 5.143 5.16 5.165 5.163 5.14 5.073 4.99 4.918 4.895 4.915 4.935 4.937 4.845 4.672 4.485 4.375 4.415 4.515 4.617 4.672 4.64 4.567 4.225 3.92 3.92 3.92 3.92 3.92 4.393 4.972 5.18 5.367 5.482 5.535 5.6 5.788 6.17 6.64 7.112 7.55 7.867 8.115 8.378 8.893 9.868 10.98 11.869 12.357 12.552 12.66 12.722 12.782 12.827 12.865 12.9 12.935 12.972 13.007 13.045 13.075 13.1 13.132 13.165 13.21 13.23 13.208 13.185 13.165 13.165 13.188 13.215 13.237 13.252 13.265 13.275 13.292 13.275 13.22 13.172 13.125 13.09 13.063 13.03 13 12.99 13 13.01 13.02 13.025 13.025 13.025 13.027 13.025 13.015 13.003 12.995 12.98 12.945 12.91 12.883 12.875 12.883 12.888 12.892 12.875 12.833 12.79 12.748 12.708 12.67 12.633 12.598 12.56 12.528 12.502 12.477 12.457 12.45 12.445 12.435 12.422 12.41 12.395 12.383 12.395 12.425 12.46 12.495 12.54 12.6 12.658 12.713 12.773 12.84 12.908 12.973 13.048 13.14 13.235 13.327 13.387 13.4 13.4 13.405 13.415 13.43 13.447 13.463 13.495 13.538 13.57 13.6 13.592 13.525 13.44 13.36 13.302 13.26 13.21 13.16 13.13 13.123 13.118 13.108 13.1 13.14 13.22 13.3 13.365 13.417 13.472 13.527 13.557 13.54 13.503 13.47 13.438 13.4 13.36 13.323 13.28 13.238 13.213 13.197 13.18 13.147 13.1 13.05 13.003 12.957 12.91 12.852 12.797 12.735 12.655 12.57 12.485 12.407
5.207 5.155 5.133 5.125 5.12 5.12 5.1 5.037 4.95 4.868 4.83 4.84 4.857 4.847 4.757 4.612 4.452 4.315 4.335 4.475 4.63 4.705 4.655 4.58 4.298 3.985 3.92 3.92 3.92 3.92 4.37 4.94 5.208 5.412 5.492 5.55 5.645 5.848 6.223 6.69 7.16 7.58 7.898 8.175 8.483 8.838 9.131 9.743 10.578 11.362 12.154 12.579 12.737 12.807 12.842 12.89 12.925 12.96 13 13.035 13.07 13.105 13.135 13.163 13.208 13.29 13.325 13.295 13.27 13.253 13.258 13.283 13.305 13.317 13.325 13.332 13.34 13.35 13.33 13.283 13.245 13.215 13.183 13.145 13.105 13.068 13.055 13.068 13.083 13.103 13.098 13.078 13.075 13.075 13.07 13.06 13.05 13.04 13.02 12.985 12.95 12.925 12.918 12.92 12.925 12.928 12.905 12.865 12.825 12.785 12.75 12.715 12.678 12.643 12.61 12.582 12.557 12.532 12.507 12.492 12.485 12.475 12.465 12.455 12.44 12.428 12.44 12.47 12.505 12.558 12.625 12.69 12.748 12.813 12.888 12.96 13.03 13.095 13.153 13.223 13.313 13.41 13.46 13.46 13.46 13.45 13.448 13.462 13.478 13.51 13.548 13.575 13.608 13.64 13.62 13.537 13.448 13.365 13.3 13.25 13.203 13.163 13.14 13.133 13.128 13.123 13.13 13.178 13.258 13.34 13.415 13.475 13.525 13.577 13.605 13.585 13.548 13.523 13.495 13.455 13.415 13.375 13.328 13.298 13.287 13.272 13.245 13.2 13.148 13.088 13.03 12.985 12.943 12.902 12.833 12.738 12.655 12.57 12.48 12.383
5.207 5.153 5.13 5.125 5.12 5.112 5.072 5 4.915 4.833 4.78 4.768 4.775 4.755 4.655 4.51 4.39 4.303 4.36 4.545 4.72 4.767 4.683 4.597 4.43 4.11 3.92 3.92 3.92 3.92 4.353 4.972 5.305 5.46 5.5 5.588 5.708 5.908 6.278 6.745 7.215 7.683 8.12 8.53 8.958 9.422 9.86 9.958 9.884 10.293 10.968 11.697 12.437 12.752 12.812 12.882 12.925 12.96 13 13.035 13.07 13.105 13.138 13.185 13.27 13.38 13.422 13.395 13.373 13.363 13.37 13.39 13.395 13.383 13.38 13.387 13.393 13.4 13.39 13.365 13.348 13.335 13.31 13.268 13.223 13.18 13.16 13.168 13.185 13.21 13.192 13.143 13.123 13.12 13.117 13.11 13.1 13.09 13.07 13.035 13.005 12.993 12.99 12.99 12.993 12.99 12.962 12.918 12.875 12.838 12.802 12.767 12.732 12.695 12.66 12.63 12.605 12.58 12.548 12.52 12.505 12.495 12.485 12.473 12.46 12.455 12.47 12.5 12.55 12.635 12.725 12.795 12.855 12.925 13.01 13.092 13.165 13.227 13.273 13.318 13.39 13.485 13.535 13.535 13.522 13.488 13.475 13.49 13.52 13.583 13.632 13.655 13.68 13.71 13.667 13.555 13.448 13.355 13.29 13.245 13.21 13.183 13.168 13.165 13.16 13.15 13.165 13.22 13.295 13.375 13.45 13.51 13.563 13.62 13.652 13.635 13.608 13.597 13.58 13.545 13.505 13.44 13.368 13.348 13.355 13.345 13.315 13.267 13.205 13.128 13.063 13.018 12.983 12.962 12.895 12.783 12.688 12.602 12.502 12.38
5.2 5.15 5.13 5.125 5.115 5.092 5.035 4.958 4.878 4.798 4.743 4.715 4.703 4.663 4.568 4.468 4.405 4.368 4.418 4.615 4.8 4.81 4.718 4.625 4.522 4.193 3.92 3.92 3.92 3.92 4.255 4.907 5.28 5.395 5.517 5.645 5.773 5.965 6.33 6.803 7.303 7.86 8.415 8.932 9.44 9.935 10.617 11.027 11.11 10.913 10.469 10.709 11.363 11.99 12.575 12.852 12.917 12.96 12.997 13.032 13.067 13.092 13.148 13.252 13.365 13.472 13.517 13.5 13.485 13.48 13.485 13.485 13.465 13.44 13.435 13.443 13.448 13.458 13.467 13.47 13.47 13.467 13.445 13.402 13.36 13.318 13.29 13.29 13.3 13.317 13.295 13.23 13.183 13.165 13.162 13.157 13.15 13.14 13.12 13.093 13.075 13.07 13.07 13.067 13.065 13.06 13.03 12.978 12.928 12.89 12.855 12.82 12.785 12.748 12.713 12.68 12.655 12.63 12.595 12.558 12.53 12.515 12.505 12.493 12.485 12.483 12.495 12.543 12.625 12.725 12.822 12.9 12.963 13.035 13.125 13.22 13.3 13.36 13.4 13.435 13.483 13.557 13.605 13.595 13.56 13.515 13.505 13.535 13.593 13.667 13.722 13.747 13.762 13.77 13.707 13.585 13.465 13.358 13.29 13.258 13.233 13.208 13.195 13.195 13.192 13.185 13.21 13.273 13.34 13.41 13.483 13.545 13.603 13.665 13.7 13.69 13.675 13.672 13.662 13.635 13.575 13.47 13.393 13.39 13.407 13.41 13.385 13.327 13.247 13.16 13.095 13.058 13.035 13.025 12.962 12.843 12.73 12.635 12.525 12.392
5.175 5.14 5.117 5.105 5.09 5.067 5.012 4.928 4.843 4.763 4.71 4.678 4.658 4.625 4.565 4.52 4.49 4.455 4.445 4.62 4.862 4.892 4.798 4.7 4.605 4.24 3.92 3.92 3.92 3.92 4.06 4.633 5.135 5.305 5.487 5.645 5.793 6.018 6.395 6.878 7.433 8.033 8.588 9.085 9.565 10.078 10.89 11.757 12.304 12.244 11.835 11.455 11.004 11.143 11.735 12.257 12.732 12.955 12.995 12.955 12.93 13.01 13.132 13.275 13.412 13.542 13.607 13.602 13.59 13.582 13.57 13.542 13.51 13.493 13.495 13.503 13.51 13.525 13.545 13.557 13.565 13.572 13.562 13.53 13.492 13.452 13.425 13.423 13.425 13.425 13.392 13.327 13.265 13.223 13.205 13.2 13.195 13.187 13.175 13.16 13.152 13.147 13.142 13.137 13.132 13.125 13.095 13.042 12.99 12.945 12.905 12.87 12.835 12.8 12.768 12.735 12.708 12.68 12.645 12.605 12.568 12.54 12.525 12.518 12.515 12.51 12.535 12.615 12.712 12.81 12.91 12.997 13.067 13.145 13.237 13.335 13.425 13.487 13.527 13.562 13.597 13.647 13.667 13.632 13.585 13.543 13.548 13.602 13.667 13.735 13.787 13.8 13.79 13.765 13.685 13.565 13.445 13.358 13.315 13.285 13.258 13.235 13.225 13.225 13.225 13.228 13.265 13.33 13.393 13.458 13.525 13.588 13.648 13.71 13.75 13.755 13.747 13.745 13.74 13.705 13.61 13.48 13.415 13.425 13.445 13.46 13.44 13.37 13.282 13.195 13.133 13.11 13.097 13.085 13.025 12.905 12.78 12.66 12.535 12.402
