ncols         200
nrows         71
xllcorner     548000
yllcorner     253025
cellsize      5
NODATA_value  -9999.0
48.27 48.3 48.327 48.35 48.385 48.43 48.465 48.495 48.527 48.562 48.587 48.59 48.593 48.618 48.645 48.665 48.682 48.687 48.683 48.69 48.71 48.73 48.747 48.747 48.73 48.708 48.738 48.815 48.852 48.855 48.855 48.855 48.853 48.853 48.873 48.91 48.958 49.025 49.055 49.035 49.015 49.008 49.015 49.025 49.032 49.037 49.05 49.052 49.032 49.008 48.993 48.995 49.02 49.05 49.06 49.063 49.083 49.133 49.162 49.155 49.148 49.14 49.138 49.142 49.145 49.132 49.115 49.112 49.11 49.1 49.108 49.13 49.15 49.15 49.113 49.073 49.06 49.073 49.11 49.15 49.177 49.19 49.185 49.175 49.162 49.14 49.113 49.095 49.1 49.117 49.112 49.093 49.083 49.103 49.17 49.265 49.36 49.455 49.47 49.398 49.383 49.397 49.383 49.373 49.368 49.368 49.403 49.467 49.527 49.577 49.615 49.665 49.763 49.887 49.975 50.025 50.072 50.115 50.185 50.285 50.38 50.475 50.605 50.765 50.93 51.1 51.295 51.495 51.652 51.79 51.928 52.085 52.285 52.51 52.748 52.995 53.23 53.435 53.693 54.025 54.32 54.573 54.835 55.115 55.403 55.718 56.145 56.653 57.16 57.67 58.177 58.665 59.12 59.44 59.585 59.67 59.755 59.84 59.933 60.045 60.173 60.328 60.515 60.735 60.995 61.293 61.647 61.912 62.03 62.13 62.278 62.583 63.02 63.485 63.852 63.925 63.81 63.695 63.605 63.62 63.76 63.93 64.075 64.208 64.333 64.455 64.595 64.753 64.912 65.083 65.308 65.58 65.85 66.125 66.345 66.503 66.68 66.855 66.962 67.025
48.5 48.51 48.517 48.515 48.53 48.582 48.632 48.667 48.7 48.732 48.747 48.74 48.73 48.733 48.753 48.775 48.795 48.815 48.832 48.85 48.87 48.89 48.895 48.875 48.85 48.833 48.865 48.95 49.017 49.04 49.04 49.042 49.045 49.052 49.077 49.112 49.147 49.187 49.2 49.18 49.16 49.155 49.165 49.175 49.185 49.18 49.167 49.152 49.127 49.103 49.093 49.108 49.14 49.172 49.185 49.182 49.18 49.193 49.2 49.193 49.183 49.173 49.173 49.172 49.17 49.17 49.172 49.175 49.172 49.167 49.172 49.19 49.21 49.202 49.16 49.105 49.06 49.06 49.1 49.15 49.197 49.225 49.225 49.215 49.202 49.185 49.175 49.182 49.197 49.212 49.21 49.19 49.173 49.2 49.283 49.377 49.47 49.565 49.577 49.477 49.408 49.395 49.39 49.39 49.388 49.385 49.408 49.458 49.508 49.555 49.62 49.723 49.85 49.96 50.035 50.092 50.142 50.187 50.257 50.352 50.447 50.558 50.702 50.867 51.032 51.197 51.372 51.537 51.677 51.818 51.983 52.19 52.417 52.643 52.88 53.13 53.377 53.612 53.872 54.152 54.41 54.665 54.923 55.223 55.57 55.948 56.395 56.892 57.395 57.882 58.357 58.835 59.282 59.547 59.655 59.752 59.847 59.94 60.037 60.15 60.275 60.41 60.585 60.825 61.1 61.398 61.752 62.065 62.23 62.36 62.63 63.053 63.518 63.985 64.397 64.517 64.403 64.285 64.17 64.103 64.153 64.275 64.4 64.525 64.648 64.773 64.903 65.05 65.208 65.38 65.61 65.872 66.13 66.387 66.627 66.855 67.082 67.262 67.36 67.42
48.62 48.607 48.595 48.583 48.61 48.71 48.79 48.825 48.86 48.88 48.88 48.87 48.86 48.865 48.89 48.918 48.94 48.958 48.985 49.017 49.043 49.062 49.052 49.02 48.99 48.98 49.028 49.115 49.192 49.22 49.215 49.215 49.215 49.225 49.252 49.285 49.315 49.337 49.335 49.315 49.298 49.295 49.305 49.315 49.307 49.272 49.242 49.227 49.21 49.193 49.193 49.215 49.245 49.282 49.3 49.29 49.285 49.28 49.27 49.26 49.245 49.235 49.215 49.193 49.19 49.188 49.193 49.21 49.22 49.22 49.22 49.23 49.247 49.237 49.195 49.14 49.088 49.08 49.12 49.173 49.225 49.255 49.252 49.24 49.227 49.213 49.22 49.247 49.272 49.3 49.307 49.287 49.268 49.3 49.387 49.477 49.565 49.627 49.597 49.495 49.44 49.438 49.435 49.435 49.435 49.43 49.448 49.498 49.548 49.593 49.68 49.81 49.922 49.99 50.045 50.11 50.17 50.235 50.312 50.4 50.493 50.61 50.765 50.935 51.105 51.267 51.417 51.56 51.7 51.858 52.063 52.3 52.54 52.775 53.01 53.247 53.485 53.722 53.967 54.22 54.47 54.725 55 55.35 55.767 56.195 56.637 57.105 57.577 58.032 58.48 58.93 59.292 59.495 59.63 59.765 59.88 59.98 60.082 60.197 60.325 60.47 60.675 60.943 61.223 61.515 61.86 62.215 62.443 62.678 63.085 63.55 64.015 64.482 64.932 65.102 64.998 64.885 64.775 64.67 64.63 64.685 64.793 64.918 65.04 65.16 65.258 65.375 65.53 65.688 65.87 66.092 66.337 66.582 66.835 67.1 67.36 67.567 67.69 67.757
48.685 48.673 48.658 48.645 48.688 48.83 48.942 48.977 49 49.002 48.995 48.985 48.988 49.023 49.065 49.092 49.11 49.115 49.14 49.187 49.225 49.245 49.232 49.198 49.183 49.21 49.28 49.357 49.395 49.387 49.372 49.367 49.365 49.373 49.395 49.425 49.452 49.47 49.465 49.448 49.438 49.438 49.445 49.435 49.39 49.335 49.3 49.285 49.275 49.268 49.278 49.302 49.335 49.385 49.405 49.388 49.378 49.37 49.36 49.35 49.338 49.33 49.288 49.225 49.205 49.203 49.21 49.235 49.255 49.26 49.255 49.253 49.262 49.255 49.215 49.168 49.138 49.14 49.178 49.23 49.265 49.275 49.267 49.253 49.24 49.228 49.238 49.273 49.318 49.377 49.405 49.385 49.365 49.393 49.467 49.55 49.602 49.597 49.523 49.455 49.475 49.507 49.51 49.51 49.502 49.488 49.513 49.577 49.637 49.688 49.775 49.885 49.95 49.98 50.025 50.09 50.163 50.253 50.342 50.428 50.525 50.65 50.805 50.975 51.14 51.292 51.435 51.575 51.72 51.895 52.118 52.365 52.612 52.842 53.072 53.31 53.537 53.76 53.995 54.248 54.5 54.753 55.068 55.465 55.887 56.317 56.752 57.192 57.635 58.08 58.53 58.977 59.282 59.42 59.553 59.712 59.862 59.98 60.08 60.195 60.33 60.52 60.783 61.068 61.363 61.685 62.03 62.382 62.69 63.05 63.507 63.962 64.417 64.872 65.322 65.602 65.605 65.5 65.395 65.29 65.215 65.2 65.25 65.355 65.48 65.59 65.643 65.725 65.88 66.02 66.148 66.298 66.505 66.748 67 67.265 67.52 67.742 67.907 68.01
48.732 48.735 48.722 48.71 48.763 48.925 49.077 49.13 49.128 49.118 49.11 49.113 49.145 49.2 49.24 49.255 49.26 49.263 49.29 49.345 49.397 49.425 49.418 49.413 49.448 49.51 49.572 49.6 49.58 49.543 49.52 49.515 49.515 49.518 49.535 49.562 49.582 49.597 49.595 49.583 49.58 49.58 49.562 49.513 49.448 49.39 49.358 49.348 49.343 49.34 49.353 49.385 49.438 49.5 49.517 49.495 49.475 49.46 49.45 49.443 49.435 49.43 49.387 49.3 49.235 49.215 49.228 49.255 49.282 49.295 49.29 49.283 49.283 49.275 49.243 49.213 49.205 49.21 49.24 49.275 49.285 49.285 49.28 49.268 49.253 49.24 49.253 49.303 49.378 49.465 49.505 49.487 49.468 49.475 49.525 49.57 49.56 49.52 49.468 49.465 49.525 49.57 49.585 49.58 49.56 49.543 49.575 49.647 49.717 49.777 49.85 49.912 49.94 49.96 50.005 50.08 50.17 50.27 50.365 50.455 50.563 50.693 50.843 51.005 51.16 51.307 51.45 51.595 51.75 51.93 52.155 52.397 52.622 52.827 53.053 53.307 53.552 53.78 54.018 54.272 54.528 54.8 55.155 55.565 55.955 56.347 56.782 57.242 57.687 58.128 58.575 58.992 59.242 59.355 59.473 59.623 59.797 59.955 60.077 60.193 60.363 60.615 60.905 61.21 61.548 61.913 62.265 62.58 62.893 63.262 63.692 64.137 64.585 65.035 65.44 65.772 65.985 66.057 66.015 65.91 65.823 65.778 65.778 65.82 65.918 66.017 66.025 66.073 66.225 66.367 66.487 66.593 66.73 66.925 67.165 67.42 67.662 67.887 68.07 68.21
48.717 48.78 48.787 48.775 48.838 49.01 49.197 49.277 49.265 49.245 49.24 49.27 49.325 49.385 49.415 49.413 49.41 49.413 49.443 49.5 49.56 49.602 49.622 49.657 49.712 49.767 49.792 49.77 49.73 49.693 49.68 49.683 49.678 49.673 49.68 49.698 49.713 49.728 49.733 49.733 49.738 49.732 49.682 49.6 49.52 49.453 49.423 49.42 49.42 49.42 49.438 49.488 49.552 49.615 49.632 49.607 49.58 49.552 49.537 49.532 49.525 49.52 49.482 49.397 49.308 49.248 49.248 49.28 49.313 49.327 49.322 49.317 49.31 49.302 49.287 49.275 49.275 49.275 49.285 49.295 49.295 49.295 49.293 49.285 49.275 49.268 49.293 49.368 49.462 49.557 49.6 49.585 49.565 49.552 49.56 49.553 49.515 49.478 49.47 49.513 49.575 49.63 49.65 49.635 49.61 49.6 49.638 49.707 49.777 49.84 49.885 49.91 49.928 49.945 49.998 50.09 50.19 50.29 50.388 50.488 50.602 50.73 50.875 51.028 51.175 51.323 51.47 51.625 51.787 51.968 52.18 52.397 52.597 52.795 53.023 53.283 53.542 53.79 54.04 54.295 54.55 54.85 55.215 55.592 55.942 56.295 56.732 57.227 57.705 58.17 58.622 58.982 59.177 59.29 59.403 59.533 59.695 59.877 60.042 60.21 60.448 60.735 61.052 61.41 61.787 62.16 62.49 62.777 63.05 63.345 63.725 64.17 64.622 65.07 65.412 65.685 66.01 66.31 66.492 66.515 66.432 66.375 66.36 66.355 66.385 66.44 66.4 66.41 66.56 66.707 66.832 66.938 67.043 67.17 67.348 67.565 67.8 68.032 68.22 68.37
48.728 48.783 48.825 48.84 48.913 49.093 49.287 49.41 49.43 49.408 49.41 49.455 49.515 49.572 49.597 49.59 49.585 49.59 49.625 49.685 49.74 49.767 49.8 49.852 49.9 49.945 49.947 49.91 49.873 49.843 49.85 49.872 49.87 49.86 49.858 49.863 49.875 49.89 49.9 49.907 49.905 49.885 49.827 49.735 49.643 49.575 49.55 49.55 49.55 49.525 49.523 49.58 49.647 49.702 49.712 49.682 49.647 49.61 49.59 49.585 49.575 49.57 49.545 49.48 49.395 49.315 49.3 49.335 49.355 49.35 49.342 49.342 49.335 49.33 49.327 49.322 49.32 49.317 49.313 49.31 49.31 49.315 49.333 49.345 49.343 49.34 49.363 49.428 49.517 49.615 49.662 49.65 49.63 49.61 49.595 49.575 49.543 49.51 49.52 49.575 49.635 49.682 49.69 49.667 49.648 49.65 49.685 49.745 49.81 49.87 49.905 49.918 49.93 49.943 50.013 50.127 50.23 50.33 50.428 50.515 50.615 50.743 50.902 51.07 51.218 51.36 51.5 51.648 51.81 51.987 52.182 52.383 52.58 52.78 53.008 53.27 53.535 53.795 54.052 54.305 54.558 54.855 55.202 55.545 55.87 56.208 56.638 57.142 57.65 58.15 58.627 58.957 59.112 59.225 59.337 59.455 59.598 59.773 59.985 60.26 60.555 60.817 61.14 61.535 61.927 62.295 62.597 62.865 63.13 63.42 63.793 64.223 64.66 65.07 65.355 65.595 65.915 66.265 66.612 66.862 66.97 66.977 66.95 66.94 66.9 66.86 66.785 66.758 66.878 67.037 67.172 67.277 67.377 67.462 67.568 67.735 67.953 68.182 68.37 68.52
48.87 48.86 48.88 48.9 48.985 49.167 49.352 49.51 49.592 49.592 49.598 49.645 49.705 49.76 49.782 49.778 49.78 49.795 49.835 49.892 49.922 49.908 49.925 49.99 50.047 50.092 50.09 50.055 50.025 50.003 50.02 50.062 50.077 50.07 50.065 50.065 50.07 50.08 50.087 50.082 50.06 50.03 49.972 49.885 49.805 49.748 49.725 49.725 49.707 49.638 49.6 49.65 49.71 49.747 49.742 49.707 49.67 49.633 49.613 49.605 49.595 49.587 49.572 49.537 49.472 49.395 49.38 49.402 49.387 49.353 49.343 49.352 49.35 49.345 49.345 49.342 49.34 49.34 49.338 49.335 49.338 49.35 49.385 49.427 49.445 49.443 49.45 49.48 49.545 49.637 49.687 49.685 49.67 49.65 49.64 49.63 49.605 49.575 49.588 49.642 49.69 49.715 49.707 49.688 49.685 49.703 49.733 49.775 49.83 49.89 49.925 49.932 49.937 49.945 50.028 50.17 50.287 50.39 50.48 50.543 50.615 50.735 50.913 51.112 51.277 51.42 51.55 51.678 51.823 51.988 52.175 52.375 52.575 52.775 52.995 53.263 53.542 53.802 54.055 54.305 54.555 54.833 55.15 55.472 55.788 56.118 56.543 57.05 57.557 58.052 58.525 58.835 58.985 59.12 59.252 59.382 59.513 59.688 59.978 60.335 60.625 60.84 61.14 61.54 61.927 62.285 62.587 62.85 63.135 63.488 63.895 64.305 64.705 65.042 65.275 65.505 65.815 66.165 66.515 66.865 67.18 67.362 67.367 67.292 67.185 67.09 67.06 67.077 67.185 67.36 67.505 67.602 67.677 67.735 67.823 67.963 68.138 68.348 68.53 68.673
49.065 49.048 49.03 49.028 49.088 49.238 49.417 49.58 49.715 49.767 49.785 49.835 49.897 49.952 49.972 49.973 49.985 50.005 50.042 50.075 50.065 50.033 50.048 50.115 50.182 50.235 50.237 50.208 50.183 50.165 50.188 50.24 50.275 50.28 50.275 50.275 50.272 50.265 50.255 50.237 50.21 50.177 50.117 50.043 49.98 49.925 49.898 49.882 49.825 49.725 49.678 49.71 49.747 49.767 49.757 49.725 49.69 49.655 49.635 49.625 49.615 49.605 49.59 49.57 49.532 49.473 49.45 49.44 49.392 49.345 49.335 49.352 49.36 49.36 49.36 49.36 49.36 49.36 49.362 49.368 49.375 49.39 49.425 49.48 49.527 49.545 49.552 49.565 49.595 49.66 49.702 49.707 49.705 49.69 49.68 49.675 49.66 49.638 49.65 49.692 49.717 49.73 49.728 49.725 49.743 49.768 49.797 49.83 49.868 49.915 49.94 49.94 49.938 49.943 50.03 50.187 50.33 50.447 50.53 50.58 50.628 50.728 50.908 51.12 51.317 51.482 51.612 51.73 51.853 51.993 52.17 52.37 52.568 52.765 52.975 53.24 53.537 53.807 54.06 54.3 54.532 54.793 55.088 55.395 55.705 56.028 56.45 56.952 57.44 57.915 58.352 58.63 58.785 58.94 59.095 59.245 59.398 59.618 59.947 60.315 60.617 60.845 61.145 61.532 61.895 62.245 62.56 62.85 63.193 63.59 64.002 64.39 64.732 65.002 65.2 65.418 65.718 66.062 66.407 66.752 67.092 67.392 67.48 67.365 67.223 67.13 67.158 67.27 67.432 67.627 67.787 67.885 67.945 67.995 68.088 68.225 68.37 68.537 68.695 68.83
49.257 49.243 49.235 49.248 49.275 49.345 49.483 49.642 49.797 49.912 49.972 50.025 50.09 50.145 50.17 50.18 50.195 50.215 50.23 50.22 50.19 50.16 50.178 50.248 50.325 50.39 50.4 50.37 50.343 50.328 50.353 50.408 50.46 50.477 50.462 50.445 50.425 50.4 50.375 50.357 50.337 50.312 50.27 50.215 50.162 50.107 50.067 50.015 49.92 49.808 49.743 49.748 49.767 49.782 49.775 49.745 49.71 49.675 49.655 49.645 49.635 49.625 49.61 49.587 49.562 49.527 49.492 49.45 49.39 49.34 49.328 49.345 49.365 49.378 49.383 49.385 49.388 49.385 49.388 49.4 49.412 49.43 49.465 49.52 49.58 49.627 49.65 49.657 49.665 49.687 49.707 49.715 49.722 49.72 49.712 49.705 49.692 49.68 49.695 49.722 49.738 49.75 49.76 49.777 49.802 49.827 49.855 49.885 49.912 49.94 49.95 49.943 49.935 49.943 50.033 50.19 50.345 50.487 50.58 50.622 50.655 50.733 50.9 51.112 51.327 51.522 51.665 51.777 51.887 52.003 52.168 52.368 52.563 52.76 52.963 53.213 53.507 53.782 54.027 54.25 54.475 54.743 55.04 55.338 55.638 55.948 56.345 56.822 57.29 57.755 58.167 58.422 58.577 58.732 58.888 59.068 59.3 59.578 59.883 60.203 60.527 60.82 61.14 61.505 61.855 62.205 62.545 62.898 63.29 63.7 64.08 64.407 64.7 64.955 65.155 65.353 65.62 65.945 66.282 66.62 66.957 67.28 67.452 67.4 67.258 67.17 67.205 67.37 67.592 67.8 67.962 68.075 68.167 68.247 68.347 68.47 68.587 68.705 68.835 68.977
49.453 49.448 49.46 49.48 49.497 49.508 49.573 49.71 49.863 50.012 50.115 50.17 50.23 50.3 50.345 50.362 50.38 50.407 50.412 50.385 50.355 50.335 50.348 50.405 50.49 50.562 50.575 50.542 50.513 50.51 50.548 50.602 50.637 50.627 50.59 50.552 50.52 50.49 50.465 50.45 50.435 50.412 50.38 50.34 50.297 50.252 50.197 50.107 49.995 49.88 49.795 49.773 49.78 49.795 49.792 49.765 49.73 49.695 49.675 49.665 49.655 49.642 49.622 49.597 49.575 49.552 49.512 49.455 49.395 49.345 49.338 49.363 49.39 49.412 49.423 49.428 49.43 49.417 49.413 49.427 49.442 49.46 49.498 49.552 49.61 49.652 49.667 49.67 49.67 49.67 49.675 49.685 49.695 49.705 49.71 49.702 49.687 49.683 49.712 49.75 49.77 49.785 49.792 49.807 49.832 49.86 49.885 49.91 49.935 49.955 49.96 49.95 49.945 49.968 50.05 50.19 50.347 50.502 50.605 50.647 50.68 50.748 50.888 51.083 51.292 51.495 51.662 51.787 51.895 52 52.163 52.367 52.565 52.763 52.958 53.16 53.41 53.682 53.922 54.15 54.41 54.705 55.005 55.302 55.6 55.9 56.248 56.673 57.133 57.597 57.982 58.215 58.37 58.525 58.72 58.978 59.275 59.575 59.865 60.155 60.458 60.778 61.128 61.49 61.84 62.19 62.558 62.955 63.365 63.775 64.12 64.398 64.67 64.93 65.145 65.338 65.565 65.835 66.148 66.485 66.825 67.157 67.39 67.412 67.293 67.213 67.268 67.473 67.73 67.93 68.075 68.195 68.315 68.43 68.535 68.635 68.73 68.825 68.95 69.1
49.652 49.652 49.665 49.67 49.67 49.665 49.695 49.795 49.933 50.085 50.2 50.26 50.335 50.435 50.495 50.515 50.543 50.59 50.61 50.585 50.568 50.573 50.58 50.598 50.658 50.732 50.75 50.718 50.703 50.723 50.77 50.807 50.79 50.737 50.685 50.643 50.61 50.58 50.555 50.537 50.515 50.48 50.44 50.405 50.37 50.33 50.265 50.165 50.055 49.94 49.853 49.81 49.795 49.805 49.805 49.782 49.75 49.715 49.695 49.685 49.672 49.652 49.628 49.605 49.585 49.562 49.522 49.465 49.395 49.345 49.36 49.405 49.44 49.465 49.477 49.48 49.47 49.445 49.438 49.452 49.467 49.483 49.52 49.575 49.612 49.617 49.61 49.61 49.61 49.61 49.615 49.625 49.638 49.655 49.672 49.675 49.665 49.67 49.715 49.775 49.81 49.825 49.825 49.823 49.84 49.867 49.893 49.92 49.945 49.967 49.975 49.968 49.98 50.025 50.1 50.208 50.35 50.505 50.605 50.65 50.708 50.8 50.905 51.04 51.228 51.43 51.607 51.755 51.88 51.993 52.158 52.367 52.57 52.767 52.952 53.108 53.288 53.535 53.785 54.04 54.338 54.65 54.96 55.267 55.572 55.875 56.195 56.56 56.983 57.442 57.802 58.007 58.173 58.378 58.653 58.965 59.272 59.57 59.86 60.15 60.443 60.753 61.108 61.49 61.855 62.205 62.583 62.992 63.405 63.815 64.152 64.417 64.677 64.93 65.15 65.353 65.568 65.79 66.043 66.35 66.69 67.027 67.282 67.385 67.327 67.255 67.348 67.593 67.867 68.057 68.185 68.305 68.425 68.548 68.657 68.75 68.842 68.938 69.06 69.21
49.795 49.82 49.817 49.812 49.808 49.803 49.825 49.905 50.023 50.16 50.272 50.355 50.465 50.582 50.645 50.673 50.72 50.782 50.81 50.8 50.805 50.825 50.837 50.833 50.845 50.902 50.925 50.908 50.918 50.947 50.975 50.962 50.905 50.84 50.788 50.743 50.703 50.67 50.645 50.62 50.582 50.54 50.502 50.465 50.422 50.375 50.305 50.21 50.107 50 49.92 49.87 49.828 49.815 49.81 49.792 49.767 49.738 49.717 49.702 49.682 49.658 49.635 49.612 49.59 49.567 49.53 49.467 49.375 49.333 49.378 49.437 49.487 49.52 49.532 49.525 49.5 49.47 49.463 49.478 49.492 49.505 49.54 49.58 49.58 49.558 49.548 49.55 49.553 49.555 49.558 49.568 49.585 49.607 49.627 49.64 49.64 49.655 49.71 49.78 49.837 49.865 49.865 49.855 49.855 49.873 49.9 49.927 49.952 49.98 49.99 50 50.043 50.1 50.175 50.265 50.373 50.51 50.607 50.673 50.775 50.89 50.975 51.055 51.185 51.365 51.542 51.697 51.845 51.98 52.15 52.362 52.572 52.775 52.947 53.088 53.228 53.413 53.655 53.94 54.252 54.567 54.882 55.192 55.5 55.8 56.157 56.523 56.87 57.293 57.622 57.823 58.033 58.285 58.615 58.962 59.27 59.565 59.855 60.145 60.435 60.733 61.07 61.46 61.857 62.225 62.608 63.022 63.437 63.847 64.18 64.437 64.69 64.937 65.16 65.368 65.583 65.8 66.015 66.26 66.563 66.892 67.155 67.32 67.34 67.298 67.435 67.717 67.992 68.175 68.295 68.418 68.54 68.662 68.777 68.87 68.958 69.05 69.168 69.307
49.827 49.922 49.952 49.95 49.945 49.94 49.955 50.025 50.135 50.253 50.365 50.478 50.605 50.727 50.805 50.852 50.91 50.967 51.007 51.03 51.05 51.07 51.087 51.087 51.075 51.093 51.112 51.12 51.135 51.15 51.137 51.08 51.01 50.943 50.89 50.848 50.803 50.763 50.73 50.695 50.65 50.603 50.56 50.515 50.465 50.415 50.345 50.253 50.155 50.06 49.99 49.938 49.883 49.84 49.815 49.8 49.783 49.757 49.735 49.713 49.688 49.665 49.645 49.62 49.595 49.575 49.532 49.45 49.353 49.333 49.393 49.455 49.515 49.565 49.577 49.555 49.528 49.5 49.49 49.502 49.515 49.527 49.545 49.545 49.52 49.493 49.485 49.49 49.493 49.498 49.505 49.52 49.54 49.563 49.58 49.595 49.608 49.638 49.7 49.77 49.84 49.885 49.892 49.885 49.877 49.882 49.905 49.932 49.96 49.99 50.018 50.06 50.117 50.175 50.25 50.34 50.43 50.532 50.63 50.732 50.857 50.977 51.065 51.13 51.208 51.325 51.48 51.638 51.798 51.958 52.14 52.355 52.572 52.775 52.935 53.065 53.195 53.333 53.538 53.825 54.135 54.445 54.752 55.057 55.365 55.65 56.075 56.565 56.913 57.24 57.515 57.73 57.963 58.203 58.533 58.927 59.265 59.56 59.85 60.14 60.43 60.72 61.037 61.415 61.827 62.225 62.627 63.047 63.465 63.872 64.197 64.45 64.697 64.942 65.172 65.385 65.6 65.817 66.033 66.248 66.488 66.773 67.03 67.217 67.312 67.36 67.545 67.837 68.097 68.277 68.402 68.527 68.652 68.775 68.892 68.992 69.078 69.168 69.273 69.388
49.812 49.95 50.045 50.082 50.085 50.08 50.085 50.145 50.255 50.357 50.465 50.595 50.73 50.857 50.95 51.01 51.065 51.117 51.172 51.222 51.255 51.275 51.295 51.302 51.292 51.292 51.288 51.282 51.292 51.295 51.26 51.188 51.118 51.055 51.013 50.98 50.938 50.895 50.855 50.813 50.763 50.7 50.63 50.57 50.52 50.47 50.4 50.308 50.213 50.125 50.058 50.002 49.947 49.885 49.84 49.825 49.805 49.77 49.743 49.722 49.698 49.675 49.658 49.64 49.62 49.597 49.542 49.44 49.358 49.368 49.433 49.495 49.558 49.615 49.617 49.58 49.553 49.528 49.518 49.528 49.54 49.54 49.53 49.513 49.485 49.455 49.44 49.44 49.443 49.45 49.47 49.498 49.52 49.538 49.553 49.57 49.588 49.623 49.685 49.755 49.817 49.857 49.87 49.865 49.862 49.877 49.903 49.93 49.96 49.99 50.037 50.102 50.167 50.23 50.305 50.392 50.475 50.555 50.642 50.747 50.87 50.995 51.087 51.155 51.222 51.31 51.445 51.605 51.77 51.938 52.125 52.34 52.557 52.747 52.892 53.015 53.14 53.27 53.44 53.685 53.978 54.285 54.59 54.895 55.202 55.47 55.923 56.555 57.04 57.362 57.605 57.825 58.04 58.207 58.403 58.742 59.13 59.447 59.722 59.997 60.277 60.59 60.95 61.357 61.782 62.195 62.612 63.035 63.455 63.835 64.13 64.38 64.63 64.9 65.17 65.402 65.618 65.833 66.05 66.265 66.48 66.713 66.94 67.125 67.268 67.423 67.658 67.937 68.192 68.375 68.503 68.628 68.755 68.88 69 69.112 69.208 69.3 69.395 69.49
49.797 49.94 50.065 50.165 50.212 50.217 50.215 50.268 50.375 50.455 50.548 50.687 50.83 50.965 51.065 51.13 51.188 51.245 51.305 51.367 51.417 51.445 51.465 51.472 51.473 51.49 51.467 51.41 51.395 51.4 51.365 51.293 51.228 51.175 51.145 51.127 51.1 51.065 51.022 50.97 50.902 50.82 50.728 50.645 50.585 50.535 50.465 50.373 50.28 50.193 50.123 50.067 50.005 49.93 49.88 49.86 49.822 49.77 49.743 49.732 49.712 49.688 49.673 49.665 49.652 49.632 49.572 49.475 49.415 49.435 49.5 49.568 49.63 49.682 49.675 49.623 49.583 49.555 49.545 49.555 49.555 49.525 49.505 49.5 49.482 49.452 49.423 49.408 49.408 49.418 49.448 49.49 49.52 49.537 49.553 49.567 49.578 49.605 49.665 49.73 49.777 49.802 49.81 49.808 49.82 49.86 49.897 49.925 49.955 49.985 50.035 50.105 50.175 50.225 50.297 50.402 50.487 50.562 50.635 50.718 50.825 50.945 51.04 51.11 51.193 51.3 51.438 51.595 51.757 51.923 52.108 52.32 52.52 52.687 52.825 52.945 53.068 53.208 53.375 53.573 53.825 54.125 54.43 54.735 55.027 55.283 55.738 56.41 57.037 57.517 57.815 57.992 58.112 58.17 58.25 58.473 58.81 59.132 59.405 59.708 60.038 60.4 60.815 61.272 61.727 62.15 62.568 62.99 63.38 63.705 63.977 64.23 64.503 64.825 65.14 65.402 65.632 65.85 66.067 66.283 66.505 66.745 66.968 67.143 67.32 67.53 67.763 68.025 68.285 68.47 68.598 68.722 68.847 68.962 69.077 69.212 69.337 69.437 69.525 69.597
49.777 49.925 50.052 50.177 50.282 50.337 50.35 50.395 50.482 50.538 50.625 50.772 50.92 51.062 51.175 51.25 51.31 51.373 51.435 51.498 51.56 51.607 51.635 51.645 51.66 51.692 51.672 51.59 51.528 51.508 51.47 51.405 51.35 51.3 51.268 51.255 51.242 51.222 51.175 51.102 51.02 50.93 50.835 50.74 50.66 50.6 50.527 50.435 50.347 50.26 50.188 50.125 50.05 49.97 49.917 49.88 49.822 49.765 49.738 49.732 49.722 49.702 49.688 49.682 49.675 49.662 49.61 49.543 49.513 49.523 49.575 49.64 49.695 49.745 49.74 49.68 49.625 49.585 49.572 49.567 49.537 49.495 49.475 49.475 49.47 49.452 49.42 49.388 49.375 49.388 49.423 49.47 49.512 49.54 49.555 49.562 49.565 49.585 49.637 49.69 49.725 49.745 49.753 49.768 49.803 49.85 49.89 49.92 49.952 49.985 50.033 50.097 50.145 50.165 50.24 50.375 50.485 50.567 50.64 50.713 50.795 50.898 50.993 51.078 51.183 51.3 51.433 51.585 51.745 51.91 52.092 52.287 52.46 52.615 52.755 52.875 52.995 53.143 53.322 53.505 53.708 53.968 54.268 54.575 54.842 55.085 55.553 56.225 56.897 57.51 57.88 57.99 58.01 58.02 58.11 58.29 58.523 58.805 59.12 59.485 59.875 60.265 60.69 61.165 61.647 62.097 62.522 62.917 63.25 63.547 63.823 64.098 64.418 64.772 65.095 65.372 65.632 65.865 66.083 66.313 66.568 66.842 67.077 67.27 67.495 67.72 67.913 68.128 68.375 68.565 68.692 68.807 68.912 69.013 69.133 69.287 69.435 69.547 69.63 69.667
49.755 49.907 50.04 50.165 50.29 50.4 50.467 50.525 50.575 50.613 50.708 50.855 51.01 51.173 51.313 51.395 51.448 51.503 51.563 51.625 51.693 51.76 51.802 51.827 51.86 51.897 51.88 51.8 51.713 51.645 51.588 51.53 51.478 51.425 51.385 51.36 51.34 51.32 51.275 51.205 51.127 51.037 50.942 50.85 50.757 50.675 50.592 50.5 50.415 50.33 50.25 50.172 50.09 50.007 49.94 49.882 49.82 49.763 49.73 49.725 49.72 49.71 49.702 49.697 49.692 49.685 49.657 49.63 49.617 49.615 49.65 49.705 49.757 49.805 49.795 49.735 49.675 49.617 49.58 49.545 49.5 49.463 49.445 49.448 49.45 49.44 49.412 49.378 49.353 49.36 49.398 49.445 49.495 49.535 49.552 49.555 49.552 49.563 49.597 49.635 49.665 49.688 49.71 49.75 49.795 49.84 49.882 49.915 49.948 49.982 50.025 50.067 50.085 50.1 50.185 50.328 50.46 50.565 50.645 50.715 50.785 50.865 50.96 51.07 51.188 51.305 51.43 51.575 51.735 51.9 52.067 52.23 52.385 52.54 52.68 52.803 52.93 53.085 53.268 53.453 53.635 53.84 54.108 54.402 54.645 54.888 55.368 56.022 56.657 57.28 57.675 57.805 57.852 57.868 57.968 58.165 58.385 58.653 58.993 59.37 59.75 60.13 60.56 61.047 61.542 62.022 62.445 62.787 63.09 63.39 63.688 64.013 64.37 64.727 65.045 65.325 65.602 65.865 66.115 66.38 66.662 66.947 67.202 67.44 67.69 67.925 68.112 68.28 68.482 68.655 68.767 68.865 68.955 69.053 69.188 69.347 69.49 69.612 69.7 69.723
49.74 49.893 50.03 50.155 50.28 50.405 50.52 50.61 50.647 50.688 50.808 50.975 51.15 51.335 51.497 51.585 51.63 51.683 51.753 51.828 51.898 51.95 51.965 51.98 52.015 52.055 52.055 51.99 51.9 51.81 51.725 51.658 51.603 51.55 51.488 51.43 51.397 51.37 51.327 51.27 51.197 51.105 51.01 50.917 50.82 50.72 50.625 50.535 50.447 50.362 50.277 50.192 50.107 50.02 49.94 49.875 49.812 49.75 49.718 49.713 49.708 49.708 49.71 49.707 49.702 49.697 49.69 49.682 49.672 49.673 49.708 49.76 49.807 49.832 49.807 49.75 49.687 49.622 49.565 49.515 49.468 49.435 49.428 49.435 49.435 49.42 49.397 49.37 49.338 49.338 49.378 49.425 49.472 49.512 49.53 49.527 49.522 49.525 49.545 49.575 49.605 49.64 49.678 49.72 49.765 49.81 49.86 49.905 49.94 49.975 50.015 50.043 50.055 50.078 50.165 50.305 50.44 50.547 50.625 50.695 50.765 50.838 50.945 51.075 51.195 51.315 51.438 51.575 51.73 51.892 52.035 52.16 52.303 52.457 52.597 52.722 52.858 53.03 53.225 53.413 53.593 53.768 53.978 54.22 54.448 54.693 55.133 55.735 56.335 56.932 57.332 57.507 57.622 57.7 57.845 58.075 58.32 58.588 58.915 59.285 59.655 60.033 60.448 60.918 61.41 61.902 62.325 62.652 62.955 63.253 63.578 63.937 64.3 64.665 65 65.29 65.57 65.85 66.132 66.417 66.702 66.987 67.277 67.555 67.81 68.05 68.25 68.415 68.59 68.727 68.815 68.905 68.995 69.103 69.245 69.395 69.533 69.69 69.838 69.895
49.735 49.893 50.033 50.15 50.275 50.403 50.53 50.64 50.71 50.808 50.97 51.153 51.34 51.53 51.697 51.792 51.838 51.91 52.013 52.102 52.155 52.14 52.1 52.1 52.13 52.167 52.18 52.145 52.07 51.98 51.885 51.798 51.73 51.675 51.595 51.5 51.445 51.415 51.372 51.307 51.222 51.127 51.032 50.935 50.83 50.72 50.62 50.53 50.443 50.358 50.273 50.188 50.1 50.008 49.928 49.862 49.798 49.735 49.703 49.698 49.698 49.705 49.71 49.71 49.708 49.702 49.695 49.688 49.69 49.71 49.752 49.8 49.822 49.815 49.78 49.725 49.662 49.6 49.545 49.495 49.453 49.428 49.425 49.43 49.42 49.4 49.377 49.352 49.323 49.323 49.362 49.405 49.44 49.47 49.482 49.478 49.475 49.473 49.485 49.515 49.555 49.612 49.653 49.675 49.713 49.758 49.813 49.875 49.925 49.962 50.002 50.042 50.07 50.095 50.18 50.315 50.427 50.512 50.585 50.655 50.725 50.803 50.925 51.075 51.205 51.325 51.45 51.583 51.728 51.885 52.01 52.103 52.223 52.372 52.512 52.64 52.78 52.945 53.157 53.382 53.57 53.74 53.913 54.1 54.315 54.555 54.898 55.4 55.983 56.577 56.977 57.152 57.3 57.49 57.745 58.015 58.27 58.525 58.838 59.208 59.585 59.975 60.373 60.793 61.263 61.757 62.185 62.527 62.842 63.143 63.473 63.835 64.203 64.585 64.945 65.26 65.55 65.83 66.115 66.402 66.688 66.973 67.275 67.585 67.86 68.1 68.302 68.48 68.667 68.807 68.875 68.945 69.035 69.155 69.298 69.455 69.64 69.853 70.072 70.122
49.763 49.948 50.123 50.248 50.353 50.46 50.57 50.673 50.82 51.013 51.188 51.355 51.535 51.722 51.895 51.997 52.055 52.155 52.277 52.357 52.35 52.265 52.213 52.225 52.25 52.282 52.292 52.27 52.225 52.15 52.055 51.958 51.87 51.8 51.715 51.605 51.513 51.46 51.417 51.34 51.24 51.145 51.047 50.94 50.825 50.71 50.61 50.522 50.438 50.353 50.27 50.185 50.092 49.995 49.915 49.85 49.785 49.723 49.688 49.688 49.695 49.705 49.71 49.71 49.71 49.708 49.703 49.708 49.727 49.755 49.79 49.812 49.805 49.785 49.747 49.693 49.637 49.578 49.523 49.483 49.453 49.43 49.423 49.417 49.397 49.375 49.353 49.33 49.305 49.305 49.34 49.372 49.395 49.417 49.427 49.425 49.422 49.418 49.428 49.463 49.523 49.597 49.64 49.65 49.67 49.705 49.76 49.83 49.895 49.945 49.987 50.035 50.077 50.11 50.193 50.31 50.395 50.47 50.545 50.615 50.685 50.768 50.895 51.055 51.205 51.335 51.46 51.59 51.728 51.877 51.992 52.068 52.158 52.288 52.427 52.563 52.71 52.855 53.048 53.305 53.542 53.725 53.885 54.05 54.24 54.473 54.765 55.145 55.643 56.225 56.625 56.8 56.998 57.29 57.617 57.92 58.205 58.47 58.77 59.138 59.528 59.923 60.318 60.715 61.14 61.61 62.032 62.382 62.72 63.035 63.365 63.733 64.118 64.507 64.87 65.207 65.525 65.815 66.098 66.385 66.673 66.958 67.263 67.587 67.892 68.15 68.352 68.537 68.732 68.895 68.975 69.012 69.083 69.22 69.397 69.59 69.797 70.007 70.195 70.162
49.83 50.045 50.287 50.45 50.535 50.602 50.673 50.798 51.028 51.257 51.42 51.58 51.748 51.923 52.097 52.212 52.295 52.402 52.487 52.505 52.447 52.365 52.335 52.355 52.375 52.397 52.4 52.377 52.35 52.305 52.222 52.12 52.02 51.925 51.827 51.72 51.61 51.523 51.455 51.365 51.26 51.157 51.047 50.932 50.815 50.7 50.6 50.515 50.432 50.347 50.265 50.18 50.085 49.985 49.905 49.84 49.775 49.713 49.68 49.685 49.695 49.708 49.715 49.715 49.715 49.713 49.712 49.727 49.752 49.777 49.795 49.79 49.77 49.75 49.712 49.66 49.607 49.553 49.51 49.483 49.458 49.433 49.415 49.4 49.378 49.355 49.335 49.315 49.29 49.285 49.308 49.33 49.35 49.37 49.378 49.373 49.368 49.363 49.375 49.425 49.5 49.58 49.625 49.635 49.642 49.66 49.71 49.777 49.845 49.907 49.96 50.01 50.062 50.112 50.187 50.277 50.353 50.43 50.505 50.575 50.645 50.733 50.865 51.025 51.185 51.332 51.467 51.6 51.735 51.87 51.97 52.042 52.117 52.215 52.342 52.482 52.627 52.767 52.935 53.19 53.457 53.657 53.832 54.007 54.183 54.395 54.685 55.01 55.388 55.887 56.272 56.498 56.793 57.135 57.467 57.785 58.092 58.385 58.703 59.078 59.472 59.868 60.265 60.665 61.063 61.483 61.88 62.23 62.58 62.915 63.263 63.647 64.042 64.43 64.79 65.135 65.475 65.787 66.077 66.362 66.65 66.937 67.245 67.572 67.897 68.185 68.392 68.562 68.735 68.892 68.992 69.032 69.108 69.267 69.47 69.667 69.842 70.002 70.107 70.045
49.91 50.145 50.44 50.615 50.662 50.723 50.84 51.038 51.287 51.497 51.655 51.815 51.975 52.138 52.305 52.415 52.477 52.542 52.557 52.515 52.478 52.465 52.47 52.49 52.51 52.505 52.48 52.46 52.435 52.4 52.33 52.227 52.12 52.01 51.905 51.8 51.692 51.59 51.485 51.378 51.272 51.162 51.045 50.928 50.81 50.688 50.578 50.49 50.41 50.325 50.242 50.167 50.082 49.985 49.903 49.838 49.775 49.715 49.688 49.695 49.708 49.725 49.738 49.74 49.74 49.722 49.703 49.708 49.73 49.755 49.76 49.745 49.728 49.712 49.68 49.63 49.578 49.533 49.507 49.487 49.465 49.442 49.418 49.395 49.375 49.355 49.335 49.313 49.285 49.27 49.28 49.3 49.32 49.343 49.35 49.34 49.335 49.328 49.33 49.38 49.457 49.535 49.58 49.59 49.597 49.608 49.648 49.712 49.777 49.837 49.892 49.945 50.003 50.077 50.16 50.238 50.315 50.405 50.49 50.56 50.628 50.715 50.85 51.01 51.167 51.302 51.43 51.565 51.695 51.805 51.887 51.962 52.037 52.125 52.243 52.38 52.517 52.653 52.823 53.07 53.322 53.53 53.725 53.917 54.102 54.31 54.595 54.922 55.25 55.63 55.983 56.29 56.632 56.977 57.322 57.652 57.963 58.27 58.618 59.012 59.412 59.81 60.21 60.61 61.005 61.382 61.753 62.113 62.46 62.808 63.163 63.542 63.937 64.327 64.695 65.042 65.387 65.715 66.015 66.302 66.59 66.88 67.187 67.515 67.842 68.135 68.35 68.51 68.66 68.805 68.902 68.968 69.085 69.26 69.445 69.61 69.752 69.88 69.932 69.882
49.993 50.208 50.452 50.625 50.725 50.868 51.077 51.307 51.535 51.725 51.877 52.035 52.192 52.345 52.48 52.542 52.55 52.56 52.558 52.545 52.553 52.58 52.607 52.63 52.63 52.585 52.54 52.52 52.49 52.442 52.37 52.275 52.17 52.06 51.955 51.853 51.75 51.65 51.528 51.393 51.278 51.17 51.055 50.932 50.805 50.673 50.55 50.45 50.365 50.283 50.205 50.142 50.077 49.99 49.908 49.842 49.78 49.725 49.705 49.718 49.735 49.757 49.775 49.78 49.767 49.727 49.688 49.673 49.683 49.705 49.71 49.695 49.683 49.68 49.652 49.603 49.558 49.52 49.5 49.49 49.475 49.455 49.43 49.405 49.382 49.36 49.34 49.315 49.283 49.258 49.26 49.28 49.303 49.33 49.342 49.335 49.325 49.313 49.305 49.33 49.393 49.467 49.51 49.52 49.53 49.54 49.573 49.635 49.695 49.745 49.795 49.853 49.93 50.03 50.125 50.205 50.3 50.42 50.52 50.588 50.648 50.723 50.85 51.01 51.147 51.243 51.35 51.482 51.592 51.675 51.747 51.823 51.905 52.005 52.125 52.26 52.395 52.53 52.71 52.945 53.18 53.39 53.588 53.782 53.975 54.198 54.488 54.815 55.145 55.473 55.798 56.128 56.468 56.815 57.17 57.52 57.845 58.155 58.515 58.932 59.347 59.75 60.15 60.547 60.925 61.272 61.638 62.017 62.375 62.725 63.07 63.423 63.803 64.195 64.572 64.932 65.282 65.615 65.917 66.205 66.497 66.79 67.095 67.42 67.732 68.007 68.232 68.412 68.57 68.712 68.808 68.903 69.055 69.217 69.367 69.5 69.62 69.725 69.742 69.69
50.108 50.293 50.473 50.65 50.838 51.05 51.28 51.507 51.727 51.917 52.075 52.227 52.377 52.52 52.615 52.63 52.608 52.593 52.603 52.627 52.652 52.677 52.705 52.732 52.712 52.645 52.6 52.572 52.53 52.477 52.402 52.31 52.215 52.11 52.005 51.905 51.807 51.71 51.585 51.435 51.295 51.175 51.06 50.932 50.795 50.658 50.53 50.418 50.32 50.235 50.163 50.105 50.055 49.987 49.912 49.847 49.783 49.735 49.728 49.745 49.767 49.792 49.81 49.807 49.775 49.725 49.685 49.66 49.648 49.655 49.66 49.65 49.645 49.647 49.625 49.583 49.545 49.51 49.49 49.485 49.48 49.465 49.442 49.417 49.39 49.365 49.345 49.317 49.28 49.245 49.24 49.263 49.29 49.32 49.335 49.327 49.313 49.298 49.29 49.298 49.335 49.4 49.44 49.45 49.463 49.475 49.503 49.553 49.603 49.648 49.705 49.788 49.89 50 50.093 50.188 50.318 50.46 50.565 50.625 50.675 50.738 50.855 50.992 51.09 51.168 51.268 51.377 51.46 51.53 51.603 51.685 51.783 51.89 52.008 52.14 52.275 52.41 52.59 52.812 53.035 53.25 53.452 53.645 53.838 54.073 54.37 54.693 55.02 55.345 55.66 55.975 56.305 56.65 57.005 57.365 57.715 58.04 58.41 58.845 59.277 59.69 60.087 60.465 60.81 61.145 61.51 61.902 62.285 62.645 62.987 63.325 63.68 64.06 64.44 64.81 65.172 65.515 65.822 66.11 66.403 66.698 67.005 67.317 67.605 67.87 68.1 68.295 68.472 68.62 68.732 68.852 68.99 69.105 69.222 69.355 69.48 69.552 69.537 69.482
50.25 50.435 50.62 50.797 50.98 51.188 51.413 51.64 51.868 52.08 52.252 52.398 52.54 52.675 52.732 52.707 52.68 52.67 52.675 52.688 52.71 52.735 52.76 52.787 52.772 52.708 52.653 52.612 52.565 52.512 52.437 52.345 52.252 52.152 52.05 51.952 51.86 51.767 51.645 51.492 51.335 51.188 51.057 50.925 50.785 50.645 50.513 50.395 50.29 50.195 50.123 50.07 50.022 49.97 49.905 49.84 49.778 49.735 49.737 49.762 49.79 49.817 49.835 49.82 49.775 49.723 49.683 49.657 49.633 49.618 49.613 49.61 49.61 49.61 49.592 49.56 49.527 49.495 49.475 49.47 49.47 49.462 49.445 49.42 49.392 49.37 49.347 49.315 49.275 49.238 49.228 49.25 49.277 49.305 49.32 49.312 49.297 49.283 49.275 49.28 49.298 49.338 49.37 49.38 49.395 49.415 49.445 49.488 49.535 49.583 49.653 49.753 49.86 49.968 50.075 50.205 50.352 50.497 50.6 50.65 50.695 50.75 50.84 50.935 51.01 51.087 51.172 51.253 51.32 51.388 51.463 51.558 51.665 51.775 51.89 52.02 52.155 52.288 52.458 52.67 52.89 53.11 53.317 53.51 53.708 53.953 54.255 54.575 54.898 55.218 55.53 55.84 56.155 56.49 56.845 57.205 57.568 57.923 58.315 58.755 59.195 59.617 60.002 60.35 60.68 61.015 61.383 61.778 62.172 62.552 62.902 63.24 63.58 63.935 64.305 64.678 65.05 65.405 65.722 66.017 66.31 66.605 66.905 67.19 67.457 67.717 67.947 68.152 68.35 68.522 68.652 68.757 68.852 68.938 69.043 69.182 69.325 69.38 69.35 69.308
50.39 50.575 50.755 50.922 51.118 51.348 51.575 51.8 52.028 52.252 52.435 52.575 52.702 52.797 52.81 52.768 52.75 52.75 52.753 52.758 52.768 52.785 52.81 52.835 52.832 52.78 52.708 52.645 52.592 52.54 52.465 52.372 52.275 52.172 52.065 51.962 51.867 51.775 51.662 51.517 51.36 51.2 51.053 50.915 50.775 50.63 50.485 50.36 50.255 50.168 50.095 50.033 49.98 49.93 49.872 49.81 49.758 49.728 49.723 49.74 49.77 49.8 49.822 49.815 49.772 49.718 49.678 49.653 49.628 49.605 49.585 49.573 49.57 49.57 49.555 49.522 49.492 49.465 49.448 49.445 49.442 49.437 49.425 49.4 49.375 49.355 49.332 49.302 49.265 49.228 49.213 49.228 49.25 49.275 49.29 49.282 49.268 49.26 49.263 49.27 49.28 49.298 49.318 49.335 49.355 49.378 49.415 49.465 49.515 49.57 49.648 49.745 49.848 49.953 50.078 50.225 50.37 50.495 50.575 50.62 50.662 50.712 50.77 50.835 50.91 50.985 51.065 51.145 51.213 51.278 51.355 51.453 51.558 51.663 51.773 51.898 52.033 52.168 52.333 52.538 52.755 52.975 53.185 53.38 53.593 53.853 54.155 54.475 54.795 55.11 55.42 55.73 56.045 56.378 56.73 57.09 57.453 57.828 58.24 58.68 59.115 59.512 59.865 60.2 60.533 60.88 61.258 61.653 62.047 62.43 62.792 63.14 63.475 63.815 64.175 64.55 64.922 65.277 65.59 65.88 66.177 66.475 66.755 67.015 67.272 67.525 67.755 67.965 68.167 68.347 68.492 68.6 68.685 68.77 68.87 69.013 69.172 69.232 69.208 69.195
50.502 50.67 50.832 51.01 51.268 51.545 51.775 51.998 52.223 52.445 52.622 52.74 52.825 52.87 52.86 52.835 52.83 52.833 52.837 52.84 52.84 52.848 52.865 52.885 52.897 52.86 52.778 52.695 52.623 52.56 52.482 52.382 52.277 52.17 52.055 51.94 51.835 51.74 51.632 51.5 51.352 51.195 51.045 50.907 50.76 50.595 50.438 50.31 50.218 50.155 50.083 49.998 49.935 49.885 49.83 49.775 49.74 49.725 49.708 49.7 49.72 49.75 49.772 49.777 49.757 49.715 49.673 49.645 49.625 49.612 49.588 49.553 49.535 49.528 49.51 49.48 49.453 49.428 49.415 49.415 49.41 49.405 49.392 49.368 49.345 49.323 49.3 49.28 49.25 49.213 49.195 49.2 49.213 49.235 49.25 49.24 49.23 49.238 49.25 49.26 49.27 49.283 49.298 49.318 49.342 49.365 49.405 49.465 49.52 49.58 49.663 49.758 49.855 49.958 50.08 50.22 50.34 50.425 50.485 50.532 50.577 50.628 50.678 50.728 50.793 50.868 50.952 51.047 51.125 51.19 51.273 51.37 51.47 51.565 51.66 51.775 51.908 52.053 52.225 52.423 52.633 52.85 53.058 53.263 53.5 53.768 54.065 54.385 54.705 55.02 55.33 55.645 55.97 56.303 56.65 57.01 57.38 57.765 58.178 58.612 59.017 59.365 59.695 60.033 60.38 60.75 61.135 61.527 61.912 62.28 62.647 63.012 63.355 63.695 64.055 64.427 64.792 65.137 65.435 65.708 66 66.3 66.57 66.81 67.055 67.305 67.535 67.74 67.925 68.085 68.245 68.397 68.512 68.603 68.713 68.865 69.027 69.105 69.093 69.125
50.557 50.71 50.88 51.128 51.46 51.757 51.985 52.205 52.427 52.625 52.762 52.842 52.895 52.922 52.918 52.91 52.913 52.917 52.92 52.92 52.92 52.925 52.933 52.94 52.955 52.93 52.852 52.767 52.667 52.572 52.485 52.38 52.272 52.162 52.045 51.925 51.81 51.708 51.597 51.47 51.335 51.187 51.04 50.892 50.722 50.538 50.378 50.273 50.21 50.16 50.085 49.988 49.905 49.845 49.79 49.75 49.735 49.727 49.708 49.68 49.675 49.695 49.715 49.72 49.717 49.7 49.667 49.643 49.632 49.627 49.602 49.558 49.52 49.493 49.468 49.443 49.418 49.395 49.385 49.382 49.378 49.372 49.357 49.335 49.315 49.29 49.265 49.248 49.227 49.2 49.185 49.185 49.188 49.2 49.21 49.208 49.21 49.223 49.238 49.25 49.263 49.277 49.292 49.308 49.328 49.353 49.395 49.462 49.525 49.59 49.678 49.772 49.867 49.965 50.072 50.18 50.262 50.33 50.39 50.44 50.492 50.545 50.592 50.638 50.688 50.753 50.835 50.935 51.03 51.105 51.19 51.287 51.38 51.462 51.545 51.653 51.783 51.94 52.125 52.32 52.52 52.728 52.938 53.165 53.42 53.683 53.975 54.295 54.615 54.93 55.243 55.568 55.9 56.23 56.573 56.938 57.318 57.705 58.115 58.517 58.87 59.195 59.53 59.883 60.25 60.628 61.012 61.397 61.762 62.12 62.487 62.862 63.225 63.575 63.933 64.297 64.655 64.992 65.287 65.553 65.828 66.12 66.387 66.615 66.845 67.09 67.312 67.495 67.655 67.805 67.965 68.14 68.3 68.425 68.557 68.715 68.872 68.972 68.998 69.085
50.583 50.753 50.993 51.32 51.677 51.97 52.195 52.415 52.612 52.73 52.8 52.877 52.95 52.987 52.99 52.992 52.997 53 53 53 53.002 53.007 53.007 53.005 53.01 52.98 52.89 52.777 52.66 52.557 52.47 52.375 52.27 52.158 52.04 51.92 51.8 51.685 51.565 51.435 51.305 51.17 51.02 50.847 50.66 50.47 50.33 50.263 50.217 50.17 50.095 49.995 49.895 49.81 49.758 49.74 49.735 49.73 49.712 49.677 49.65 49.645 49.655 49.66 49.662 49.662 49.652 49.642 49.64 49.637 49.615 49.57 49.523 49.48 49.448 49.42 49.393 49.368 49.353 49.348 49.345 49.34 49.325 49.305 49.285 49.26 49.238 49.22 49.205 49.19 49.178 49.175 49.175 49.175 49.178 49.187 49.2 49.21 49.225 49.24 49.252 49.265 49.282 49.302 49.317 49.338 49.383 49.455 49.525 49.602 49.69 49.775 49.862 49.947 50.01 50.065 50.137 50.21 50.275 50.335 50.397 50.457 50.507 50.552 50.595 50.645 50.72 50.818 50.922 51.015 51.1 51.187 51.267 51.342 51.425 51.528 51.663 51.835 52.028 52.223 52.418 52.615 52.833 53.08 53.337 53.598 53.89 54.208 54.525 54.843 55.163 55.495 55.83 56.16 56.503 56.875 57.263 57.647 58.032 58.39 58.72 59.048 59.395 59.765 60.138 60.51 60.883 61.247 61.603 61.96 62.325 62.698 63.072 63.442 63.802 64.158 64.512 64.85 65.142 65.407 65.673 65.945 66.2 66.425 66.65 66.88 67.077 67.233 67.378 67.525 67.685 67.863 68.042 68.21 68.377 68.552 68.717 68.837 68.925 69.03
50.623 50.855 51.18 51.537 51.89 52.18 52.405 52.607 52.73 52.755 52.783 52.865 52.957 53.005 53.007 53.005 53 52.992 52.99 52.99 52.992 52.995 52.992 52.99 52.99 52.955 52.85 52.72 52.615 52.53 52.45 52.367 52.27 52.16 52.042 51.92 51.797 51.66 51.517 51.385 51.255 51.125 50.967 50.783 50.598 50.423 50.315 50.268 50.222 50.177 50.105 50.005 49.9 49.795 49.743 49.738 49.732 49.715 49.682 49.647 49.617 49.6 49.603 49.61 49.615 49.62 49.62 49.62 49.62 49.617 49.607 49.577 49.53 49.485 49.448 49.415 49.385 49.348 49.323 49.32 49.318 49.313 49.3 49.28 49.26 49.238 49.22 49.208 49.193 49.18 49.173 49.17 49.167 49.155 49.148 49.16 49.177 49.187 49.195 49.205 49.212 49.22 49.237 49.26 49.28 49.308 49.36 49.435 49.505 49.58 49.66 49.735 49.815 49.887 49.912 49.918 49.968 50.042 50.115 50.185 50.255 50.327 50.392 50.44 50.48 50.53 50.608 50.707 50.807 50.892 50.972 51.055 51.132 51.213 51.31 51.425 51.57 51.75 51.945 52.14 52.333 52.52 52.735 52.99 53.248 53.518 53.82 54.138 54.453 54.77 55.098 55.433 55.77 56.113 56.463 56.828 57.208 57.592 57.948 58.278 58.613 58.945 59.303 59.682 60.055 60.425 60.77 61.098 61.443 61.8 62.165 62.538 62.915 63.297 63.665 64.018 64.37 64.702 64.99 65.253 65.515 65.77 66.01 66.238 66.462 66.682 66.862 67.005 67.148 67.293 67.435 67.598 67.78 67.962 68.15 68.34 68.522 68.657 68.74 68.797
50.715 51.035 51.395 51.753 52.102 52.39 52.6 52.73 52.76 52.75 52.765 52.835 52.917 52.955 52.96 52.955 52.94 52.925 52.915 52.908 52.9 52.893 52.888 52.885 52.885 52.862 52.778 52.67 52.585 52.505 52.425 52.345 52.263 52.165 52.045 51.915 51.777 51.607 51.448 51.322 51.195 51.065 50.905 50.725 50.558 50.408 50.318 50.275 50.23 50.185 50.115 50.015 49.907 49.795 49.738 49.73 49.712 49.667 49.618 49.585 49.56 49.543 49.548 49.565 49.575 49.58 49.58 49.58 49.58 49.575 49.575 49.57 49.537 49.493 49.453 49.42 49.382 49.33 49.298 49.295 49.292 49.29 49.28 49.26 49.24 49.22 49.208 49.2 49.187 49.175 49.17 49.165 49.15 49.127 49.115 49.122 49.135 49.135 49.132 49.137 49.143 49.15 49.165 49.19 49.223 49.265 49.325 49.392 49.452 49.518 49.59 49.665 49.742 49.81 49.827 49.8 49.803 49.86 49.935 50.005 50.08 50.167 50.245 50.298 50.348 50.41 50.495 50.595 50.68 50.743 50.813 50.897 50.98 51.08 51.213 51.36 51.51 51.68 51.875 52.067 52.25 52.428 52.64 52.895 53.158 53.445 53.76 54.08 54.395 54.713 55.045 55.385 55.733 56.09 56.445 56.798 57.16 57.54 57.89 58.203 58.528 58.863 59.225 59.612 59.992 60.365 60.692 60.985 61.3 61.645 62.01 62.385 62.768 63.155 63.525 63.877 64.22 64.54 64.825 65.087 65.342 65.585 65.82 66.05 66.275 66.495 66.677 66.82 66.963 67.105 67.23 67.36 67.525 67.707 67.895 68.085 68.25 68.357 68.385 68.375
50.89 51.25 51.61 51.97 52.317 52.587 52.727 52.76 52.75 52.74 52.745 52.803 52.877 52.902 52.905 52.91 52.9 52.885 52.87 52.855 52.843 52.828 52.815 52.805 52.798 52.803 52.768 52.688 52.615 52.543 52.468 52.393 52.29 52.145 52.015 51.895 51.732 51.54 51.378 51.255 51.132 51.005 50.855 50.693 50.543 50.408 50.323 50.28 50.237 50.192 50.122 50.022 49.912 49.798 49.733 49.71 49.665 49.603 49.553 49.523 49.5 49.48 49.483 49.507 49.53 49.54 49.54 49.54 49.537 49.533 49.535 49.54 49.53 49.497 49.458 49.42 49.37 49.31 49.275 49.27 49.267 49.265 49.257 49.24 49.22 49.2 49.19 49.187 49.18 49.17 49.162 49.147 49.12 49.093 49.08 49.08 49.075 49.06 49.055 49.063 49.07 49.085 49.108 49.14 49.18 49.223 49.275 49.333 49.388 49.45 49.52 49.592 49.665 49.73 49.742 49.705 49.675 49.693 49.755 49.833 49.92 50.015 50.103 50.168 50.23 50.3 50.382 50.465 50.53 50.588 50.653 50.735 50.838 50.973 51.13 51.295 51.452 51.618 51.802 51.982 52.158 52.333 52.548 52.803 53.075 53.38 53.7 54.02 54.335 54.658 55.002 55.357 55.715 56.072 56.425 56.775 57.125 57.49 57.837 58.145 58.453 58.78 59.145 59.535 59.922 60.3 60.625 60.905 61.195 61.508 61.855 62.235 62.625 63.015 63.385 63.727 64.057 64.375 64.66 64.915 65.157 65.392 65.625 65.855 66.083 66.307 66.492 66.635 66.775 66.912 67.037 67.155 67.29 67.455 67.64 67.8 67.905 67.977 67.987 67.945
51.085 51.453 51.82 52.188 52.527 52.727 52.765 52.755 52.748 52.743 52.74 52.77 52.832 52.862 52.855 52.855 52.855 52.845 52.83 52.815 52.805 52.79 52.775 52.76 52.745 52.81 52.87 52.825 52.76 52.695 52.625 52.507 52.247 52.003 51.912 51.835 51.675 51.473 51.313 51.19 51.07 50.947 50.815 50.675 50.535 50.408 50.328 50.285 50.242 50.195 50.122 50.02 49.912 49.803 49.72 49.665 49.6 49.533 49.485 49.46 49.44 49.42 49.42 49.445 49.472 49.492 49.5 49.5 49.495 49.49 49.495 49.5 49.5 49.49 49.457 49.407 49.35 49.29 49.255 49.247 49.242 49.24 49.232 49.212 49.182 49.15 49.14 49.15 49.155 49.152 49.14 49.115 49.085 49.055 49.035 49.022 49.005 48.985 48.983 48.998 49.015 49.038 49.065 49.1 49.143 49.193 49.24 49.285 49.333 49.383 49.445 49.515 49.585 49.645 49.65 49.613 49.575 49.555 49.595 49.685 49.785 49.885 49.977 50.052 50.12 50.187 50.255 50.317 50.373 50.43 50.495 50.59 50.73 50.89 51.05 51.21 51.37 51.537 51.715 51.89 52.063 52.238 52.453 52.713 53.003 53.32 53.64 53.96 54.275 54.593 54.942 55.315 55.685 56.05 56.405 56.752 57.097 57.447 57.782 58.09 58.39 58.708 59.07 59.46 59.85 60.23 60.555 60.838 61.123 61.408 61.73 62.108 62.498 62.88 63.237 63.565 63.89 64.21 64.487 64.727 64.965 65.2 65.43 65.66 65.89 66.12 66.305 66.445 66.585 66.72 66.845 66.965 67.082 67.21 67.345 67.445 67.515 67.585 67.6 67.56
51.24 51.663 52.083 52.46 52.715 52.805 52.803 52.795 52.79 52.788 52.778 52.763 52.783 52.827 52.832 52.81 52.803 52.802 52.79 52.775 52.765 52.75 52.735 52.72 52.735 52.88 53.03 53.025 52.958 52.892 52.757 52.46 52.035 51.785 51.75 51.697 51.59 51.422 51.26 51.135 51.015 50.895 50.77 50.64 50.507 50.393 50.32 50.272 50.225 50.175 50.1 49.997 49.892 49.782 49.677 49.595 49.525 49.455 49.41 49.39 49.37 49.355 49.36 49.382 49.408 49.432 49.445 49.445 49.442 49.435 49.432 49.437 49.44 49.452 49.44 49.385 49.325 49.268 49.23 49.215 49.21 49.21 49.185 49.14 49.097 49.055 49.045 49.062 49.087 49.105 49.08 49.04 49.012 48.985 48.965 48.955 48.94 48.923 48.928 48.95 48.975 49 49.028 49.065 49.118 49.185 49.235 49.27 49.308 49.335 49.375 49.44 49.507 49.56 49.562 49.528 49.493 49.463 49.488 49.57 49.67 49.775 49.865 49.94 50.007 50.07 50.125 50.178 50.23 50.285 50.355 50.473 50.63 50.79 50.95 51.107 51.262 51.423 51.605 51.795 51.97 52.143 52.358 52.633 52.94 53.26 53.58 53.897 54.207 54.513 54.855 55.235 55.62 56.002 56.365 56.712 57.057 57.387 57.7 58.005 58.31 58.64 59.01 59.4 59.787 60.15 60.475 60.772 61.055 61.338 61.66 62.033 62.407 62.755 63.08 63.403 63.727 64.027 64.282 64.517 64.757 65.003 65.24 65.47 65.7 65.915 66.085 66.225 66.365 66.497 66.612 66.722 66.837 66.942 67.008 67.06 67.13 67.2 67.222 67.19
51.62 52.045 52.425 52.702 52.82 52.865 52.88 52.875 52.87 52.865 52.845 52.8 52.768 52.788 52.817 52.8 52.765 52.755 52.747 52.735 52.725 52.71 52.695 52.68 52.763 52.987 53.19 53.225 53.155 53.002 52.67 52.195 51.775 51.603 51.562 51.5 51.43 51.327 51.202 51.085 50.965 50.845 50.72 50.59 50.47 50.373 50.3 50.243 50.19 50.14 50.065 49.962 49.852 49.735 49.62 49.52 49.443 49.375 49.33 49.31 49.295 49.293 49.303 49.32 49.345 49.367 49.375 49.375 49.37 49.355 49.345 49.35 49.368 49.405 49.405 49.35 49.293 49.243 49.203 49.178 49.168 49.162 49.12 49.045 48.988 48.945 48.935 48.96 49.01 49.047 49.012 48.948 48.908 48.88 48.868 48.88 48.88 48.868 48.88 48.908 48.935 48.96 48.99 49.038 49.108 49.182 49.232 49.27 49.297 49.302 49.32 49.375 49.432 49.462 49.467 49.452 49.422 49.395 49.415 49.48 49.565 49.665 49.755 49.827 49.89 49.95 50.005 50.055 50.108 50.165 50.238 50.36 50.517 50.673 50.83 50.99 51.145 51.3 51.483 51.682 51.872 52.05 52.268 52.56 52.88 53.2 53.52 53.832 54.135 54.435 54.77 55.148 55.543 55.94 56.31 56.657 56.987 57.29 57.59 57.9 58.228 58.585 58.965 59.35 59.712 60.04 60.37 60.697 60.99 61.278 61.613 61.98 62.317 62.617 62.92 63.245 63.552 63.815 64.055 64.293 64.543 64.805 65.05 65.277 65.49 65.675 65.832 65.973 66.107 66.235 66.34 66.435 66.542 66.647 66.692 66.708 66.76 66.83 66.855 66.827
52.11 52.442 52.68 52.8 52.862 52.922 52.952 52.952 52.95 52.942 52.91 52.857 52.805 52.773 52.788 52.797 52.76 52.723 52.705 52.695 52.685 52.67 52.655 52.68 52.84 53.105 53.35 53.425 53.252 52.882 52.39 51.87 51.528 51.42 51.36 51.29 51.23 51.185 51.127 51.03 50.912 50.795 50.67 50.55 50.448 50.355 50.28 50.22 50.162 50.107 50.03 49.922 49.805 49.688 49.573 49.46 49.365 49.293 49.25 49.235 49.233 49.238 49.248 49.263 49.283 49.302 49.307 49.3 49.285 49.265 49.258 49.275 49.315 49.365 49.365 49.313 49.263 49.22 49.18 49.15 49.13 49.112 49.065 48.978 48.895 48.838 48.833 48.883 48.955 49 48.967 48.89 48.823 48.778 48.768 48.792 48.812 48.815 48.83 48.862 48.895 48.923 48.958 49.02 49.105 49.18 49.23 49.262 49.272 49.263 49.268 49.307 49.34 49.34 49.342 49.352 49.347 49.33 49.348 49.405 49.473 49.558 49.642 49.71 49.77 49.83 49.885 49.938 49.995 50.058 50.128 50.243 50.4 50.557 50.713 50.87 51.025 51.18 51.358 51.557 51.76 51.953 52.188 52.493 52.817 53.14 53.457 53.765 54.065 54.365 54.693 55.07 55.475 55.882 56.257 56.587 56.89 57.183 57.488 57.818 58.175 58.545 58.92 59.28 59.605 59.915 60.248 60.595 60.917 61.222 61.555 61.89 62.185 62.465 62.765 63.07 63.34 63.585 63.828 64.078 64.343 64.612 64.855 65.062 65.247 65.42 65.577 65.715 65.842 65.965 66.07 66.16 66.255 66.352 66.397 66.393 66.41 66.462 66.482 66.457
52.417 52.652 52.777 52.84 52.905 52.97 53.015 53.03 53.03 53.012 52.967 52.915 52.862 52.808 52.778 52.785 52.77 52.72 52.68 52.658 52.645 52.63 52.623 52.725 52.957 53.222 53.475 53.47 53.095 52.585 52.065 51.568 51.295 51.223 51.168 51.133 51.108 51.1 51.062 50.967 50.855 50.74 50.625 50.525 50.43 50.332 50.252 50.187 50.122 50.057 49.972 49.862 49.747 49.637 49.528 49.413 49.303 49.215 49.175 49.173 49.178 49.183 49.195 49.21 49.223 49.235 49.235 49.22 49.203 49.185 49.188 49.225 49.275 49.325 49.33 49.285 49.24 49.2 49.16 49.128 49.1 49.072 49.017 48.925 48.83 48.755 48.758 48.83 48.91 48.955 48.922 48.845 48.765 48.698 48.678 48.7 48.733 48.758 48.783 48.818 48.85 48.88 48.933 49.015 49.105 49.18 49.222 49.235 49.23 49.217 49.207 49.212 49.217 49.21 49.205 49.218 49.237 49.248 49.278 49.335 49.395 49.463 49.533 49.593 49.65 49.71 49.768 49.827 49.89 49.952 50.02 50.13 50.285 50.442 50.595 50.75 50.905 51.058 51.23 51.427 51.63 51.843 52.11 52.427 52.755 53.077 53.387 53.69 53.99 54.29 54.62 55.008 55.42 55.833 56.195 56.495 56.788 57.085 57.405 57.76 58.13 58.497 58.85 59.173 59.48 59.79 60.12 60.473 60.82 61.145 61.457 61.755 62.035 62.315 62.6 62.868 63.115 63.365 63.618 63.88 64.15 64.415 64.642 64.825 64.998 65.17 65.323 65.453 65.575 65.695 65.8 65.888 65.975 66.063 66.102 66.098 66.095 66.11 66.11 66.085
52.625 52.755 52.82 52.882 52.947 53.01 53.067 53.102 53.107 53.077 53.025 52.972 52.918 52.865 52.813 52.783 52.77 52.735 52.683 52.638 52.61 52.59 52.63 52.81 53.04 53.235 53.415 53.34 52.952 52.418 51.803 51.31 51.113 51.083 51.065 51.065 51.065 51.062 51.01 50.905 50.795 50.683 50.58 50.487 50.392 50.287 50.187 50.11 50.04 49.97 49.88 49.77 49.67 49.582 49.482 49.368 49.255 49.165 49.13 49.13 49.13 49.133 49.145 49.16 49.173 49.18 49.17 49.153 49.138 49.123 49.138 49.185 49.235 49.287 49.3 49.26 49.215 49.173 49.132 49.103 49.075 49.04 48.972 48.875 48.78 48.7 48.705 48.785 48.855 48.885 48.85 48.777 48.7 48.625 48.603 48.633 48.67 48.705 48.738 48.772 48.805 48.828 48.89 48.995 49.097 49.175 49.195 49.175 49.147 49.122 49.097 49.08 49.072 49.065 49.063 49.085 49.115 49.143 49.188 49.245 49.31 49.385 49.45 49.503 49.558 49.613 49.663 49.718 49.782 49.845 49.913 50.023 50.173 50.325 50.475 50.628 50.78 50.93 51.095 51.285 51.498 51.74 52.03 52.355 52.682 53.005 53.315 53.615 53.918 54.243 54.605 55 55.413 55.822 56.147 56.413 56.705 57.005 57.338 57.705 58.075 58.442 58.777 59.083 59.39 59.695 60.02 60.373 60.722 61.05 61.347 61.63 61.91 62.185 62.448 62.695 62.943 63.205 63.453 63.698 63.967 64.23 64.435 64.6 64.77 64.942 65.092 65.215 65.338 65.47 65.583 65.668 65.753 65.82 65.843 65.838 65.833 65.828 65.798 65.758
52.675 52.765 52.837 52.912 52.985 53.05 53.112 53.167 53.177 53.138 53.085 53.03 52.975 52.925 52.87 52.815 52.778 52.745 52.697 52.645 52.598 52.558 52.615 52.785 52.942 53.065 53.18 53.125 52.86 52.457 51.855 51.295 51.068 51.038 51.03 51.03 51.032 51.022 50.955 50.845 50.735 50.628 50.528 50.432 50.33 50.21 50.09 50 49.93 49.86 49.77 49.668 49.593 49.532 49.44 49.325 49.228 49.158 49.128 49.123 49.118 49.11 49.11 49.118 49.13 49.14 49.125 49.103 49.085 49.07 49.09 49.143 49.195 49.25 49.265 49.227 49.185 49.14 49.1 49.075 49.05 49.005 48.925 48.827 48.733 48.65 48.655 48.725 48.762 48.765 48.74 48.687 48.615 48.55 48.545 48.585 48.625 48.662 48.695 48.727 48.755 48.768 48.828 48.942 49.04 49.09 49.087 49.052 49.01 48.97 48.94 48.925 48.917 48.91 48.918 48.96 49.002 49.035 49.083 49.148 49.23 49.327 49.4 49.443 49.492 49.537 49.568 49.608 49.67 49.735 49.808 49.92 50.063 50.21 50.36 50.508 50.655 50.803 50.955 51.145 51.388 51.655 51.95 52.272 52.597 52.925 53.24 53.555 53.895 54.263 54.65 55.043 55.448 55.845 56.14 56.37 56.64 56.935 57.27 57.64 58.013 58.385 58.722 59.027 59.332 59.63 59.95 60.297 60.635 60.955 61.25 61.53 61.805 62.067 62.32 62.568 62.828 63.105 63.34 63.548 63.795 64.057 64.255 64.403 64.565 64.737 64.885 65.01 65.148 65.297 65.417 65.505 65.575 65.61 65.618 65.613 65.61 65.605 65.557 65.488
52.537 52.667 52.762 52.847 52.93 53.007 53.082 53.157 53.212 53.205 53.155 53.1 53.045 52.995 52.94 52.875 52.792 52.738 52.705 52.655 52.59 52.51 52.49 52.57 52.69 52.81 52.915 52.845 52.615 52.372 52.01 51.525 51.198 51.09 51.043 51.01 50.998 50.975 50.895 50.787 50.68 50.575 50.475 50.37 50.25 50.12 49.99 49.89 49.823 49.752 49.665 49.585 49.535 49.485 49.398 49.3 49.233 49.18 49.148 49.137 49.127 49.11 49.097 49.093 49.095 49.102 49.09 49.06 49.035 49.023 49.045 49.1 49.157 49.21 49.22 49.187 49.152 49.11 49.07 49.045 49.022 48.967 48.875 48.78 48.685 48.603 48.595 48.63 48.637 48.63 48.615 48.582 48.525 48.483 48.495 48.538 48.58 48.618 48.652 48.677 48.69 48.7 48.762 48.855 48.895 48.9 48.892 48.875 48.845 48.805 48.778 48.768 48.762 48.755 48.773 48.827 48.882 48.928 48.99 49.077 49.177 49.282 49.36 49.39 49.417 49.452 49.475 49.505 49.56 49.625 49.703 49.82 49.96 50.105 50.253 50.398 50.543 50.688 50.843 51.043 51.3 51.575 51.868 52.188 52.515 52.848 53.19 53.553 53.933 54.318 54.705 55.095 55.49 55.867 56.15 56.365 56.598 56.87 57.205 57.578 57.955 58.33 58.667 58.968 59.263 59.555 59.873 60.212 60.54 60.855 61.15 61.422 61.685 61.94 62.19 62.45 62.73 63.015 63.25 63.44 63.648 63.887 64.085 64.225 64.373 64.533 64.68 64.82 64.975 65.132 65.255 65.327 65.365 65.387 65.395 65.39 65.392 65.39 65.34 65.25
52.307 52.477 52.607 52.705 52.79 52.875 52.96 53.045 53.167 53.257 53.242 53.187 53.117 53.025 52.922 52.82 52.745 52.725 52.705 52.637 52.542 52.435 52.34 52.338 52.435 52.555 52.645 52.56 52.33 52.1 51.87 51.607 51.36 51.21 51.122 51.047 50.99 50.93 50.837 50.732 50.627 50.522 50.415 50.295 50.162 50.03 49.895 49.788 49.717 49.648 49.578 49.525 49.485 49.44 49.373 49.305 49.255 49.205 49.162 49.135 49.112 49.09 49.077 49.072 49.067 49.067 49.052 49.017 48.987 48.975 49.002 49.06 49.12 49.167 49.17 49.14 49.112 49.077 49.043 49.02 48.992 48.925 48.827 48.732 48.635 48.555 48.525 48.523 48.515 48.503 48.485 48.463 48.43 48.42 48.45 48.493 48.535 48.573 48.602 48.615 48.618 48.628 48.665 48.695 48.688 48.68 48.675 48.67 48.66 48.635 48.618 48.613 48.605 48.598 48.628 48.69 48.753 48.813 48.888 48.99 49.102 49.215 49.295 49.302 49.31 49.355 49.385 49.408 49.453 49.518 49.6 49.718 49.858 50.005 50.153 50.298 50.443 50.593 50.773 50.99 51.233 51.495 51.785 52.105 52.448 52.813 53.198 53.592 53.982 54.37 54.76 55.15 55.54 55.897 56.168 56.385 56.6 56.838 57.16 57.545 57.933 58.31 58.64 58.93 59.22 59.508 59.813 60.135 60.45 60.76 61.05 61.313 61.57 61.828 62.088 62.363 62.648 62.925 63.155 63.345 63.538 63.745 63.928 64.07 64.213 64.363 64.51 64.658 64.813 64.968 65.077 65.12 65.143 65.17 65.183 65.178 65.178 65.175 65.125 65.035
52.063 52.247 52.417 52.552 52.65 52.735 52.82 52.905 53.045 53.23 53.267 53.165 53.047 52.905 52.77 52.69 52.682 52.687 52.655 52.575 52.465 52.352 52.238 52.158 52.19 52.305 52.375 52.27 52.04 51.82 51.663 51.54 51.385 51.235 51.13 51.045 50.96 50.875 50.777 50.672 50.567 50.462 50.347 50.215 50.075 49.94 49.808 49.693 49.613 49.555 49.508 49.465 49.428 49.395 49.352 49.3 49.247 49.197 49.145 49.092 49.055 49.03 49.02 49.017 49.012 49.007 48.987 48.952 48.928 48.923 48.938 48.98 49.04 49.087 49.092 49.067 49.042 49.025 49.01 48.99 48.952 48.875 48.777 48.68 48.588 48.518 48.483 48.468 48.45 48.42 48.39 48.368 48.358 48.385 48.43 48.47 48.51 48.535 48.542 48.545 48.545 48.542 48.533 48.518 48.505 48.498 48.49 48.485 48.485 48.483 48.48 48.475 48.468 48.458 48.485 48.55 48.625 48.705 48.77 48.838 48.915 49.015 49.097 49.117 49.153 49.22 49.272 49.31 49.35 49.413 49.5 49.615 49.755 49.905 50.055 50.202 50.348 50.518 50.73 50.96 51.19 51.428 51.71 52.055 52.435 52.833 53.232 53.628 54.023 54.438 54.85 55.24 55.625 55.975 56.255 56.483 56.698 56.92 57.23 57.625 58.013 58.375 58.693 58.98 59.27 59.555 59.85 60.16 60.463 60.743 61 61.255 61.515 61.775 62.045 62.325 62.605 62.878 63.103 63.293 63.488 63.68 63.845 63.985 64.13 64.278 64.423 64.57 64.72 64.862 64.938 64.958 64.983 65.01 65.025 65.023 65.02 65.015 64.968 64.885
51.817 52.003 52.187 52.36 52.495 52.592 52.678 52.763 52.89 53.092 53.135 52.985 52.835 52.705 52.633 52.61 52.585 52.527 52.46 52.397 52.332 52.255 52.155 52.04 51.985 52.05 52.102 51.98 51.768 51.63 51.58 51.485 51.323 51.173 51.053 50.963 50.88 50.802 50.71 50.605 50.5 50.395 50.28 50.143 50 49.863 49.725 49.598 49.518 49.48 49.443 49.403 49.373 49.347 49.312 49.265 49.213 49.167 49.112 49.033 48.975 48.95 48.94 48.935 48.928 48.92 48.9 48.873 48.873 48.888 48.878 48.875 48.915 48.967 48.977 48.955 48.945 48.96 48.967 48.942 48.897 48.82 48.723 48.63 48.555 48.5 48.468 48.45 48.42 48.372 48.33 48.303 48.315 48.373 48.425 48.465 48.49 48.485 48.472 48.47 48.465 48.442 48.41 48.383 48.365 48.355 48.348 48.345 48.348 48.358 48.365 48.36 48.35 48.33 48.348 48.42 48.518 48.615 48.67 48.7 48.735 48.793 48.858 48.913 48.978 49.05 49.12 49.183 49.238 49.308 49.403 49.52 49.66 49.81 49.958 50.105 50.268 50.47 50.7 50.93 51.16 51.4 51.695 52.065 52.465 52.868 53.267 53.663 54.083 54.545 54.982 55.367 55.735 56.082 56.382 56.635 56.865 57.09 57.403 57.79 58.152 58.487 58.797 59.09 59.38 59.665 59.96 60.262 60.537 60.775 61.005 61.253 61.508 61.765 62.035 62.315 62.598 62.88 63.107 63.29 63.483 63.672 63.827 63.958 64.098 64.243 64.39 64.537 64.68 64.807 64.86 64.86 64.875 64.9 64.915 64.915 64.918 64.915 64.87 64.79
51.575 51.76 51.945 52.13 52.302 52.437 52.535 52.62 52.735 52.9 52.915 52.765 52.64 52.557 52.505 52.447 52.362 52.265 52.173 52.115 52.09 52.06 52.007 51.937 51.853 51.83 51.832 51.72 51.595 51.573 51.54 51.42 51.27 51.12 50.983 50.88 50.803 50.73 50.642 50.537 50.43 50.325 50.21 50.075 49.935 49.795 49.653 49.525 49.453 49.415 49.38 49.353 49.327 49.302 49.27 49.228 49.183 49.145 49.087 48.99 48.905 48.868 48.858 48.852 48.845 48.835 48.818 48.813 48.845 48.87 48.85 48.815 48.81 48.843 48.853 48.845 48.87 48.91 48.92 48.882 48.83 48.76 48.673 48.598 48.538 48.485 48.45 48.42 48.372 48.318 48.27 48.25 48.288 48.36 48.415 48.44 48.435 48.413 48.395 48.385 48.367 48.337 48.302 48.268 48.238 48.22 48.215 48.218 48.228 48.243 48.252 48.247 48.227 48.2 48.218 48.308 48.425 48.527 48.585 48.613 48.645 48.683 48.733 48.798 48.865 48.935 49.005 49.075 49.143 49.218 49.315 49.435 49.57 49.715 49.863 50.02 50.215 50.44 50.67 50.905 51.158 51.433 51.755 52.123 52.505 52.903 53.303 53.718 54.19 54.682 55.112 55.48 55.83 56.177 56.485 56.757 57.017 57.258 57.568 57.93 58.265 58.59 58.9 59.195 59.485 59.773 60.06 60.33 60.565 60.788 61.02 61.263 61.508 61.758 62.025 62.308 62.595 62.887 63.122 63.298 63.48 63.662 63.812 63.94 64.07 64.21 64.357 64.495 64.625 64.742 64.79 64.78 64.78 64.795 64.805 64.808 64.815 64.815 64.77 64.69
51.332 51.518 51.702 51.887 52.072 52.245 52.38 52.477 52.583 52.705 52.692 52.553 52.448 52.37 52.282 52.185 52.088 51.992 51.895 51.823 51.79 51.77 51.75 51.727 51.682 51.64 51.61 51.565 51.55 51.565 51.502 51.365 51.22 51.07 50.925 50.805 50.725 50.663 50.578 50.47 50.36 50.255 50.14 50.005 49.865 49.725 49.585 49.475 49.413 49.37 49.338 49.313 49.285 49.26 49.232 49.195 49.155 49.12 49.057 48.957 48.858 48.793 48.773 48.768 48.76 48.75 48.753 48.783 48.83 48.852 48.83 48.79 48.755 48.743 48.745 48.762 48.8 48.837 48.837 48.792 48.742 48.692 48.632 48.575 48.52 48.465 48.42 48.372 48.317 48.263 48.213 48.213 48.27 48.335 48.375 48.375 48.357 48.337 48.315 48.292 48.262 48.23 48.197 48.162 48.125 48.098 48.09 48.097 48.112 48.127 48.137 48.127 48.1 48.073 48.103 48.208 48.332 48.445 48.507 48.533 48.56 48.603 48.665 48.735 48.805 48.875 48.945 49.015 49.08 49.15 49.245 49.365 49.493 49.625 49.775 49.96 50.18 50.41 50.655 50.923 51.208 51.505 51.838 52.2 52.565 52.945 53.355 53.818 54.33 54.82 55.222 55.573 55.92 56.267 56.58 56.863 57.148 57.423 57.723 58.05 58.375 58.7 59.015 59.318 59.61 59.898 60.16 60.39 60.608 60.825 61.053 61.29 61.53 61.773 62.03 62.31 62.6 62.892 63.135 63.315 63.488 63.655 63.8 63.93 64.058 64.188 64.323 64.45 64.573 64.68 64.72 64.713 64.708 64.705 64.708 64.713 64.72 64.715 64.667 64.59
51.088 51.272 51.458 51.643 51.827 52.012 52.185 52.322 52.427 52.507 52.482 52.388 52.288 52.163 52.04 51.923 51.815 51.718 51.623 51.538 51.49 51.47 51.45 51.435 51.443 51.47 51.47 51.465 51.485 51.49 51.412 51.272 51.135 50.995 50.857 50.738 50.678 50.653 50.545 50.4 50.293 50.187 50.072 49.937 49.795 49.655 49.52 49.428 49.38 49.345 49.315 49.285 49.255 49.228 49.195 49.142 49.09 49.055 48.99 48.89 48.795 48.73 48.708 48.7 48.69 48.685 48.71 48.76 48.81 48.825 48.792 48.747 48.703 48.673 48.655 48.658 48.685 48.715 48.71 48.665 48.623 48.597 48.575 48.535 48.48 48.425 48.37 48.315 48.26 48.205 48.158 48.158 48.207 48.26 48.285 48.275 48.257 48.247 48.217 48.163 48.122 48.1 48.065 48.012 47.978 47.98 47.98 47.97 47.978 47.995 48.01 48.007 47.985 47.958 47.995 48.107 48.23 48.34 48.42 48.462 48.488 48.535 48.605 48.675 48.745 48.815 48.885 48.955 49.022 49.09 49.18 49.315 49.458 49.583 49.735 49.943 50.175 50.405 50.668 50.962 51.257 51.568 51.91 52.272 52.635 53.018 53.468 53.978 54.497 54.957 55.332 55.678 56.025 56.383 56.738 57.058 57.358 57.655 57.928 58.208 58.523 58.848 59.178 59.5 59.803 60.09 60.335 60.548 60.76 60.97 61.178 61.398 61.635 61.875 62.105 62.345 62.62 62.91 63.152 63.337 63.507 63.662 63.8 63.93 64.06 64.185 64.308 64.433 64.55 64.635 64.66 64.655 64.65 64.64 64.638 64.643 64.647 64.635 64.583 64.508
50.843 51.028 51.213 51.398 51.583 51.768 51.953 52.127 52.265 52.327 52.305 52.26 52.187 52.053 51.9 51.755 51.623 51.495 51.37 51.26 51.195 51.193 51.218 51.25 51.308 51.383 51.4 51.36 51.35 51.347 51.267 51.132 50.997 50.865 50.748 50.693 50.71 50.725 50.595 50.38 50.233 50.12 50.005 49.872 49.73 49.59 49.465 49.388 49.35 49.32 49.29 49.263 49.235 49.205 49.155 49.075 49.003 48.957 48.89 48.795 48.72 48.678 48.66 48.65 48.643 48.648 48.68 48.727 48.762 48.762 48.725 48.675 48.638 48.622 48.59 48.55 48.55 48.575 48.57 48.53 48.5 48.49 48.485 48.465 48.422 48.368 48.313 48.257 48.2 48.145 48.103 48.088 48.108 48.152 48.175 48.163 48.155 48.16 48.122 48.028 47.943 47.907 47.87 47.823 47.828 47.877 47.89 47.855 47.838 47.845 47.865 47.88 47.877 47.855 47.888 48 48.112 48.205 48.305 48.385 48.427 48.48 48.55 48.62 48.688 48.755 48.825 48.895 48.965 49.033 49.115 49.268 49.442 49.578 49.74 49.96 50.195 50.425 50.688 50.983 51.29 51.623 51.975 52.338 52.715 53.148 53.65 54.18 54.672 55.092 55.457 55.803 56.163 56.548 56.945 57.32 57.65 57.95 58.2 58.43 58.708 59.023 59.362 59.715 60.04 60.327 60.57 60.78 60.99 61.2 61.395 61.588 61.808 62.045 62.252 62.438 62.665 62.94 63.18 63.362 63.527 63.677 63.815 63.945 64.072 64.195 64.315 64.437 64.537 64.595 64.612 64.607 64.6 64.588 64.583 64.588 64.585 64.57 64.52 64.443
50.683 50.863 51.043 51.223 51.403 51.583 51.763 51.943 52.1 52.17 52.16 52.13 52.087 51.985 51.835 51.683 51.53 51.378 51.223 51.1 51.05 51.07 51.125 51.195 51.273 51.347 51.362 51.295 51.238 51.205 51.12 50.985 50.848 50.715 50.65 50.698 50.78 50.82 50.7 50.45 50.23 50.065 49.935 49.805 49.665 49.525 49.415 49.358 49.325 49.295 49.265 49.237 49.21 49.177 49.112 49.02 48.933 48.865 48.795 48.72 48.67 48.633 48.61 48.603 48.6 48.61 48.64 48.67 48.68 48.672 48.64 48.603 48.59 48.585 48.55 48.49 48.448 48.443 48.433 48.408 48.395 48.388 48.38 48.37 48.35 48.31 48.257 48.2 48.14 48.085 48.048 48.033 48.033 48.055 48.07 48.065 48.075 48.09 48.047 47.935 47.805 47.708 47.665 47.678 47.73 47.795 47.81 47.77 47.733 47.71 47.715 47.735 47.75 47.748 47.785 47.882 47.977 48.065 48.165 48.275 48.36 48.425 48.495 48.565 48.63 48.695 48.765 48.835 48.905 48.975 49.053 49.203 49.405 49.568 49.745 49.975 50.213 50.445 50.705 51.01 51.343 51.688 52.04 52.415 52.843 53.335 53.86 54.365 54.81 55.215 55.585 55.943 56.333 56.737 57.14 57.54 57.917 58.242 58.495 58.705 58.933 59.208 59.54 59.91 60.262 60.56 60.8 61.013 61.225 61.432 61.625 61.805 61.998 62.215 62.415 62.58 62.76 62.988 63.21 63.385 63.54 63.69 63.83 63.957 64.08 64.2 64.322 64.43 64.5 64.545 64.565 64.557 64.545 64.533 64.528 64.527 64.515 64.5 64.457 64.38
50.628 50.803 50.978 51.153 51.328 51.502 51.662 51.802 51.925 51.997 52.015 52 51.972 51.902 51.77 51.618 51.462 51.31 51.178 51.108 51.105 51.13 51.165 51.213 51.265 51.32 51.322 51.25 51.162 51.08 50.975 50.843 50.71 50.598 50.598 50.697 50.797 50.86 50.74 50.492 50.267 50.06 49.885 49.735 49.597 49.463 49.37 49.332 49.305 49.275 49.245 49.215 49.185 49.142 49.065 48.968 48.873 48.788 48.72 48.67 48.633 48.595 48.57 48.565 48.563 48.565 48.577 48.585 48.583 48.578 48.563 48.55 48.55 48.545 48.51 48.45 48.388 48.34 48.315 48.303 48.295 48.285 48.275 48.265 48.252 48.235 48.195 48.135 48.075 48.028 48 47.988 47.98 47.978 47.983 47.99 48.005 48.02 47.972 47.855 47.717 47.573 47.523 47.583 47.65 47.715 47.73 47.69 47.647 47.603 47.583 47.593 47.61 47.625 47.663 47.735 47.817 47.905 47.995 48.1 48.207 48.335 48.45 48.518 48.583 48.648 48.713 48.78 48.848 48.915 48.988 49.13 49.345 49.548 49.755 49.99 50.23 50.465 50.735 51.063 51.408 51.753 52.115 52.54 53.033 53.548 54.052 54.51 54.928 55.34 55.733 56.12 56.525 56.935 57.34 57.74 58.14 58.515 58.797 59.01 59.218 59.445 59.743 60.098 60.46 60.785 61.035 61.247 61.46 61.667 61.86 62.037 62.215 62.403 62.58 62.74 62.905 63.085 63.263 63.415 63.558 63.705 63.843 63.965 64.085 64.205 64.317 64.397 64.45 64.498 64.518 64.508 64.495 64.485 64.473 64.46 64.448 64.432 64.392 64.32
50.59 50.765 50.94 51.115 51.272 51.412 51.532 51.632 51.727 51.797 51.835 51.85 51.842 51.805 51.7 51.55 51.398 51.265 51.198 51.198 51.22 51.243 51.27 51.3 51.33 51.342 51.27 51.15 51.05 50.947 50.832 50.705 50.575 50.505 50.555 50.655 50.732 50.73 50.49 50.172 49.957 49.795 49.69 49.605 49.502 49.38 49.292 49.267 49.267 49.25 49.222 49.195 49.16 49.102 49.017 48.92 48.828 48.753 48.693 48.645 48.608 48.573 48.55 48.543 48.532 48.518 48.508 48.505 48.503 48.5 48.5 48.5 48.5 48.49 48.452 48.395 48.33 48.263 48.225 48.215 48.205 48.185 48.165 48.153 48.143 48.142 48.117 48.06 48.003 47.978 47.967 47.948 47.935 47.925 47.925 47.933 47.942 47.947 47.887 47.76 47.612 47.458 47.415 47.487 47.56 47.632 47.647 47.602 47.552 47.5 47.465 47.463 47.48 47.51 47.535 47.555 47.598 47.668 47.752 47.845 47.95 48.1 48.317 48.482 48.56 48.625 48.688 48.753 48.815 48.88 48.955 49.103 49.32 49.543 49.795 50.055 50.295 50.53 50.81 51.15 51.495 51.848 52.255 52.743 53.265 53.782 54.265 54.695 55.11 55.525 55.935 56.343 56.75 57.16 57.565 57.965 58.365 58.76 59.092 59.342 59.558 59.765 60.04 60.385 60.727 61.022 61.255 61.465 61.675 61.892 62.097 62.275 62.45 62.625 62.77 62.905 63.063 63.228 63.38 63.515 63.648 63.78 63.893 64 64.12 64.24 64.332 64.39 64.44 64.49 64.513 64.505 64.495 64.485 64.448 64.403 64.385 64.372 64.332 64.263
50.552 50.727 50.882 51.017 51.135 51.235 51.332 51.427 51.522 51.595 51.632 51.66 51.68 51.68 51.617 51.485 51.358 51.293 51.29 51.313 51.335 51.355 51.38 51.41 51.44 51.392 51.215 51.023 50.893 50.79 50.682 50.565 50.448 50.425 50.492 50.55 50.582 50.467 50.08 49.65 49.423 49.355 49.36 49.37 49.337 49.252 49.165 49.12 49.097 49.06 49.04 49.07 49.092 49.055 48.972 48.88 48.808 48.76 48.705 48.643 48.595 48.558 48.538 48.527 48.502 48.465 48.443 48.44 48.44 48.44 48.44 48.44 48.432 48.405 48.362 48.315 48.255 48.188 48.148 48.135 48.115 48.075 48.045 48.035 48.035 48.045 48.03 47.98 47.943 47.948 47.942 47.913 47.893 47.883 47.882 47.887 47.875 47.82 47.742 47.637 47.49 47.34 47.308 47.382 47.457 47.505 47.507 47.485 47.442 47.388 47.345 47.34 47.368 47.42 47.442 47.418 47.408 47.425 47.473 47.558 47.663 47.775 47.993 48.28 48.497 48.615 48.68 48.745 48.808 48.875 48.958 49.115 49.338 49.56 49.833 50.137 50.402 50.64 50.92 51.26 51.62 52.008 52.458 52.98 53.515 54.035 54.51 54.932 55.35 55.765 56.175 56.587 57 57.41 57.815 58.212 58.607 58.995 59.352 59.66 59.912 60.13 60.41 60.742 61.022 61.245 61.45 61.66 61.88 62.115 62.33 62.512 62.69 62.865 62.992 63.093 63.225 63.385 63.537 63.672 63.797 63.91 64.003 64.088 64.19 64.305 64.387 64.43 64.475 64.522 64.545 64.542 64.535 64.525 64.47 64.385 64.335 64.315 64.277 64.21
50.492 50.627 50.742 50.837 50.933 51.03 51.127 51.222 51.317 51.39 51.427 51.455 51.485 51.51 51.505 51.442 51.385 51.385 51.405 51.427 51.45 51.47 51.492 51.52 51.525 51.402 51.17 50.938 50.755 50.633 50.527 50.42 50.323 50.31 50.35 50.37 50.387 50.195 49.753 49.388 49.248 49.223 49.213 49.205 49.188 49.123 49.038 48.97 48.9 48.83 48.788 48.833 48.937 48.982 48.93 48.858 48.815 48.78 48.725 48.655 48.593 48.545 48.52 48.497 48.455 48.405 48.38 48.38 48.38 48.38 48.38 48.37 48.342 48.303 48.26 48.22 48.17 48.11 48.07 48.045 48.005 47.955 47.928 47.925 47.93 47.94 47.937 47.91 47.908 47.93 47.917 47.885 47.855 47.838 47.837 47.812 47.732 47.612 47.528 47.477 47.367 47.23 47.205 47.275 47.315 47.3 47.29 47.302 47.3 47.27 47.228 47.223 47.27 47.345 47.365 47.328 47.3 47.283 47.29 47.343 47.413 47.49 47.615 47.868 48.215 48.507 48.665 48.735 48.802 48.878 48.965 49.128 49.353 49.575 49.848 50.172 50.48 50.745 51.03 51.388 51.79 52.215 52.675 53.205 53.757 54.28 54.745 55.167 55.59 56.005 56.415 56.83 57.247 57.66 58.062 58.455 58.842 59.225 59.585 59.917 60.225 60.49 60.76 61.027 61.242 61.438 61.64 61.86 62.103 62.35 62.562 62.748 62.93 63.105 63.23 63.315 63.415 63.55 63.695 63.822 63.935 64.04 64.135 64.21 64.29 64.385 64.455 64.488 64.518 64.555 64.575 64.575 64.572 64.562 64.505 64.408 64.323 64.268 64.223 64.165
50.347 50.442 50.538 50.633 50.73 50.827 50.923 51.017 51.112 51.185 51.225 51.255 51.285 51.31 51.33 51.322 51.317 51.342 51.367 51.395 51.422 51.447 51.475 51.567 51.572 51.377 51.132 50.885 50.655 50.488 50.373 50.275 50.198 50.155 50.153 50.17 50.165 49.902 49.53 49.373 49.323 49.288 49.253 49.208 49.143 49.05 48.953 48.875 48.808 48.74 48.67 48.68 48.793 48.887 48.89 48.852 48.825 48.792 48.74 48.67 48.6 48.54 48.495 48.45 48.4 48.35 48.323 48.32 48.32 48.317 48.307 48.28 48.24 48.2 48.158 48.115 48.073 48.025 47.983 47.94 47.89 47.838 47.813 47.817 47.825 47.835 47.842 47.855 47.89 47.912 47.892 47.86 47.825 47.79 47.742 47.645 47.51 47.375 47.29 47.265 47.215 47.118 47.093 47.125 47.105 47.068 47.06 47.075 47.097 47.107 47.098 47.118 47.19 47.27 47.282 47.24 47.208 47.198 47.213 47.245 47.28 47.323 47.383 47.495 47.775 48.18 48.507 48.687 48.787 48.872 48.97 49.14 49.365 49.588 49.863 50.188 50.515 50.825 51.163 51.57 52.003 52.435 52.895 53.423 53.985 54.515 54.977 55.403 55.825 56.243 56.658 57.073 57.49 57.908 58.308 58.693 59.075 59.458 59.82 60.155 60.485 60.8 61.07 61.278 61.455 61.635 61.843 62.088 62.345 62.592 62.8 62.985 63.172 63.342 63.462 63.55 63.635 63.735 63.853 63.965 64.07 64.175 64.265 64.338 64.412 64.488 64.54 64.565 64.583 64.6 64.61 64.61 64.608 64.597 64.54 64.442 64.345 64.253 64.18 64.128
50.155 50.248 50.34 50.435 50.533 50.625 50.718 50.813 50.907 50.982 51.02 51.042 51.065 51.082 51.095 51.077 51.062 51.085 51.115 51.145 51.175 51.205 51.28 51.437 51.427 51.212 50.995 50.777 50.56 50.365 50.23 50.147 50.085 50.025 49.983 49.977 49.905 49.683 49.5 49.438 49.397 49.362 49.31 49.232 49.135 49.028 48.913 48.808 48.733 48.665 48.6 48.62 48.722 48.797 48.82 48.81 48.785 48.76 48.715 48.645 48.577 48.522 48.47 48.415 48.365 48.315 48.285 48.278 48.275 48.257 48.217 48.175 48.135 48.095 48.053 48.01 47.973 47.943 47.905 47.855 47.798 47.73 47.7 47.71 47.72 47.73 47.737 47.75 47.792 47.822 47.8 47.762 47.725 47.685 47.597 47.458 47.315 47.193 47.115 47.075 47.04 46.983 46.953 46.948 46.918 46.895 46.883 46.878 46.89 46.913 46.948 47.018 47.11 47.175 47.167 47.122 47.097 47.1 47.122 47.152 47.182 47.212 47.24 47.288 47.503 47.883 48.262 48.505 48.615 48.74 48.923 49.135 49.358 49.608 49.915 50.25 50.58 50.92 51.345 51.822 52.265 52.695 53.163 53.698 54.25 54.76 55.212 55.635 56.055 56.483 56.915 57.338 57.755 58.175 58.575 58.955 59.335 59.717 60.075 60.403 60.73 61.06 61.355 61.582 61.763 61.928 62.14 62.403 62.65 62.865 63.058 63.243 63.422 63.567 63.675 63.77 63.857 63.943 64.038 64.143 64.245 64.34 64.403 64.458 64.532 64.605 64.647 64.665 64.677 64.675 64.67 64.668 64.662 64.635 64.555 64.45 64.35 64.245 64.145 64.078
49.985 50.065 50.158 50.252 50.345 50.435 50.528 50.623 50.715 50.772 50.792 50.807 50.822 50.837 50.842 50.81 50.765 50.765 50.795 50.825 50.855 50.898 51.032 51.155 51.062 50.855 50.657 50.47 50.285 50.125 50.04 49.995 49.945 49.893 49.84 49.82 49.763 49.658 49.57 49.508 49.465 49.405 49.32 49.217 49.112 49.01 48.892 48.765 48.665 48.59 48.535 48.565 48.652 48.697 48.712 48.72 48.71 48.697 48.66 48.593 48.538 48.498 48.45 48.395 48.342 48.293 48.265 48.255 48.235 48.19 48.13 48.075 48.03 47.99 47.948 47.913 47.89 47.875 47.845 47.785 47.707 47.623 47.585 47.595 47.605 47.615 47.62 47.608 47.618 47.647 47.632 47.592 47.555 47.52 47.445 47.313 47.178 47.085 47.028 46.973 46.913 46.848 46.81 46.803 46.79 46.775 46.755 46.73 46.72 46.73 46.793 46.91 47.02 47.062 47.02 46.96 46.943 46.957 46.98 47.005 47.03 47.052 47.078 47.165 47.388 47.737 48.05 48.223 48.373 48.588 48.86 49.115 49.343 49.643 50.007 50.355 50.695 51.055 51.523 52.067 52.557 53 53.48 54.015 54.53 55.005 55.445 55.868 56.298 56.743 57.19 57.622 58.045 58.467 58.867 59.243 59.62 60 60.35 60.665 60.985 61.312 61.62 61.895 62.127 62.313 62.525 62.77 62.977 63.152 63.33 63.512 63.662 63.77 63.87 63.975 64.07 64.155 64.25 64.355 64.445 64.52 64.56 64.588 64.648 64.72 64.762 64.777 64.777 64.76 64.75 64.745 64.72 64.655 64.55 64.435 64.33 64.225 64.115 64.023
49.85 49.898 49.98 50.075 50.165 50.255 50.35 50.445 50.535 50.567 50.555 50.563 50.577 50.592 50.59 50.55 50.49 50.46 50.475 50.505 50.535 50.623 50.777 50.812 50.657 50.445 50.235 50.033 49.843 49.778 49.82 49.822 49.795 49.765 49.738 49.733 49.752 49.715 49.632 49.57 49.495 49.4 49.298 49.193 49.09 48.987 48.872 48.743 48.62 48.525 48.473 48.503 48.557 48.583 48.608 48.638 48.65 48.645 48.612 48.555 48.515 48.48 48.432 48.378 48.32 48.27 48.245 48.22 48.17 48.11 48.05 47.988 47.93 47.888 47.855 47.835 47.825 47.81 47.767 47.69 47.6 47.51 47.47 47.48 47.49 47.5 47.5 47.48 47.463 47.47 47.457 47.42 47.387 47.352 47.287 47.173 47.068 47.008 46.96 46.897 46.81 46.723 46.68 46.675 46.667 46.655 46.635 46.605 46.575 46.565 46.645 46.797 46.925 46.95 46.878 46.798 46.77 46.79 46.818 46.845 46.87 46.89 46.925 47.055 47.283 47.568 47.828 48.033 48.27 48.545 48.835 49.097 49.348 49.688 50.092 50.465 50.825 51.195 51.668 52.245 52.8 53.295 53.785 54.287 54.765 55.23 55.675 56.11 56.56 57.02 57.47 57.905 58.335 58.762 59.16 59.53 59.905 60.282 60.627 60.938 61.248 61.567 61.875 62.165 62.44 62.677 62.892 63.09 63.262 63.427 63.6 63.757 63.87 63.963 64.063 64.17 64.272 64.365 64.46 64.552 64.625 64.69 64.73 64.743 64.775 64.835 64.877 64.882 64.865 64.84 64.827 64.805 64.742 64.655 64.55 64.428 64.313 64.205 64.093 63.983
49.75 49.765 49.813 49.895 49.985 50.075 50.17 50.265 50.352 50.375 50.335 50.32 50.333 50.347 50.337 50.29 50.23 50.178 50.163 50.185 50.243 50.362 50.487 50.447 50.252 50.04 49.827 49.613 49.44 49.488 49.637 49.67 49.655 49.64 49.638 49.66 49.707 49.722 49.672 49.585 49.482 49.38 49.275 49.17 49.07 48.965 48.852 48.728 48.595 48.475 48.408 48.423 48.463 48.495 48.538 48.582 48.6 48.592 48.567 48.527 48.495 48.46 48.415 48.36 48.3 48.247 48.207 48.155 48.09 48.03 47.97 47.908 47.843 47.795 47.773 47.76 47.75 47.715 47.645 47.562 47.477 47.4 47.368 47.373 47.38 47.39 47.382 47.355 47.328 47.308 47.283 47.25 47.22 47.187 47.132 47.052 46.987 46.94 46.882 46.797 46.688 46.588 46.54 46.532 46.525 46.517 46.515 46.5 46.465 46.44 46.518 46.68 46.817 46.84 46.768 46.695 46.648 46.638 46.655 46.685 46.71 46.73 46.795 46.965 47.198 47.443 47.7 47.965 48.235 48.52 48.815 49.083 49.363 49.73 50.188 50.632 51.008 51.36 51.825 52.408 52.992 53.542 54.042 54.517 54.985 55.452 55.913 56.37 56.835 57.3 57.75 58.185 58.62 59.052 59.45 59.823 60.197 60.57 60.91 61.218 61.52 61.83 62.132 62.417 62.702 62.975 63.192 63.365 63.532 63.7 63.852 63.967 64.06 64.155 64.255 64.363 64.473 64.578 64.667 64.738 64.8 64.863 64.9 64.91 64.925 64.96 64.982 64.97 64.945 64.92 64.89 64.833 64.753 64.665 64.56 64.438 64.315 64.198 64.085 63.975
49.66 49.665 49.678 49.725 49.805 49.897 49.993 50.085 50.167 50.185 50.135 50.093 50.088 50.102 50.085 50.03 49.97 49.91 49.865 49.875 49.96 50.07 50.145 50.062 49.848 49.635 49.423 49.268 49.21 49.3 49.455 49.512 49.507 49.498 49.515 49.563 49.615 49.66 49.647 49.562 49.46 49.357 49.252 49.15 49.048 48.943 48.835 48.712 48.58 48.448 48.365 48.363 48.398 48.443 48.49 48.537 48.555 48.542 48.517 48.485 48.455 48.422 48.377 48.322 48.265 48.205 48.142 48.077 48.013 47.95 47.89 47.83 47.765 47.713 47.685 47.67 47.645 47.58 47.495 47.415 47.343 47.305 47.3 47.3 47.303 47.29 47.257 47.225 47.195 47.158 47.113 47.065 47.025 46.997 46.957 46.905 46.862 46.832 46.785 46.692 46.583 46.48 46.403 46.37 46.36 46.355 46.372 46.395 46.382 46.35 46.41 46.565 46.68 46.712 46.695 46.65 46.59 46.543 46.518 46.523 46.548 46.57 46.675 46.89 47.135 47.395 47.662 47.93 48.208 48.5 48.795 49.068 49.378 49.803 50.343 50.85 51.25 51.615 52.053 52.61 53.192 53.75 54.252 54.72 55.19 55.675 56.18 56.675 57.148 57.61 58.045 58.468 58.905 59.34 59.74 60.112 60.485 60.855 61.197 61.505 61.808 62.117 62.398 62.66 62.945 63.22 63.437 63.61 63.78 63.947 64.077 64.173 64.265 64.37 64.48 64.588 64.703 64.815 64.9 64.96 65.02 65.085 65.123 65.128 65.133 65.128 65.1 65.07 65.048 65.025 64.98 64.905 64.823 64.73 64.62 64.498 64.363 64.225 64.108 64.003
49.565 49.572 49.575 49.59 49.638 49.72 49.815 49.902 49.982 49.997 49.943 49.883 49.853 49.857 49.832 49.77 49.71 49.65 49.603 49.593 49.65 49.75 49.782 49.657 49.443 49.255 49.13 49.105 49.145 49.203 49.283 49.345 49.36 49.37 49.41 49.46 49.507 49.552 49.577 49.532 49.435 49.332 49.23 49.127 49.022 48.92 48.815 48.697 48.568 48.46 48.41 48.383 48.37 48.398 48.443 48.49 48.512 48.495 48.463 48.428 48.395 48.365 48.322 48.267 48.207 48.137 48.065 48 47.935 47.87 47.81 47.75 47.685 47.625 47.593 47.572 47.517 47.43 47.345 47.273 47.238 47.25 47.265 47.265 47.245 47.185 47.123 47.083 47.05 47.01 46.952 46.888 46.833 46.788 46.753 46.728 46.71 46.708 46.682 46.6 46.498 46.4 46.3 46.223 46.19 46.185 46.208 46.257 46.287 46.27 46.315 46.442 46.5 46.52 46.557 46.567 46.54 46.492 46.44 46.4 46.395 46.43 46.583 46.833 47.093 47.358 47.625 47.898 48.183 48.48 48.775 49.055 49.425 49.965 50.567 51.075 51.495 51.902 52.323 52.833 53.395 53.942 54.447 54.915 55.4 55.918 56.46 56.997 57.492 57.95 58.368 58.768 59.193 59.625 60.027 60.4 60.77 61.14 61.485 61.795 62.103 62.42 62.685 62.915 63.185 63.457 63.672 63.845 64.01 64.167 64.292 64.39 64.495 64.62 64.742 64.848 64.96 65.072 65.157 65.22 65.283 65.355 65.397 65.4 65.387 65.345 65.273 65.208 65.175 65.157 65.112 65.032 64.94 64.832 64.715 64.59 64.437 64.273 64.143 64.04
49.465 49.48 49.485 49.49 49.505 49.553 49.635 49.72 49.797 49.81 49.75 49.685 49.633 49.61 49.578 49.518 49.483 49.465 49.46 49.405 49.363 49.43 49.42 49.253 49.09 49.02 49.023 49.06 49.095 49.135 49.18 49.215 49.23 49.255 49.302 49.347 49.39 49.435 49.48 49.477 49.405 49.305 49.205 49.102 49 48.9 48.795 48.68 48.573 48.525 48.52 48.475 48.41 48.38 48.398 48.442 48.465 48.445 48.41 48.375 48.34 48.307 48.267 48.21 48.14 48.065 47.99 47.923 47.857 47.792 47.73 47.668 47.603 47.54 47.5 47.457 47.375 47.28 47.203 47.168 47.183 47.217 47.235 47.212 47.147 47.06 46.99 46.943 46.905 46.86 46.8 46.743 46.69 46.63 46.575 46.565 46.585 46.6 46.585 46.512 46.415 46.32 46.22 46.12 46.043 46.015 46.043 46.097 46.15 46.172 46.222 46.287 46.28 46.283 46.35 46.432 46.45 46.41 46.365 46.312 46.273 46.34 46.553 46.815 47.08 47.345 47.613 47.895 48.188 48.483 48.775 49.093 49.573 50.215 50.82 51.3 51.72 52.145 52.58 53.06 53.588 54.13 54.64 55.128 55.648 56.188 56.735 57.287 57.817 58.29 58.705 59.093 59.49 59.91 60.312 60.685 61.057 61.43 61.775 62.09 62.405 62.725 62.99 63.203 63.44 63.695 63.907 64.075 64.232 64.385 64.51 64.62 64.748 64.885 65.012 65.12 65.223 65.327 65.412 65.48 65.55 65.625 65.67 65.662 65.625 65.572 65.49 65.39 65.323 65.29 65.24 65.15 65.042 64.927 64.81 64.672 64.502 64.32 64.178 64.077
49.362 49.39 49.395 49.4 49.405 49.418 49.465 49.538 49.612 49.622 49.56 49.493 49.428 49.39 49.378 49.363 49.37 49.395 49.407 49.307 49.145 49.113 49.065 48.945 48.908 48.933 48.965 48.992 49.025 49.08 49.137 49.158 49.153 49.158 49.188 49.23 49.273 49.318 49.362 49.395 49.365 49.275 49.175 49.075 48.975 48.875 48.772 48.673 48.615 48.61 48.615 48.58 48.51 48.438 48.395 48.405 48.415 48.392 48.357 48.322 48.287 48.252 48.205 48.14 48.07 47.995 47.92 47.85 47.782 47.717 47.653 47.588 47.525 47.463 47.4 47.325 47.23 47.14 47.098 47.113 47.147 47.182 47.18 47.115 47.025 46.933 46.863 46.818 46.778 46.733 46.68 46.633 46.585 46.52 46.44 46.4 46.42 46.45 46.45 46.397 46.317 46.235 46.14 46.04 45.938 45.868 45.878 45.933 45.99 46.04 46.087 46.097 46.063 46.073 46.16 46.277 46.322 46.29 46.248 46.203 46.203 46.34 46.595 46.865 47.13 47.395 47.665 47.968 48.28 48.575 48.865 49.235 49.808 50.495 51.072 51.527 51.965 52.41 52.867 53.33 53.818 54.338 54.85 55.373 55.917 56.462 57.01 57.563 58.115 58.62 59.042 59.427 59.813 60.21 60.6 60.97 61.345 61.72 62.07 62.395 62.715 63.035 63.3 63.51 63.723 63.943 64.135 64.293 64.45 64.608 64.745 64.875 65.015 65.155 65.285 65.395 65.493 65.59 65.675 65.75 65.828 65.9 65.93 65.9 65.85 65.8 65.72 65.61 65.51 65.435 65.357 65.253 65.138 65.023 64.9 64.742 64.558 64.373 64.22 64.118
49.257 49.297 49.305 49.308 49.323 49.348 49.393 49.41 49.43 49.435 49.423 49.418 49.353 49.293 49.29 49.315 49.34 49.365 49.35 49.22 49.01 48.873 48.813 48.803 48.832 48.857 48.883 48.913 48.963 49.03 49.097 49.127 49.118 49.103 49.1 49.12 49.158 49.2 49.245 49.29 49.302 49.245 49.145 49.045 48.945 48.845 48.737 48.63 48.585 48.592 48.6 48.595 48.56 48.502 48.437 48.398 48.373 48.338 48.3 48.265 48.23 48.182 48.102 48.007 47.935 47.87 47.797 47.722 47.66 47.623 47.59 47.54 47.48 47.415 47.33 47.23 47.133 47.048 47.02 47.045 47.08 47.115 47.09 47.007 46.92 46.828 46.755 46.713 46.678 46.64 46.595 46.547 46.487 46.405 46.315 46.24 46.223 46.252 46.257 46.205 46.135 46.067 46.007 45.94 45.842 45.75 45.728 45.773 45.83 45.885 45.92 45.917 45.893 45.913 45.995 46.107 46.18 46.17 46.125 46.113 46.208 46.405 46.668 46.95 47.22 47.485 47.758 48.073 48.41 48.727 49.025 49.438 50.055 50.74 51.292 51.732 52.18 52.627 53.1 53.595 54.085 54.573 55.075 55.61 56.157 56.72 57.29 57.848 58.405 58.93 59.365 59.747 60.13 60.52 60.915 61.295 61.67 62.048 62.403 62.728 63.045 63.365 63.63 63.84 64.045 64.245 64.423 64.583 64.745 64.905 65.04 65.165 65.305 65.445 65.577 65.693 65.795 65.89 65.978 66.06 66.13 66.162 66.155 66.125 66.08 66.03 65.95 65.84 65.73 65.615 65.493 65.37 65.253 65.135 64.988 64.805 64.615 64.43 64.268 64.155
49.168 49.213 49.245 49.273 49.31 49.36 49.427 49.465 49.5 49.5 49.47 49.447 49.36 49.275 49.26 49.285 49.31 49.335 49.29 49.13 48.935 48.773 48.703 48.72 48.745 48.77 48.8 48.845 48.91 48.98 49.052 49.095 49.092 49.075 49.055 49.045 49.053 49.083 49.128 49.17 49.21 49.197 49.115 49.015 48.912 48.8 48.675 48.545 48.475 48.475 48.487 48.505 48.52 48.502 48.447 48.387 48.333 48.283 48.24 48.202 48.16 48.08 47.962 47.843 47.745 47.675 47.605 47.543 47.518 47.52 47.525 47.507 47.46 47.395 47.302 47.188 47.083 46.993 46.948 46.953 46.98 47.01 46.98 46.902 46.822 46.738 46.665 46.62 46.59 46.557 46.515 46.455 46.375 46.288 46.2 46.11 46.048 46.05 46.045 45.972 45.888 45.82 45.8 45.795 45.732 45.638 45.6 45.63 45.675 45.725 45.762 45.763 45.75 45.785 45.858 45.945 46.032 46.05 46.025 46.093 46.265 46.473 46.73 47.025 47.305 47.573 47.85 48.168 48.512 48.852 49.178 49.645 50.292 50.92 51.427 51.865 52.325 52.805 53.313 53.847 54.36 54.835 55.308 55.82 56.378 56.985 57.585 58.14 58.695 59.225 59.667 60.05 60.438 60.84 61.25 61.65 62.032 62.41 62.762 63.083 63.4 63.72 63.982 64.19 64.397 64.6 64.782 64.95 65.115 65.275 65.395 65.49 65.613 65.75 65.885 66.01 66.122 66.222 66.312 66.38 66.405 66.38 66.35 66.337 66.307 66.26 66.18 66.07 65.95 65.812 65.668 65.53 65.403 65.28 65.105 64.88 64.678 64.493 64.318 64.185
49.133 49.205 49.263 49.315 49.365 49.415 49.487 49.58 49.642 49.62 49.535 49.437 49.33 49.245 49.228 49.252 49.278 49.302 49.232 49.06 48.895 48.745 48.648 48.635 48.658 48.685 48.728 48.79 48.863 48.935 49.007 49.06 49.065 49.048 49.03 49.01 48.993 48.993 49.018 49.055 49.097 49.122 49.077 48.977 48.862 48.73 48.595 48.465 48.375 48.355 48.37 48.42 48.5 48.51 48.44 48.365 48.295 48.233 48.183 48.137 48.067 47.95 47.818 47.698 47.585 47.485 47.423 47.405 47.415 47.43 47.44 47.445 47.427 47.375 47.28 47.158 47.04 46.94 46.888 46.878 46.888 46.9 46.862 46.787 46.71 46.633 46.57 46.533 46.505 46.472 46.422 46.345 46.258 46.172 46.085 45.995 45.908 45.865 45.83 45.745 45.648 45.58 45.573 45.595 45.59 45.525 45.485 45.508 45.535 45.57 45.605 45.618 45.623 45.665 45.735 45.808 45.89 45.93 45.983 46.14 46.338 46.538 46.79 47.09 47.382 47.66 47.943 48.263 48.608 48.96 49.328 49.84 50.492 51.057 51.535 52.018 52.523 53.053 53.587 54.12 54.64 55.12 55.573 56.065 56.643 57.282 57.885 58.435 58.987 59.517 59.965 60.358 60.76 61.167 61.575 61.985 62.385 62.77 63.12 63.44 63.757 64.075 64.337 64.543 64.75 64.955 65.14 65.31 65.477 65.64 65.76 65.84 65.933 66.055 66.19 66.32 66.442 66.552 66.627 66.642 66.615 66.57 66.543 66.537 66.525 66.49 66.41 66.29 66.15 66.005 65.86 65.715 65.578 65.445 65.252 64.998 64.76 64.555 64.38 64.23
49.12 49.237 49.315 49.367 49.415 49.462 49.527 49.582 49.572 49.52 49.455 49.38 49.292 49.215 49.195 49.22 49.245 49.262 49.187 49.03 48.88 48.73 48.608 48.56 48.573 48.612 48.675 48.745 48.817 48.89 48.96 49.022 49.04 49.023 49.005 48.985 48.965 48.945 48.94 48.953 48.985 49.037 49.015 48.902 48.767 48.625 48.5 48.385 48.278 48.245 48.313 48.45 48.555 48.535 48.453 48.37 48.29 48.215 48.14 48.055 47.942 47.807 47.675 47.553 47.44 47.34 47.3 47.313 47.327 47.34 47.35 47.36 47.365 47.34 47.252 47.127 47.002 46.893 46.835 46.818 46.81 46.797 46.747 46.67 46.59 46.518 46.465 46.435 46.412 46.377 46.312 46.227 46.142 46.055 45.965 45.875 45.785 45.708 45.633 45.545 45.453 45.385 45.373 45.385 45.4 45.387 45.373 45.392 45.415 45.438 45.473 45.513 45.54 45.563 45.61 45.68 45.753 45.848 46.01 46.215 46.412 46.608 46.853 47.15 47.45 47.74 48.033 48.363 48.725 49.1 49.493 50.015 50.655 51.222 51.733 52.26 52.792 53.327 53.86 54.393 54.922 55.41 55.868 56.383 56.978 57.6 58.185 58.735 59.285 59.817 60.275 60.677 61.085 61.492 61.9 62.313 62.725 63.127 63.482 63.8 64.115 64.43 64.692 64.898 65.105 65.31 65.495 65.665 65.832 65.995 66.115 66.197 66.28 66.378 66.5 66.628 66.752 66.865 66.902 66.863 66.81 66.763 66.738 66.733 66.728 66.707 66.63 66.498 66.353 66.21 66.068 65.925 65.785 65.627 65.41 65.148 64.885 64.643 64.453 64.295
49.075 49.182 49.28 49.37 49.427 49.472 49.512 49.51 49.46 49.4 49.34 49.28 49.217 49.16 49.142 49.16 49.177 49.18 49.127 49.01 48.867 48.72 48.578 48.5 48.485 48.51 48.57 48.632 48.695 48.757 48.828 48.965 49.052 49.025 48.998 48.975 48.955 48.935 48.918 48.925 48.955 48.987 48.952 48.795 48.615 48.473 48.36 48.265 48.2 48.238 48.388 48.565 48.617 48.55 48.47 48.39 48.292 48.162 48.05 47.945 47.805 47.663 47.53 47.408 47.295 47.223 47.213 47.227 47.24 47.247 47.255 47.265 47.275 47.265 47.187 47.062 46.943 46.853 46.81 46.79 46.762 46.707 46.63 46.55 46.475 46.408 46.358 46.33 46.305 46.26 46.187 46.105 46.02 45.935 45.85 45.76 45.673 45.58 45.485 45.4 45.315 45.238 45.21 45.215 45.22 45.23 45.25 45.277 45.3 45.32 45.368 45.435 45.487 45.48 45.485 45.555 45.628 45.788 46.025 46.252 46.475 46.682 46.92 47.21 47.51 47.81 48.128 48.485 48.868 49.255 49.663 50.2 50.842 51.435 51.98 52.52 53.062 53.6 54.132 54.667 55.2 55.695 56.19 56.753 57.342 57.925 58.49 59.04 59.587 60.115 60.572 60.977 61.385 61.808 62.247 62.68 63.098 63.51 63.87 64.185 64.5 64.812 65.07 65.275 65.483 65.685 65.855 66.008 66.172 66.335 66.455 66.54 66.628 66.718 66.82 66.935 67.06 67.17 67.185 67.123 67.06 67.015 66.998 66.995 66.993 66.96 66.868 66.738 66.6 66.46 66.32 66.18 66.025 65.827 65.583 65.318 65.05 64.775 64.553 64.388
48.977 49.03 49.147 49.287 49.392 49.447 49.445 49.402 49.345 49.288 49.233 49.175 49.12 49.073 49.053 49.06 49.062 49.052 49.017 48.945 48.835 48.697 48.553 48.448 48.395 48.373 48.38 48.42 48.475 48.53 48.69 48.967 49.1 49.065 49.03 49.003 48.975 48.948 48.93 48.942 48.957 48.955 48.912 48.73 48.483 48.32 48.258 48.245 48.273 48.368 48.53 48.66 48.65 48.57 48.465 48.325 48.16 48 47.918 47.832 47.68 47.525 47.383 47.26 47.16 47.118 47.127 47.137 47.145 47.152 47.158 47.165 47.175 47.167 47.092 46.973 46.883 46.838 46.815 46.787 46.72 46.61 46.51 46.433 46.365 46.3 46.253 46.225 46.185 46.127 46.052 45.97 45.888 45.815 45.742 45.655 45.565 45.465 45.365 45.278 45.19 45.1 45.06 45.068 45.075 45.085 45.115 45.155 45.18 45.203 45.263 45.355 45.427 45.413 45.383 45.43 45.525 45.725 45.987 46.232 46.477 46.718 46.985 47.288 47.593 47.903 48.245 48.623 49.005 49.39 49.828 50.4 51.052 51.652 52.202 52.75 53.3 53.845 54.387 54.93 55.47 55.993 56.53 57.105 57.675 58.24 58.8 59.35 59.887 60.397 60.847 61.255 61.678 62.128 62.6 63.062 63.497 63.917 64.28 64.595 64.91 65.22 65.475 65.678 65.88 66.08 66.232 66.35 66.5 66.665 66.785 66.87 66.965 67.068 67.162 67.255 67.37 67.48 67.492 67.43 67.38 67.348 67.335 67.335 67.31 67.235 67.127 67.007 66.878 66.743 66.602 66.445 66.25 66.02 65.767 65.5 65.217 64.918 64.68 64.51
48.805 48.843 48.99 49.145 49.282 49.34 49.312 49.27 49.227 49.185 49.14 49.087 49.032 48.98 48.95 48.945 48.935 48.917 48.882 48.83 48.762 48.655 48.528 48.415 48.338 48.28 48.228 48.208 48.235 48.378 48.718 49.055 49.152 49.118 49.083 49.05 49.012 48.965 48.928 48.915 48.91 48.905 48.877 48.71 48.43 48.29 48.325 48.4 48.475 48.55 48.67 48.73 48.637 48.49 48.317 48.11 47.923 47.828 47.807 47.725 47.565 47.405 47.253 47.12 47.038 47.023 47.035 47.04 47.045 47.055 47.06 47.065 47.075 47.07 47.003 46.913 46.868 46.842 46.817 46.757 46.64 46.503 46.395 46.323 46.258 46.193 46.145 46.105 46.05 45.99 45.917 45.835 45.76 45.7 45.635 45.55 45.452 45.345 45.245 45.155 45.063 44.968 44.918 44.92 44.93 44.943 44.975 45.025 45.062 45.093 45.163 45.267 45.355 45.362 45.303 45.305 45.438 45.678 45.942 46.188 46.448 46.74 47.06 47.382 47.695 48.018 48.375 48.755 49.138 49.523 49.993 50.6 51.255 51.852 52.398 52.945 53.495 54.042 54.59 55.14 55.702 56.28 56.852 57.417 57.982 58.547 59.107 59.65 60.17 60.672 61.125 61.548 61.998 62.465 62.938 63.412 63.877 64.317 64.687 65.003 65.315 65.625 65.88 66.08 66.28 66.477 66.627 66.728 66.845 66.992 67.112 67.205 67.31 67.42 67.515 67.595 67.69 67.787 67.8 67.753 67.725 67.702 67.69 67.665 67.59 67.488 67.38 67.267 67.147 67.022 66.872 66.675 66.445 66.205 65.95 65.667 65.365 65.058 64.815 64.622
48.615 48.665 48.815 48.965 49.077 49.102 49.075 49.047 49.02 48.99 48.955 48.915 48.872 48.832 48.815 48.81 48.797 48.782 48.747 48.692 48.637 48.585 48.512 48.415 48.325 48.25 48.178 48.11 48.135 48.4 48.835 49.142 49.205 49.17 49.135 49.092 49.04 48.975 48.915 48.878 48.86 48.855 48.842 48.69 48.45 48.395 48.48 48.565 48.65 48.717 48.735 48.652 48.472 48.257 48.043 47.848 47.735 47.713 47.705 47.615 47.455 47.295 47.143 47.01 46.933 46.92 46.93 46.935 46.94 46.95 46.958 46.965 46.975 46.975 46.94 46.897 46.872 46.845 46.787 46.675 46.538 46.4 46.29 46.22 46.155 46.088 46.03 45.973 45.91 45.85 45.78 45.705 45.642 45.587 45.522 45.437 45.335 45.225 45.125 45.032 44.937 44.843 44.78 44.773 44.785 44.798 44.833 44.888 44.938 44.985 45.065 45.172 45.272 45.315 45.25 45.205 45.35 45.628 45.898 46.165 46.473 46.807 47.147 47.477 47.797 48.135 48.505 48.885 49.27 49.655 50.158 50.798 51.45 52.057 52.593 53.115 53.66 54.207 54.755 55.305 55.923 56.57 57.157 57.722 58.287 58.852 59.407 59.935 60.445 60.95 61.418 61.868 62.335 62.805 63.275 63.753 64.235 64.702 65.09 65.408 65.72 66.03 66.282 66.48 66.678 66.872 67.022 67.123 67.22 67.333 67.445 67.55 67.66 67.77 67.868 67.953 68.04 68.118 68.133 68.103 68.08 68.06 68.025 67.948 67.845 67.743 67.633 67.52 67.405 67.287 67.12 66.888 66.645 66.4 66.127 65.822 65.51 65.203 64.93 64.678
48.48 48.508 48.623 48.747 48.812 48.81 48.78 48.752 48.725 48.695 48.668 48.645 48.63 48.623 48.63 48.642 48.64 48.63 48.595 48.535 48.488 48.48 48.475 48.417 48.327 48.245 48.173 48.128 48.233 48.538 48.952 49.225 49.255 49.217 49.172 49.112 49.045 48.975 48.915 48.865 48.825 48.808 48.8 48.663 48.51 48.535 48.622 48.682 48.692 48.662 48.57 48.397 48.187 47.973 47.77 47.645 47.615 47.62 47.602 47.5 47.34 47.185 47.045 46.93 46.855 46.823 46.82 46.825 46.83 46.84 46.85 46.86 46.87 46.877 46.875 46.86 46.835 46.777 46.687 46.572 46.438 46.3 46.193 46.123 46.058 45.993 45.92 45.848 45.783 45.718 45.643 45.567 45.505 45.442 45.372 45.287 45.187 45.082 44.982 44.885 44.79 44.698 44.643 44.645 44.663 44.678 44.715 44.77 44.82 44.88 44.97 45.078 45.182 45.26 45.22 45.155 45.303 45.598 45.883 46.185 46.52 46.857 47.197 47.54 47.877 48.242 48.635 49.02 49.402 49.803 50.338 50.99 51.64 52.277 52.827 53.313 53.825 54.363 54.905 55.5 56.21 56.887 57.46 58.025 58.592 59.152 59.692 60.21 60.72 61.248 61.762 62.238 62.705 63.175 63.645 64.123 64.605 65.087 65.49 65.81 66.125 66.452 66.722 66.92 67.115 67.305 67.465 67.58 67.675 67.768 67.87 67.98 68.093 68.205 68.305 68.395 68.478 68.525 68.523 68.498 68.475 68.447 68.378 68.27 68.163 68.045 67.903 67.77 67.655 67.54 67.365 67.123 66.875 66.607 66.31 65.998 65.685 65.383 65.093 64.805
