ncols         200
nrows         72
xllcorner     548000
yllcorner     256285
cellsize      5
NODATA_value  -9999.0
9.247 9.335 9.38 9.34 9.255 9.185 9.155 9.17 9.235 9.33 9.402 9.43 9.427 9.41 9.39 9.368 9.355 9.355 9.345 9.333 9.325 9.318 9.318 9.323 9.338 9.365 9.395 9.435 9.48 9.477 9.47 9.515 9.58 9.627 9.632 9.605 9.557 9.503 9.45 9.41 9.39 9.388 9.392 9.392 9.382 9.365 9.395 9.475 9.56 9.658 9.765 9.87 9.998 10.175 10.342 10.478 10.627 10.602 10.368 10.475 10.662 10.56 10.45 10.4 10.423 10.453 10.475 10.495 10.512 10.53 10.548 10.568 10.595 10.63 10.655 10.66 10.665 10.675 10.688 10.707 10.722 10.73 10.74 10.75 10.768 10.813 10.89 10.975 11.042 11.085 11.11 11.132 11.147 11.15 11.145 11.13 11.107 11.072 11.045 11.055 11.085 11.125 11.177 11.222 11.255 11.295 11.35 11.407 11.46 11.51 11.557 11.605 11.655 11.7 11.753 11.82 11.898 11.975 12.027 12.06 12.095 12.132 12.15 12.157 12.17 12.182 12.195 12.208 12.233 12.285 12.33 12.35 12.378 12.415 12.445 12.468 12.495 12.53 12.565 12.597 12.625 12.642 12.632 12.605 12.59 12.59 12.635 12.723 12.82 12.922 13.025 13.115 13.19 13.257 13.322 13.367 13.39 13.41 13.41 13.38 13.317 13.248 13.2 13.163 13.138 13.135 13.132 13.088 13.018 12.965 12.95 12.98 13.03 13.077 13.04 12.935 12.888 12.887 12.88 12.84 12.778 12.755 12.803 12.875 12.927 12.965 13.083 13.277 13.442 13.527 13.58 13.662 13.75 13.82 13.88 13.943 14.015 14.102 14.192 14.277
9.198 9.293 9.382 9.387 9.318 9.26 9.238 9.233 9.25 9.313 9.375 9.405 9.417 9.412 9.395 9.38 9.378 9.382 9.372 9.353 9.345 9.35 9.368 9.39 9.415 9.445 9.475 9.512 9.53 9.495 9.475 9.505 9.557 9.595 9.595 9.582 9.555 9.51 9.46 9.415 9.378 9.355 9.355 9.363 9.365 9.355 9.385 9.473 9.573 9.685 9.8 9.93 10.105 10.305 10.477 10.61 10.717 10.315 10.22 10.617 10.64 10.58 10.485 10.433 10.453 10.48 10.495 10.508 10.525 10.545 10.563 10.588 10.623 10.662 10.682 10.673 10.67 10.68 10.695 10.712 10.72 10.723 10.73 10.743 10.778 10.838 10.915 10.99 11.047 11.087 11.11 11.135 11.16 11.177 11.182 11.165 11.125 11.073 11.045 11.06 11.09 11.128 11.185 11.242 11.28 11.325 11.385 11.447 11.505 11.555 11.602 11.65 11.697 11.743 11.793 11.855 11.928 11.997 12.052 12.095 12.14 12.19 12.21 12.203 12.205 12.217 12.23 12.253 12.308 12.38 12.425 12.443 12.46 12.488 12.515 12.543 12.575 12.61 12.645 12.68 12.712 12.737 12.73 12.692 12.66 12.645 12.69 12.788 12.892 12.997 13.102 13.205 13.295 13.37 13.425 13.452 13.47 13.487 13.487 13.447 13.37 13.293 13.24 13.218 13.228 13.257 13.257 13.207 13.143 13.083 13.043 13.033 13.06 13.11 13.077 12.96 12.875 12.843 12.808 12.745 12.675 12.62 12.633 12.685 12.71 12.768 12.918 13.11 13.3 13.432 13.507 13.585 13.657 13.72 13.782 13.845 13.905 13.975 14.048 14.118
9.15 9.255 9.362 9.415 9.387 9.34 9.317 9.312 9.307 9.323 9.353 9.375 9.395 9.407 9.407 9.405 9.405 9.41 9.397 9.37 9.37 9.395 9.425 9.452 9.482 9.515 9.545 9.572 9.56 9.508 9.485 9.508 9.547 9.565 9.555 9.545 9.532 9.507 9.465 9.42 9.375 9.335 9.33 9.343 9.348 9.345 9.39 9.5 9.62 9.743 9.85 10 10.21 10.417 10.59 10.707 10.777 10.3 10.245 10.625 10.553 10.532 10.492 10.468 10.49 10.522 10.535 10.54 10.55 10.56 10.58 10.617 10.66 10.697 10.707 10.693 10.683 10.685 10.7 10.712 10.715 10.718 10.723 10.748 10.803 10.865 10.933 10.997 11.052 11.09 11.113 11.137 11.16 11.182 11.2 11.182 11.13 11.07 11.048 11.068 11.095 11.13 11.185 11.25 11.303 11.358 11.42 11.483 11.545 11.6 11.648 11.695 11.74 11.785 11.835 11.895 11.965 12.025 12.08 12.14 12.197 12.252 12.277 12.265 12.253 12.253 12.273 12.328 12.41 12.482 12.517 12.535 12.55 12.565 12.588 12.62 12.655 12.69 12.725 12.76 12.795 12.825 12.817 12.772 12.727 12.708 12.758 12.86 12.965 13.07 13.177 13.282 13.385 13.47 13.512 13.53 13.547 13.562 13.562 13.51 13.42 13.34 13.303 13.318 13.352 13.385 13.385 13.34 13.28 13.228 13.185 13.145 13.128 13.147 13.115 13.003 12.898 12.828 12.763 12.688 12.613 12.538 12.488 12.475 12.483 12.573 12.75 12.94 13.135 13.31 13.422 13.492 13.555 13.612 13.672 13.732 13.79 13.858 13.923 13.983
9.088 9.195 9.305 9.395 9.402 9.357 9.34 9.34 9.335 9.33 9.338 9.353 9.37 9.385 9.395 9.4 9.402 9.415 9.407 9.385 9.393 9.42 9.45 9.482 9.517 9.55 9.577 9.587 9.565 9.52 9.498 9.52 9.545 9.542 9.53 9.52 9.507 9.487 9.452 9.407 9.363 9.328 9.343 9.38 9.39 9.39 9.465 9.605 9.735 9.855 9.935 10.04 10.227 10.442 10.632 10.747 10.597 10.37 10.472 10.557 10.475 10.458 10.463 10.485 10.525 10.562 10.582 10.585 10.582 10.578 10.585 10.62 10.667 10.705 10.715 10.71 10.7 10.693 10.703 10.71 10.715 10.728 10.743 10.785 10.85 10.91 10.963 11.008 11.055 11.092 11.117 11.14 11.157 11.175 11.19 11.175 11.127 11.07 11.068 11.113 11.143 11.17 11.22 11.288 11.343 11.395 11.458 11.52 11.582 11.642 11.692 11.737 11.782 11.828 11.875 11.935 12 12.05 12.1 12.162 12.227 12.297 12.332 12.322 12.305 12.303 12.338 12.407 12.492 12.56 12.595 12.612 12.625 12.637 12.658 12.69 12.727 12.762 12.797 12.83 12.855 12.872 12.855 12.805 12.768 12.775 12.835 12.93 13.035 13.14 13.25 13.355 13.452 13.522 13.55 13.562 13.577 13.595 13.587 13.52 13.43 13.373 13.37 13.402 13.437 13.467 13.487 13.472 13.42 13.368 13.327 13.29 13.25 13.223 13.177 13.088 12.993 12.91 12.83 12.75 12.673 12.595 12.5 12.405 12.353 12.42 12.598 12.795 12.995 13.19 13.317 13.377 13.435 13.492 13.55 13.608 13.673 13.747 13.815 13.87
9.015 9.12 9.23 9.33 9.347 9.313 9.31 9.317 9.315 9.31 9.32 9.335 9.345 9.35 9.355 9.36 9.373 9.4 9.402 9.393 9.405 9.43 9.46 9.495 9.527 9.552 9.57 9.567 9.55 9.525 9.518 9.535 9.54 9.53 9.52 9.507 9.487 9.462 9.427 9.383 9.345 9.325 9.363 9.437 9.48 9.49 9.585 9.755 9.895 9.99 10.035 10.083 10.203 10.4 10.615 10.762 10.38 10.31 10.625 10.533 10.453 10.428 10.443 10.493 10.555 10.6 10.617 10.61 10.6 10.59 10.585 10.6 10.64 10.68 10.695 10.697 10.697 10.698 10.713 10.73 10.745 10.765 10.795 10.848 10.912 10.972 11.015 11.043 11.068 11.092 11.112 11.13 11.147 11.162 11.17 11.157 11.12 11.073 11.095 11.177 11.23 11.258 11.303 11.365 11.407 11.44 11.495 11.557 11.612 11.67 11.725 11.772 11.822 11.87 11.915 11.97 12.025 12.07 12.12 12.18 12.25 12.335 12.377 12.368 12.363 12.383 12.42 12.47 12.543 12.607 12.645 12.67 12.687 12.702 12.723 12.753 12.79 12.82 12.842 12.865 12.88 12.882 12.855 12.813 12.81 12.858 12.923 13.005 13.108 13.213 13.32 13.42 13.497 13.537 13.545 13.548 13.56 13.58 13.56 13.488 13.425 13.405 13.42 13.45 13.482 13.51 13.545 13.572 13.552 13.505 13.463 13.425 13.38 13.322 13.26 13.2 13.13 13.05 12.97 12.893 12.82 12.747 12.652 12.535 12.455 12.465 12.545 12.69 12.885 13.077 13.2 13.255 13.31 13.368 13.425 13.485 13.56 13.64 13.705 13.762
8.945 9.05 9.16 9.262 9.29 9.273 9.278 9.285 9.29 9.29 9.297 9.307 9.31 9.31 9.315 9.328 9.355 9.39 9.402 9.405 9.42 9.443 9.472 9.505 9.527 9.545 9.552 9.542 9.527 9.517 9.52 9.527 9.525 9.515 9.505 9.487 9.46 9.435 9.402 9.365 9.343 9.33 9.37 9.46 9.54 9.58 9.688 9.887 10.037 10.105 10.135 10.165 10.223 10.368 10.577 10.672 10.383 10.4 10.635 10.53 10.455 10.418 10.438 10.505 10.577 10.632 10.642 10.623 10.61 10.6 10.595 10.595 10.615 10.647 10.663 10.668 10.678 10.695 10.727 10.767 10.795 10.815 10.853 10.913 10.977 11.035 11.075 11.09 11.087 11.093 11.105 11.118 11.133 11.147 11.152 11.14 11.11 11.08 11.118 11.212 11.292 11.345 11.392 11.44 11.47 11.49 11.53 11.585 11.635 11.688 11.742 11.795 11.847 11.9 11.95 12 12.047 12.09 12.138 12.203 12.285 12.375 12.42 12.423 12.443 12.477 12.512 12.55 12.602 12.652 12.685 12.715 12.74 12.76 12.782 12.807 12.832 12.85 12.86 12.875 12.89 12.887 12.858 12.845 12.888 12.952 13.018 13.088 13.18 13.285 13.382 13.462 13.52 13.547 13.547 13.543 13.545 13.56 13.535 13.483 13.463 13.46 13.47 13.498 13.53 13.553 13.585 13.63 13.655 13.64 13.6 13.55 13.482 13.405 13.335 13.285 13.237 13.18 13.112 13.04 12.97 12.9 12.815 12.74 12.712 12.705 12.698 12.738 12.83 12.965 13.08 13.135 13.188 13.243 13.3 13.37 13.452 13.532 13.597 13.645
8.878 8.983 9.09 9.195 9.237 9.235 9.242 9.25 9.26 9.267 9.273 9.275 9.275 9.275 9.285 9.31 9.345 9.38 9.402 9.417 9.435 9.455 9.48 9.505 9.52 9.532 9.532 9.515 9.498 9.49 9.492 9.497 9.497 9.492 9.48 9.457 9.43 9.405 9.38 9.358 9.345 9.335 9.378 9.47 9.565 9.645 9.775 9.985 10.142 10.205 10.235 10.265 10.295 10.385 10.58 10.425 10.35 10.61 10.617 10.528 10.463 10.42 10.443 10.517 10.59 10.652 10.667 10.643 10.623 10.61 10.605 10.6 10.603 10.62 10.638 10.653 10.673 10.698 10.735 10.785 10.827 10.86 10.908 10.975 11.04 11.092 11.12 11.115 11.098 11.095 11.105 11.115 11.125 11.138 11.138 11.12 11.095 11.088 11.143 11.235 11.325 11.407 11.467 11.5 11.517 11.53 11.56 11.61 11.66 11.708 11.76 11.815 11.865 11.92 11.975 12.022 12.065 12.108 12.158 12.233 12.325 12.417 12.472 12.495 12.525 12.555 12.585 12.617 12.655 12.692 12.722 12.75 12.778 12.805 12.83 12.845 12.853 12.86 12.87 12.883 12.897 12.893 12.883 12.918 12.982 13.047 13.112 13.178 13.258 13.35 13.425 13.48 13.53 13.555 13.552 13.548 13.543 13.548 13.538 13.52 13.517 13.515 13.52 13.543 13.575 13.595 13.625 13.67 13.715 13.742 13.715 13.645 13.56 13.475 13.405 13.355 13.32 13.292 13.247 13.18 13.11 13.042 12.98 12.947 12.942 12.935 12.927 12.922 12.918 12.945 12.993 13.03 13.07 13.118 13.18 13.26 13.345 13.422 13.477 13.502
8.81 8.915 9.028 9.137 9.187 9.193 9.2 9.21 9.223 9.238 9.252 9.26 9.26 9.26 9.275 9.305 9.338 9.372 9.4 9.42 9.44 9.457 9.475 9.495 9.51 9.515 9.502 9.48 9.46 9.45 9.455 9.46 9.457 9.442 9.415 9.39 9.365 9.358 9.373 9.38 9.375 9.365 9.41 9.505 9.6 9.7 9.838 10.032 10.202 10.295 10.34 10.37 10.4 10.48 10.617 10.39 10.415 10.69 10.595 10.523 10.47 10.433 10.458 10.53 10.597 10.66 10.682 10.662 10.64 10.623 10.615 10.61 10.608 10.623 10.645 10.665 10.69 10.713 10.743 10.793 10.845 10.895 10.95 11.012 11.077 11.12 11.122 11.107 11.098 11.1 11.11 11.12 11.13 11.142 11.14 11.118 11.09 11.095 11.16 11.25 11.34 11.44 11.515 11.54 11.55 11.563 11.593 11.64 11.69 11.735 11.783 11.835 11.885 11.94 11.992 12.035 12.075 12.12 12.175 12.248 12.337 12.432 12.502 12.54 12.565 12.59 12.615 12.64 12.68 12.725 12.757 12.785 12.815 12.847 12.875 12.88 12.878 12.883 12.89 12.898 12.908 12.918 12.95 13.012 13.075 13.137 13.2 13.265 13.335 13.402 13.458 13.505 13.547 13.565 13.56 13.555 13.553 13.558 13.568 13.572 13.572 13.57 13.573 13.59 13.617 13.635 13.665 13.71 13.752 13.787 13.772 13.707 13.63 13.548 13.478 13.435 13.415 13.405 13.37 13.305 13.238 13.178 13.13 13.102 13.092 13.085 13.077 13.072 13.062 13.025 12.988 12.995 13.025 13.06 13.098 13.16 13.245 13.315 13.34 13.343
8.74 8.858 8.998 9.107 9.142 9.148 9.155 9.168 9.188 9.21 9.235 9.255 9.26 9.26 9.275 9.305 9.335 9.368 9.397 9.42 9.437 9.45 9.465 9.482 9.492 9.49 9.47 9.445 9.423 9.413 9.417 9.415 9.395 9.357 9.318 9.29 9.288 9.325 9.38 9.412 9.422 9.423 9.47 9.568 9.665 9.765 9.883 10.053 10.227 10.357 10.44 10.48 10.508 10.605 10.465 10.41 10.642 10.66 10.575 10.518 10.475 10.443 10.468 10.535 10.6 10.66 10.687 10.675 10.655 10.638 10.628 10.623 10.628 10.653 10.68 10.7 10.72 10.735 10.758 10.808 10.867 10.922 10.973 11.025 11.082 11.107 11.1 11.095 11.1 11.11 11.12 11.13 11.143 11.157 11.155 11.132 11.105 11.108 11.17 11.263 11.36 11.47 11.552 11.577 11.583 11.595 11.625 11.67 11.717 11.76 11.805 11.855 11.905 11.96 12.007 12.045 12.085 12.13 12.185 12.25 12.328 12.417 12.492 12.542 12.575 12.6 12.625 12.655 12.703 12.755 12.795 12.823 12.855 12.895 12.925 12.923 12.913 12.917 12.923 12.928 12.935 12.968 13.025 13.085 13.147 13.21 13.27 13.332 13.392 13.448 13.5 13.542 13.567 13.575 13.572 13.568 13.57 13.585 13.602 13.615 13.622 13.625 13.625 13.64 13.662 13.675 13.703 13.745 13.777 13.792 13.785 13.747 13.685 13.61 13.558 13.538 13.53 13.525 13.49 13.425 13.365 13.318 13.273 13.233 13.213 13.205 13.195 13.19 13.167 13.107 13.045 13.023 13.04 13.07 13.08 13.095 13.158 13.23 13.23 13.193
8.683 8.83 8.995 9.09 9.1 9.11 9.128 9.143 9.163 9.187 9.212 9.237 9.255 9.26 9.275 9.305 9.335 9.365 9.392 9.412 9.427 9.44 9.452 9.465 9.47 9.465 9.445 9.417 9.39 9.377 9.372 9.35 9.31 9.263 9.22 9.213 9.258 9.327 9.387 9.422 9.445 9.468 9.53 9.632 9.735 9.835 9.938 10.08 10.242 10.385 10.507 10.58 10.613 10.675 10.438 10.46 10.725 10.64 10.565 10.513 10.473 10.45 10.475 10.533 10.595 10.657 10.695 10.69 10.67 10.655 10.643 10.635 10.65 10.687 10.72 10.737 10.747 10.755 10.77 10.818 10.887 10.947 10.995 11.04 11.077 11.09 11.093 11.1 11.11 11.12 11.13 11.143 11.157 11.172 11.17 11.15 11.125 11.12 11.18 11.285 11.395 11.51 11.597 11.622 11.62 11.628 11.655 11.7 11.745 11.785 11.828 11.875 11.925 11.977 12.022 12.058 12.095 12.14 12.195 12.26 12.33 12.407 12.477 12.532 12.577 12.61 12.638 12.678 12.73 12.785 12.83 12.86 12.9 12.945 12.975 12.97 12.953 12.953 12.957 12.963 12.98 13.033 13.095 13.148 13.208 13.267 13.325 13.385 13.44 13.495 13.542 13.567 13.582 13.587 13.585 13.585 13.595 13.615 13.635 13.65 13.662 13.672 13.678 13.69 13.705 13.715 13.74 13.77 13.782 13.788 13.787 13.765 13.717 13.668 13.648 13.65 13.65 13.645 13.61 13.553 13.503 13.46 13.417 13.373 13.338 13.323 13.315 13.302 13.257 13.183 13.118 13.07 13.058 13.077 13.085 13.075 13.093 13.152 13.155 13.088
8.665 8.83 8.985 9.06 9.073 9.095 9.12 9.135 9.145 9.163 9.188 9.213 9.238 9.255 9.275 9.305 9.335 9.363 9.385 9.4 9.415 9.43 9.438 9.443 9.445 9.443 9.423 9.39 9.36 9.338 9.315 9.283 9.245 9.203 9.173 9.2 9.268 9.338 9.398 9.44 9.475 9.515 9.588 9.69 9.795 9.897 10 10.118 10.255 10.398 10.54 10.657 10.72 10.528 10.475 10.687 10.702 10.62 10.553 10.508 10.478 10.478 10.51 10.553 10.6 10.655 10.7 10.705 10.687 10.675 10.66 10.653 10.678 10.722 10.752 10.763 10.768 10.775 10.783 10.823 10.898 10.97 11.025 11.065 11.09 11.1 11.11 11.12 11.13 11.138 11.143 11.155 11.17 11.185 11.19 11.175 11.153 11.148 11.21 11.323 11.438 11.552 11.642 11.67 11.665 11.665 11.685 11.728 11.77 11.81 11.85 11.895 11.945 11.995 12.037 12.073 12.108 12.15 12.207 12.272 12.335 12.397 12.457 12.512 12.567 12.615 12.655 12.705 12.76 12.815 12.862 12.903 12.95 12.995 13.025 13.02 12.995 12.988 12.993 12.998 13.03 13.1 13.17 13.225 13.275 13.322 13.367 13.42 13.475 13.527 13.565 13.582 13.597 13.602 13.598 13.605 13.625 13.648 13.667 13.682 13.697 13.712 13.725 13.735 13.745 13.755 13.77 13.782 13.785 13.79 13.795 13.78 13.745 13.723 13.725 13.737 13.75 13.755 13.732 13.69 13.647 13.602 13.56 13.517 13.473 13.443 13.432 13.402 13.335 13.258 13.193 13.138 13.095 13.088 13.09 13.08 13.073 13.09 13.085 13.02
8.723 8.848 8.98 9.042 9.07 9.1 9.122 9.135 9.143 9.158 9.185 9.213 9.243 9.273 9.3 9.33 9.358 9.375 9.385 9.395 9.41 9.425 9.435 9.443 9.445 9.443 9.423 9.39 9.363 9.338 9.305 9.27 9.24 9.205 9.195 9.238 9.303 9.368 9.425 9.478 9.528 9.575 9.643 9.74 9.845 9.95 10.052 10.148 10.27 10.418 10.56 10.7 10.775 10.475 10.478 10.747 10.673 10.598 10.545 10.518 10.508 10.53 10.57 10.605 10.635 10.665 10.695 10.7 10.682 10.665 10.655 10.668 10.702 10.745 10.777 10.792 10.798 10.803 10.81 10.843 10.91 10.987 11.05 11.095 11.122 11.135 11.145 11.153 11.16 11.165 11.163 11.165 11.178 11.193 11.207 11.21 11.195 11.195 11.26 11.373 11.488 11.605 11.697 11.727 11.723 11.715 11.725 11.758 11.793 11.833 11.875 11.918 11.965 12.012 12.052 12.087 12.123 12.16 12.21 12.27 12.325 12.378 12.433 12.49 12.548 12.615 12.68 12.735 12.79 12.842 12.89 12.942 13 13.045 13.075 13.07 13.04 13.025 13.028 13.04 13.088 13.16 13.22 13.267 13.307 13.345 13.382 13.427 13.48 13.53 13.57 13.595 13.61 13.615 13.618 13.633 13.657 13.682 13.7 13.715 13.73 13.745 13.757 13.767 13.78 13.79 13.795 13.8 13.805 13.81 13.815 13.805 13.778 13.763 13.772 13.787 13.805 13.822 13.817 13.79 13.757 13.72 13.682 13.647 13.61 13.572 13.542 13.49 13.41 13.333 13.268 13.212 13.155 13.118 13.105 13.098 13.09 13.083 13.073 13.03
8.838 8.88 8.997 9.052 9.08 9.11 9.13 9.14 9.15 9.173 9.213 9.25 9.283 9.318 9.35 9.377 9.392 9.392 9.392 9.398 9.41 9.425 9.44 9.46 9.472 9.47 9.45 9.423 9.403 9.385 9.348 9.303 9.268 9.235 9.24 9.288 9.348 9.41 9.468 9.525 9.582 9.635 9.698 9.79 9.895 10 10.09 10.163 10.288 10.447 10.593 10.735 10.643 10.54 10.675 10.715 10.648 10.58 10.543 10.537 10.538 10.55 10.572 10.597 10.617 10.632 10.65 10.652 10.635 10.625 10.64 10.678 10.717 10.755 10.795 10.827 10.84 10.843 10.855 10.888 10.94 11.005 11.072 11.125 11.155 11.17 11.18 11.187 11.19 11.19 11.185 11.18 11.188 11.2 11.22 11.24 11.24 11.245 11.31 11.425 11.545 11.67 11.765 11.792 11.785 11.775 11.778 11.798 11.825 11.863 11.903 11.94 11.985 12.028 12.065 12.103 12.14 12.178 12.21 12.25 12.303 12.355 12.41 12.468 12.535 12.63 12.71 12.765 12.817 12.862 12.905 12.965 13.04 13.095 13.125 13.12 13.09 13.065 13.06 13.088 13.145 13.2 13.235 13.267 13.303 13.34 13.38 13.423 13.473 13.525 13.567 13.6 13.622 13.63 13.643 13.665 13.69 13.715 13.732 13.747 13.76 13.77 13.778 13.792 13.81 13.82 13.825 13.83 13.837 13.842 13.847 13.837 13.81 13.798 13.808 13.822 13.838 13.855 13.852 13.832 13.812 13.787 13.762 13.735 13.705 13.672 13.627 13.562 13.485 13.405 13.34 13.285 13.23 13.185 13.155 13.138 13.125 13.118 13.117 13.107
8.995 8.955 9.02 9.065 9.09 9.12 9.137 9.148 9.16 9.19 9.247 9.295 9.327 9.365 9.395 9.407 9.405 9.395 9.395 9.403 9.413 9.425 9.443 9.467 9.487 9.495 9.482 9.463 9.45 9.437 9.4 9.345 9.298 9.27 9.29 9.34 9.395 9.453 9.513 9.575 9.635 9.69 9.75 9.84 9.945 10.04 10.107 10.163 10.29 10.47 10.632 10.782 10.523 10.493 10.76 10.695 10.635 10.573 10.54 10.55 10.557 10.553 10.553 10.558 10.56 10.565 10.573 10.575 10.583 10.608 10.648 10.693 10.733 10.77 10.808 10.845 10.872 10.885 10.905 10.943 10.988 11.038 11.1 11.152 11.182 11.202 11.212 11.217 11.215 11.21 11.205 11.2 11.2 11.208 11.23 11.255 11.272 11.293 11.363 11.483 11.61 11.74 11.832 11.855 11.845 11.833 11.83 11.845 11.87 11.903 11.935 11.968 12.008 12.048 12.085 12.125 12.163 12.2 12.225 12.245 12.283 12.333 12.388 12.455 12.55 12.66 12.74 12.792 12.84 12.88 12.918 12.97 13.05 13.13 13.177 13.172 13.14 13.11 13.098 13.13 13.182 13.21 13.23 13.263 13.3 13.34 13.38 13.42 13.468 13.52 13.562 13.6 13.632 13.653 13.673 13.698 13.722 13.745 13.765 13.777 13.782 13.788 13.795 13.815 13.837 13.85 13.855 13.86 13.87 13.875 13.88 13.87 13.843 13.833 13.84 13.855 13.873 13.89 13.885 13.86 13.842 13.825 13.805 13.785 13.76 13.73 13.685 13.622 13.552 13.475 13.41 13.36 13.315 13.275 13.24 13.208 13.178 13.163 13.163 13.17
9.05 9.027 9.05 9.08 9.1 9.122 9.142 9.157 9.172 9.212 9.272 9.322 9.367 9.405 9.422 9.42 9.41 9.4 9.398 9.405 9.415 9.425 9.445 9.47 9.492 9.512 9.515 9.505 9.497 9.49 9.455 9.395 9.338 9.313 9.34 9.39 9.443 9.498 9.56 9.625 9.685 9.743 9.803 9.89 9.992 10.067 10.115 10.163 10.285 10.475 10.657 10.77 10.598 10.583 10.737 10.685 10.63 10.57 10.545 10.565 10.58 10.575 10.57 10.565 10.558 10.555 10.55 10.555 10.593 10.638 10.678 10.72 10.758 10.795 10.83 10.865 10.903 10.927 10.957 11 11.042 11.087 11.137 11.18 11.207 11.23 11.24 11.237 11.232 11.23 11.225 11.22 11.215 11.215 11.232 11.255 11.278 11.323 11.418 11.542 11.67 11.797 11.887 11.912 11.902 11.888 11.883 11.895 11.92 11.95 11.98 12.013 12.05 12.09 12.128 12.163 12.198 12.233 12.253 12.263 12.283 12.315 12.375 12.47 12.58 12.69 12.767 12.81 12.847 12.885 12.92 12.968 13.05 13.147 13.215 13.217 13.182 13.15 13.138 13.162 13.195 13.208 13.225 13.26 13.3 13.34 13.38 13.42 13.463 13.51 13.555 13.595 13.64 13.68 13.705 13.73 13.757 13.777 13.79 13.797 13.8 13.803 13.813 13.835 13.863 13.88 13.888 13.893 13.9 13.905 13.91 13.902 13.878 13.865 13.873 13.89 13.91 13.93 13.922 13.89 13.868 13.852 13.835 13.82 13.802 13.777 13.737 13.677 13.61 13.538 13.483 13.445 13.405 13.365 13.33 13.295 13.255 13.225 13.215 13.223
8.973 9.022 9.045 9.052 9.067 9.085 9.11 9.135 9.157 9.197 9.255 9.312 9.365 9.402 9.422 9.425 9.415 9.405 9.403 9.41 9.42 9.428 9.445 9.47 9.495 9.522 9.535 9.53 9.525 9.525 9.52 9.485 9.428 9.4 9.423 9.468 9.51 9.555 9.613 9.675 9.735 9.797 9.858 9.94 10.03 10.085 10.125 10.17 10.29 10.48 10.672 10.652 10.618 10.715 10.707 10.662 10.615 10.565 10.555 10.587 10.602 10.598 10.595 10.593 10.59 10.59 10.58 10.593 10.65 10.707 10.748 10.785 10.82 10.855 10.893 10.925 10.947 10.963 10.99 11.03 11.07 11.115 11.16 11.192 11.215 11.235 11.245 11.242 11.24 11.24 11.237 11.232 11.222 11.21 11.215 11.233 11.27 11.353 11.47 11.595 11.717 11.84 11.93 11.965 11.96 11.945 11.94 11.95 11.973 11.998 12.028 12.068 12.112 12.152 12.188 12.22 12.253 12.28 12.29 12.295 12.308 12.328 12.388 12.49 12.6 12.707 12.78 12.812 12.84 12.873 12.905 12.963 13.06 13.16 13.222 13.225 13.195 13.168 13.163 13.182 13.197 13.203 13.223 13.258 13.297 13.34 13.38 13.42 13.46 13.505 13.55 13.595 13.655 13.707 13.737 13.763 13.79 13.807 13.81 13.813 13.815 13.82 13.838 13.865 13.895 13.915 13.925 13.93 13.935 13.943 13.953 13.947 13.92 13.903 13.91 13.927 13.945 13.965 13.957 13.923 13.895 13.878 13.863 13.847 13.832 13.812 13.777 13.722 13.655 13.588 13.542 13.512 13.48 13.442 13.41 13.38 13.34 13.303 13.285 13.292
8.925 8.99 9.007 8.99 8.993 9.01 9.035 9.065 9.098 9.14 9.21 9.277 9.325 9.367 9.397 9.415 9.415 9.405 9.405 9.415 9.425 9.433 9.448 9.47 9.498 9.53 9.545 9.54 9.54 9.553 9.577 9.59 9.56 9.528 9.54 9.577 9.61 9.645 9.69 9.743 9.795 9.853 9.913 9.982 10.047 10.09 10.13 10.18 10.303 10.498 10.697 10.52 10.533 10.762 10.683 10.638 10.595 10.56 10.565 10.605 10.627 10.633 10.635 10.635 10.632 10.622 10.603 10.625 10.702 10.78 10.835 10.875 10.912 10.947 10.975 10.987 10.987 10.99 11.008 11.038 11.073 11.115 11.157 11.185 11.205 11.225 11.235 11.235 11.235 11.237 11.24 11.232 11.21 11.183 11.18 11.213 11.288 11.398 11.517 11.64 11.76 11.877 11.965 12.005 12.012 12.005 12.003 12.015 12.035 12.055 12.083 12.125 12.175 12.217 12.253 12.287 12.312 12.325 12.33 12.335 12.345 12.37 12.423 12.503 12.605 12.712 12.782 12.812 12.838 12.865 12.893 12.958 13.065 13.17 13.222 13.215 13.195 13.178 13.183 13.197 13.2 13.2 13.218 13.253 13.293 13.335 13.375 13.417 13.46 13.502 13.548 13.605 13.677 13.737 13.772 13.797 13.82 13.83 13.83 13.83 13.835 13.85 13.878 13.907 13.932 13.952 13.962 13.968 13.978 13.998 14.015 14.005 13.983 13.97 13.96 13.963 13.98 14 13.992 13.958 13.928 13.905 13.89 13.875 13.855 13.83 13.795 13.75 13.695 13.633 13.587 13.555 13.51 13.455 13.435 13.44 13.415 13.38 13.37 13.362
8.925 8.975 8.985 8.955 8.935 8.935 8.958 8.998 9.045 9.1 9.177 9.245 9.288 9.33 9.362 9.39 9.407 9.407 9.41 9.417 9.425 9.435 9.45 9.473 9.505 9.54 9.555 9.558 9.57 9.59 9.615 9.65 9.667 9.652 9.658 9.69 9.72 9.753 9.79 9.835 9.88 9.925 9.967 10.007 10.05 10.09 10.13 10.19 10.318 10.513 10.722 10.463 10.488 10.805 10.693 10.63 10.588 10.56 10.572 10.612 10.652 10.675 10.682 10.68 10.667 10.645 10.625 10.663 10.748 10.832 10.907 10.962 11 11.02 11.022 11.017 11.015 11.018 11.033 11.058 11.085 11.12 11.153 11.175 11.195 11.213 11.225 11.23 11.23 11.235 11.237 11.22 11.185 11.148 11.155 11.228 11.33 11.445 11.562 11.68 11.8 11.915 12 12.04 12.057 12.062 12.067 12.085 12.105 12.125 12.153 12.193 12.238 12.282 12.32 12.347 12.362 12.368 12.37 12.375 12.388 12.423 12.475 12.533 12.613 12.715 12.785 12.815 12.842 12.865 12.88 12.928 13.025 13.137 13.205 13.215 13.207 13.198 13.202 13.205 13.2 13.198 13.213 13.25 13.29 13.33 13.37 13.413 13.455 13.498 13.553 13.623 13.7 13.767 13.805 13.827 13.845 13.85 13.853 13.86 13.875 13.895 13.923 13.95 13.97 13.99 14 14.008 14.03 14.067 14.085 14.073 14.065 14.062 14.043 14.02 14.023 14.04 14.03 13.993 13.96 13.935 13.917 13.897 13.87 13.842 13.81 13.767 13.722 13.672 13.617 13.557 13.487 13.413 13.39 13.432 13.465 13.457 13.43 13.385
8.925 8.945 8.972 8.965 8.933 8.905 8.913 8.96 9.02 9.08 9.152 9.215 9.255 9.295 9.33 9.357 9.382 9.4 9.41 9.417 9.425 9.435 9.455 9.485 9.518 9.553 9.575 9.59 9.61 9.63 9.658 9.695 9.732 9.75 9.765 9.795 9.827 9.857 9.887 9.92 9.945 9.967 9.992 10.02 10.053 10.09 10.135 10.205 10.335 10.528 10.742 10.48 10.518 10.862 10.735 10.638 10.585 10.562 10.55 10.575 10.65 10.707 10.722 10.71 10.687 10.663 10.658 10.71 10.795 10.877 10.962 11.03 11.057 11.055 11.048 11.045 11.045 11.045 11.058 11.083 11.11 11.138 11.16 11.178 11.193 11.205 11.218 11.23 11.238 11.248 11.248 11.22 11.18 11.158 11.178 11.255 11.365 11.477 11.592 11.71 11.83 11.947 12.03 12.062 12.08 12.095 12.112 12.137 12.162 12.19 12.225 12.265 12.305 12.347 12.382 12.397 12.405 12.413 12.418 12.423 12.43 12.465 12.525 12.582 12.643 12.72 12.782 12.815 12.845 12.865 12.865 12.875 12.945 13.057 13.142 13.182 13.205 13.215 13.212 13.205 13.197 13.19 13.21 13.257 13.3 13.343 13.388 13.43 13.475 13.525 13.583 13.65 13.725 13.795 13.837 13.855 13.865 13.873 13.883 13.9 13.92 13.943 13.968 13.988 14.005 14.025 14.043 14.065 14.1 14.142 14.16 14.158 14.16 14.16 14.145 14.11 14.083 14.08 14.065 14.028 13.993 13.963 13.937 13.91 13.883 13.857 13.825 13.78 13.74 13.71 13.645 13.55 13.463 13.375 13.325 13.368 13.457 13.487 13.44 13.372
8.85 8.873 8.957 9 8.977 8.94 8.933 8.968 9.013 9.065 9.13 9.185 9.225 9.265 9.298 9.323 9.348 9.372 9.387 9.395 9.415 9.448 9.488 9.528 9.56 9.593 9.633 9.665 9.683 9.703 9.733 9.77 9.802 9.817 9.822 9.84 9.872 9.905 9.93 9.945 9.952 9.965 9.993 10.025 10.055 10.093 10.16 10.253 10.375 10.563 10.77 10.553 10.573 10.855 10.75 10.653 10.583 10.535 10.48 10.448 10.505 10.602 10.672 10.71 10.705 10.68 10.693 10.757 10.84 10.915 10.987 11.055 11.082 11.078 11.075 11.075 11.075 11.075 11.085 11.11 11.14 11.165 11.185 11.2 11.21 11.22 11.233 11.25 11.268 11.285 11.282 11.25 11.233 11.253 11.265 11.293 11.38 11.49 11.605 11.725 11.845 11.952 12.012 12.03 12.042 12.06 12.085 12.115 12.145 12.195 12.252 12.297 12.34 12.382 12.42 12.445 12.46 12.47 12.48 12.48 12.473 12.493 12.545 12.607 12.667 12.727 12.78 12.817 12.85 12.872 12.863 12.843 12.88 12.975 13.06 13.11 13.162 13.2 13.197 13.187 13.18 13.173 13.203 13.267 13.33 13.382 13.43 13.48 13.538 13.595 13.645 13.7 13.763 13.825 13.867 13.883 13.893 13.908 13.925 13.945 13.965 13.993 14.023 14.045 14.065 14.085 14.108 14.138 14.175 14.215 14.237 14.242 14.247 14.247 14.227 14.19 14.152 14.125 14.095 14.06 14.025 13.988 13.955 13.925 13.898 13.872 13.838 13.798 13.77 13.752 13.69 13.585 13.485 13.39 13.323 13.335 13.425 13.48 13.437 13.36
8.735 8.793 8.915 9.012 9.03 8.998 8.988 9.01 9.04 9.078 9.12 9.163 9.205 9.248 9.278 9.298 9.318 9.338 9.36 9.388 9.43 9.485 9.54 9.587 9.625 9.658 9.707 9.76 9.787 9.808 9.838 9.872 9.887 9.872 9.85 9.843 9.86 9.892 9.917 9.928 9.94 9.963 9.99 10.023 10.058 10.105 10.198 10.317 10.438 10.602 10.79 10.645 10.615 10.775 10.705 10.645 10.588 10.518 10.433 10.343 10.31 10.375 10.483 10.588 10.657 10.685 10.723 10.79 10.862 10.93 10.99 11.055 11.092 11.097 11.102 11.105 11.105 11.105 11.115 11.14 11.167 11.192 11.215 11.23 11.243 11.258 11.275 11.295 11.315 11.332 11.33 11.32 11.345 11.39 11.395 11.375 11.41 11.505 11.62 11.74 11.845 11.92 11.955 11.963 11.968 11.98 12.005 12.035 12.083 12.16 12.232 12.285 12.332 12.38 12.425 12.467 12.502 12.53 12.542 12.53 12.515 12.523 12.555 12.605 12.665 12.725 12.777 12.82 12.857 12.887 12.877 12.84 12.835 12.898 12.977 13.033 13.108 13.17 13.175 13.158 13.145 13.143 13.183 13.257 13.335 13.407 13.477 13.547 13.612 13.67 13.72 13.767 13.807 13.847 13.89 13.917 13.935 13.955 13.975 13.995 14.02 14.055 14.09 14.12 14.15 14.175 14.195 14.217 14.248 14.285 14.31 14.315 14.312 14.3 14.27 14.23 14.192 14.157 14.122 14.087 14.05 14.013 13.98 13.95 13.918 13.89 13.863 13.835 13.815 13.797 13.737 13.635 13.543 13.468 13.405 13.373 13.413 13.48 13.45 13.355
8.638 8.73 8.855 8.98 9.055 9.055 9.043 9.06 9.09 9.12 9.143 9.165 9.2 9.245 9.275 9.29 9.308 9.335 9.378 9.428 9.48 9.535 9.59 9.64 9.685 9.725 9.775 9.837 9.887 9.915 9.942 9.96 9.945 9.915 9.89 9.87 9.865 9.883 9.903 9.915 9.935 9.96 9.985 10.023 10.07 10.13 10.23 10.355 10.47 10.62 10.8 10.735 10.668 10.722 10.678 10.64 10.612 10.562 10.468 10.363 10.303 10.34 10.433 10.535 10.635 10.703 10.755 10.813 10.873 10.935 10.995 11.058 11.1 11.112 11.12 11.127 11.132 11.135 11.145 11.17 11.195 11.22 11.245 11.263 11.28 11.3 11.32 11.34 11.36 11.38 11.405 11.442 11.487 11.53 11.535 11.5 11.483 11.53 11.635 11.74 11.812 11.867 11.897 11.9 11.898 11.903 11.925 11.97 12.05 12.14 12.21 12.265 12.317 12.367 12.413 12.46 12.502 12.542 12.567 12.567 12.557 12.56 12.585 12.618 12.663 12.718 12.77 12.817 12.862 12.9 12.897 12.855 12.815 12.835 12.898 12.97 13.07 13.15 13.162 13.138 13.115 13.113 13.163 13.243 13.323 13.408 13.502 13.6 13.67 13.71 13.745 13.782 13.812 13.837 13.885 13.947 13.985 14.002 14.023 14.05 14.085 14.125 14.162 14.192 14.217 14.235 14.255 14.285 14.32 14.357 14.375 14.367 14.35 14.325 14.29 14.25 14.21 14.175 14.145 14.112 14.075 14.038 14.005 13.975 13.945 13.92 13.902 13.885 13.865 13.845 13.787 13.7 13.628 13.57 13.515 13.46 13.435 13.48 13.47 13.36
8.555 8.67 8.795 8.92 9.032 9.09 9.097 9.113 9.14 9.165 9.182 9.195 9.213 9.248 9.275 9.298 9.335 9.383 9.435 9.488 9.54 9.6 9.658 9.703 9.748 9.793 9.845 9.907 9.97 10.015 10.03 10.015 9.985 9.955 9.933 9.915 9.898 9.89 9.895 9.913 9.938 9.96 9.99 10.038 10.095 10.155 10.237 10.335 10.448 10.62 10.807 10.797 10.72 10.722 10.695 10.663 10.645 10.62 10.54 10.44 10.423 10.495 10.582 10.647 10.695 10.75 10.81 10.86 10.905 10.96 11.02 11.08 11.117 11.127 11.135 11.145 11.152 11.158 11.17 11.195 11.222 11.25 11.277 11.3 11.32 11.34 11.36 11.38 11.4 11.435 11.492 11.555 11.61 11.66 11.67 11.635 11.595 11.583 11.633 11.705 11.763 11.818 11.845 11.845 11.843 11.84 11.865 11.938 12.035 12.122 12.187 12.243 12.297 12.35 12.397 12.442 12.482 12.517 12.55 12.575 12.587 12.6 12.622 12.645 12.68 12.728 12.77 12.813 12.86 12.905 12.912 12.875 12.825 12.8 12.838 12.93 13.04 13.13 13.16 13.15 13.138 13.135 13.183 13.263 13.34 13.418 13.518 13.637 13.707 13.728 13.745 13.765 13.785 13.805 13.85 13.93 14.002 14.042 14.072 14.112 14.155 14.195 14.23 14.25 14.26 14.265 14.278 14.312 14.357 14.397 14.41 14.392 14.37 14.345 14.31 14.27 14.23 14.195 14.165 14.135 14.1 14.063 14.033 14.005 13.98 13.957 13.94 13.925 13.907 13.89 13.847 13.79 13.737 13.682 13.627 13.572 13.518 13.505 13.482 13.383
8.5 8.613 8.735 8.86 8.98 9.082 9.137 9.162 9.187 9.208 9.223 9.235 9.245 9.263 9.293 9.338 9.393 9.447 9.5 9.553 9.613 9.687 9.75 9.793 9.833 9.868 9.915 9.975 10.04 10.085 10.082 10.055 10.025 9.997 9.975 9.955 9.935 9.913 9.908 9.928 9.95 9.965 9.995 10.05 10.107 10.152 10.208 10.278 10.408 10.62 10.795 10.807 10.753 10.732 10.707 10.682 10.647 10.64 10.605 10.535 10.56 10.63 10.677 10.705 10.738 10.8 10.875 10.932 10.968 11.008 11.06 11.115 11.14 11.143 11.15 11.16 11.168 11.175 11.193 11.218 11.245 11.275 11.305 11.337 11.365 11.385 11.405 11.425 11.453 11.505 11.57 11.632 11.69 11.73 11.73 11.695 11.657 11.625 11.635 11.688 11.745 11.8 11.825 11.825 11.825 11.823 11.853 11.93 12.023 12.105 12.165 12.22 12.275 12.33 12.38 12.418 12.455 12.492 12.523 12.55 12.587 12.622 12.645 12.673 12.72 12.773 12.81 12.845 12.885 12.928 12.95 12.928 12.885 12.845 12.873 12.975 13.08 13.158 13.195 13.207 13.212 13.215 13.248 13.315 13.385 13.46 13.568 13.682 13.737 13.753 13.765 13.775 13.785 13.8 13.843 13.92 14.007 14.07 14.105 14.142 14.182 14.22 14.252 14.275 14.287 14.292 14.298 14.32 14.36 14.4 14.412 14.395 14.375 14.352 14.317 14.275 14.235 14.212 14.195 14.163 14.128 14.095 14.068 14.04 14.015 13.987 13.963 13.947 13.935 13.917 13.885 13.847 13.805 13.755 13.707 13.657 13.607 13.565 13.515 13.425
8.538 8.643 8.753 8.865 8.975 9.088 9.167 9.207 9.235 9.257 9.275 9.285 9.29 9.293 9.335 9.402 9.458 9.512 9.565 9.623 9.698 9.782 9.85 9.897 9.93 9.948 9.985 10.047 10.102 10.127 10.117 10.09 10.06 10.032 10.007 9.982 9.96 9.938 9.935 9.952 9.965 9.97 9.993 10.045 10.092 10.12 10.165 10.228 10.368 10.607 10.762 10.787 10.767 10.735 10.71 10.612 10.503 10.503 10.577 10.635 10.662 10.687 10.698 10.728 10.785 10.855 10.932 11.002 11.045 11.075 11.113 11.147 11.157 11.158 11.165 11.175 11.185 11.195 11.215 11.24 11.265 11.292 11.32 11.362 11.405 11.43 11.45 11.475 11.52 11.582 11.645 11.695 11.73 11.74 11.722 11.693 11.66 11.635 11.648 11.7 11.76 11.815 11.837 11.835 11.835 11.838 11.873 11.945 12.025 12.093 12.145 12.2 12.258 12.312 12.36 12.395 12.428 12.465 12.498 12.53 12.585 12.635 12.665 12.71 12.773 12.835 12.88 12.915 12.95 12.993 13.025 13.02 12.992 12.958 12.99 13.092 13.175 13.22 13.247 13.27 13.287 13.297 13.32 13.375 13.45 13.533 13.637 13.727 13.765 13.78 13.79 13.8 13.813 13.838 13.885 13.958 14.035 14.092 14.117 14.133 14.163 14.197 14.232 14.267 14.295 14.312 14.322 14.333 14.36 14.397 14.405 14.385 14.362 14.337 14.302 14.258 14.22 14.217 14.225 14.2 14.165 14.135 14.103 14.07 14.042 14.012 13.983 13.965 13.952 13.93 13.895 13.857 13.82 13.78 13.737 13.695 13.655 13.615 13.567 13.48
8.658 8.76 8.86 8.96 9.06 9.145 9.202 9.245 9.282 9.312 9.33 9.335 9.327 9.32 9.373 9.46 9.522 9.578 9.635 9.708 9.792 9.877 9.95 9.997 10.017 10.023 10.058 10.115 10.147 10.162 10.155 10.122 10.085 10.05 10.025 10.002 9.98 9.963 9.962 9.97 9.97 9.968 9.988 10.03 10.06 10.08 10.123 10.178 10.315 10.572 10.725 10.762 10.772 10.74 10.712 10.535 10.37 10.37 10.445 10.605 10.69 10.69 10.713 10.77 10.84 10.91 10.985 11.067 11.127 11.16 11.18 11.182 11.175 11.173 11.183 11.195 11.205 11.215 11.235 11.26 11.283 11.307 11.333 11.375 11.43 11.467 11.493 11.533 11.59 11.645 11.687 11.715 11.737 11.742 11.725 11.7 11.672 11.648 11.653 11.705 11.772 11.83 11.852 11.85 11.85 11.858 11.9 11.975 12.053 12.12 12.165 12.2 12.245 12.295 12.34 12.375 12.405 12.438 12.475 12.528 12.6 12.66 12.705 12.765 12.83 12.895 12.947 12.985 13.03 13.082 13.11 13.11 13.097 13.073 13.11 13.192 13.24 13.267 13.292 13.317 13.342 13.365 13.387 13.44 13.522 13.607 13.702 13.77 13.795 13.81 13.82 13.833 13.858 13.9 13.945 13.998 14.06 14.115 14.137 14.135 14.145 14.173 14.208 14.243 14.277 14.307 14.332 14.35 14.37 14.395 14.395 14.37 14.34 14.31 14.275 14.235 14.205 14.208 14.232 14.232 14.205 14.175 14.14 14.105 14.073 14.038 14.005 13.985 13.967 13.937 13.902 13.865 13.83 13.795 13.753 13.715 13.682 13.645 13.605 13.532
8.778 8.878 8.98 9.072 9.15 9.2 9.235 9.277 9.322 9.36 9.375 9.367 9.35 9.343 9.398 9.5 9.582 9.647 9.72 9.802 9.887 9.972 10.047 10.09 10.1 10.1 10.125 10.162 10.183 10.197 10.187 10.15 10.108 10.065 10.038 10.02 10.003 9.988 9.98 9.978 9.973 9.965 9.975 10 10.02 10.04 10.085 10.15 10.293 10.552 10.7 10.747 10.78 10.747 10.715 10.535 10.37 10.37 10.37 10.53 10.69 10.705 10.755 10.825 10.895 10.965 11.04 11.127 11.202 11.235 11.23 11.21 11.192 11.188 11.2 11.215 11.225 11.235 11.253 11.278 11.3 11.323 11.348 11.388 11.445 11.5 11.542 11.587 11.637 11.68 11.702 11.71 11.727 11.737 11.725 11.702 11.68 11.658 11.658 11.705 11.775 11.837 11.865 11.868 11.87 11.883 11.933 12.01 12.09 12.17 12.222 12.245 12.27 12.303 12.338 12.373 12.408 12.443 12.49 12.56 12.635 12.698 12.757 12.822 12.887 12.952 13.01 13.063 13.127 13.175 13.185 13.185 13.185 13.182 13.21 13.255 13.285 13.312 13.337 13.36 13.382 13.405 13.425 13.475 13.56 13.65 13.737 13.795 13.82 13.835 13.85 13.878 13.915 13.955 13.992 14.033 14.08 14.132 14.16 14.158 14.153 14.163 14.19 14.223 14.255 14.285 14.32 14.352 14.377 14.39 14.377 14.347 14.315 14.283 14.248 14.218 14.195 14.195 14.225 14.25 14.242 14.215 14.18 14.142 14.105 14.065 14.028 14.003 13.98 13.945 13.91 13.878 13.845 13.81 13.763 13.718 13.687 13.66 13.627 13.567
8.9 8.997 9.085 9.147 9.195 9.23 9.263 9.3 9.34 9.38 9.392 9.377 9.365 9.378 9.443 9.542 9.625 9.71 9.807 9.89 9.975 10.06 10.13 10.16 10.16 10.162 10.18 10.207 10.228 10.242 10.232 10.193 10.15 10.11 10.075 10.05 10.035 10.023 10.01 10.003 9.995 9.985 9.985 10 10.018 10.033 10.09 10.18 10.325 10.557 10.68 10.732 10.775 10.747 10.72 10.538 10.37 10.37 10.37 10.45 10.617 10.74 10.81 10.88 10.95 11.02 11.095 11.172 11.24 11.26 11.237 11.215 11.195 11.198 11.22 11.235 11.245 11.258 11.278 11.303 11.325 11.345 11.368 11.405 11.46 11.522 11.575 11.615 11.655 11.692 11.712 11.715 11.72 11.725 11.715 11.695 11.675 11.655 11.658 11.703 11.77 11.835 11.875 11.887 11.89 11.913 11.975 12.055 12.135 12.215 12.283 12.323 12.348 12.375 12.4 12.428 12.465 12.505 12.56 12.635 12.697 12.745 12.805 12.87 12.935 13.002 13.065 13.137 13.212 13.242 13.24 13.237 13.237 13.242 13.257 13.285 13.315 13.342 13.365 13.385 13.405 13.42 13.435 13.473 13.55 13.647 13.732 13.792 13.832 13.86 13.888 13.925 13.962 13.995 14.03 14.068 14.105 14.15 14.18 14.185 14.183 14.183 14.195 14.218 14.248 14.28 14.313 14.345 14.377 14.382 14.355 14.323 14.29 14.258 14.228 14.205 14.185 14.183 14.21 14.247 14.267 14.255 14.22 14.18 14.138 14.095 14.053 14.018 13.99 13.958 13.925 13.892 13.86 13.827 13.775 13.71 13.668 13.645 13.622 13.58
9.012 9.097 9.153 9.19 9.227 9.262 9.29 9.31 9.34 9.377 9.387 9.38 9.393 9.433 9.508 9.59 9.633 9.72 9.86 9.965 10.052 10.137 10.2 10.21 10.198 10.203 10.225 10.257 10.282 10.3 10.295 10.257 10.215 10.18 10.143 10.103 10.078 10.065 10.055 10.045 10.035 10.025 10.025 10.04 10.052 10.058 10.125 10.24 10.36 10.54 10.637 10.695 10.74 10.707 10.687 10.597 10.445 10.56 10.56 10.37 10.458 10.657 10.807 10.88 10.952 11.025 11.107 11.177 11.225 11.245 11.227 11.202 11.18 11.19 11.225 11.25 11.267 11.283 11.305 11.332 11.355 11.375 11.393 11.423 11.475 11.535 11.585 11.625 11.665 11.7 11.717 11.72 11.72 11.72 11.708 11.688 11.67 11.65 11.655 11.698 11.76 11.825 11.875 11.902 11.91 11.945 12.035 12.135 12.22 12.298 12.37 12.422 12.455 12.487 12.512 12.53 12.558 12.595 12.653 12.722 12.767 12.795 12.843 12.907 12.975 13.035 13.095 13.17 13.237 13.262 13.26 13.257 13.252 13.253 13.27 13.3 13.33 13.355 13.375 13.395 13.412 13.428 13.445 13.47 13.533 13.63 13.712 13.77 13.822 13.882 13.93 13.963 13.998 14.032 14.067 14.103 14.14 14.177 14.205 14.215 14.215 14.215 14.22 14.233 14.255 14.285 14.318 14.35 14.38 14.375 14.34 14.305 14.27 14.24 14.215 14.195 14.175 14.17 14.195 14.235 14.27 14.282 14.26 14.22 14.175 14.125 14.078 14.043 14.01 13.975 13.943 13.908 13.875 13.845 13.795 13.72 13.655 13.62 13.597 13.562
9.11 9.2 9.235 9.24 9.263 9.3 9.325 9.335 9.35 9.375 9.393 9.41 9.45 9.5 9.567 9.61 9.605 9.685 9.852 10 10.117 10.212 10.267 10.262 10.235 10.238 10.265 10.3 10.332 10.357 10.355 10.322 10.287 10.255 10.217 10.172 10.133 10.108 10.095 10.085 10.075 10.068 10.07 10.08 10.082 10.08 10.15 10.287 10.395 10.52 10.573 10.637 10.697 10.64 10.615 10.632 10.513 10.56 10.615 10.425 10.37 10.483 10.692 10.825 10.9 10.983 11.077 11.15 11.188 11.215 11.212 11.185 11.163 11.175 11.215 11.252 11.285 11.305 11.328 11.36 11.385 11.402 11.415 11.44 11.49 11.547 11.595 11.635 11.677 11.71 11.723 11.728 11.738 11.74 11.72 11.693 11.668 11.645 11.653 11.695 11.753 11.812 11.862 11.905 11.928 11.973 12.085 12.215 12.325 12.412 12.48 12.532 12.572 12.605 12.627 12.64 12.658 12.69 12.747 12.802 12.83 12.85 12.885 12.94 12.995 13.037 13.092 13.16 13.217 13.252 13.26 13.26 13.257 13.258 13.275 13.305 13.335 13.362 13.385 13.405 13.42 13.435 13.455 13.475 13.523 13.61 13.687 13.743 13.805 13.885 13.962 14.01 14.038 14.068 14.103 14.138 14.175 14.207 14.23 14.242 14.245 14.248 14.255 14.263 14.273 14.293 14.323 14.357 14.38 14.365 14.33 14.295 14.26 14.23 14.205 14.185 14.165 14.158 14.18 14.22 14.258 14.292 14.29 14.247 14.2 14.148 14.105 14.085 14.057 14.015 13.973 13.93 13.895 13.865 13.815 13.74 13.665 13.608 13.57 13.53
9.197 9.32 9.36 9.338 9.328 9.345 9.365 9.372 9.375 9.383 9.41 9.457 9.512 9.565 9.6 9.593 9.573 9.653 9.818 9.98 10.135 10.27 10.332 10.312 10.275 10.278 10.31 10.345 10.38 10.41 10.4 10.365 10.342 10.32 10.285 10.237 10.19 10.148 10.127 10.12 10.112 10.107 10.107 10.11 10.107 10.105 10.17 10.305 10.425 10.53 10.523 10.583 10.665 10.588 10.558 10.59 10.567 10.445 10.425 10.615 10.56 10.39 10.568 10.762 10.845 10.943 11.045 11.127 11.17 11.185 11.18 11.16 11.145 11.16 11.2 11.24 11.28 11.312 11.345 11.382 11.412 11.43 11.438 11.458 11.505 11.56 11.605 11.645 11.69 11.722 11.738 11.755 11.777 11.777 11.75 11.715 11.675 11.648 11.658 11.698 11.748 11.8 11.85 11.897 11.935 11.998 12.115 12.255 12.387 12.495 12.567 12.622 12.675 12.72 12.745 12.752 12.762 12.79 12.835 12.87 12.887 12.9 12.917 12.95 12.987 13.025 13.075 13.135 13.19 13.235 13.255 13.255 13.257 13.26 13.278 13.31 13.34 13.37 13.395 13.415 13.43 13.445 13.465 13.485 13.518 13.588 13.662 13.723 13.795 13.878 13.975 14.055 14.09 14.113 14.143 14.175 14.207 14.232 14.247 14.26 14.27 14.28 14.29 14.297 14.305 14.315 14.333 14.362 14.377 14.355 14.32 14.288 14.253 14.22 14.195 14.175 14.158 14.15 14.173 14.215 14.258 14.305 14.31 14.265 14.215 14.168 14.138 14.13 14.117 14.08 14.03 13.98 13.935 13.895 13.837 13.76 13.68 13.603 13.545 13.5
9.265 9.415 9.487 9.48 9.445 9.415 9.395 9.383 9.38 9.388 9.42 9.475 9.535 9.592 9.617 9.605 9.59 9.66 9.815 9.975 10.132 10.285 10.357 10.33 10.305 10.325 10.36 10.395 10.43 10.455 10.425 10.368 10.342 10.327 10.305 10.267 10.22 10.17 10.143 10.137 10.132 10.13 10.13 10.13 10.13 10.13 10.19 10.313 10.432 10.542 10.498 10.538 10.635 10.55 10.523 10.563 10.62 10.592 10.45 10.56 10.56 10.37 10.45 10.64 10.802 10.907 11.012 11.11 11.162 11.165 11.15 11.13 11.118 11.135 11.175 11.215 11.255 11.295 11.335 11.377 11.417 11.447 11.462 11.475 11.515 11.57 11.615 11.655 11.697 11.735 11.762 11.787 11.807 11.795 11.755 11.715 11.68 11.668 11.688 11.723 11.755 11.793 11.84 11.885 11.93 12.008 12.13 12.267 12.395 12.497 12.57 12.63 12.687 12.75 12.8 12.822 12.84 12.867 12.89 12.897 12.902 12.905 12.912 12.935 12.973 13.015 13.058 13.108 13.16 13.212 13.242 13.248 13.252 13.255 13.273 13.305 13.335 13.365 13.392 13.415 13.435 13.455 13.475 13.495 13.515 13.568 13.642 13.71 13.788 13.873 13.965 14.07 14.145 14.172 14.193 14.218 14.238 14.253 14.265 14.275 14.287 14.297 14.31 14.327 14.34 14.347 14.355 14.37 14.38 14.365 14.333 14.3 14.268 14.24 14.22 14.2 14.185 14.178 14.19 14.228 14.275 14.325 14.327 14.28 14.233 14.198 14.178 14.17 14.165 14.142 14.1 14.05 13.997 13.937 13.857 13.765 13.677 13.595 13.528 13.475
9.315 9.487 9.59 9.592 9.547 9.49 9.438 9.398 9.375 9.385 9.42 9.47 9.533 9.592 9.63 9.642 9.643 9.7 9.835 9.985 10.127 10.265 10.342 10.333 10.333 10.372 10.41 10.445 10.477 10.492 10.45 10.368 10.315 10.293 10.28 10.262 10.227 10.18 10.15 10.145 10.143 10.145 10.15 10.15 10.15 10.15 10.21 10.325 10.435 10.545 10.485 10.513 10.61 10.523 10.5 10.547 10.6 10.645 10.595 10.448 10.37 10.37 10.37 10.46 10.675 10.855 10.967 11.08 11.142 11.142 11.122 11.098 11.083 11.103 11.145 11.185 11.225 11.265 11.305 11.347 11.392 11.442 11.48 11.495 11.528 11.58 11.625 11.662 11.7 11.737 11.772 11.802 11.81 11.78 11.73 11.695 11.688 11.703 11.732 11.762 11.775 11.79 11.83 11.877 11.925 12.005 12.127 12.252 12.357 12.44 12.505 12.565 12.625 12.7 12.777 12.825 12.857 12.9 12.91 12.885 12.875 12.875 12.885 12.915 12.96 13.008 13.05 13.09 13.135 13.187 13.227 13.242 13.242 13.24 13.258 13.29 13.32 13.35 13.38 13.405 13.43 13.455 13.475 13.497 13.518 13.558 13.628 13.703 13.783 13.868 13.953 14.062 14.175 14.232 14.255 14.272 14.28 14.283 14.288 14.295 14.3 14.303 14.32 14.347 14.367 14.38 14.387 14.393 14.398 14.395 14.37 14.338 14.315 14.3 14.285 14.263 14.245 14.235 14.235 14.255 14.295 14.342 14.34 14.293 14.258 14.243 14.23 14.215 14.205 14.192 14.162 14.115 14.06 13.98 13.872 13.763 13.665 13.58 13.513 13.468
9.348 9.537 9.635 9.625 9.59 9.547 9.502 9.453 9.418 9.413 9.428 9.47 9.535 9.595 9.63 9.653 9.678 9.735 9.843 9.968 10.098 10.235 10.327 10.353 10.375 10.417 10.457 10.492 10.52 10.525 10.475 10.385 10.305 10.26 10.248 10.24 10.222 10.187 10.16 10.155 10.158 10.165 10.17 10.17 10.17 10.17 10.225 10.332 10.44 10.547 10.485 10.51 10.595 10.5 10.483 10.527 10.567 10.602 10.64 10.592 10.448 10.37 10.37 10.37 10.54 10.777 10.91 11.022 11.09 11.105 11.085 11.06 11.048 11.068 11.11 11.152 11.195 11.235 11.275 11.315 11.36 11.417 11.475 11.51 11.543 11.587 11.63 11.665 11.698 11.733 11.77 11.8 11.792 11.75 11.713 11.705 11.723 11.747 11.775 11.795 11.792 11.79 11.82 11.87 11.92 12 12.112 12.212 12.295 12.37 12.435 12.498 12.57 12.655 12.742 12.802 12.85 12.917 12.93 12.885 12.855 12.845 12.86 12.9 12.953 13.005 13.047 13.083 13.12 13.163 13.207 13.232 13.227 13.22 13.24 13.275 13.305 13.335 13.365 13.392 13.42 13.445 13.465 13.49 13.52 13.555 13.615 13.698 13.78 13.863 13.948 14.048 14.17 14.275 14.32 14.33 14.33 14.32 14.315 14.312 14.305 14.305 14.325 14.355 14.382 14.405 14.42 14.425 14.425 14.425 14.412 14.393 14.38 14.37 14.355 14.333 14.31 14.295 14.295 14.303 14.323 14.357 14.352 14.32 14.305 14.297 14.285 14.268 14.253 14.238 14.217 14.18 14.11 14.007 13.89 13.775 13.665 13.568 13.505 13.48
9.395 9.555 9.622 9.603 9.59 9.58 9.55 9.5 9.47 9.458 9.46 9.498 9.555 9.608 9.645 9.678 9.715 9.775 9.87 9.98 10.098 10.225 10.327 10.382 10.422 10.465 10.505 10.537 10.56 10.557 10.5 10.41 10.32 10.248 10.218 10.21 10.2 10.183 10.17 10.17 10.175 10.185 10.19 10.19 10.187 10.185 10.235 10.338 10.445 10.55 10.485 10.517 10.602 10.49 10.458 10.49 10.523 10.558 10.595 10.635 10.59 10.448 10.37 10.37 10.443 10.655 10.842 10.922 10.982 11.025 11.035 11.02 11.01 11.03 11.072 11.117 11.16 11.203 11.245 11.288 11.335 11.388 11.447 11.505 11.552 11.592 11.627 11.662 11.695 11.73 11.77 11.782 11.755 11.72 11.713 11.732 11.76 11.787 11.81 11.817 11.805 11.793 11.815 11.865 11.915 11.985 12.072 12.153 12.228 12.3 12.365 12.438 12.525 12.615 12.702 12.772 12.835 12.905 12.92 12.88 12.842 12.823 12.843 12.892 12.947 13 13.042 13.078 13.113 13.15 13.19 13.215 13.21 13.203 13.223 13.257 13.29 13.32 13.348 13.375 13.405 13.435 13.462 13.49 13.525 13.56 13.613 13.693 13.778 13.86 13.945 14.035 14.15 14.277 14.352 14.375 14.37 14.353 14.342 14.327 14.308 14.305 14.325 14.355 14.387 14.42 14.44 14.442 14.437 14.435 14.44 14.442 14.437 14.435 14.425 14.405 14.383 14.363 14.358 14.363 14.373 14.388 14.383 14.368 14.363 14.355 14.34 14.323 14.307 14.29 14.272 14.232 14.14 14.023 13.908 13.795 13.683 13.575 13.515 13.505
9.467 9.56 9.597 9.59 9.59 9.595 9.577 9.533 9.505 9.495 9.515 9.565 9.615 9.658 9.69 9.725 9.765 9.823 9.918 10.03 10.14 10.255 10.355 10.415 10.46 10.505 10.547 10.577 10.595 10.597 10.545 10.458 10.37 10.288 10.245 10.235 10.223 10.2 10.183 10.183 10.19 10.2 10.202 10.2 10.198 10.203 10.255 10.348 10.45 10.557 10.49 10.458 10.547 10.49 10.435 10.455 10.485 10.515 10.55 10.595 10.645 10.52 10.37 10.37 10.45 10.638 10.762 10.803 10.85 10.905 10.95 10.962 10.963 10.985 11.03 11.078 11.13 11.188 11.238 11.285 11.327 11.363 11.413 11.48 11.545 11.592 11.625 11.658 11.693 11.73 11.76 11.747 11.715 11.705 11.718 11.745 11.775 11.802 11.822 11.827 11.815 11.798 11.815 11.865 11.915 11.97 12.033 12.1 12.168 12.233 12.3 12.377 12.462 12.547 12.627 12.702 12.77 12.825 12.835 12.805 12.78 12.783 12.823 12.88 12.937 12.992 13.04 13.078 13.118 13.16 13.195 13.207 13.195 13.183 13.2 13.24 13.275 13.305 13.332 13.358 13.385 13.418 13.46 13.5 13.535 13.57 13.623 13.7 13.783 13.865 13.95 14.035 14.125 14.232 14.332 14.395 14.405 14.387 14.37 14.345 14.318 14.31 14.327 14.352 14.38 14.407 14.427 14.435 14.43 14.425 14.445 14.465 14.465 14.47 14.475 14.475 14.465 14.445 14.433 14.435 14.442 14.443 14.438 14.43 14.422 14.41 14.395 14.38 14.363 14.345 14.327 14.27 14.162 14.048 13.935 13.825 13.715 13.605 13.543 13.533
9.5 9.555 9.592 9.605 9.61 9.615 9.602 9.565 9.54 9.543 9.585 9.647 9.7 9.737 9.76 9.785 9.82 9.873 9.963 10.077 10.19 10.305 10.395 10.445 10.49 10.538 10.582 10.61 10.623 10.635 10.602 10.523 10.438 10.36 10.323 10.31 10.282 10.24 10.205 10.195 10.198 10.205 10.207 10.205 10.213 10.235 10.29 10.375 10.47 10.57 10.495 10.413 10.507 10.5 10.43 10.433 10.458 10.488 10.528 10.578 10.627 10.59 10.45 10.37 10.533 10.705 10.725 10.748 10.778 10.815 10.855 10.883 10.903 10.943 11 11.063 11.133 11.202 11.26 11.302 11.325 11.338 11.38 11.453 11.53 11.59 11.625 11.655 11.69 11.727 11.735 11.713 11.703 11.708 11.72 11.745 11.772 11.795 11.812 11.822 11.82 11.808 11.82 11.865 11.913 11.963 12.02 12.08 12.14 12.198 12.248 12.3 12.37 12.447 12.523 12.6 12.67 12.712 12.71 12.688 12.693 12.735 12.795 12.855 12.915 12.983 13.047 13.1 13.15 13.192 13.212 13.205 13.182 13.16 13.17 13.21 13.247 13.28 13.31 13.337 13.365 13.395 13.445 13.502 13.545 13.58 13.638 13.72 13.8 13.88 13.968 14.055 14.123 14.19 14.28 14.37 14.415 14.417 14.4 14.367 14.33 14.308 14.315 14.335 14.352 14.37 14.392 14.412 14.415 14.415 14.445 14.472 14.478 14.485 14.5 14.52 14.53 14.527 14.517 14.515 14.517 14.51 14.502 14.495 14.48 14.455 14.44 14.432 14.417 14.4 14.377 14.305 14.19 14.083 13.975 13.865 13.755 13.648 13.585 13.568
9.455 9.507 9.57 9.612 9.63 9.635 9.627 9.598 9.58 9.605 9.665 9.73 9.782 9.815 9.835 9.855 9.88 9.925 10.01 10.125 10.242 10.352 10.43 10.478 10.525 10.575 10.617 10.64 10.65 10.662 10.652 10.592 10.51 10.435 10.393 10.365 10.32 10.27 10.235 10.218 10.208 10.208 10.213 10.223 10.243 10.27 10.328 10.415 10.505 10.595 10.505 10.405 10.51 10.52 10.428 10.408 10.438 10.478 10.525 10.575 10.622 10.587 10.45 10.45 10.615 10.71 10.73 10.753 10.775 10.795 10.818 10.848 10.888 10.945 11.013 11.083 11.155 11.225 11.28 11.305 11.31 11.31 11.348 11.425 11.51 11.58 11.622 11.655 11.687 11.712 11.71 11.703 11.707 11.712 11.722 11.742 11.765 11.782 11.797 11.81 11.817 11.817 11.828 11.865 11.91 11.96 12.02 12.077 12.132 12.185 12.22 12.243 12.28 12.343 12.42 12.497 12.567 12.6 12.595 12.603 12.645 12.705 12.765 12.825 12.89 12.975 13.062 13.13 13.182 13.215 13.215 13.192 13.168 13.145 13.145 13.173 13.21 13.247 13.28 13.312 13.345 13.375 13.425 13.492 13.547 13.59 13.655 13.74 13.823 13.908 13.998 14.085 14.147 14.193 14.25 14.325 14.397 14.432 14.412 14.367 14.32 14.283 14.28 14.3 14.317 14.335 14.358 14.382 14.392 14.405 14.442 14.477 14.492 14.503 14.52 14.54 14.56 14.575 14.58 14.585 14.585 14.575 14.565 14.55 14.525 14.495 14.478 14.472 14.465 14.452 14.42 14.337 14.225 14.118 14.012 13.905 13.795 13.69 13.63 13.61
9.378 9.435 9.51 9.58 9.632 9.652 9.65 9.63 9.633 9.68 9.745 9.81 9.86 9.89 9.91 9.93 9.95 9.985 10.065 10.18 10.297 10.397 10.465 10.515 10.565 10.615 10.652 10.67 10.683 10.695 10.695 10.657 10.585 10.508 10.45 10.403 10.35 10.3 10.265 10.245 10.228 10.22 10.23 10.253 10.278 10.305 10.365 10.455 10.545 10.592 10.482 10.373 10.485 10.535 10.423 10.39 10.43 10.475 10.525 10.575 10.622 10.508 10.37 10.53 10.695 10.713 10.735 10.757 10.78 10.803 10.835 10.88 10.933 10.993 11.058 11.123 11.187 11.25 11.287 11.293 11.29 11.285 11.318 11.398 11.485 11.565 11.617 11.65 11.677 11.69 11.692 11.697 11.7 11.702 11.712 11.73 11.75 11.767 11.783 11.795 11.805 11.815 11.83 11.863 11.908 11.96 12.017 12.07 12.12 12.167 12.207 12.227 12.235 12.263 12.32 12.393 12.465 12.5 12.518 12.563 12.618 12.675 12.735 12.795 12.873 12.975 13.072 13.14 13.185 13.21 13.202 13.178 13.155 13.135 13.123 13.138 13.173 13.21 13.245 13.28 13.317 13.355 13.41 13.478 13.54 13.603 13.68 13.768 13.855 13.945 14.035 14.115 14.17 14.223 14.278 14.313 14.37 14.427 14.407 14.348 14.293 14.248 14.24 14.26 14.28 14.3 14.323 14.35 14.368 14.393 14.438 14.482 14.507 14.52 14.537 14.555 14.575 14.59 14.605 14.625 14.632 14.627 14.615 14.59 14.56 14.535 14.518 14.508 14.502 14.495 14.457 14.372 14.265 14.155 14.047 13.94 13.833 13.73 13.67 13.65
9.303 9.365 9.44 9.515 9.59 9.642 9.667 9.673 9.7 9.76 9.825 9.89 9.937 9.965 9.982 9.997 10.015 10.055 10.14 10.252 10.357 10.44 10.5 10.55 10.6 10.65 10.687 10.705 10.717 10.725 10.72 10.697 10.647 10.575 10.505 10.448 10.393 10.34 10.3 10.275 10.255 10.243 10.255 10.282 10.31 10.34 10.4 10.487 10.575 10.535 10.41 10.37 10.485 10.537 10.43 10.403 10.438 10.478 10.525 10.573 10.617 10.575 10.44 10.53 10.697 10.717 10.74 10.758 10.785 10.828 10.878 10.933 10.99 11.05 11.112 11.17 11.215 11.247 11.277 11.295 11.293 11.288 11.318 11.398 11.487 11.557 11.6 11.63 11.65 11.655 11.66 11.665 11.665 11.67 11.685 11.705 11.727 11.752 11.773 11.788 11.8 11.815 11.838 11.868 11.905 11.953 12.007 12.06 12.11 12.155 12.192 12.217 12.228 12.238 12.273 12.33 12.39 12.435 12.478 12.535 12.593 12.648 12.705 12.775 12.862 12.96 13.055 13.13 13.18 13.2 13.187 13.165 13.148 13.135 13.12 13.115 13.135 13.17 13.205 13.24 13.28 13.335 13.407 13.478 13.545 13.62 13.707 13.8 13.89 13.982 14.075 14.145 14.198 14.273 14.34 14.345 14.358 14.412 14.407 14.345 14.283 14.233 14.225 14.248 14.27 14.29 14.313 14.338 14.358 14.388 14.435 14.485 14.517 14.535 14.552 14.567 14.585 14.6 14.615 14.642 14.665 14.667 14.65 14.62 14.595 14.585 14.568 14.545 14.538 14.532 14.492 14.405 14.3 14.19 14.083 13.975 13.868 13.77 13.715 13.695
9.228 9.295 9.37 9.445 9.52 9.59 9.657 9.715 9.772 9.837 9.902 9.957 9.995 10.022 10.04 10.05 10.07 10.13 10.23 10.327 10.405 10.47 10.53 10.585 10.635 10.685 10.722 10.74 10.745 10.74 10.73 10.715 10.687 10.635 10.565 10.505 10.45 10.395 10.348 10.31 10.283 10.265 10.275 10.305 10.335 10.363 10.42 10.507 10.595 10.505 10.37 10.37 10.48 10.535 10.455 10.438 10.46 10.495 10.535 10.575 10.618 10.655 10.52 10.53 10.7 10.718 10.74 10.773 10.82 10.877 10.932 10.99 11.047 11.1 11.145 11.177 11.19 11.198 11.237 11.29 11.312 11.315 11.345 11.42 11.495 11.542 11.575 11.597 11.605 11.605 11.61 11.615 11.62 11.635 11.655 11.675 11.703 11.74 11.772 11.797 11.817 11.835 11.858 11.885 11.913 11.945 11.995 12.047 12.095 12.14 12.177 12.207 12.223 12.243 12.283 12.328 12.373 12.42 12.47 12.523 12.578 12.633 12.683 12.753 12.84 12.925 13.015 13.102 13.17 13.19 13.178 13.168 13.163 13.16 13.145 13.118 13.108 13.13 13.165 13.2 13.25 13.323 13.407 13.487 13.56 13.635 13.73 13.832 13.925 14.017 14.107 14.173 14.243 14.345 14.41 14.4 14.378 14.405 14.407 14.35 14.295 14.258 14.255 14.28 14.305 14.325 14.345 14.363 14.375 14.4 14.443 14.487 14.52 14.542 14.562 14.577 14.593 14.608 14.628 14.66 14.692 14.702 14.685 14.658 14.645 14.65 14.63 14.59 14.573 14.567 14.525 14.435 14.332 14.225 14.118 14.01 13.905 13.813 13.763 13.742
9.155 9.225 9.3 9.375 9.453 9.535 9.633 9.725 9.8 9.872 9.937 9.987 10.03 10.065 10.087 10.108 10.143 10.21 10.297 10.37 10.43 10.49 10.552 10.615 10.672 10.725 10.757 10.765 10.76 10.75 10.74 10.725 10.702 10.67 10.62 10.565 10.512 10.46 10.41 10.362 10.32 10.29 10.293 10.318 10.343 10.368 10.425 10.517 10.61 10.512 10.37 10.433 10.54 10.547 10.49 10.473 10.49 10.525 10.56 10.595 10.633 10.67 10.53 10.45 10.62 10.725 10.763 10.812 10.865 10.915 10.965 11.015 11.062 11.102 11.13 11.137 11.125 11.133 11.183 11.247 11.302 11.332 11.37 11.43 11.477 11.515 11.545 11.555 11.555 11.558 11.563 11.57 11.585 11.605 11.625 11.65 11.688 11.735 11.775 11.805 11.832 11.855 11.878 11.905 11.93 11.953 11.988 12.033 12.08 12.125 12.162 12.197 12.22 12.25 12.297 12.342 12.387 12.432 12.48 12.53 12.58 12.625 12.66 12.72 12.805 12.89 12.978 13.065 13.147 13.19 13.192 13.195 13.202 13.2 13.175 13.138 13.105 13.1 13.125 13.168 13.235 13.318 13.405 13.49 13.57 13.65 13.747 13.857 13.96 14.055 14.135 14.213 14.313 14.425 14.48 14.46 14.423 14.41 14.4 14.363 14.328 14.305 14.305 14.327 14.35 14.372 14.392 14.402 14.405 14.42 14.455 14.49 14.515 14.537 14.56 14.582 14.6 14.615 14.64 14.675 14.712 14.732 14.723 14.708 14.71 14.72 14.7 14.65 14.615 14.602 14.555 14.462 14.365 14.26 14.153 14.048 13.95 13.86 13.808 13.785
9.083 9.155 9.23 9.313 9.408 9.51 9.62 9.715 9.79 9.865 9.925 9.972 10.027 10.077 10.117 10.152 10.197 10.262 10.33 10.39 10.45 10.51 10.57 10.635 10.7 10.757 10.785 10.78 10.77 10.76 10.75 10.732 10.708 10.685 10.657 10.615 10.56 10.505 10.455 10.405 10.358 10.325 10.325 10.343 10.36 10.383 10.435 10.523 10.617 10.517 10.37 10.477 10.592 10.575 10.53 10.508 10.52 10.555 10.59 10.625 10.66 10.682 10.53 10.37 10.54 10.732 10.777 10.822 10.865 10.907 10.95 10.99 11.03 11.067 11.085 11.075 11.055 11.068 11.125 11.19 11.255 11.31 11.35 11.395 11.442 11.482 11.503 11.508 11.51 11.515 11.525 11.54 11.558 11.575 11.603 11.643 11.69 11.738 11.775 11.808 11.84 11.87 11.9 11.93 11.955 11.975 11.998 12.028 12.068 12.11 12.148 12.185 12.212 12.245 12.297 12.347 12.395 12.442 12.49 12.535 12.573 12.6 12.628 12.69 12.775 12.86 12.948 13.033 13.115 13.175 13.205 13.23 13.247 13.235 13.2 13.163 13.125 13.095 13.098 13.148 13.228 13.315 13.403 13.488 13.575 13.657 13.752 13.867 13.98 14.087 14.18 14.28 14.395 14.505 14.547 14.517 14.48 14.437 14.408 14.39 14.37 14.352 14.355 14.375 14.395 14.417 14.432 14.435 14.435 14.443 14.463 14.483 14.5 14.52 14.545 14.575 14.6 14.62 14.648 14.685 14.725 14.757 14.767 14.77 14.78 14.79 14.77 14.72 14.673 14.642 14.585 14.487 14.39 14.29 14.19 14.093 13.998 13.905 13.848 13.82
9.01 9.09 9.18 9.28 9.393 9.505 9.612 9.705 9.78 9.855 9.907 9.943 9.995 10.055 10.11 10.15 10.2 10.272 10.345 10.41 10.47 10.53 10.583 10.637 10.7 10.76 10.79 10.787 10.78 10.767 10.755 10.737 10.715 10.695 10.675 10.64 10.58 10.52 10.472 10.425 10.39 10.378 10.383 10.398 10.413 10.433 10.473 10.543 10.632 10.525 10.37 10.415 10.545 10.61 10.57 10.545 10.553 10.585 10.62 10.655 10.682 10.69 10.53 10.37 10.535 10.72 10.757 10.795 10.835 10.875 10.915 10.953 10.99 11.025 11.027 11.005 10.985 11.005 11.068 11.132 11.185 11.212 11.222 11.255 11.315 11.405 11.482 11.517 11.535 11.54 11.555 11.573 11.58 11.58 11.603 11.65 11.702 11.75 11.79 11.828 11.86 11.895 11.93 11.96 11.987 12.008 12.028 12.05 12.075 12.105 12.14 12.18 12.198 12.218 12.267 12.32 12.372 12.428 12.5 12.555 12.575 12.593 12.618 12.67 12.745 12.83 12.92 13.005 13.075 13.132 13.18 13.225 13.265 13.26 13.222 13.187 13.15 13.123 13.123 13.163 13.24 13.328 13.413 13.5 13.585 13.645 13.725 13.845 13.96 14.065 14.177 14.307 14.442 14.565 14.59 14.535 14.485 14.445 14.422 14.407 14.392 14.38 14.387 14.412 14.435 14.455 14.465 14.465 14.468 14.478 14.49 14.5 14.513 14.525 14.545 14.575 14.605 14.628 14.655 14.695 14.735 14.77 14.8 14.825 14.842 14.855 14.837 14.79 14.735 14.677 14.6 14.5 14.397 14.297 14.217 14.14 14.045 13.95 13.878 13.833
8.955 9.055 9.165 9.275 9.387 9.5 9.602 9.692 9.772 9.847 9.892 9.918 9.965 10.022 10.075 10.123 10.185 10.267 10.35 10.425 10.49 10.55 10.595 10.633 10.683 10.74 10.775 10.785 10.785 10.773 10.76 10.745 10.725 10.705 10.685 10.65 10.593 10.535 10.49 10.458 10.445 10.443 10.445 10.46 10.478 10.5 10.533 10.587 10.577 10.45 10.37 10.37 10.52 10.65 10.61 10.585 10.588 10.615 10.65 10.677 10.69 10.69 10.53 10.37 10.53 10.7 10.728 10.765 10.802 10.84 10.88 10.917 10.95 10.97 10.962 10.938 10.918 10.945 11.01 11.052 11.065 11.055 11.04 11.058 11.108 11.263 11.442 11.527 11.575 11.61 11.632 11.635 11.627 11.613 11.625 11.668 11.718 11.767 11.815 11.857 11.892 11.927 11.96 11.99 12.02 12.042 12.063 12.087 12.105 12.118 12.143 12.177 12.185 12.188 12.225 12.275 12.338 12.425 12.53 12.59 12.605 12.62 12.64 12.675 12.728 12.803 12.89 12.97 13.032 13.087 13.137 13.185 13.245 13.27 13.242 13.205 13.185 13.205 13.228 13.235 13.275 13.353 13.44 13.525 13.585 13.61 13.675 13.795 13.9 13.985 14.1 14.25 14.392 14.497 14.522 14.488 14.45 14.433 14.427 14.415 14.4 14.393 14.405 14.435 14.462 14.485 14.495 14.498 14.505 14.52 14.537 14.55 14.555 14.555 14.568 14.595 14.622 14.64 14.665 14.705 14.737 14.76 14.797 14.842 14.872 14.89 14.87 14.815 14.752 14.682 14.592 14.49 14.385 14.278 14.213 14.172 14.097 14.005 13.918 13.845
9.003 9.065 9.16 9.27 9.38 9.49 9.59 9.678 9.762 9.837 9.875 9.893 9.933 9.985 10.032 10.085 10.16 10.252 10.342 10.427 10.505 10.567 10.61 10.64 10.675 10.722 10.755 10.77 10.78 10.777 10.77 10.755 10.735 10.715 10.695 10.66 10.608 10.558 10.525 10.513 10.51 10.508 10.51 10.523 10.543 10.57 10.6 10.64 10.518 10.37 10.37 10.37 10.53 10.68 10.652 10.627 10.625 10.647 10.675 10.687 10.69 10.69 10.53 10.37 10.53 10.69 10.7 10.73 10.767 10.805 10.845 10.882 10.905 10.91 10.9 10.873 10.855 10.877 10.91 10.912 10.897 10.88 10.867 10.87 10.92 11.115 11.352 11.475 11.545 11.622 11.665 11.662 11.65 11.635 11.65 11.693 11.738 11.785 11.835 11.88 11.922 11.96 11.99 12.02 12.05 12.075 12.095 12.115 12.127 12.133 12.148 12.17 12.17 12.16 12.185 12.253 12.35 12.473 12.58 12.625 12.638 12.653 12.675 12.705 12.74 12.788 12.858 12.927 12.985 13.042 13.093 13.148 13.22 13.27 13.26 13.245 13.278 13.34 13.372 13.355 13.348 13.39 13.467 13.527 13.55 13.56 13.625 13.732 13.817 13.895 14.01 14.158 14.285 14.37 14.425 14.45 14.448 14.44 14.435 14.427 14.415 14.41 14.425 14.455 14.485 14.512 14.525 14.533 14.548 14.565 14.582 14.59 14.587 14.583 14.593 14.615 14.633 14.648 14.673 14.705 14.727 14.743 14.78 14.837 14.877 14.882 14.845 14.788 14.738 14.68 14.587 14.473 14.363 14.255 14.19 14.175 14.137 14.06 13.972 13.888
9.177 9.205 9.233 9.285 9.37 9.48 9.58 9.665 9.747 9.82 9.852 9.863 9.895 9.942 9.985 10.03 10.105 10.205 10.3 10.392 10.487 10.572 10.622 10.65 10.68 10.715 10.74 10.753 10.765 10.772 10.775 10.765 10.745 10.725 10.702 10.667 10.623 10.59 10.58 10.577 10.575 10.575 10.577 10.585 10.605 10.635 10.662 10.68 10.528 10.37 10.37 10.37 10.45 10.53 10.523 10.587 10.662 10.675 10.687 10.69 10.69 10.69 10.53 10.37 10.54 10.7 10.69 10.703 10.733 10.77 10.81 10.84 10.85 10.85 10.84 10.81 10.785 10.78 10.753 10.66 10.59 10.58 10.575 10.61 10.75 10.998 11.262 11.427 11.515 11.605 11.655 11.665 11.665 11.655 11.67 11.715 11.76 11.802 11.85 11.895 11.94 11.982 12.017 12.05 12.08 12.108 12.13 12.143 12.148 12.15 12.158 12.165 12.153 12.133 12.168 12.273 12.402 12.535 12.63 12.662 12.67 12.682 12.705 12.735 12.762 12.79 12.835 12.89 12.943 12.998 13.053 13.12 13.2 13.272 13.31 13.345 13.407 13.47 13.495 13.477 13.452 13.45 13.483 13.508 13.515 13.525 13.578 13.663 13.738 13.815 13.933 14.09 14.235 14.34 14.415 14.465 14.472 14.46 14.45 14.443 14.435 14.43 14.445 14.475 14.508 14.54 14.56 14.575 14.595 14.615 14.625 14.623 14.618 14.613 14.62 14.635 14.645 14.658 14.675 14.695 14.713 14.725 14.758 14.82 14.87 14.868 14.83 14.793 14.757 14.697 14.595 14.47 14.35 14.238 14.173 14.165 14.155 14.102 14.017 13.932
9.342 9.395 9.392 9.398 9.435 9.498 9.57 9.65 9.727 9.795 9.827 9.833 9.853 9.89 9.93 9.97 10.038 10.138 10.24 10.343 10.455 10.57 10.635 10.66 10.69 10.715 10.73 10.74 10.75 10.76 10.772 10.772 10.755 10.737 10.712 10.678 10.655 10.65 10.648 10.643 10.64 10.64 10.64 10.648 10.667 10.685 10.695 10.692 10.605 10.448 10.37 10.37 10.37 10.37 10.37 10.448 10.525 10.538 10.62 10.69 10.69 10.69 10.53 10.37 10.558 10.735 10.708 10.693 10.705 10.735 10.767 10.782 10.785 10.782 10.772 10.747 10.64 10.625 10.688 10.615 10.56 10.57 10.578 10.623 10.745 10.958 11.222 11.407 11.51 11.595 11.637 11.652 11.662 11.667 11.69 11.73 11.77 11.81 11.855 11.9 11.945 11.99 12.032 12.075 12.112 12.145 12.167 12.177 12.18 12.177 12.175 12.165 12.143 12.12 12.173 12.3 12.435 12.557 12.642 12.68 12.687 12.695 12.715 12.742 12.767 12.795 12.83 12.875 12.923 12.97 13.03 13.105 13.188 13.272 13.35 13.415 13.475 13.53 13.545 13.525 13.515 13.518 13.525 13.535 13.545 13.558 13.59 13.655 13.73 13.805 13.913 14.065 14.23 14.355 14.435 14.492 14.507 14.495 14.48 14.465 14.458 14.453 14.47 14.505 14.538 14.573 14.605 14.63 14.65 14.67 14.672 14.663 14.658 14.653 14.655 14.665 14.675 14.688 14.7 14.713 14.725 14.738 14.77 14.83 14.885 14.892 14.87 14.845 14.797 14.715 14.605 14.482 14.358 14.24 14.183 14.18 14.175 14.13 14.04 13.95
9.392 9.46 9.485 9.5 9.515 9.53 9.565 9.623 9.693 9.762 9.797 9.8 9.805 9.83 9.87 9.915 9.988 10.09 10.2 10.315 10.44 10.567 10.642 10.67 10.695 10.71 10.72 10.733 10.745 10.755 10.77 10.775 10.763 10.75 10.725 10.703 10.713 10.727 10.73 10.725 10.718 10.713 10.707 10.7 10.697 10.695 10.687 10.675 10.672 10.612 10.538 10.45 10.37 10.37 10.37 10.37 10.37 10.38 10.46 10.61 10.69 10.69 10.53 10.45 10.632 10.737 10.717 10.667 10.62 10.62 10.668 10.707 10.64 10.558 10.553 10.628 10.635 10.655 10.765 10.792 10.81 10.83 10.845 10.86 10.885 11.005 11.227 11.402 11.512 11.587 11.62 11.635 11.645 11.66 11.69 11.727 11.765 11.808 11.852 11.897 11.942 11.985 12.03 12.082 12.132 12.175 12.202 12.21 12.207 12.2 12.187 12.165 12.14 12.12 12.178 12.307 12.427 12.525 12.605 12.667 12.692 12.7 12.715 12.738 12.765 12.795 12.833 12.877 12.92 12.965 13.025 13.1 13.183 13.267 13.347 13.42 13.487 13.537 13.553 13.55 13.563 13.585 13.6 13.61 13.625 13.648 13.675 13.718 13.783 13.858 13.95 14.073 14.223 14.362 14.455 14.515 14.54 14.532 14.515 14.495 14.483 14.478 14.498 14.54 14.575 14.61 14.65 14.685 14.71 14.727 14.727 14.713 14.703 14.698 14.7 14.71 14.723 14.74 14.752 14.758 14.768 14.783 14.82 14.877 14.925 14.942 14.927 14.895 14.827 14.727 14.615 14.495 14.375 14.265 14.218 14.215 14.2 14.155 14.063 13.958
9.37 9.452 9.5 9.517 9.533 9.55 9.575 9.613 9.665 9.727 9.76 9.758 9.753 9.768 9.81 9.873 9.958 10.06 10.175 10.3 10.43 10.56 10.645 10.677 10.692 10.7 10.71 10.725 10.74 10.753 10.77 10.775 10.77 10.763 10.748 10.753 10.78 10.8 10.81 10.815 10.812 10.805 10.775 10.72 10.683 10.67 10.66 10.648 10.665 10.717 10.73 10.63 10.54 10.533 10.493 10.46 10.497 10.45 10.37 10.45 10.53 10.53 10.45 10.45 10.535 10.543 10.54 10.508 10.543 10.615 10.65 10.688 10.62 10.553 10.578 10.685 10.797 10.835 10.877 10.91 10.93 10.947 10.963 10.983 11.01 11.078 11.233 11.397 11.515 11.582 11.602 11.615 11.628 11.645 11.675 11.715 11.758 11.805 11.85 11.893 11.937 11.98 12.025 12.078 12.132 12.182 12.215 12.222 12.217 12.21 12.192 12.165 12.138 12.12 12.18 12.295 12.387 12.47 12.55 12.627 12.685 12.707 12.715 12.735 12.765 12.798 12.837 12.88 12.92 12.965 13.025 13.1 13.18 13.262 13.342 13.417 13.492 13.55 13.587 13.617 13.64 13.66 13.675 13.69 13.715 13.745 13.775 13.805 13.848 13.913 14.003 14.11 14.233 14.37 14.475 14.535 14.567 14.567 14.55 14.53 14.513 14.503 14.523 14.57 14.612 14.647 14.685 14.725 14.762 14.785 14.782 14.767 14.753 14.743 14.745 14.758 14.775 14.795 14.805 14.808 14.815 14.828 14.865 14.915 14.955 14.987 14.985 14.932 14.845 14.74 14.625 14.51 14.4 14.3 14.253 14.24 14.222 14.185 14.097 13.983
9.345 9.435 9.503 9.535 9.555 9.575 9.598 9.63 9.668 9.71 9.735 9.728 9.715 9.725 9.775 9.853 9.94 10.038 10.155 10.287 10.42 10.55 10.642 10.677 10.685 10.69 10.71 10.738 10.763 10.785 10.805 10.805 10.793 10.785 10.79 10.815 10.847 10.87 10.88 10.89 10.9 10.887 10.82 10.728 10.665 10.64 10.63 10.633 10.678 10.75 10.775 10.76 10.752 10.747 10.705 10.665 10.692 10.635 10.548 10.543 10.535 10.53 10.518 10.438 10.37 10.455 10.548 10.578 10.705 10.815 10.812 10.8 10.793 10.81 10.855 10.897 10.928 10.955 10.993 11.027 11.05 11.065 11.083 11.11 11.14 11.175 11.26 11.39 11.507 11.57 11.588 11.603 11.618 11.635 11.665 11.708 11.753 11.8 11.847 11.89 11.932 11.975 12.02 12.07 12.12 12.165 12.195 12.205 12.207 12.205 12.187 12.16 12.13 12.118 12.168 12.255 12.335 12.415 12.495 12.578 12.66 12.707 12.72 12.735 12.763 12.8 12.84 12.88 12.923 12.968 13.025 13.1 13.178 13.257 13.337 13.413 13.49 13.56 13.615 13.66 13.695 13.727 13.757 13.785 13.812 13.84 13.87 13.9 13.93 13.975 14.055 14.16 14.27 14.39 14.49 14.552 14.595 14.602 14.585 14.565 14.545 14.528 14.545 14.595 14.642 14.682 14.72 14.76 14.802 14.835 14.835 14.82 14.805 14.788 14.788 14.805 14.825 14.845 14.857 14.862 14.865 14.873 14.903 14.945 14.985 15.025 15.025 14.955 14.855 14.75 14.64 14.533 14.425 14.333 14.283 14.263 14.247 14.215 14.132 14.018
9.383 9.475 9.553 9.598 9.62 9.638 9.648 9.658 9.683 9.717 9.742 9.74 9.725 9.743 9.808 9.888 9.953 10.015 10.105 10.227 10.36 10.492 10.605 10.665 10.682 10.688 10.723 10.78 10.822 10.85 10.867 10.862 10.843 10.843 10.865 10.893 10.918 10.937 10.95 10.963 10.977 10.95 10.855 10.748 10.668 10.62 10.605 10.633 10.7 10.775 10.818 10.835 10.85 10.852 10.842 10.825 10.805 10.785 10.77 10.76 10.755 10.752 10.732 10.645 10.585 10.69 10.807 10.87 10.94 10.977 10.982 10.975 10.962 10.963 10.995 11.035 11.062 11.088 11.118 11.148 11.17 11.182 11.202 11.232 11.26 11.29 11.338 11.428 11.52 11.563 11.578 11.595 11.613 11.633 11.663 11.703 11.747 11.793 11.84 11.877 11.91 11.955 12.005 12.052 12.095 12.135 12.162 12.172 12.177 12.175 12.157 12.132 12.108 12.1 12.148 12.233 12.313 12.39 12.47 12.55 12.637 12.697 12.717 12.733 12.76 12.8 12.843 12.885 12.927 12.97 13.028 13.102 13.175 13.253 13.333 13.41 13.492 13.562 13.615 13.665 13.712 13.765 13.82 13.865 13.897 13.922 13.95 13.98 14.01 14.048 14.115 14.213 14.32 14.43 14.52 14.582 14.625 14.632 14.615 14.595 14.575 14.555 14.568 14.615 14.662 14.707 14.75 14.79 14.827 14.857 14.862 14.847 14.832 14.823 14.828 14.845 14.865 14.885 14.897 14.902 14.91 14.93 14.95 14.975 15.015 15.055 15.047 14.97 14.87 14.765 14.66 14.555 14.45 14.363 14.313 14.29 14.27 14.245 14.17 14.055
9.482 9.58 9.662 9.71 9.727 9.735 9.727 9.715 9.715 9.733 9.76 9.77 9.768 9.805 9.88 9.94 9.97 10 10.053 10.138 10.255 10.387 10.515 10.615 10.672 10.69 10.73 10.812 10.88 10.915 10.927 10.923 10.92 10.938 10.965 10.985 10.992 11.005 11.022 11.037 11.05 11.017 10.903 10.773 10.685 10.623 10.615 10.678 10.763 10.848 10.908 10.94 10.957 10.952 10.935 10.915 10.895 10.875 10.858 10.845 10.855 10.87 10.858 10.852 10.877 10.912 10.963 11.03 11.075 11.087 11.1 11.115 11.12 11.12 11.14 11.172 11.198 11.225 11.255 11.28 11.3 11.285 11.285 11.332 11.37 11.4 11.443 11.512 11.565 11.58 11.588 11.598 11.615 11.638 11.665 11.698 11.74 11.787 11.827 11.852 11.873 11.91 11.965 12.02 12.065 12.105 12.13 12.137 12.137 12.13 12.113 12.093 12.078 12.073 12.125 12.225 12.315 12.395 12.475 12.545 12.622 12.68 12.7 12.728 12.765 12.805 12.848 12.89 12.93 12.965 13.02 13.1 13.177 13.253 13.33 13.413 13.497 13.565 13.615 13.668 13.725 13.793 13.857 13.912 13.96 13.995 14.022 14.05 14.08 14.123 14.19 14.275 14.373 14.48 14.57 14.625 14.652 14.657 14.645 14.625 14.605 14.583 14.588 14.63 14.677 14.722 14.765 14.805 14.837 14.862 14.867 14.853 14.845 14.853 14.865 14.878 14.895 14.915 14.925 14.93 14.958 15.007 15.025 15.02 15.045 15.085 15.072 14.99 14.887 14.783 14.68 14.578 14.483 14.4 14.35 14.325 14.298 14.272 14.21 14.11
9.552 9.672 9.775 9.825 9.83 9.825 9.812 9.797 9.78 9.77 9.78 9.798 9.82 9.87 9.927 9.957 9.973 10 10.04 10.09 10.168 10.283 10.407 10.522 10.622 10.68 10.733 10.82 10.915 10.977 10.995 10.998 11.015 11.04 11.055 11.057 11.058 11.07 11.09 11.107 11.12 11.095 10.975 10.818 10.73 10.69 10.705 10.798 10.908 11 11.045 11.052 11.052 11.04 11.022 11.005 10.985 10.965 10.945 10.935 10.955 10.98 10.98 10.995 11.03 11.06 11.11 11.167 11.19 11.193 11.205 11.222 11.24 11.255 11.28 11.315 11.345 11.375 11.403 11.425 11.42 11.353 11.328 11.39 11.447 11.495 11.545 11.587 11.605 11.61 11.615 11.62 11.635 11.655 11.678 11.703 11.735 11.777 11.807 11.825 11.843 11.865 11.908 11.97 12.03 12.075 12.097 12.097 12.09 12.08 12.07 12.06 12.05 12.045 12.098 12.205 12.31 12.405 12.485 12.545 12.61 12.66 12.688 12.728 12.77 12.812 12.855 12.89 12.92 12.945 12.99 13.07 13.16 13.26 13.345 13.418 13.5 13.565 13.62 13.683 13.753 13.827 13.892 13.948 14.002 14.052 14.092 14.122 14.15 14.198 14.27 14.35 14.435 14.532 14.615 14.655 14.67 14.677 14.672 14.655 14.632 14.608 14.608 14.643 14.69 14.738 14.778 14.812 14.842 14.867 14.873 14.868 14.875 14.89 14.902 14.91 14.923 14.94 14.953 14.975 15.03 15.095 15.115 15.095 15.09 15.115 15.097 15.007 14.903 14.8 14.7 14.605 14.52 14.44 14.388 14.362 14.335 14.305 14.255 14.177
9.585 9.725 9.855 9.915 9.912 9.907 9.897 9.88 9.86 9.84 9.828 9.843 9.877 9.912 9.94 9.96 9.978 10.003 10.04 10.08 10.125 10.198 10.303 10.418 10.533 10.635 10.725 10.823 10.93 11.022 11.07 11.09 11.112 11.135 11.137 11.125 11.128 11.14 11.153 11.17 11.19 11.175 11.062 10.9 10.818 10.81 10.845 10.945 11.072 11.145 11.15 11.14 11.132 11.12 11.102 11.087 11.07 11.05 11.033 11.035 11.065 11.095 11.115 11.145 11.18 11.21 11.255 11.29 11.293 11.295 11.31 11.327 11.342 11.352 11.382 11.442 11.495 11.53 11.555 11.552 11.495 11.395 11.363 11.42 11.485 11.55 11.607 11.632 11.635 11.64 11.645 11.65 11.665 11.685 11.705 11.725 11.745 11.77 11.795 11.815 11.835 11.855 11.855 11.888 11.965 12.025 12.045 12.032 12.017 12.02 12.05 12.065 12.055 12.045 12.093 12.2 12.308 12.413 12.498 12.555 12.608 12.65 12.688 12.733 12.775 12.815 12.85 12.878 12.9 12.92 12.953 13.035 13.16 13.3 13.397 13.45 13.513 13.575 13.643 13.715 13.788 13.86 13.925 13.982 14.037 14.092 14.145 14.19 14.225 14.278 14.355 14.435 14.51 14.587 14.647 14.67 14.68 14.69 14.692 14.68 14.658 14.635 14.633 14.663 14.71 14.758 14.795 14.823 14.85 14.875 14.888 14.898 14.912 14.927 14.938 14.945 14.955 14.968 14.995 15.05 15.12 15.185 15.205 15.185 15.165 15.16 15.12 15.022 14.917 14.815 14.715 14.628 14.552 14.478 14.425 14.398 14.37 14.34 14.295 14.227
9.613 9.763 9.902 9.965 9.965 9.967 9.957 9.935 9.915 9.895 9.88 9.892 9.915 9.927 9.943 9.96 9.98 10.005 10.04 10.08 10.123 10.178 10.278 10.405 10.525 10.648 10.755 10.85 10.955 11.06 11.14 11.182 11.205 11.225 11.225 11.215 11.228 11.243 11.25 11.26 11.275 11.267 11.172 11.025 10.95 10.96 11 11.09 11.207 11.247 11.228 11.215 11.208 11.197 11.18 11.163 11.148 11.138 11.138 11.155 11.19 11.233 11.275 11.31 11.338 11.363 11.388 11.4 11.398 11.398 11.41 11.43 11.44 11.43 11.453 11.53 11.61 11.67 11.687 11.635 11.54 11.435 11.398 11.45 11.515 11.577 11.627 11.655 11.665 11.668 11.673 11.683 11.7 11.72 11.737 11.75 11.762 11.778 11.8 11.825 11.845 11.862 11.823 11.8 11.865 11.932 11.95 11.93 11.928 11.965 12.035 12.087 12.095 12.08 12.12 12.225 12.33 12.438 12.537 12.603 12.643 12.68 12.72 12.765 12.81 12.845 12.87 12.893 12.915 12.938 12.98 13.07 13.21 13.367 13.47 13.515 13.558 13.613 13.683 13.755 13.825 13.895 13.958 14.015 14.07 14.128 14.188 14.245 14.29 14.337 14.407 14.48 14.547 14.612 14.657 14.677 14.69 14.7 14.71 14.707 14.69 14.673 14.67 14.698 14.743 14.788 14.825 14.85 14.873 14.895 14.915 14.93 14.945 14.962 14.975 14.985 14.995 15.013 15.06 15.132 15.205 15.272 15.292 15.267 15.24 15.212 15.142 15.035 14.93 14.825 14.728 14.643 14.57 14.508 14.465 14.435 14.403 14.37 14.327 14.262
9.658 9.82 9.95 9.995 9.998 10.007 9.997 9.968 9.945 9.925 9.92 9.93 9.927 9.928 9.943 9.96 9.98 10.005 10.043 10.088 10.143 10.218 10.335 10.482 10.617 10.742 10.837 10.905 10.995 11.1 11.19 11.257 11.295 11.315 11.315 11.315 11.34 11.362 11.375 11.38 11.382 11.375 11.305 11.198 11.148 11.153 11.175 11.248 11.33 11.337 11.31 11.295 11.285 11.272 11.26 11.255 11.255 11.263 11.278 11.3 11.338 11.388 11.442 11.49 11.52 11.54 11.535 11.51 11.5 11.5 11.51 11.527 11.525 11.5 11.523 11.605 11.695 11.775 11.775 11.685 11.58 11.475 11.433 11.48 11.542 11.597 11.64 11.67 11.69 11.695 11.7 11.715 11.735 11.75 11.757 11.763 11.778 11.797 11.815 11.835 11.855 11.87 11.82 11.74 11.755 11.817 11.83 11.825 11.863 11.93 12.005 12.08 12.122 12.123 12.163 12.263 12.373 12.49 12.602 12.677 12.71 12.738 12.778 12.822 12.867 12.905 12.93 12.95 12.978 13.03 13.108 13.178 13.28 13.435 13.54 13.585 13.623 13.67 13.733 13.8 13.87 13.945 14.015 14.078 14.138 14.198 14.263 14.317 14.347 14.375 14.42 14.478 14.542 14.605 14.65 14.677 14.697 14.71 14.725 14.737 14.732 14.718 14.718 14.743 14.78 14.825 14.862 14.887 14.907 14.925 14.945 14.962 14.98 15 15.015 15.025 15.043 15.075 15.13 15.205 15.28 15.34 15.35 15.32 15.287 15.252 15.17 15.05 14.94 14.835 14.74 14.658 14.593 14.543 14.505 14.475 14.44 14.405 14.362 14.295
9.73 9.89 10 10.027 10.038 10.052 10.042 10.01 9.98 9.958 9.952 9.95 9.935 9.928 9.94 9.96 9.98 10.008 10.053 10.115 10.19 10.275 10.395 10.552 10.707 10.837 10.922 10.978 11.048 11.14 11.23 11.31 11.372 11.405 11.41 11.423 11.455 11.48 11.492 11.495 11.492 11.48 11.427 11.372 11.367 11.37 11.37 11.415 11.45 11.422 11.393 11.377 11.362 11.34 11.325 11.347 11.387 11.415 11.432 11.452 11.49 11.542 11.6 11.657 11.705 11.737 11.717 11.658 11.618 11.603 11.61 11.615 11.597 11.57 11.595 11.675 11.755 11.827 11.815 11.72 11.62 11.515 11.468 11.508 11.565 11.615 11.652 11.68 11.705 11.72 11.73 11.742 11.755 11.762 11.765 11.77 11.793 11.82 11.833 11.845 11.865 11.877 11.825 11.715 11.673 11.703 11.723 11.755 11.825 11.9 11.975 12.055 12.125 12.157 12.205 12.305 12.425 12.552 12.672 12.75 12.775 12.795 12.833 12.878 12.925 12.967 12.995 13.028 13.09 13.185 13.277 13.323 13.378 13.505 13.61 13.655 13.69 13.73 13.788 13.858 13.933 14.015 14.097 14.17 14.237 14.302 14.362 14.395 14.402 14.418 14.445 14.485 14.538 14.595 14.64 14.67 14.698 14.718 14.735 14.757 14.772 14.765 14.765 14.79 14.825 14.867 14.9 14.922 14.94 14.955 14.975 14.995 15.018 15.04 15.055 15.073 15.105 15.145 15.2 15.272 15.345 15.387 15.38 15.352 15.325 15.285 15.197 15.075 14.955 14.845 14.753 14.68 14.63 14.587 14.548 14.515 14.48 14.442 14.395 14.325
9.815 9.962 10.05 10.068 10.083 10.097 10.09 10.06 10.025 9.995 9.978 9.963 9.945 9.933 9.94 9.96 9.98 10.018 10.083 10.165 10.252 10.338 10.455 10.615 10.777 10.912 10.997 11.057 11.117 11.188 11.27 11.35 11.427 11.485 11.512 11.53 11.547 11.562 11.58 11.595 11.597 11.582 11.532 11.48 11.482 11.507 11.522 11.547 11.547 11.507 11.472 11.447 11.422 11.393 11.375 11.395 11.447 11.5 11.54 11.58 11.625 11.68 11.737 11.79 11.842 11.89 11.882 11.825 11.767 11.722 11.705 11.687 11.657 11.628 11.645 11.715 11.785 11.85 11.835 11.745 11.652 11.553 11.503 11.533 11.585 11.632 11.665 11.687 11.71 11.73 11.747 11.757 11.762 11.767 11.77 11.78 11.81 11.84 11.85 11.858 11.875 11.885 11.83 11.72 11.63 11.608 11.648 11.715 11.795 11.87 11.945 12.025 12.105 12.17 12.245 12.358 12.485 12.615 12.74 12.815 12.835 12.853 12.888 12.933 12.98 13.027 13.078 13.15 13.25 13.36 13.447 13.487 13.51 13.59 13.68 13.722 13.755 13.79 13.848 13.928 14.013 14.1 14.182 14.255 14.325 14.392 14.437 14.445 14.448 14.468 14.495 14.523 14.555 14.598 14.638 14.673 14.705 14.73 14.75 14.773 14.797 14.807 14.815 14.843 14.878 14.913 14.94 14.96 14.975 14.99 15.01 15.033 15.058 15.08 15.103 15.135 15.175 15.215 15.27 15.337 15.402 15.427 15.408 15.385 15.36 15.315 15.225 15.105 14.98 14.86 14.77 14.713 14.67 14.63 14.59 14.553 14.517 14.48 14.425 14.352
9.905 10.035 10.102 10.115 10.128 10.142 10.137 10.11 10.075 10.038 10.01 9.99 9.97 9.955 9.958 9.978 10.005 10.058 10.133 10.215 10.305 10.395 10.51 10.657 10.81 10.945 11.037 11.102 11.165 11.225 11.295 11.375 11.455 11.525 11.567 11.577 11.575 11.585 11.612 11.647 11.677 11.68 11.627 11.548 11.515 11.54 11.58 11.6 11.582 11.555 11.527 11.495 11.465 11.438 11.425 11.425 11.45 11.507 11.57 11.627 11.67 11.712 11.767 11.82 11.87 11.92 11.922 11.875 11.822 11.777 11.75 11.72 11.685 11.655 11.66 11.713 11.78 11.845 11.84 11.76 11.667 11.573 11.523 11.545 11.595 11.64 11.662 11.672 11.69 11.71 11.735 11.757 11.767 11.77 11.773 11.793 11.83 11.86 11.87 11.873 11.885 11.892 11.835 11.725 11.623 11.598 11.673 11.77 11.855 11.935 12.015 12.098 12.18 12.263 12.36 12.478 12.605 12.733 12.83 12.875 12.892 12.908 12.94 12.987 13.03 13.073 13.145 13.252 13.367 13.485 13.582 13.632 13.655 13.698 13.753 13.795 13.833 13.88 13.958 14.053 14.143 14.225 14.275 14.318 14.382 14.445 14.48 14.485 14.513 14.555 14.585 14.61 14.633 14.645 14.665 14.705 14.74 14.762 14.778 14.795 14.818 14.84 14.868 14.903 14.938 14.97 14.99 15.005 15.023 15.038 15.058 15.083 15.105 15.125 15.148 15.18 15.22 15.26 15.315 15.385 15.447 15.462 15.44 15.42 15.395 15.342 15.255 15.145 15.02 14.895 14.803 14.75 14.71 14.67 14.63 14.59 14.553 14.515 14.455 14.38
9.995 10.107 10.16 10.175 10.183 10.19 10.187 10.162 10.125 10.085 10.053 10.028 10.008 9.998 10 10.023 10.065 10.13 10.2 10.265 10.345 10.443 10.555 10.68 10.82 10.957 11.052 11.117 11.177 11.232 11.3 11.377 11.452 11.517 11.56 11.572 11.57 11.588 11.62 11.658 11.705 11.73 11.702 11.63 11.563 11.56 11.597 11.605 11.588 11.58 11.565 11.535 11.505 11.483 11.475 11.47 11.47 11.505 11.567 11.62 11.638 11.66 11.715 11.77 11.817 11.865 11.867 11.82 11.783 11.765 11.75 11.722 11.688 11.663 11.665 11.698 11.753 11.817 11.822 11.757 11.672 11.58 11.535 11.553 11.595 11.637 11.652 11.65 11.655 11.67 11.7 11.74 11.765 11.77 11.778 11.805 11.845 11.877 11.89 11.89 11.898 11.9 11.84 11.738 11.66 11.665 11.765 11.887 11.997 12.105 12.2 12.285 12.37 12.455 12.553 12.667 12.787 12.877 12.917 12.927 12.94 12.958 12.988 13.032 13.072 13.11 13.183 13.295 13.42 13.557 13.675 13.735 13.765 13.803 13.848 13.893 13.938 14.003 14.102 14.212 14.315 14.402 14.42 14.398 14.423 14.48 14.513 14.54 14.613 14.675 14.705 14.73 14.735 14.715 14.72 14.757 14.785 14.8 14.81 14.825 14.848 14.878 14.92 14.965 15.005 15.042 15.057 15.06 15.075 15.092 15.113 15.135 15.158 15.18 15.193 15.208 15.24 15.28 15.335 15.405 15.465 15.49 15.48 15.46 15.42 15.347 15.272 15.187 15.072 14.948 14.853 14.795 14.75 14.71 14.67 14.63 14.59 14.547 14.485 14.408
10.085 10.18 10.217 10.24 10.25 10.253 10.247 10.218 10.175 10.135 10.098 10.065 10.048 10.04 10.043 10.072 10.13 10.205 10.28 10.34 10.395 10.485 10.6 10.713 10.838 10.972 11.07 11.127 11.175 11.228 11.297 11.37 11.445 11.5 11.538 11.565 11.573 11.593 11.627 11.663 11.705 11.73 11.72 11.685 11.625 11.595 11.61 11.615 11.618 11.62 11.602 11.575 11.548 11.53 11.525 11.52 11.51 11.518 11.563 11.607 11.61 11.618 11.665 11.717 11.763 11.807 11.812 11.78 11.765 11.76 11.745 11.722 11.693 11.67 11.678 11.703 11.735 11.79 11.797 11.74 11.672 11.593 11.555 11.568 11.598 11.635 11.647 11.643 11.638 11.64 11.665 11.71 11.75 11.77 11.788 11.82 11.86 11.895 11.91 11.913 11.917 11.91 11.853 11.778 11.73 11.743 11.84 11.97 12.102 12.235 12.352 12.46 12.562 12.652 12.747 12.85 12.927 12.96 12.967 12.973 12.983 13 13.028 13.065 13.105 13.145 13.218 13.335 13.475 13.627 13.752 13.815 13.855 13.913 13.97 14.013 14.053 14.128 14.237 14.352 14.467 14.567 14.592 14.54 14.5 14.523 14.56 14.623 14.727 14.795 14.825 14.835 14.812 14.778 14.78 14.81 14.822 14.83 14.843 14.86 14.888 14.923 14.968 15.022 15.072 15.115 15.132 15.128 15.13 15.145 15.165 15.188 15.212 15.235 15.247 15.253 15.268 15.3 15.353 15.412 15.465 15.505 15.515 15.492 15.42 15.328 15.265 15.205 15.117 15.003 14.908 14.845 14.793 14.75 14.707 14.665 14.625 14.58 14.515 14.44
10.157 10.242 10.27 10.295 10.315 10.325 10.315 10.285 10.245 10.203 10.16 10.12 10.088 10.07 10.073 10.098 10.143 10.222 10.327 10.392 10.415 10.49 10.615 10.737 10.862 10.99 11.08 11.125 11.165 11.22 11.288 11.36 11.442 11.502 11.535 11.558 11.575 11.6 11.632 11.667 11.702 11.715 11.703 11.687 11.662 11.635 11.63 11.643 11.66 11.66 11.638 11.613 11.592 11.58 11.572 11.567 11.56 11.555 11.572 11.592 11.588 11.583 11.613 11.663 11.71 11.757 11.772 11.763 11.757 11.75 11.735 11.715 11.693 11.68 11.693 11.715 11.738 11.773 11.77 11.718 11.66 11.603 11.58 11.59 11.608 11.632 11.642 11.64 11.64 11.643 11.665 11.705 11.743 11.775 11.808 11.843 11.88 11.915 11.933 11.938 11.94 11.93 11.89 11.845 11.813 11.82 11.913 12.045 12.177 12.31 12.442 12.575 12.7 12.812 12.91 12.975 13 13.01 13.015 13.02 13.03 13.04 13.068 13.108 13.143 13.178 13.258 13.395 13.548 13.702 13.83 13.905 13.965 14.035 14.097 14.14 14.173 14.245 14.352 14.462 14.572 14.66 14.685 14.65 14.602 14.585 14.628 14.723 14.837 14.912 14.93 14.91 14.875 14.84 14.833 14.85 14.858 14.863 14.875 14.9 14.938 14.978 15.023 15.078 15.133 15.182 15.205 15.203 15.198 15.203 15.22 15.243 15.265 15.285 15.3 15.308 15.315 15.335 15.375 15.423 15.468 15.51 15.542 15.512 15.403 15.305 15.25 15.198 15.135 15.047 14.963 14.9 14.843 14.79 14.743 14.7 14.66 14.613 14.55 14.483
10.215 10.317 10.345 10.37 10.393 10.405 10.39 10.36 10.327 10.287 10.245 10.2 10.16 10.138 10.123 10.118 10.13 10.178 10.28 10.36 10.385 10.46 10.592 10.727 10.855 10.972 11.06 11.11 11.152 11.208 11.275 11.353 11.435 11.512 11.56 11.573 11.575 11.59 11.62 11.652 11.69 11.707 11.7 11.688 11.673 11.658 11.66 11.68 11.7 11.7 11.678 11.65 11.628 11.617 11.61 11.605 11.6 11.587 11.577 11.575 11.57 11.563 11.58 11.625 11.675 11.722 11.747 11.75 11.748 11.75 11.748 11.733 11.72 11.723 11.74 11.763 11.785 11.792 11.768 11.72 11.668 11.628 11.618 11.623 11.63 11.64 11.648 11.653 11.66 11.67 11.695 11.73 11.763 11.803 11.845 11.88 11.915 11.955 11.978 11.983 11.985 11.975 11.952 11.925 11.895 11.9 11.988 12.12 12.25 12.383 12.517 12.65 12.76 12.847 12.945 13.027 13.057 13.065 13.073 13.078 13.085 13.083 13.118 13.192 13.24 13.27 13.355 13.503 13.653 13.797 13.922 14.01 14.08 14.15 14.212 14.255 14.288 14.345 14.438 14.542 14.647 14.712 14.715 14.69 14.665 14.65 14.703 14.817 14.935 15.005 14.997 14.963 14.933 14.918 14.923 14.935 14.945 14.948 14.95 14.973 15.015 15.06 15.108 15.16 15.21 15.258 15.288 15.298 15.3 15.305 15.32 15.34 15.358 15.368 15.37 15.375 15.385 15.398 15.428 15.47 15.51 15.548 15.58 15.535 15.413 15.318 15.258 15.2 15.143 15.08 15.028 14.983 14.928 14.873 14.825 14.783 14.738 14.68 14.61 14.538
10.277 10.407 10.462 10.48 10.49 10.495 10.477 10.443 10.408 10.37 10.335 10.305 10.283 10.26 10.228 10.198 10.18 10.173 10.205 10.283 10.345 10.43 10.56 10.685 10.797 10.905 11.005 11.075 11.127 11.19 11.265 11.345 11.427 11.512 11.582 11.61 11.595 11.58 11.588 11.615 11.665 11.71 11.717 11.702 11.688 11.68 11.695 11.722 11.745 11.747 11.725 11.687 11.653 11.638 11.632 11.622 11.59 11.535 11.52 11.552 11.562 11.558 11.575 11.608 11.65 11.697 11.722 11.728 11.745 11.783 11.8 11.79 11.79 11.805 11.825 11.845 11.85 11.83 11.795 11.752 11.705 11.67 11.663 11.665 11.675 11.685 11.68 11.68 11.69 11.703 11.728 11.763 11.803 11.85 11.895 11.93 11.97 12.02 12.05 12.057 12.052 12.03 12.012 12 11.975 11.978 12.06 12.193 12.325 12.457 12.57 12.657 12.722 12.765 12.868 13.025 13.112 13.127 13.135 13.142 13.137 13.118 13.16 13.27 13.36 13.417 13.51 13.647 13.777 13.902 14.017 14.112 14.192 14.265 14.32 14.358 14.395 14.44 14.518 14.62 14.712 14.755 14.745 14.72 14.705 14.71 14.775 14.892 14.992 15.045 15.038 15.02 15.023 15.043 15.068 15.08 15.085 15.077 15.07 15.08 15.115 15.16 15.21 15.267 15.317 15.36 15.395 15.42 15.435 15.445 15.46 15.477 15.485 15.48 15.468 15.458 15.46 15.473 15.503 15.545 15.582 15.61 15.625 15.567 15.455 15.363 15.29 15.23 15.17 15.12 15.102 15.095 15.06 15.01 14.963 14.918 14.865 14.795 14.715 14.635
10.332 10.48 10.57 10.585 10.585 10.582 10.57 10.54 10.5 10.463 10.44 10.43 10.415 10.39 10.36 10.325 10.29 10.26 10.238 10.25 10.298 10.385 10.502 10.615 10.72 10.825 10.932 11.02 11.085 11.152 11.232 11.317 11.405 11.492 11.575 11.622 11.612 11.58 11.56 11.58 11.635 11.697 11.727 11.717 11.703 11.705 11.73 11.76 11.787 11.792 11.762 11.717 11.675 11.65 11.62 11.565 11.49 11.425 11.443 11.515 11.55 11.553 11.57 11.598 11.63 11.673 11.7 11.723 11.77 11.832 11.865 11.863 11.873 11.895 11.91 11.91 11.887 11.855 11.822 11.787 11.745 11.713 11.71 11.723 11.743 11.755 11.74 11.723 11.723 11.735 11.763 11.803 11.85 11.9 11.945 11.985 12.035 12.09 12.127 12.135 12.115 12.085 12.063 12.055 12.047 12.053 12.133 12.267 12.377 12.462 12.527 12.57 12.612 12.655 12.77 12.965 13.127 13.192 13.197 13.195 13.172 13.145 13.19 13.305 13.42 13.517 13.63 13.76 13.875 13.987 14.095 14.197 14.295 14.377 14.432 14.47 14.51 14.55 14.608 14.697 14.767 14.785 14.775 14.76 14.765 14.783 14.843 14.935 15.002 15.055 15.09 15.122 15.162 15.197 15.222 15.227 15.215 15.195 15.185 15.193 15.22 15.26 15.31 15.37 15.427 15.475 15.512 15.545 15.57 15.587 15.6 15.605 15.6 15.59 15.575 15.555 15.543 15.55 15.58 15.612 15.637 15.657 15.665 15.607 15.505 15.415 15.335 15.27 15.213 15.173 15.17 15.187 15.19 15.16 15.11 15.062 15.002 14.925 14.832 14.715
10.403 10.56 10.662 10.68 10.673 10.668 10.662 10.642 10.605 10.573 10.565 10.565 10.547 10.52 10.49 10.457 10.423 10.39 10.358 10.323 10.318 10.365 10.44 10.533 10.638 10.745 10.855 10.955 11.03 11.098 11.18 11.267 11.355 11.44 11.515 11.562 11.565 11.545 11.538 11.56 11.61 11.672 11.71 11.715 11.71 11.717 11.74 11.76 11.782 11.785 11.757 11.72 11.672 11.607 11.522 11.43 11.348 11.33 11.388 11.465 11.525 11.547 11.565 11.595 11.625 11.663 11.705 11.753 11.813 11.878 11.922 11.94 11.958 11.975 11.972 11.95 11.915 11.88 11.85 11.817 11.78 11.76 11.768 11.79 11.815 11.827 11.815 11.788 11.768 11.768 11.8 11.85 11.9 11.95 12 12.05 12.105 12.162 12.2 12.197 12.17 12.14 12.11 12.095 12.1 12.122 12.185 12.272 12.335 12.375 12.415 12.455 12.498 12.548 12.675 12.877 13.08 13.22 13.252 13.23 13.197 13.173 13.22 13.333 13.447 13.56 13.685 13.817 13.942 14.068 14.18 14.285 14.393 14.49 14.552 14.59 14.628 14.665 14.708 14.77 14.812 14.815 14.813 14.818 14.835 14.855 14.898 14.96 15.02 15.08 15.145 15.21 15.267 15.317 15.345 15.345 15.33 15.31 15.3 15.31 15.33 15.36 15.41 15.462 15.507 15.547 15.585 15.622 15.657 15.695 15.717 15.717 15.71 15.7 15.685 15.665 15.643 15.633 15.648 15.667 15.683 15.7 15.707 15.655 15.56 15.47 15.383 15.313 15.258 15.225 15.23 15.252 15.277 15.282 15.255 15.202 15.12 15.02 14.905 14.747
10.5 10.66 10.767 10.785 10.768 10.758 10.755 10.742 10.71 10.688 10.695 10.7 10.682 10.655 10.623 10.59 10.557 10.523 10.49 10.46 10.438 10.438 10.465 10.518 10.588 10.673 10.773 10.877 10.965 11.04 11.125 11.21 11.287 11.357 11.417 11.455 11.483 11.505 11.525 11.555 11.593 11.645 11.68 11.687 11.69 11.695 11.707 11.72 11.732 11.732 11.715 11.69 11.63 11.48 11.338 11.267 11.227 11.257 11.335 11.41 11.48 11.543 11.593 11.635 11.678 11.728 11.785 11.84 11.898 11.955 11.998 12.025 12.042 12.042 12.017 11.983 11.948 11.915 11.883 11.848 11.82 11.818 11.838 11.863 11.887 11.902 11.89 11.863 11.838 11.833 11.868 11.923 11.975 12.01 12.05 12.105 12.157 12.212 12.25 12.247 12.217 12.185 12.155 12.125 12.12 12.145 12.17 12.198 12.233 12.27 12.308 12.345 12.385 12.445 12.585 12.79 12.997 13.172 13.25 13.237 13.197 13.178 13.243 13.36 13.475 13.59 13.713 13.848 14 14.165 14.297 14.405 14.515 14.62 14.687 14.723 14.758 14.793 14.828 14.86 14.875 14.873 14.878 14.895 14.915 14.935 14.958 15 15.06 15.12 15.185 15.25 15.312 15.365 15.385 15.385 15.382 15.385 15.395 15.41 15.427 15.447 15.482 15.52 15.55 15.58 15.615 15.655 15.698 15.752 15.792 15.8 15.797 15.795 15.787 15.767 15.743 15.723 15.715 15.723 15.738 15.753 15.755 15.702 15.61 15.517 15.425 15.355 15.303 15.278 15.29 15.312 15.335 15.355 15.355 15.297 15.192 15.075 14.947 14.785
10.595 10.76 10.872 10.895 10.875 10.858 10.848 10.837 10.813 10.803 10.822 10.832 10.817 10.79 10.757 10.723 10.69 10.657 10.625 10.6 10.58 10.568 10.575 10.6 10.633 10.68 10.743 10.813 10.898 10.985 11.062 11.135 11.2 11.26 11.31 11.35 11.42 11.495 11.532 11.558 11.583 11.62 11.65 11.655 11.655 11.653 11.655 11.667 11.68 11.677 11.66 11.642 11.56 11.345 11.145 11.048 11.015 11.078 11.21 11.355 11.47 11.57 11.657 11.717 11.775 11.837 11.9 11.96 12.012 12.052 12.085 12.11 12.115 12.095 12.062 12.023 11.985 11.955 11.92 11.89 11.878 11.885 11.91 11.935 11.96 11.977 11.965 11.94 11.93 11.94 11.97 12.02 12.057 12.062 12.085 12.135 12.185 12.235 12.272 12.28 12.26 12.23 12.197 12.153 12.125 12.13 12.13 12.133 12.158 12.193 12.225 12.258 12.285 12.348 12.503 12.71 12.905 13.057 13.16 13.197 13.172 13.163 13.248 13.382 13.502 13.618 13.74 13.885 14.08 14.285 14.43 14.54 14.65 14.757 14.83 14.867 14.902 14.935 14.962 14.98 14.98 14.965 14.965 14.985 15.005 15.025 15.038 15.055 15.1 15.163 15.227 15.29 15.337 15.362 15.37 15.37 15.383 15.42 15.455 15.477 15.497 15.512 15.53 15.553 15.58 15.61 15.645 15.685 15.738 15.805 15.852 15.865 15.868 15.875 15.88 15.865 15.843 15.825 15.805 15.795 15.803 15.817 15.807 15.745 15.652 15.555 15.46 15.39 15.343 15.323 15.335 15.352 15.37 15.39 15.39 15.337 15.24 15.125 14.992 14.825
10.677 10.86 10.977 11.005 10.985 10.965 10.948 10.935 10.92 10.923 10.95 10.965 10.95 10.92 10.89 10.857 10.823 10.79 10.763 10.74 10.72 10.705 10.7 10.713 10.74 10.775 10.81 10.843 10.898 10.948 10.985 11.04 11.098 11.155 11.205 11.273 11.385 11.492 11.545 11.565 11.588 11.61 11.62 11.62 11.62 11.617 11.613 11.615 11.625 11.62 11.603 11.585 11.47 11.228 11 10.853 10.848 10.99 11.19 11.402 11.52 11.608 11.722 11.795 11.857 11.922 11.987 12.052 12.102 12.135 12.165 12.182 12.167 12.138 12.107 12.067 12.028 11.993 11.963 11.948 11.945 11.955 11.977 12.003 12.03 12.05 12.043 12.033 12.045 12.065 12.087 12.107 12.102 12.09 12.11 12.155 12.205 12.255 12.287 12.297 12.295 12.275 12.237 12.188 12.14 12.123 12.115 12.1 12.108 12.135 12.162 12.175 12.185 12.263 12.433 12.627 12.785 12.905 13.015 13.105 13.132 13.148 13.243 13.387 13.522 13.645 13.775 13.955 14.192 14.412 14.56 14.673 14.785 14.895 14.972 15.012 15.045 15.072 15.095 15.105 15.09 15.06 15.055 15.075 15.095 15.113 15.123 15.13 15.153 15.205 15.267 15.312 15.337 15.35 15.358 15.373 15.413 15.465 15.502 15.527 15.55 15.57 15.585 15.595 15.61 15.638 15.675 15.723 15.788 15.862 15.915 15.932 15.943 15.955 15.965 15.96 15.945 15.93 15.908 15.885 15.875 15.882 15.86 15.782 15.685 15.585 15.493 15.425 15.38 15.358 15.365 15.38 15.393 15.41 15.397 15.345 15.272 15.172 15.038 14.888
10.74 10.95 11.082 11.115 11.095 11.075 11.055 11.032 11.015 11.03 11.067 11.09 11.08 11.05 11.02 10.99 10.957 10.925 10.9 10.88 10.86 10.843 10.833 10.833 10.85 10.883 10.917 10.95 10.988 10.998 10.983 10.98 11 11.05 11.125 11.235 11.365 11.485 11.552 11.577 11.6 11.605 11.595 11.588 11.583 11.58 11.578 11.573 11.573 11.568 11.555 11.512 11.352 11.1 10.878 10.778 10.9 11.137 11.352 11.512 11.553 11.625 11.775 11.87 11.933 11.997 12.062 12.125 12.177 12.215 12.245 12.252 12.228 12.195 12.155 12.11 12.07 12.033 12.013 12.012 12.015 12.023 12.043 12.07 12.1 12.122 12.13 12.14 12.16 12.177 12.195 12.17 12.12 12.108 12.133 12.18 12.227 12.275 12.305 12.312 12.317 12.312 12.277 12.222 12.168 12.13 12.11 12.093 12.083 12.08 12.08 12.073 12.098 12.203 12.357 12.507 12.632 12.745 12.855 12.965 13.05 13.122 13.235 13.38 13.525 13.663 13.833 14.063 14.317 14.54 14.692 14.807 14.92 15.03 15.112 15.152 15.18 15.205 15.222 15.217 15.185 15.153 15.15 15.173 15.2 15.218 15.223 15.228 15.233 15.253 15.29 15.318 15.335 15.355 15.375 15.41 15.465 15.515 15.55 15.575 15.6 15.625 15.642 15.65 15.655 15.67 15.708 15.77 15.842 15.917 15.975 16 16.015 16.03 16.042 16.05 16.047 16.032 16.01 15.987 15.965 15.952 15.907 15.815 15.715 15.613 15.523 15.463 15.42 15.395 15.398 15.41 15.42 15.427 15.4 15.34 15.28 15.207 15.097 14.987
10.788 11.022 11.185 11.225 11.202 11.172 11.14 11.107 11.085 11.1 11.142 11.175 11.175 11.152 11.127 11.102 11.08 11.06 11.04 11.02 11.002 10.985 10.97 10.963 10.968 10.99 11.025 11.063 11.105 11.122 11.09 11.035 11 11.023 11.098 11.21 11.34 11.467 11.555 11.59 11.6 11.593 11.58 11.575 11.575 11.575 11.578 11.578 11.575 11.568 11.555 11.455 11.225 10.968 10.763 10.785 11.04 11.3 11.49 11.565 11.56 11.645 11.81 11.932 12.007 12.073 12.137 12.197 12.25 12.292 12.325 12.327 12.3 12.26 12.205 12.15 12.105 12.07 12.058 12.062 12.068 12.083 12.115 12.15 12.18 12.208 12.227 12.24 12.255 12.272 12.287 12.217 12.125 12.123 12.158 12.205 12.25 12.29 12.312 12.317 12.32 12.315 12.292 12.247 12.192 12.15 12.133 12.128 12.115 12.088 12.045 12.03 12.053 12.115 12.225 12.34 12.452 12.565 12.677 12.785 12.897 13.062 13.237 13.383 13.523 13.683 13.908 14.17 14.432 14.665 14.822 14.935 15.042 15.155 15.235 15.265 15.29 15.317 15.332 15.317 15.28 15.248 15.248 15.28 15.32 15.342 15.345 15.345 15.343 15.338 15.348 15.37 15.393 15.418 15.448 15.488 15.533 15.568 15.595 15.62 15.642 15.665 15.692 15.712 15.72 15.728 15.758 15.82 15.895 15.97 16.03 16.062 16.077 16.092 16.107 16.122 16.132 16.12 16.095 16.075 16.05 16.015 15.945 15.845 15.742 15.638 15.553 15.5 15.46 15.433 15.43 15.44 15.453 15.462 15.432 15.37 15.308 15.245 15.157 15.06
