ncols         200
nrows         84
xllcorner     548000
yllcorner     262410
cellsize      5
NODATA_value  -9999.0
5.9 5.84 5.79 5.77 5.77 5.77 5.77 5.77 5.77 5.77 5.767 5.727 5.643 5.563 5.53 5.53 5.533 5.537 5.543 5.553 5.578 5.61 5.61 5.577 5.54 5.52 5.52 5.52 5.523 5.545 5.582 5.617 5.645 5.645 5.608 5.553 5.495 5.433 5.395 5.415 5.47 5.528 5.583 5.633 5.685 5.742 5.775 5.782 5.787 5.79 5.79 5.79 5.79 5.79 5.79 5.79 5.79 5.79 5.79 5.787 5.785 5.783 5.78 5.78 5.78 5.783 5.787 5.79 5.79 5.79 5.79 5.79 5.788 5.778 5.77 5.77 5.765 5.747 5.712 5.665 5.617 5.572 5.51 5.385 5.2 5.003 4.84 4.71 4.575 4.435 4.318 4.24 4.18 4.122 4.07 4.05 4.07 4.1 4.11 4.1 4.082 4.067 4.07 4.072 4.052 4.012 3.97 3.93 3.88 3.805 3.697 3.577 3.46 3.373 3.335 3.305 3.265 3.228 3.213 3.22 3.228 3.233 3.235 3.29 3.442 3.557 3.502 3.355 3.25 3.23 3.255 3.28 3.302 3.325 3.332 3.335 3.367 3.41 3.417 3.397 3.367 3.335 3.32 3.323 3.328 3.335 3.348 3.36 3.375 3.345 3.583 4.265 4.815 4.95 4.514 3.25 2.593 2.815 2.875 2.945 3.043 3.118 3.157 3.185 3.215 3.245 3.27 3.287 3.305 3.315 3.295 3.252 3.208 3.178 3.168 3.158 3.145 3.135 3.13 3.133 3.138 3.142 3.133 3.12 3.12 3.117 3.123 3.135 3.14 3.145 3.16 3.19 3.23 3.267 3.3 3.325 3.345 3.365 3.36 3.335
5.885 5.825 5.783 5.77 5.77 5.77 5.77 5.77 5.77 5.77 5.76 5.717 5.637 5.56 5.53 5.533 5.537 5.543 5.548 5.553 5.57 5.6 5.6 5.57 5.54 5.525 5.525 5.525 5.523 5.532 5.56 5.592 5.625 5.647 5.677 5.695 5.662 5.605 5.545 5.51 5.527 5.572 5.615 5.655 5.698 5.752 5.787 5.79 5.79 5.79 5.79 5.79 5.79 5.79 5.79 5.79 5.79 5.79 5.79 5.79 5.79 5.787 5.783 5.78 5.78 5.785 5.795 5.802 5.807 5.81 5.81 5.805 5.79 5.765 5.75 5.745 5.727 5.697 5.655 5.608 5.562 5.512 5.442 5.337 5.185 4.995 4.83 4.7 4.56 4.41 4.278 4.18 4.108 4.047 3.963 3.873 3.848 3.87 3.88 3.87 3.852 3.833 3.84 3.85 3.83 3.8 3.77 3.74 3.705 3.66 3.592 3.49 3.39 3.35 3.345 3.32 3.277 3.233 3.213 3.218 3.22 3.22 3.22 3.233 3.31 3.427 3.405 3.278 3.223 3.23 3.255 3.28 3.305 3.327 3.345 3.362 3.38 3.397 3.402 3.395 3.37 3.335 3.32 3.323 3.333 3.348 3.363 3.375 3.38 3.413 3.94 4.6 4.852 4.804 3.705 2.648 2.69 2.865 2.935 3.012 3.082 3.11 3.13 3.16 3.19 3.222 3.25 3.265 3.293 3.325 3.315 3.275 3.24 3.215 3.205 3.2 3.188 3.175 3.17 3.173 3.177 3.18 3.158 3.125 3.115 3.113 3.125 3.147 3.157 3.165 3.175 3.195 3.23 3.27 3.305 3.332 3.355 3.372 3.362 3.33
5.872 5.815 5.778 5.77 5.77 5.77 5.77 5.77 5.77 5.77 5.75 5.7 5.63 5.563 5.535 5.538 5.543 5.548 5.553 5.558 5.568 5.587 5.585 5.563 5.553 5.55 5.548 5.545 5.525 5.492 5.497 5.532 5.565 5.595 5.642 5.717 5.78 5.765 5.682 5.59 5.558 5.59 5.632 5.675 5.715 5.762 5.79 5.79 5.79 5.79 5.79 5.79 5.79 5.79 5.79 5.79 5.79 5.79 5.79 5.79 5.79 5.79 5.787 5.783 5.78 5.785 5.795 5.807 5.82 5.827 5.822 5.802 5.772 5.74 5.722 5.705 5.675 5.64 5.597 5.55 5.5 5.445 5.367 5.265 5.14 4.977 4.82 4.682 4.532 4.38 4.24 4.13 4.048 3.975 3.88 3.76 3.668 3.645 3.65 3.635 3.613 3.588 3.583 3.58 3.56 3.54 3.518 3.498 3.48 3.46 3.44 3.4 3.36 3.35 3.34 3.312 3.277 3.238 3.218 3.22 3.22 3.22 3.22 3.22 3.238 3.315 3.312 3.235 3.22 3.23 3.252 3.27 3.285 3.3 3.31 3.32 3.335 3.35 3.357 3.362 3.357 3.335 3.32 3.328 3.345 3.363 3.38 3.387 3.32 3.645 4.34 4.722 4.857 4.357 3.028 2.531 2.84 2.915 2.99 3.05 3.075 3.08 3.1 3.13 3.163 3.197 3.225 3.25 3.295 3.337 3.33 3.298 3.28 3.265 3.255 3.247 3.23 3.215 3.21 3.212 3.217 3.217 3.192 3.15 3.12 3.108 3.12 3.148 3.17 3.185 3.195 3.21 3.235 3.27 3.305 3.335 3.362 3.377 3.365 3.333
5.86 5.805 5.773 5.77 5.77 5.77 5.77 5.77 5.77 5.76 5.73 5.68 5.617 5.563 5.54 5.543 5.55 5.555 5.56 5.565 5.57 5.58 5.578 5.573 5.58 5.585 5.582 5.572 5.515 5.42 5.395 5.435 5.475 5.512 5.545 5.613 5.735 5.795 5.72 5.608 5.568 5.593 5.633 5.677 5.722 5.755 5.777 5.79 5.79 5.79 5.785 5.777 5.775 5.78 5.787 5.79 5.79 5.79 5.79 5.79 5.79 5.79 5.79 5.787 5.785 5.788 5.795 5.805 5.815 5.822 5.81 5.78 5.748 5.715 5.69 5.66 5.623 5.585 5.54 5.488 5.433 5.375 5.295 5.188 5.073 4.945 4.802 4.652 4.5 4.347 4.203 4.09 4.005 3.92 3.813 3.688 3.56 3.473 3.445 3.433 3.42 3.408 3.4 3.393 3.38 3.37 3.358 3.348 3.345 3.345 3.345 3.345 3.345 3.342 3.325 3.297 3.27 3.238 3.22 3.22 3.22 3.22 3.22 3.22 3.22 3.245 3.245 3.22 3.22 3.22 3.225 3.232 3.24 3.25 3.26 3.273 3.288 3.3 3.31 3.318 3.325 3.325 3.325 3.34 3.36 3.38 3.39 3.363 3.433 4.008 4.66 4.835 4.672 3.55 2.641 2.772 2.89 2.962 3.02 3.042 3.048 3.053 3.073 3.105 3.14 3.175 3.208 3.25 3.305 3.35 3.352 3.332 3.32 3.305 3.292 3.28 3.262 3.25 3.247 3.25 3.255 3.255 3.23 3.19 3.15 3.12 3.125 3.155 3.185 3.205 3.215 3.23 3.25 3.278 3.31 3.34 3.37 3.385 3.37 3.337
5.845 5.797 5.77 5.77 5.77 5.767 5.76 5.73 5.682 5.627 5.585 5.557 5.535 5.537 5.547 5.553 5.56 5.565 5.57 5.575 5.58 5.585 5.59 5.6 5.61 5.615 5.615 5.58 5.477 5.348 5.295 5.325 5.367 5.412 5.452 5.495 5.583 5.687 5.677 5.6 5.582 5.6 5.63 5.672 5.705 5.713 5.735 5.775 5.79 5.775 5.742 5.72 5.715 5.73 5.757 5.78 5.79 5.79 5.79 5.79 5.79 5.79 5.79 5.79 5.79 5.79 5.793 5.795 5.798 5.797 5.78 5.753 5.725 5.698 5.67 5.635 5.598 5.573 5.538 5.48 5.418 5.345 5.25 5.138 5.025 4.9 4.757 4.607 4.455 4.303 4.163 4.063 3.982 3.89 3.775 3.645 3.528 3.438 3.385 3.36 3.35 3.35 3.35 3.348 3.343 3.34 3.34 3.338 3.335 3.335 3.335 3.335 3.335 3.33 3.31 3.283 3.26 3.233 3.218 3.22 3.22 3.22 3.22 3.22 3.22 3.22 3.22 3.22 3.217 3.208 3.188 3.18 3.19 3.2 3.21 3.225 3.248 3.28 3.298 3.3 3.31 3.32 3.335 3.355 3.375 3.39 3.385 3.333 3.683 4.365 4.822 4.839 4.035 2.883 2.61 2.87 2.94 3.002 3.032 3.035 3.04 3.048 3.063 3.093 3.128 3.16 3.2 3.252 3.305 3.337 3.342 3.332 3.317 3.302 3.287 3.272 3.26 3.265 3.28 3.287 3.292 3.292 3.27 3.23 3.193 3.168 3.175 3.205 3.23 3.232 3.233 3.248 3.268 3.295 3.325 3.355 3.382 3.392 3.375 3.34
5.792 5.747 5.712 5.7 5.692 5.685 5.655 5.577 5.475 5.375 5.34 5.375 5.43 5.505 5.555 5.567 5.575 5.58 5.585 5.59 5.595 5.6 5.608 5.622 5.637 5.647 5.63 5.55 5.422 5.29 5.208 5.213 5.255 5.298 5.342 5.385 5.443 5.515 5.495 5.44 5.482 5.562 5.625 5.657 5.665 5.66 5.667 5.722 5.777 5.745 5.665 5.625 5.628 5.655 5.695 5.735 5.765 5.782 5.79 5.79 5.79 5.79 5.79 5.79 5.79 5.79 5.79 5.79 5.79 5.782 5.76 5.735 5.71 5.683 5.658 5.63 5.613 5.615 5.592 5.53 5.45 5.35 5.235 5.12 5 4.845 4.688 4.547 4.4 4.248 4.118 4.038 3.967 3.872 3.755 3.64 3.56 3.508 3.458 3.405 3.365 3.35 3.35 3.35 3.345 3.34 3.34 3.338 3.333 3.33 3.33 3.328 3.325 3.318 3.3 3.28 3.257 3.228 3.213 3.217 3.22 3.22 3.22 3.22 3.22 3.22 3.22 3.22 3.215 3.207 3.178 3.143 3.14 3.15 3.163 3.19 3.24 3.305 3.33 3.318 3.32 3.33 3.345 3.365 3.38 3.382 3.333 3.438 3.953 4.61 4.947 4.492 3.213 2.618 2.845 2.92 2.982 3.03 3.05 3.05 3.053 3.06 3.07 3.09 3.12 3.153 3.195 3.247 3.282 3.29 3.292 3.292 3.282 3.267 3.253 3.24 3.245 3.283 3.315 3.322 3.327 3.33 3.31 3.273 3.248 3.24 3.258 3.285 3.287 3.26 3.248 3.263 3.285 3.318 3.35 3.377 3.395 3.395 3.375 3.337
5.68 5.625 5.577 5.55 5.532 5.517 5.462 5.36 5.255 5.183 5.2 5.288 5.385 5.482 5.552 5.582 5.592 5.597 5.602 5.608 5.612 5.615 5.62 5.635 5.655 5.67 5.62 5.5 5.367 5.235 5.123 5.098 5.142 5.185 5.228 5.277 5.295 5.04 4.76 4.733 4.778 4.85 4.9 4.912 4.91 4.947 4.99 5.182 5.51 5.63 5.575 5.537 5.55 5.582 5.617 5.652 5.69 5.75 5.79 5.79 5.79 5.79 5.79 5.79 5.79 5.79 5.79 5.79 5.79 5.777 5.753 5.73 5.705 5.678 5.658 5.645 5.655 5.675 5.647 5.57 5.467 5.348 5.225 5.107 4.962 4.78 4.615 4.477 4.34 4.193 4.073 4.008 3.95 3.858 3.753 3.678 3.63 3.59 3.542 3.48 3.41 3.363 3.35 3.35 3.347 3.343 3.34 3.34 3.335 3.33 3.33 3.325 3.323 3.318 3.305 3.29 3.26 3.223 3.205 3.21 3.217 3.22 3.22 3.22 3.22 3.22 3.22 3.217 3.212 3.207 3.185 3.138 3.103 3.1 3.13 3.193 3.27 3.345 3.37 3.35 3.338 3.34 3.355 3.37 3.375 3.37 3.368 3.673 4.28 4.817 4.794 3.655 2.643 2.685 2.892 2.96 3.01 3.05 3.07 3.07 3.068 3.07 3.083 3.098 3.118 3.148 3.19 3.227 3.237 3.233 3.235 3.242 3.242 3.232 3.22 3.228 3.265 3.317 3.35 3.357 3.362 3.367 3.352 3.328 3.322 3.325 3.34 3.347 3.32 3.28 3.265 3.283 3.31 3.342 3.372 3.392 3.402 3.397 3.372 3.33
5.535 5.475 5.423 5.388 5.367 5.335 5.255 5.163 5.108 5.103 5.163 5.258 5.355 5.452 5.535 5.587 5.607 5.615 5.62 5.625 5.63 5.63 5.635 5.648 5.665 5.672 5.6 5.455 5.313 5.18 5.053 4.998 5.028 5.073 5.12 5.183 5.267 4.748 4.181 4.181 4.276 4.358 4.263 4.181 4.181 4.221 4.265 4.43 4.718 4.855 4.92 5.025 5.197 5.415 5.522 5.55 5.592 5.672 5.74 5.755 5.755 5.755 5.755 5.767 5.785 5.79 5.79 5.79 5.79 5.777 5.755 5.733 5.71 5.693 5.68 5.675 5.697 5.727 5.69 5.585 5.468 5.348 5.23 5.082 4.892 4.703 4.542 4.405 4.267 4.13 4.028 3.973 3.925 3.86 3.793 3.745 3.702 3.66 3.612 3.55 3.475 3.403 3.36 3.35 3.35 3.345 3.34 3.34 3.337 3.333 3.33 3.328 3.33 3.332 3.317 3.29 3.255 3.215 3.198 3.203 3.21 3.217 3.22 3.22 3.22 3.22 3.218 3.213 3.208 3.203 3.195 3.155 3.095 3.088 3.145 3.23 3.315 3.385 3.407 3.39 3.367 3.355 3.36 3.367 3.367 3.303 3.435 3.948 4.602 4.954 4.235 2.891 2.558 2.87 2.932 2.985 3.032 3.072 3.09 3.09 3.085 3.083 3.095 3.11 3.125 3.148 3.172 3.183 3.18 3.178 3.178 3.185 3.193 3.195 3.205 3.245 3.3 3.352 3.382 3.387 3.39 3.39 3.385 3.382 3.39 3.397 3.397 3.375 3.335 3.295 3.28 3.302 3.335 3.362 3.382 3.395 3.402 3.395 3.362 3.315
5.385 5.325 5.27 5.228 5.2 5.143 5.07 5.038 5.04 5.07 5.138 5.23 5.323 5.417 5.505 5.572 5.615 5.632 5.637 5.642 5.645 5.645 5.65 5.66 5.675 5.665 5.58 5.433 5.275 5.13 4.995 4.913 4.915 4.96 5.033 5.208 5.495 5.36 5.065 5.06 5.15 5.22 5.125 4.953 4.728 4.485 4.273 4.181 4.181 4.181 4.248 4.365 4.53 4.733 4.843 5.018 5.342 5.555 5.627 5.672 5.685 5.685 5.69 5.715 5.745 5.76 5.77 5.78 5.787 5.782 5.765 5.745 5.73 5.72 5.71 5.708 5.733 5.765 5.72 5.605 5.49 5.383 5.287 5.08 4.803 4.6 4.442 4.307 4.173 4.058 3.988 3.94 3.903 3.872 3.83 3.782 3.735 3.57 3.452 3.495 3.507 3.46 3.393 3.358 3.35 3.347 3.343 3.34 3.34 3.335 3.33 3.332 3.335 3.325 3.295 3.26 3.225 3.2 3.2 3.208 3.213 3.218 3.22 3.22 3.22 3.22 3.218 3.213 3.205 3.2 3.197 3.175 3.133 3.135 3.2 3.282 3.36 3.405 3.41 3.395 3.372 3.36 3.36 3.362 3.35 3.303 3.608 4.32 4.87 4.694 3.355 2.513 2.772 2.912 2.962 3.008 3.055 3.092 3.102 3.1 3.095 3.088 3.095 3.112 3.127 3.145 3.155 3.15 3.145 3.145 3.148 3.155 3.165 3.178 3.21 3.262 3.317 3.365 3.382 3.377 3.375 3.372 3.375 3.385 3.395 3.405 3.402 3.377 3.34 3.3 3.288 3.312 3.342 3.36 3.367 3.375 3.382 3.377 3.345 3.295
5.235 5.178 5.123 5.073 5.03 4.988 4.973 4.985 5 5.038 5.11 5.2 5.293 5.387 5.477 5.55 5.607 5.642 5.655 5.66 5.66 5.66 5.665 5.675 5.692 5.662 5.565 5.427 5.263 5.1 4.948 4.828 4.803 4.908 5.088 5.34 5.635 5.815 5.854 5.847 5.84 5.835 5.86 5.792 5.577 5.345 5.142 4.943 4.705 4.465 4.265 4.181 4.18 4.18 4.198 4.36 4.66 4.898 5.225 5.532 5.607 5.62 5.633 5.657 5.68 5.7 5.72 5.743 5.767 5.785 5.782 5.77 5.76 5.75 5.738 5.738 5.762 5.785 5.747 5.655 5.558 5.468 5.362 5.095 4.73 4.48 4.32 4.19 4.083 4.005 3.953 3.913 3.893 3.877 3.84 3.79 3.74 3.385 3.128 3.272 3.392 3.455 3.44 3.383 3.353 3.35 3.345 3.34 3.34 3.337 3.335 3.33 3.315 3.285 3.245 3.21 3.19 3.195 3.21 3.22 3.225 3.223 3.22 3.22 3.22 3.22 3.22 3.218 3.213 3.208 3.203 3.205 3.2 3.203 3.258 3.335 3.382 3.392 3.382 3.365 3.35 3.35 3.355 3.355 3.29 3.43 4.015 4.697 4.917 3.987 2.723 2.583 2.89 2.94 2.988 3.037 3.077 3.102 3.105 3.1 3.095 3.085 3.09 3.107 3.123 3.14 3.15 3.145 3.143 3.148 3.153 3.158 3.168 3.183 3.218 3.27 3.317 3.35 3.352 3.338 3.33 3.33 3.335 3.345 3.355 3.365 3.37 3.362 3.34 3.305 3.293 3.312 3.33 3.332 3.333 3.34 3.35 3.35 3.322 3.272
5.082 5.03 4.983 4.953 4.928 4.915 4.928 4.943 4.958 5 5.083 5.175 5.268 5.36 5.45 5.528 5.59 5.64 5.668 5.675 5.675 5.675 5.68 5.695 5.725 5.672 5.553 5.422 5.258 5.093 4.928 4.785 4.745 4.885 5.12 5.33 5.525 5.66 5.682 5.665 5.658 5.695 5.772 5.822 5.845 5.865 5.882 5.782 5.555 5.325 5.125 4.918 4.648 4.338 4.18 4.18 4.18 4.243 4.533 4.81 5.11 5.46 5.572 5.6 5.628 5.653 5.68 5.71 5.743 5.777 5.797 5.795 5.785 5.777 5.765 5.765 5.782 5.795 5.787 5.735 5.652 5.572 5.417 5.095 4.693 4.383 4.21 4.108 4.033 3.97 3.923 3.898 3.89 3.885 3.852 3.712 3.407 3.005 2.86 3 3.145 3.285 3.38 3.4 3.372 3.35 3.347 3.343 3.34 3.337 3.327 3.302 3.27 3.235 3.198 3.178 3.185 3.205 3.22 3.227 3.23 3.227 3.223 3.223 3.225 3.225 3.228 3.23 3.23 3.225 3.225 3.242 3.26 3.268 3.31 3.362 3.37 3.365 3.355 3.34 3.338 3.343 3.347 3.32 3.37 3.718 4.37 4.894 4.544 3.185 2.558 2.845 2.917 2.968 3.017 3.062 3.09 3.105 3.105 3.098 3.09 3.083 3.088 3.103 3.12 3.137 3.147 3.148 3.15 3.16 3.167 3.17 3.175 3.188 3.223 3.27 3.302 3.325 3.325 3.305 3.29 3.285 3.293 3.305 3.315 3.325 3.33 3.33 3.322 3.302 3.293 3.3 3.302 3.298 3.298 3.308 3.32 3.322 3.297 3.245
4.945 4.945 4.94 4.948 4.943 4.925 4.918 4.913 4.915 4.965 5.06 5.165 5.273 5.378 5.483 5.568 5.628 5.68 5.715 5.718 5.703 5.69 5.695 5.725 5.77 5.715 5.568 5.418 5.253 5.15 5.06 4.925 4.825 4.838 4.983 5.177 5.372 5.517 5.525 5.483 5.473 5.553 5.682 5.745 5.772 5.79 5.808 5.825 5.845 5.872 5.862 5.71 5.435 5.127 4.808 4.435 4.203 4.18 4.18 4.18 4.418 4.847 5.23 5.5 5.597 5.63 5.663 5.695 5.727 5.76 5.795 5.81 5.802 5.797 5.79 5.793 5.805 5.823 5.845 5.825 5.542 5.47 5.48 5.115 4.71 4.338 4.135 4.065 4 3.935 3.897 3.887 3.882 3.88 3.802 3.538 3.093 2.773 2.755 2.853 2.955 3.055 3.168 3.282 3.35 3.357 3.35 3.347 3.337 3.317 3.29 3.255 3.22 3.188 3.168 3.175 3.195 3.215 3.23 3.232 3.227 3.225 3.225 3.23 3.235 3.238 3.242 3.245 3.245 3.243 3.253 3.278 3.303 3.32 3.34 3.352 3.345 3.338 3.33 3.328 3.332 3.337 3.342 3.325 3.67 4.217 4.677 4.807 3.723 2.636 2.68 2.897 2.948 3 3.045 3.075 3.093 3.107 3.11 3.1 3.088 3.078 3.083 3.098 3.115 3.133 3.145 3.155 3.165 3.175 3.182 3.185 3.188 3.195 3.22 3.253 3.278 3.3 3.3 3.28 3.26 3.245 3.25 3.265 3.278 3.29 3.298 3.298 3.293 3.288 3.283 3.278 3.27 3.263 3.263 3.275 3.29 3.297 3.272 3.215
4.913 4.973 5 5.017 5.005 4.98 4.96 4.94 4.94 5.008 5.12 5.238 5.36 5.48 5.597 5.685 5.743 5.795 5.827 5.828 5.805 5.775 5.775 5.81 5.85 5.85 5.73 5.588 5.515 5.445 5.325 5.188 5.065 4.92 4.883 5.025 5.22 5.375 5.375 5.305 5.298 5.42 5.587 5.662 5.697 5.715 5.735 5.755 5.778 5.807 5.775 5.71 5.71 5.72 5.54 5.18 4.845 4.523 4.265 4.18 4.18 4.273 4.56 4.955 5.292 5.53 5.647 5.68 5.712 5.74 5.785 5.82 5.817 5.813 5.815 5.828 5.845 5.867 5.895 5.592 4.913 4.748 5.16 5.16 4.727 4.323 4.105 4.045 3.98 3.897 3.83 3.81 3.805 3.8 3.75 3.548 3.24 2.955 2.838 2.88 2.94 3 3.07 3.163 3.265 3.322 3.338 3.34 3.323 3.295 3.268 3.24 3.21 3.175 3.163 3.18 3.2 3.22 3.232 3.23 3.223 3.22 3.225 3.237 3.247 3.252 3.255 3.255 3.255 3.278 3.313 3.34 3.365 3.37 3.358 3.35 3.345 3.333 3.323 3.323 3.327 3.332 3.298 3.493 4.155 4.73 4.927 4.337 2.978 2.573 2.895 2.928 2.977 3.03 3.067 3.087 3.1 3.115 3.12 3.11 3.098 3.085 3.088 3.1 3.115 3.135 3.15 3.165 3.18 3.192 3.2 3.2 3.202 3.205 3.218 3.243 3.268 3.285 3.282 3.265 3.245 3.23 3.225 3.233 3.248 3.263 3.277 3.282 3.28 3.28 3.275 3.265 3.255 3.24 3.238 3.253 3.268 3.28 3.252 3.19
4.957 5.04 5.075 5.085 5.067 5.043 5.03 5.03 5.05 5.133 5.257 5.38 5.503 5.625 5.732 5.812 5.875 5.93 5.962 5.97 5.957 5.928 5.925 5.955 5.975 5.997 5.997 5.985 5.94 5.77 5.573 5.455 5.372 5.19 4.968 4.93 5.07 5.235 5.24 5.143 5.148 5.315 5.495 5.575 5.62 5.645 5.662 5.68 5.72 5.74 5.672 5.6 5.62 5.65 5.62 5.61 5.487 5.222 4.912 4.558 4.283 4.18 4.19 4.33 4.588 4.91 5.27 5.557 5.697 5.725 5.772 5.822 5.832 5.838 5.855 5.875 5.89 5.727 5.365 4.808 4.313 4.181 4.693 5.067 4.72 4.32 4.098 4.032 3.95 3.837 3.74 3.688 3.665 3.69 3.747 3.71 3.49 3.18 2.978 2.96 3.02 3.08 3.14 3.2 3.26 3.32 3.347 3.34 3.328 3.308 3.285 3.262 3.232 3.193 3.173 3.18 3.195 3.215 3.225 3.22 3.218 3.223 3.23 3.243 3.255 3.262 3.265 3.265 3.278 3.343 3.407 3.432 3.44 3.412 3.383 3.372 3.362 3.345 3.33 3.323 3.323 3.327 3.365 3.908 4.705 5.022 4.752 3.44 2.521 2.792 2.965 2.968 3.003 3.055 3.087 3.1 3.11 3.125 3.13 3.12 3.113 3.108 3.108 3.113 3.123 3.14 3.158 3.175 3.192 3.207 3.215 3.215 3.215 3.218 3.23 3.252 3.27 3.277 3.272 3.258 3.243 3.235 3.225 3.215 3.223 3.238 3.255 3.27 3.277 3.277 3.272 3.262 3.247 3.228 3.223 3.237 3.252 3.265 3.237 3.178
4.99 5.097 5.15 5.15 5.135 5.128 5.133 5.145 5.178 5.268 5.395 5.522 5.647 5.77 5.867 5.94 6.007 6.065 6.097 6.105 6.1 6.083 6.082 6.102 6.105 6.1 6.17 6.245 6.16 5.97 5.825 5.74 5.66 5.512 5.25 5.013 4.973 5.095 5.11 4.99 5.013 5.22 5.402 5.485 5.537 5.57 5.588 5.615 5.685 5.68 5.565 5.495 5.535 5.59 5.572 5.528 5.485 5.497 5.422 5.21 4.932 4.593 4.303 4.18 4.18 4.283 4.54 4.84 5.16 5.492 5.715 5.81 5.85 5.879 5.745 5.4 5.127 4.873 4.498 4.238 4.18 4.18 4.583 4.952 4.727 4.338 4.098 4.005 3.887 3.76 3.665 3.6 3.583 3.66 3.742 3.765 3.677 3.43 3.153 3.05 3.1 3.16 3.22 3.28 3.34 3.385 3.375 3.35 3.347 3.337 3.315 3.282 3.245 3.205 3.185 3.185 3.193 3.21 3.217 3.213 3.215 3.227 3.24 3.25 3.26 3.27 3.277 3.28 3.32 3.422 3.5 3.51 3.482 3.438 3.408 3.392 3.375 3.355 3.34 3.33 3.322 3.288 3.61 4.47 5.035 5.027 4.147 2.791 2.575 2.98 3.05 3.04 3.045 3.078 3.105 3.115 3.125 3.137 3.14 3.133 3.13 3.13 3.13 3.13 3.133 3.145 3.165 3.185 3.205 3.22 3.227 3.23 3.23 3.233 3.245 3.26 3.267 3.272 3.267 3.255 3.248 3.242 3.232 3.215 3.205 3.213 3.23 3.25 3.265 3.27 3.267 3.252 3.23 3.21 3.205 3.22 3.237 3.25 3.227 3.183
5.025 5.142 5.215 5.227 5.227 5.24 5.255 5.268 5.308 5.405 5.535 5.662 5.787 5.907 6 6.07 6.137 6.195 6.222 6.227 6.23 6.225 6.222 6.225 6.222 6.215 6.245 6.28 6.25 6.175 6.095 6.02 5.94 5.83 5.605 5.295 5.058 5.01 4.99 4.933 5.008 5.183 5.323 5.395 5.45 5.49 5.518 5.573 5.655 5.607 5.458 5.4 5.46 5.532 5.53 5.485 5.438 5.39 5.345 5.382 5.367 5.207 4.957 4.638 4.35 4.2 4.18 4.21 4.405 4.723 4.985 5.167 5.18 5.087 4.895 4.54 4.263 4.18 4.18 4.18 4.18 4.18 4.598 4.92 4.655 4.308 4.075 3.953 3.815 3.695 3.628 3.598 3.608 3.682 3.74 3.755 3.752 3.632 3.37 3.18 3.175 3.235 3.295 3.357 3.42 3.425 3.375 3.35 3.35 3.337 3.282 3.23 3.212 3.2 3.195 3.197 3.203 3.21 3.212 3.21 3.215 3.227 3.242 3.257 3.27 3.28 3.29 3.31 3.385 3.51 3.575 3.555 3.51 3.463 3.428 3.405 3.385 3.365 3.347 3.335 3.323 3.42 4.095 4.915 5.102 4.647 3.3 2.566 2.89 3.065 3.13 3.12 3.11 3.112 3.125 3.132 3.14 3.15 3.152 3.15 3.15 3.15 3.15 3.15 3.15 3.155 3.17 3.192 3.215 3.232 3.242 3.245 3.245 3.245 3.252 3.26 3.265 3.27 3.268 3.26 3.255 3.25 3.238 3.223 3.205 3.195 3.205 3.225 3.242 3.255 3.255 3.235 3.207 3.185 3.183 3.2 3.22 3.235 3.225 3.202
5.073 5.185 5.26 5.285 5.307 5.335 5.362 5.387 5.44 5.542 5.667 5.79 5.91 6.017 6.095 6.155 6.212 6.265 6.292 6.3 6.305 6.305 6.302 6.3 6.297 6.29 6.282 6.28 6.277 6.265 6.235 6.187 6.135 6.08 5.935 5.667 5.36 5.12 5.025 5.078 5.203 5.33 5.383 5.38 5.403 5.425 5.465 5.548 5.605 5.515 5.353 5.31 5.39 5.475 5.485 5.44 5.392 5.345 5.298 5.255 5.223 5.28 5.327 5.227 5.012 4.723 4.44 4.245 4.18 4.18 4.243 4.358 4.34 4.225 4.18 4.18 4.18 4.18 4.18 4.18 4.18 4.428 4.8 4.77 4.46 4.205 4.048 3.923 3.788 3.673 3.633 3.647 3.667 3.702 3.73 3.745 3.76 3.74 3.59 3.348 3.255 3.31 3.37 3.432 3.482 3.442 3.368 3.35 3.347 3.3 3.195 3.135 3.148 3.18 3.202 3.207 3.21 3.21 3.21 3.21 3.213 3.223 3.238 3.255 3.272 3.285 3.3 3.348 3.445 3.562 3.607 3.572 3.527 3.48 3.44 3.415 3.395 3.37 3.347 3.328 3.34 3.793 4.662 5.107 4.942 3.877 2.686 2.653 2.992 3.12 3.165 3.155 3.145 3.135 3.132 3.135 3.14 3.15 3.155 3.155 3.155 3.155 3.155 3.155 3.155 3.16 3.175 3.198 3.222 3.245 3.255 3.255 3.255 3.255 3.258 3.263 3.268 3.273 3.275 3.27 3.265 3.26 3.247 3.232 3.215 3.195 3.183 3.19 3.21 3.225 3.225 3.207 3.18 3.158 3.158 3.175 3.192 3.2 3.2 3.195
5.13 5.232 5.285 5.29 5.312 5.35 5.39 5.437 5.52 5.635 5.755 5.872 5.982 6.07 6.13 6.18 6.23 6.28 6.312 6.325 6.332 6.335 6.335 6.335 6.327 6.312 6.295 6.283 6.272 6.255 6.235 6.212 6.187 6.172 6.137 6.017 5.775 5.465 5.313 5.36 5.47 5.595 5.592 5.488 5.448 5.45 5.483 5.55 5.547 5.413 5.245 5.22 5.32 5.415 5.435 5.392 5.348 5.302 5.255 5.208 5.165 5.125 5.11 5.192 5.302 5.267 5.102 4.887 4.62 4.325 4.18 4.18 4.18 4.18 4.18 4.18 4.18 4.18 4.18 4.18 4.38 4.815 4.87 4.535 4.273 4.13 4.04 3.922 3.797 3.678 3.633 3.665 3.697 3.712 3.72 3.735 3.75 3.765 3.73 3.545 3.383 3.39 3.45 3.51 3.522 3.44 3.363 3.35 3.322 3.238 3.148 3.118 3.133 3.17 3.202 3.21 3.213 3.215 3.215 3.215 3.215 3.22 3.233 3.248 3.265 3.293 3.33 3.378 3.46 3.565 3.605 3.575 3.532 3.485 3.448 3.425 3.395 3.36 3.34 3.315 3.533 4.317 5.017 5.097 4.459 3.115 2.586 2.915 3.047 3.135 3.165 3.155 3.145 3.135 3.13 3.13 3.133 3.14 3.145 3.145 3.145 3.145 3.145 3.145 3.15 3.165 3.185 3.205 3.23 3.255 3.265 3.263 3.26 3.26 3.263 3.267 3.273 3.28 3.285 3.28 3.275 3.27 3.257 3.242 3.225 3.205 3.18 3.165 3.173 3.187 3.19 3.175 3.15 3.13 3.133 3.145 3.15 3.145 3.145 3.15
5.19 5.275 5.302 5.288 5.285 5.31 5.36 5.443 5.558 5.682 5.805 5.92 6.015 6.085 6.14 6.19 6.24 6.29 6.325 6.342 6.355 6.365 6.367 6.36 6.345 6.325 6.305 6.287 6.267 6.245 6.225 6.205 6.185 6.183 6.2 6.2 6.117 5.897 5.725 5.708 5.763 5.85 5.82 5.675 5.573 5.548 5.57 5.582 5.527 5.375 5.21 5.173 5.25 5.355 5.385 5.348 5.305 5.258 5.21 5.163 5.118 5.073 5.038 5.023 5.06 5.173 5.287 5.29 5.132 4.905 4.805 4.63 4.313 4.18 4.18 4.18 4.18 4.18 4.18 4.308 4.727 4.915 4.633 4.338 4.178 4.108 4.027 3.915 3.795 3.675 3.633 3.678 3.717 3.722 3.715 3.723 3.738 3.755 3.77 3.715 3.548 3.47 3.53 3.58 3.545 3.425 3.355 3.335 3.273 3.198 3.16 3.153 3.163 3.183 3.203 3.212 3.217 3.22 3.22 3.22 3.22 3.22 3.228 3.248 3.28 3.33 3.382 3.415 3.465 3.555 3.595 3.57 3.535 3.49 3.455 3.425 3.38 3.347 3.31 3.38 3.983 4.83 5.15 4.847 3.595 2.593 2.74 2.972 3.067 3.137 3.165 3.155 3.145 3.138 3.133 3.13 3.128 3.13 3.135 3.135 3.135 3.135 3.135 3.14 3.155 3.175 3.195 3.218 3.243 3.267 3.277 3.27 3.265 3.265 3.268 3.273 3.28 3.29 3.295 3.29 3.283 3.277 3.265 3.25 3.235 3.215 3.192 3.168 3.15 3.153 3.155 3.14 3.118 3.1 3.1 3.102 3.095 3.085 3.085 3.095
5.24 5.31 5.327 5.31 5.293 5.3 5.363 5.475 5.603 5.728 5.85 5.957 6.035 6.098 6.155 6.205 6.255 6.302 6.335 6.355 6.367 6.375 6.377 6.367 6.352 6.335 6.315 6.293 6.265 6.238 6.215 6.198 6.183 6.185 6.205 6.222 6.24 6.185 6.107 6.09 6.1 6.11 6.035 5.892 5.755 5.665 5.632 5.59 5.523 5.42 5.348 5.36 5.378 5.38 5.358 5.318 5.27 5.215 5.165 5.12 5.073 5.095 5.103 5.063 5.073 5.095 5.115 5.145 5.215 5.307 5.377 5.227 4.935 4.798 4.787 4.652 4.438 4.42 4.61 4.815 4.897 4.737 4.423 4.228 4.15 4.095 4.015 3.91 3.803 3.698 3.67 3.722 3.75 3.74 3.725 3.718 3.725 3.742 3.757 3.772 3.69 3.588 3.605 3.622 3.542 3.413 3.345 3.307 3.248 3.213 3.195 3.188 3.2 3.212 3.213 3.215 3.22 3.22 3.22 3.22 3.22 3.22 3.235 3.278 3.335 3.395 3.442 3.47 3.495 3.552 3.582 3.555 3.527 3.495 3.455 3.405 3.362 3.325 3.275 3.643 4.517 5.085 5.089 4.272 2.943 2.593 2.892 2.99 3.07 3.14 3.165 3.158 3.15 3.143 3.138 3.133 3.125 3.123 3.125 3.125 3.125 3.125 3.13 3.145 3.165 3.185 3.208 3.232 3.255 3.28 3.29 3.282 3.277 3.273 3.273 3.28 3.29 3.3 3.305 3.3 3.29 3.285 3.275 3.258 3.242 3.225 3.205 3.18 3.15 3.133 3.123 3.105 3.085 3.07 3.06 3.05 3.038 3.025 3.025 3.035
5.275 5.342 5.362 5.345 5.34 5.365 5.44 5.555 5.673 5.788 5.898 5.985 6.053 6.12 6.18 6.23 6.278 6.317 6.337 6.345 6.35 6.35 6.35 6.345 6.332 6.32 6.315 6.302 6.273 6.243 6.223 6.202 6.17 6.16 6.18 6.2 6.22 6.25 6.275 6.28 6.28 6.25 6.15 6.01 5.872 5.762 5.685 5.618 5.555 5.5 5.52 5.59 5.577 5.485 5.405 5.363 5.323 5.258 5.255 5.34 5.335 5.34 5.287 5.178 5.188 5.215 5.223 5.225 5.26 5.31 5.36 5.41 5.44 5.4 5.335 5.165 4.95 4.937 5.09 5.052 4.76 4.493 4.3 4.195 4.145 4.09 4.025 3.943 3.85 3.763 3.745 3.782 3.785 3.765 3.748 3.73 3.723 3.73 3.745 3.762 3.76 3.7 3.672 3.645 3.53 3.408 3.335 3.298 3.265 3.247 3.23 3.225 3.237 3.24 3.223 3.215 3.22 3.22 3.22 3.22 3.22 3.22 3.25 3.32 3.395 3.462 3.507 3.527 3.543 3.57 3.57 3.535 3.507 3.48 3.435 3.38 3.335 3.268 3.415 4.185 4.962 5.132 4.732 3.403 2.601 2.817 2.918 3.01 3.1 3.157 3.17 3.163 3.155 3.148 3.145 3.14 3.133 3.125 3.12 3.12 3.12 3.12 3.13 3.15 3.173 3.2 3.223 3.243 3.265 3.287 3.297 3.292 3.287 3.283 3.285 3.295 3.305 3.315 3.32 3.315 3.308 3.302 3.287 3.265 3.25 3.235 3.212 3.187 3.16 3.133 3.11 3.093 3.075 3.058 3.043 3.028 3.013 2.998 2.995 3.005
5.32 5.378 5.403 5.403 5.435 5.49 5.573 5.68 5.788 5.893 5.98 6.038 6.088 6.15 6.212 6.262 6.307 6.337 6.335 6.32 6.31 6.305 6.305 6.3 6.29 6.29 6.305 6.312 6.292 6.265 6.247 6.212 6.155 6.128 6.14 6.16 6.193 6.245 6.277 6.28 6.28 6.257 6.165 6.028 5.91 5.83 5.767 5.703 5.645 5.6 5.623 5.667 5.655 5.587 5.51 5.473 5.452 5.395 5.465 5.657 5.705 5.62 5.452 5.333 5.32 5.335 5.345 5.33 5.335 5.375 5.425 5.465 5.457 5.38 5.27 5.18 5.127 5.105 5.002 4.79 4.565 4.388 4.275 4.2 4.145 4.093 4.045 3.995 3.92 3.838 3.82 3.835 3.818 3.795 3.775 3.755 3.738 3.728 3.735 3.75 3.765 3.755 3.725 3.65 3.523 3.405 3.338 3.318 3.3 3.283 3.265 3.263 3.27 3.257 3.23 3.215 3.217 3.22 3.22 3.22 3.22 3.225 3.268 3.345 3.425 3.507 3.557 3.572 3.587 3.6 3.572 3.518 3.48 3.45 3.405 3.352 3.283 3.28 3.82 4.725 5.14 5.017 4.025 2.756 2.583 2.865 2.968 3.072 3.147 3.175 3.175 3.168 3.163 3.16 3.157 3.15 3.14 3.127 3.12 3.12 3.122 3.125 3.133 3.153 3.183 3.22 3.242 3.255 3.275 3.295 3.302 3.298 3.295 3.298 3.305 3.317 3.33 3.34 3.342 3.338 3.332 3.325 3.305 3.28 3.263 3.245 3.22 3.193 3.165 3.138 3.115 3.098 3.08 3.063 3.047 3.033 3.017 3 2.995 3.005
5.423 5.443 5.47 5.508 5.565 5.625 5.705 5.81 5.92 6.025 6.092 6.122 6.15 6.19 6.245 6.297 6.342 6.36 6.342 6.318 6.295 6.278 6.265 6.258 6.26 6.275 6.293 6.307 6.312 6.297 6.265 6.212 6.148 6.103 6.103 6.135 6.188 6.25 6.28 6.28 6.28 6.262 6.175 6.058 5.978 5.915 5.853 5.793 5.745 5.705 5.713 5.735 5.722 5.677 5.618 5.588 5.575 5.545 5.625 5.747 5.777 5.712 5.575 5.5 5.473 5.465 5.467 5.45 5.43 5.445 5.487 5.497 5.452 5.367 5.26 5.15 5.043 4.968 4.845 4.675 4.535 4.395 4.288 4.215 4.15 4.095 4.053 4.02 3.972 3.91 3.885 3.88 3.858 3.833 3.81 3.788 3.765 3.745 3.735 3.74 3.755 3.775 3.75 3.652 3.53 3.41 3.348 3.342 3.332 3.317 3.3 3.295 3.29 3.267 3.24 3.218 3.213 3.215 3.218 3.223 3.228 3.238 3.278 3.348 3.43 3.527 3.59 3.607 3.622 3.632 3.595 3.523 3.465 3.422 3.375 3.302 3.218 3.513 4.372 5.017 5.097 4.572 3.275 2.618 2.827 2.94 3.055 3.135 3.165 3.175 3.178 3.175 3.175 3.175 3.17 3.157 3.14 3.123 3.118 3.12 3.125 3.13 3.138 3.165 3.205 3.245 3.27 3.278 3.288 3.302 3.308 3.308 3.31 3.315 3.325 3.337 3.352 3.365 3.367 3.362 3.355 3.345 3.325 3.298 3.275 3.255 3.23 3.2 3.17 3.143 3.122 3.105 3.085 3.068 3.053 3.037 3.017 2.995 2.99 2.997
5.512 5.52 5.565 5.625 5.682 5.74 5.82 5.925 6.035 6.115 6.145 6.167 6.2 6.232 6.275 6.327 6.372 6.377 6.352 6.327 6.302 6.275 6.248 6.245 6.263 6.278 6.29 6.303 6.32 6.317 6.275 6.213 6.148 6.088 6.083 6.135 6.195 6.25 6.277 6.28 6.28 6.267 6.205 6.123 6.06 5.997 5.938 5.89 5.85 5.81 5.793 5.79 5.777 5.755 5.725 5.705 5.695 5.682 5.715 5.757 5.763 5.742 5.695 5.655 5.627 5.605 5.59 5.572 5.547 5.535 5.535 5.507 5.442 5.352 5.248 5.143 5.045 4.958 4.84 4.69 4.545 4.405 4.3 4.23 4.16 4.1 4.058 4.022 3.985 3.945 3.927 3.92 3.9 3.877 3.853 3.828 3.803 3.78 3.758 3.74 3.75 3.782 3.76 3.66 3.543 3.423 3.355 3.35 3.35 3.347 3.337 3.322 3.3 3.272 3.245 3.22 3.21 3.213 3.223 3.235 3.245 3.258 3.28 3.34 3.435 3.535 3.6 3.627 3.652 3.665 3.623 3.537 3.455 3.382 3.317 3.225 3.308 4.023 4.855 5.105 4.889 3.698 2.671 2.765 2.947 3.045 3.122 3.155 3.167 3.18 3.185 3.185 3.185 3.185 3.177 3.16 3.14 3.12 3.115 3.12 3.125 3.13 3.145 3.185 3.23 3.27 3.295 3.3 3.305 3.312 3.318 3.322 3.327 3.333 3.342 3.355 3.37 3.385 3.39 3.385 3.375 3.365 3.345 3.318 3.293 3.268 3.24 3.21 3.18 3.15 3.127 3.11 3.09 3.072 3.057 3.037 3.013 2.99 2.983 2.988
5.56 5.6 5.665 5.73 5.787 5.843 5.92 6.025 6.12 6.15 6.13 6.143 6.185 6.227 6.267 6.302 6.345 6.367 6.35 6.322 6.295 6.265 6.24 6.255 6.29 6.305 6.315 6.325 6.338 6.337 6.305 6.245 6.18 6.115 6.11 6.17 6.222 6.245 6.247 6.252 6.255 6.262 6.245 6.185 6.12 6.068 6.025 5.985 5.945 5.902 5.863 5.838 5.825 5.812 5.8 5.79 5.78 5.77 5.762 5.765 5.77 5.775 5.76 5.725 5.697 5.672 5.647 5.627 5.61 5.582 5.545 5.5 5.435 5.343 5.245 5.155 5.073 4.992 4.872 4.718 4.565 4.42 4.318 4.253 4.188 4.125 4.06 3.998 3.955 3.93 3.925 3.93 3.93 3.92 3.897 3.872 3.847 3.823 3.797 3.765 3.75 3.777 3.775 3.692 3.578 3.463 3.393 3.378 3.378 3.378 3.365 3.337 3.305 3.275 3.245 3.22 3.217 3.232 3.248 3.26 3.273 3.288 3.303 3.348 3.435 3.527 3.585 3.617 3.647 3.67 3.687 3.535 3.33 3.255 3.208 3.203 3.67 4.577 5.05 5.037 4.337 3.018 2.648 2.985 3.08 3.132 3.14 3.14 3.155 3.17 3.18 3.185 3.185 3.185 3.177 3.16 3.14 3.12 3.115 3.122 3.128 3.133 3.155 3.2 3.245 3.282 3.305 3.312 3.317 3.322 3.33 3.335 3.34 3.347 3.355 3.367 3.382 3.395 3.402 3.4 3.39 3.38 3.362 3.337 3.31 3.282 3.253 3.22 3.19 3.152 3.118 3.095 3.075 3.06 3.05 3.032 3.01 2.99 2.988 3
5.638 5.7 5.763 5.827 5.89 5.948 6.023 6.122 6.177 6.16 6.123 6.113 6.14 6.182 6.217 6.235 6.265 6.302 6.31 6.3 6.28 6.25 6.238 6.268 6.315 6.342 6.355 6.365 6.372 6.37 6.345 6.297 6.24 6.175 6.17 6.222 6.24 6.212 6.193 6.2 6.218 6.255 6.27 6.225 6.165 6.14 6.117 6.073 6.03 5.987 5.938 5.89 5.863 5.848 5.84 5.835 5.825 5.815 5.8 5.79 5.79 5.795 5.775 5.73 5.695 5.668 5.643 5.622 5.602 5.57 5.527 5.482 5.43 5.355 5.27 5.19 5.11 5.027 4.905 4.75 4.603 4.47 4.378 4.31 4.243 4.175 4.085 3.983 3.92 3.9 3.89 3.895 3.917 3.932 3.932 3.917 3.892 3.868 3.842 3.8 3.75 3.753 3.77 3.732 3.642 3.528 3.458 3.438 3.428 3.422 3.397 3.345 3.298 3.267 3.24 3.215 3.205 3.232 3.275 3.295 3.31 3.325 3.338 3.36 3.423 3.507 3.56 3.587 3.605 3.625 3.717 3.685 3.315 3.056 3.076 3.375 4.222 4.922 5.027 4.732 3.505 2.701 2.967 3.122 3.175 3.17 3.14 3.12 3.123 3.138 3.155 3.17 3.175 3.175 3.172 3.16 3.14 3.123 3.118 3.125 3.132 3.138 3.163 3.207 3.247 3.282 3.305 3.317 3.325 3.33 3.337 3.343 3.35 3.36 3.367 3.375 3.388 3.4 3.407 3.407 3.402 3.395 3.377 3.352 3.325 3.297 3.267 3.232 3.195 3.145 3.098 3.068 3.045 3.03 3.025 3.02 3.005 2.985 2.995 3.025
5.733 5.797 5.86 5.925 5.99 6.05 6.125 6.195 6.2 6.163 6.128 6.098 6.1 6.135 6.162 6.175 6.19 6.213 6.23 6.242 6.245 6.23 6.238 6.28 6.332 6.372 6.392 6.402 6.405 6.402 6.377 6.335 6.29 6.235 6.225 6.24 6.207 6.158 6.143 6.165 6.205 6.255 6.29 6.265 6.223 6.225 6.21 6.16 6.113 6.07 6.02 5.96 5.91 5.885 5.878 5.873 5.865 5.855 5.842 5.828 5.815 5.815 5.795 5.745 5.7 5.665 5.638 5.612 5.582 5.545 5.503 5.463 5.43 5.38 5.307 5.227 5.145 5.06 4.937 4.793 4.665 4.558 4.475 4.397 4.31 4.217 4.11 3.995 3.915 3.878 3.858 3.853 3.87 3.9 3.925 3.935 3.93 3.912 3.882 3.83 3.76 3.735 3.74 3.725 3.685 3.595 3.525 3.505 3.485 3.475 3.44 3.365 3.295 3.253 3.228 3.205 3.18 3.188 3.247 3.312 3.35 3.365 3.375 3.385 3.423 3.485 3.525 3.542 3.55 3.558 3.658 3.822 3.745 3.685 3.72 4.028 4.71 4.997 4.949 4.072 2.853 2.768 3.122 3.215 3.21 3.18 3.15 3.12 3.1 3.105 3.125 3.145 3.16 3.167 3.167 3.157 3.142 3.128 3.123 3.128 3.135 3.143 3.168 3.21 3.245 3.277 3.302 3.317 3.33 3.337 3.343 3.35 3.36 3.37 3.38 3.385 3.393 3.407 3.415 3.415 3.415 3.41 3.392 3.367 3.34 3.312 3.282 3.24 3.19 3.135 3.085 3.048 3.018 3 2.995 2.995 2.99 2.978 2.995 3.04
5.83 5.895 5.96 6.025 6.09 6.15 6.21 6.23 6.203 6.168 6.13 6.09 6.07 6.088 6.108 6.118 6.133 6.153 6.17 6.185 6.203 6.22 6.258 6.308 6.358 6.403 6.428 6.435 6.435 6.435 6.412 6.37 6.327 6.282 6.252 6.22 6.165 6.118 6.118 6.158 6.205 6.255 6.3 6.308 6.303 6.317 6.3 6.25 6.197 6.147 6.095 6.035 5.975 5.933 5.918 5.913 5.908 5.9 5.887 5.87 5.85 5.84 5.815 5.765 5.715 5.673 5.638 5.603 5.565 5.528 5.49 5.455 5.43 5.397 5.34 5.262 5.18 5.095 4.985 4.862 4.747 4.64 4.545 4.45 4.342 4.227 4.108 4 3.928 3.875 3.838 3.818 3.82 3.845 3.875 3.902 3.925 3.935 3.915 3.86 3.785 3.73 3.71 3.695 3.68 3.64 3.592 3.567 3.537 3.512 3.472 3.397 3.315 3.25 3.215 3.195 3.17 3.15 3.178 3.26 3.34 3.39 3.415 3.422 3.437 3.462 3.48 3.488 3.49 3.495 3.58 3.752 3.977 4.407 4.707 4.82 4.962 4.957 4.542 3.343 2.741 3.057 3.207 3.245 3.215 3.185 3.155 3.127 3.1 3.083 3.093 3.115 3.135 3.155 3.16 3.15 3.14 3.128 3.125 3.133 3.138 3.148 3.173 3.208 3.243 3.275 3.297 3.313 3.327 3.34 3.35 3.36 3.37 3.38 3.39 3.395 3.4 3.412 3.42 3.42 3.42 3.417 3.405 3.38 3.35 3.322 3.287 3.235 3.18 3.125 3.075 3.035 2.998 2.973 2.965 2.965 2.967 2.968 2.993 3.048
5.905 5.97 6.035 6.1 6.165 6.225 6.262 6.25 6.213 6.175 6.138 6.1 6.063 6.055 6.073 6.09 6.113 6.138 6.158 6.173 6.195 6.243 6.307 6.363 6.408 6.453 6.48 6.485 6.482 6.47 6.44 6.4 6.357 6.315 6.27 6.218 6.165 6.128 6.148 6.203 6.248 6.293 6.338 6.362 6.375 6.39 6.367 6.315 6.262 6.207 6.15 6.09 6.033 5.988 5.968 5.963 5.958 5.95 5.928 5.9 5.88 5.865 5.835 5.785 5.735 5.688 5.648 5.613 5.575 5.538 5.498 5.458 5.43 5.405 5.362 5.297 5.22 5.135 5.035 4.922 4.805 4.685 4.565 4.45 4.338 4.225 4.105 4.005 3.943 3.885 3.833 3.795 3.778 3.79 3.82 3.85 3.88 3.907 3.895 3.835 3.765 3.715 3.695 3.68 3.665 3.647 3.612 3.572 3.537 3.502 3.475 3.432 3.36 3.288 3.243 3.21 3.17 3.138 3.128 3.17 3.26 3.365 3.425 3.43 3.437 3.443 3.44 3.443 3.445 3.448 3.48 3.548 3.643 3.96 4.692 5.115 5.012 4.877 4.055 3.008 2.818 3.06 3.217 3.237 3.21 3.18 3.152 3.127 3.1 3.07 3.068 3.093 3.115 3.135 3.14 3.13 3.123 3.125 3.135 3.143 3.148 3.158 3.183 3.215 3.248 3.277 3.295 3.31 3.325 3.34 3.355 3.365 3.375 3.382 3.387 3.392 3.4 3.415 3.422 3.418 3.415 3.415 3.405 3.38 3.35 3.32 3.28 3.225 3.168 3.113 3.065 3.025 2.985 2.953 2.94 2.94 2.943 2.97 3.028 3.09
5.947 6.02 6.085 6.148 6.212 6.262 6.28 6.267 6.235 6.195 6.157 6.117 6.07 6.053 6.07 6.09 6.115 6.14 6.16 6.178 6.215 6.288 6.365 6.427 6.475 6.52 6.55 6.552 6.537 6.502 6.46 6.42 6.382 6.345 6.297 6.248 6.205 6.175 6.205 6.277 6.33 6.372 6.412 6.425 6.425 6.435 6.412 6.36 6.307 6.252 6.193 6.133 6.085 6.048 6.025 6.02 6.015 6.005 5.975 5.933 5.903 5.882 5.852 5.805 5.755 5.703 5.663 5.637 5.605 5.565 5.518 5.468 5.433 5.405 5.37 5.32 5.252 5.172 5.075 4.957 4.832 4.705 4.575 4.45 4.335 4.222 4.105 4.018 3.96 3.9 3.843 3.79 3.753 3.748 3.768 3.795 3.825 3.845 3.82 3.76 3.715 3.7 3.695 3.68 3.66 3.635 3.59 3.535 3.493 3.458 3.442 3.435 3.4 3.35 3.31 3.275 3.228 3.18 3.14 3.125 3.188 3.322 3.402 3.41 3.425 3.432 3.42 3.41 3.413 3.412 3.4 3.375 3.37 3.718 4.57 5.037 4.952 4.61 3.88 3.17 2.853 3.008 3.212 3.222 3.2 3.173 3.147 3.12 3.087 3.055 3.053 3.077 3.097 3.11 3.112 3.105 3.108 3.13 3.15 3.158 3.165 3.175 3.198 3.23 3.257 3.277 3.292 3.307 3.323 3.34 3.355 3.365 3.372 3.372 3.373 3.38 3.395 3.417 3.425 3.415 3.41 3.41 3.397 3.37 3.338 3.307 3.267 3.212 3.155 3.1 3.055 3.015 2.975 2.938 2.918 2.918 2.94 3.01 3.1 3.17
5.962 6.052 6.13 6.195 6.25 6.277 6.28 6.277 6.257 6.22 6.177 6.13 6.083 6.068 6.083 6.098 6.118 6.14 6.16 6.193 6.258 6.342 6.422 6.49 6.542 6.59 6.62 6.612 6.577 6.528 6.48 6.44 6.405 6.367 6.325 6.29 6.257 6.228 6.255 6.332 6.4 6.455 6.485 6.487 6.482 6.482 6.457 6.405 6.35 6.295 6.238 6.185 6.148 6.11 6.085 6.078 6.07 6.06 6.03 5.983 5.94 5.905 5.867 5.82 5.77 5.718 5.678 5.655 5.63 5.595 5.545 5.49 5.443 5.408 5.372 5.327 5.275 5.207 5.112 4.99 4.86 4.73 4.598 4.465 4.34 4.22 4.11 4.033 3.975 3.917 3.86 3.8 3.748 3.715 3.715 3.74 3.767 3.777 3.75 3.713 3.7 3.7 3.695 3.677 3.65 3.617 3.572 3.515 3.46 3.415 3.395 3.4 3.402 3.39 3.372 3.355 3.325 3.28 3.228 3.185 3.195 3.3 3.38 3.393 3.415 3.43 3.42 3.395 3.383 3.375 3.36 3.343 3.47 4.172 4.852 4.947 4.797 3.923 3.113 2.94 2.85 3.035 3.207 3.205 3.187 3.165 3.14 3.108 3.073 3.04 3.038 3.057 3.073 3.085 3.088 3.093 3.115 3.145 3.165 3.175 3.185 3.195 3.215 3.24 3.26 3.275 3.288 3.303 3.32 3.34 3.355 3.362 3.362 3.358 3.36 3.375 3.4 3.425 3.43 3.42 3.413 3.407 3.39 3.36 3.325 3.292 3.252 3.198 3.143 3.09 3.045 3.005 2.965 2.923 2.895 2.91 2.978 3.075 3.17 3.248
5.965 6.062 6.155 6.232 6.272 6.28 6.28 6.28 6.27 6.237 6.19 6.138 6.095 6.085 6.1 6.115 6.13 6.148 6.173 6.23 6.313 6.395 6.475 6.547 6.605 6.655 6.68 6.655 6.605 6.55 6.495 6.445 6.397 6.347 6.312 6.297 6.28 6.265 6.3 6.377 6.452 6.517 6.545 6.542 6.535 6.525 6.492 6.44 6.387 6.335 6.287 6.247 6.21 6.17 6.145 6.135 6.125 6.115 6.085 6.035 5.985 5.935 5.88 5.825 5.777 5.73 5.693 5.67 5.65 5.62 5.572 5.517 5.463 5.418 5.375 5.33 5.285 5.227 5.135 5.012 4.885 4.755 4.622 4.487 4.352 4.22 4.112 4.045 3.99 3.932 3.875 3.817 3.76 3.705 3.678 3.69 3.707 3.71 3.7 3.69 3.692 3.695 3.687 3.665 3.635 3.602 3.557 3.502 3.445 3.39 3.368 3.378 3.39 3.395 3.395 3.387 3.375 3.357 3.33 3.307 3.29 3.318 3.363 3.383 3.405 3.427 3.427 3.4 3.373 3.35 3.335 3.328 3.815 4.64 4.96 4.935 4.36 3.3 2.793 2.863 2.968 3.097 3.197 3.185 3.173 3.158 3.135 3.1 3.065 3.033 3.023 3.035 3.05 3.065 3.073 3.095 3.13 3.16 3.18 3.19 3.2 3.21 3.227 3.245 3.26 3.275 3.288 3.305 3.323 3.34 3.352 3.355 3.35 3.345 3.355 3.38 3.407 3.432 3.44 3.427 3.415 3.405 3.382 3.35 3.315 3.28 3.24 3.185 3.13 3.08 3.032 2.99 2.95 2.908 2.89 2.94 3.037 3.14 3.24 3.342
5.978 6.073 6.167 6.247 6.28 6.28 6.28 6.28 6.275 6.247 6.197 6.143 6.105 6.103 6.117 6.13 6.142 6.153 6.188 6.285 6.39 6.46 6.53 6.605 6.642 6.615 6.63 6.65 6.597 6.54 6.475 6.41 6.347 6.285 6.253 6.25 6.25 6.268 6.328 6.407 6.482 6.55 6.58 6.575 6.562 6.542 6.505 6.455 6.405 6.365 6.327 6.285 6.245 6.205 6.18 6.172 6.165 6.157 6.125 6.067 6.012 5.955 5.89 5.825 5.775 5.73 5.695 5.675 5.66 5.64 5.6 5.545 5.49 5.435 5.365 5.3 5.25 5.195 5.105 4.982 4.857 4.722 4.592 4.467 4.332 4.195 4.078 4.005 3.955 3.902 3.85 3.802 3.752 3.7 3.658 3.643 3.645 3.65 3.657 3.66 3.665 3.67 3.657 3.63 3.6 3.57 3.532 3.49 3.445 3.393 3.365 3.37 3.38 3.385 3.385 3.382 3.377 3.375 3.37 3.36 3.35 3.36 3.38 3.395 3.418 3.442 3.445 3.42 3.375 3.338 3.328 3.53 4.292 4.907 4.95 4.707 3.675 3.023 3.177 3.18 3.15 3.157 3.192 3.188 3.18 3.17 3.15 3.115 3.075 3.033 3.015 3.025 3.04 3.06 3.078 3.1 3.132 3.165 3.182 3.19 3.2 3.21 3.227 3.248 3.265 3.28 3.295 3.315 3.33 3.345 3.355 3.353 3.348 3.345 3.36 3.387 3.412 3.432 3.437 3.425 3.41 3.4 3.372 3.333 3.297 3.262 3.22 3.165 3.11 3.057 3.007 2.965 2.925 2.898 2.91 2.985 3.09 3.193 3.297 3.395
6.005 6.088 6.182 6.255 6.28 6.28 6.28 6.28 6.27 6.245 6.202 6.148 6.11 6.108 6.12 6.13 6.137 6.14 6.183 6.31 6.457 6.565 6.64 6.655 6.545 6.388 6.418 6.547 6.557 6.5 6.43 6.353 6.283 6.22 6.19 6.193 6.215 6.268 6.343 6.422 6.5 6.57 6.6 6.592 6.572 6.545 6.505 6.455 6.415 6.392 6.355 6.3 6.255 6.215 6.19 6.185 6.185 6.182 6.145 6.083 6.025 5.965 5.9 5.83 5.768 5.718 5.685 5.67 5.665 5.662 5.632 5.575 5.52 5.46 5.363 5.253 5.18 5.125 5.035 4.91 4.772 4.618 4.49 4.392 4.275 4.143 4.02 3.923 3.86 3.82 3.785 3.758 3.73 3.7 3.67 3.628 3.598 3.6 3.61 3.617 3.625 3.63 3.615 3.585 3.555 3.523 3.49 3.46 3.43 3.392 3.363 3.36 3.37 3.375 3.375 3.375 3.372 3.368 3.363 3.355 3.363 3.41 3.44 3.435 3.45 3.475 3.472 3.435 3.368 3.325 3.388 4 4.76 4.962 4.925 4.157 3.138 3.003 3.152 3.158 3.165 3.182 3.2 3.207 3.207 3.2 3.177 3.14 3.092 3.038 3.015 3.028 3.048 3.075 3.095 3.105 3.128 3.16 3.177 3.185 3.195 3.205 3.225 3.252 3.275 3.29 3.305 3.325 3.342 3.36 3.367 3.36 3.355 3.355 3.368 3.392 3.412 3.422 3.422 3.412 3.4 3.39 3.36 3.313 3.273 3.235 3.19 3.135 3.08 3.025 2.975 2.935 2.913 2.92 2.95 3.025 3.13 3.25 3.345 3.383
6.065 6.113 6.197 6.262 6.28 6.28 6.277 6.272 6.257 6.232 6.2 6.153 6.115 6.105 6.11 6.12 6.125 6.125 6.173 6.303 6.47 6.632 6.76 6.767 6.605 6.428 6.378 6.405 6.458 6.46 6.387 6.3 6.22 6.16 6.135 6.155 6.21 6.28 6.355 6.435 6.515 6.587 6.615 6.597 6.572 6.545 6.505 6.463 6.44 6.425 6.387 6.33 6.275 6.23 6.205 6.203 6.21 6.21 6.17 6.103 6.038 5.975 5.91 5.84 5.773 5.713 5.68 5.675 5.678 5.685 5.662 5.605 5.547 5.485 5.382 5.248 5.133 5.055 4.962 4.825 4.665 4.495 4.37 4.29 4.2 4.09 3.975 3.868 3.8 3.785 3.783 3.773 3.76 3.747 3.717 3.65 3.575 3.55 3.56 3.57 3.58 3.587 3.575 3.543 3.51 3.475 3.44 3.412 3.385 3.355 3.34 3.347 3.357 3.362 3.365 3.365 3.365 3.362 3.358 3.365 3.41 3.48 3.512 3.5 3.493 3.505 3.492 3.425 3.35 3.318 3.658 4.477 4.962 4.957 4.604 3.543 2.975 3.13 3.13 3.14 3.163 3.187 3.205 3.215 3.225 3.227 3.202 3.155 3.1 3.04 3.02 3.04 3.065 3.095 3.115 3.12 3.13 3.155 3.172 3.18 3.19 3.2 3.22 3.25 3.277 3.297 3.315 3.335 3.355 3.375 3.382 3.375 3.368 3.365 3.375 3.392 3.402 3.41 3.41 3.4 3.39 3.38 3.35 3.3 3.253 3.21 3.162 3.105 3.048 2.993 2.948 2.928 2.94 2.97 3 3.065 3.188 3.315 3.37 3.375
6.147 6.165 6.22 6.27 6.28 6.277 6.272 6.262 6.242 6.217 6.19 6.155 6.125 6.108 6.103 6.108 6.11 6.11 6.163 6.287 6.432 6.58 6.727 6.792 6.747 6.66 6.555 6.453 6.43 6.42 6.342 6.255 6.168 6.103 6.098 6.15 6.22 6.285 6.352 6.425 6.497 6.57 6.595 6.575 6.557 6.54 6.512 6.487 6.475 6.46 6.422 6.365 6.305 6.253 6.225 6.225 6.235 6.235 6.195 6.125 6.055 5.988 5.923 5.858 5.795 5.725 5.683 5.683 5.69 5.7 5.685 5.632 5.567 5.505 5.407 5.27 5.133 5.01 4.878 4.713 4.54 4.37 4.248 4.183 4.13 4.05 3.94 3.84 3.785 3.78 3.792 3.8 3.805 3.807 3.765 3.68 3.585 3.52 3.51 3.52 3.533 3.545 3.535 3.5 3.463 3.427 3.39 3.355 3.32 3.298 3.303 3.32 3.335 3.347 3.355 3.355 3.355 3.355 3.365 3.408 3.477 3.55 3.587 3.58 3.557 3.537 3.49 3.395 3.328 3.45 4.132 4.82 4.962 4.854 3.86 2.973 3.04 3.112 3.12 3.138 3.165 3.19 3.207 3.217 3.227 3.235 3.212 3.16 3.1 3.043 3.03 3.057 3.085 3.115 3.135 3.14 3.145 3.158 3.168 3.175 3.185 3.195 3.215 3.245 3.275 3.302 3.325 3.345 3.367 3.39 3.397 3.39 3.38 3.373 3.378 3.385 3.39 3.397 3.395 3.385 3.378 3.37 3.34 3.29 3.24 3.19 3.135 3.075 3.015 2.965 2.945 2.96 2.99 3.023 3.055 3.13 3.267 3.36 3.375 3.38
6.202 6.222 6.252 6.277 6.277 6.273 6.267 6.252 6.228 6.203 6.178 6.155 6.135 6.115 6.105 6.105 6.105 6.108 6.133 6.205 6.317 6.445 6.575 6.642 6.65 6.632 6.572 6.497 6.42 6.352 6.292 6.215 6.125 6.07 6.095 6.165 6.23 6.275 6.313 6.365 6.43 6.497 6.522 6.51 6.5 6.502 6.505 6.495 6.487 6.48 6.452 6.4 6.34 6.285 6.253 6.25 6.26 6.26 6.22 6.15 6.08 6.015 5.955 5.893 5.825 5.743 5.688 5.685 5.695 5.702 5.685 5.63 5.56 5.507 5.427 5.295 5.157 5.007 4.828 4.633 4.44 4.258 4.153 4.128 4.097 4.02 3.913 3.825 3.78 3.763 3.755 3.765 3.79 3.807 3.765 3.675 3.582 3.505 3.478 3.485 3.5 3.515 3.505 3.47 3.427 3.38 3.33 3.283 3.25 3.25 3.267 3.285 3.302 3.32 3.348 3.368 3.373 3.378 3.393 3.445 3.52 3.59 3.625 3.615 3.587 3.54 3.46 3.363 3.31 3.78 4.597 4.95 4.957 4.42 3.283 2.885 3.097 3.123 3.15 3.17 3.193 3.203 3.2 3.202 3.207 3.212 3.2 3.157 3.1 3.045 3.035 3.065 3.095 3.12 3.145 3.162 3.17 3.175 3.18 3.19 3.198 3.2 3.215 3.245 3.275 3.3 3.32 3.34 3.365 3.392 3.402 3.397 3.39 3.38 3.378 3.383 3.388 3.39 3.385 3.375 3.37 3.362 3.33 3.282 3.23 3.165 3.1 3.04 2.985 2.953 2.975 3.035 3.082 3.118 3.15 3.238 3.342 3.38 3.388 3.392
6.222 6.25 6.272 6.277 6.273 6.27 6.262 6.24 6.215 6.193 6.17 6.153 6.137 6.12 6.11 6.115 6.128 6.132 6.115 6.118 6.178 6.283 6.41 6.477 6.502 6.507 6.45 6.373 6.308 6.265 6.227 6.17 6.103 6.073 6.11 6.175 6.222 6.247 6.263 6.288 6.34 6.405 6.43 6.42 6.423 6.453 6.475 6.47 6.465 6.465 6.46 6.432 6.38 6.325 6.29 6.28 6.285 6.287 6.25 6.183 6.118 6.058 6 5.935 5.852 5.755 5.693 5.685 5.695 5.692 5.66 5.6 5.538 5.5 5.44 5.32 5.175 5.015 4.825 4.615 4.41 4.223 4.128 4.12 4.082 3.99 3.885 3.81 3.775 3.755 3.735 3.725 3.74 3.762 3.725 3.635 3.553 3.493 3.47 3.473 3.483 3.495 3.485 3.445 3.387 3.32 3.26 3.22 3.205 3.213 3.23 3.247 3.262 3.28 3.347 3.41 3.425 3.44 3.445 3.468 3.525 3.595 3.622 3.602 3.562 3.502 3.418 3.335 3.505 4.247 4.867 4.952 4.759 3.72 2.976 3.085 3.123 3.173 3.21 3.23 3.24 3.227 3.198 3.175 3.173 3.177 3.17 3.142 3.097 3.048 3.04 3.067 3.092 3.11 3.138 3.175 3.197 3.205 3.21 3.217 3.217 3.21 3.22 3.25 3.272 3.285 3.3 3.323 3.348 3.375 3.392 3.397 3.395 3.385 3.383 3.387 3.39 3.39 3.385 3.375 3.367 3.357 3.325 3.275 3.212 3.135 3.065 3.008 2.965 2.948 2.99 3.08 3.157 3.22 3.275 3.337 3.38 3.393 3.402 3.405
6.237 6.262 6.277 6.275 6.268 6.265 6.252 6.228 6.208 6.19 6.17 6.15 6.135 6.125 6.128 6.148 6.167 6.16 6.128 6.105 6.11 6.15 6.245 6.322 6.365 6.38 6.327 6.26 6.215 6.183 6.153 6.128 6.103 6.09 6.12 6.165 6.19 6.21 6.225 6.235 6.263 6.315 6.34 6.345 6.375 6.42 6.445 6.443 6.44 6.44 6.442 6.44 6.412 6.365 6.33 6.318 6.315 6.315 6.282 6.22 6.16 6.1 6.04 5.965 5.867 5.763 5.695 5.685 5.687 5.67 5.63 5.575 5.528 5.497 5.447 5.337 5.182 5.015 4.827 4.625 4.435 4.26 4.148 4.107 4.052 3.96 3.86 3.795 3.77 3.75 3.728 3.705 3.703 3.72 3.685 3.605 3.54 3.488 3.465 3.468 3.473 3.477 3.455 3.398 3.325 3.25 3.198 3.178 3.175 3.178 3.19 3.205 3.22 3.24 3.345 3.455 3.487 3.51 3.515 3.518 3.54 3.595 3.615 3.577 3.522 3.46 3.375 3.375 3.963 4.712 4.94 4.954 4.19 3.111 2.945 3.12 3.18 3.235 3.27 3.28 3.272 3.255 3.22 3.175 3.148 3.143 3.135 3.115 3.087 3.05 3.045 3.067 3.082 3.098 3.125 3.17 3.21 3.23 3.237 3.237 3.23 3.22 3.228 3.25 3.26 3.265 3.28 3.305 3.332 3.357 3.375 3.385 3.39 3.388 3.387 3.39 3.39 3.39 3.385 3.375 3.365 3.355 3.322 3.26 3.182 3.1 3.033 2.988 2.963 2.948 2.983 3.07 3.16 3.265 3.352 3.385 3.395 3.407 3.415 3.405
6.25 6.272 6.28 6.275 6.265 6.257 6.243 6.223 6.208 6.193 6.18 6.17 6.16 6.155 6.17 6.2 6.205 6.177 6.143 6.113 6.1 6.1 6.133 6.185 6.237 6.255 6.213 6.165 6.14 6.125 6.113 6.11 6.105 6.1 6.115 6.138 6.153 6.17 6.185 6.195 6.21 6.238 6.265 6.298 6.342 6.385 6.412 6.417 6.415 6.415 6.418 6.422 6.42 6.397 6.372 6.362 6.355 6.345 6.312 6.257 6.2 6.142 6.075 5.98 5.875 5.77 5.698 5.68 5.667 5.637 5.6 5.56 5.525 5.492 5.447 5.342 5.182 5.015 4.837 4.655 4.48 4.31 4.17 4.083 4.01 3.925 3.838 3.785 3.77 3.758 3.743 3.73 3.715 3.698 3.655 3.593 3.538 3.485 3.463 3.47 3.478 3.482 3.45 3.37 3.28 3.198 3.155 3.15 3.15 3.15 3.155 3.165 3.18 3.21 3.343 3.49 3.545 3.577 3.59 3.587 3.587 3.605 3.595 3.54 3.48 3.42 3.343 3.623 4.422 4.912 4.94 4.617 3.513 2.921 3.127 3.185 3.245 3.297 3.32 3.313 3.3 3.285 3.25 3.2 3.153 3.123 3.105 3.085 3.065 3.043 3.043 3.06 3.07 3.085 3.115 3.16 3.205 3.24 3.255 3.25 3.24 3.228 3.228 3.238 3.243 3.248 3.263 3.29 3.318 3.343 3.36 3.37 3.38 3.387 3.39 3.39 3.387 3.385 3.38 3.37 3.36 3.35 3.31 3.232 3.147 3.068 3.013 2.985 2.967 2.95 2.978 3.065 3.183 3.31 3.385 3.405 3.412 3.42 3.417 3.385
6.253 6.273 6.277 6.273 6.265 6.255 6.245 6.232 6.215 6.2 6.198 6.207 6.212 6.21 6.223 6.24 6.227 6.193 6.158 6.123 6.1 6.098 6.1 6.11 6.138 6.148 6.13 6.11 6.103 6.108 6.11 6.107 6.103 6.1 6.105 6.118 6.133 6.15 6.153 6.15 6.165 6.18 6.21 6.255 6.295 6.327 6.36 6.385 6.39 6.39 6.393 6.398 6.402 6.405 6.402 6.392 6.38 6.367 6.33 6.272 6.215 6.16 6.092 5.995 5.888 5.78 5.698 5.66 5.632 5.597 5.552 5.505 5.467 5.43 5.385 5.295 5.15 4.985 4.795 4.605 4.437 4.27 4.143 4.06 3.978 3.895 3.825 3.795 3.797 3.797 3.792 3.79 3.767 3.72 3.668 3.613 3.56 3.515 3.49 3.488 3.495 3.505 3.48 3.4 3.3 3.215 3.168 3.15 3.14 3.13 3.125 3.128 3.14 3.195 3.362 3.515 3.565 3.602 3.62 3.615 3.61 3.607 3.57 3.503 3.438 3.375 3.445 4.083 4.767 4.922 4.859 3.885 2.988 3.085 3.202 3.26 3.317 3.365 3.375 3.36 3.347 3.322 3.28 3.23 3.18 3.135 3.098 3.073 3.055 3.04 3.043 3.058 3.07 3.078 3.1 3.142 3.187 3.23 3.255 3.255 3.245 3.233 3.228 3.233 3.24 3.25 3.268 3.293 3.318 3.345 3.365 3.375 3.385 3.39 3.385 3.38 3.377 3.372 3.365 3.355 3.345 3.327 3.275 3.192 3.108 3.033 2.993 2.977 2.962 2.948 2.99 3.115 3.262 3.367 3.4 3.405 3.412 3.42 3.412 3.372
6.29 6.29 6.28 6.273 6.265 6.255 6.25 6.242 6.227 6.213 6.213 6.235 6.257 6.265 6.272 6.267 6.24 6.207 6.172 6.138 6.105 6.093 6.097 6.1 6.1 6.1 6.1 6.1 6.1 6.103 6.105 6.103 6.1 6.1 6.105 6.115 6.133 6.155 6.145 6.115 6.115 6.13 6.16 6.202 6.232 6.253 6.288 6.335 6.362 6.37 6.37 6.373 6.383 6.4 6.41 6.405 6.395 6.382 6.34 6.27 6.205 6.15 6.09 6.007 5.905 5.795 5.698 5.63 5.585 5.55 5.492 5.413 5.353 5.31 5.262 5.192 5.08 4.927 4.712 4.473 4.285 4.163 4.103 4.047 3.97 3.898 3.835 3.81 3.822 3.832 3.837 3.842 3.82 3.77 3.717 3.663 3.615 3.58 3.548 3.523 3.52 3.53 3.51 3.445 3.355 3.28 3.233 3.193 3.163 3.14 3.125 3.115 3.113 3.2 3.395 3.517 3.547 3.58 3.595 3.59 3.588 3.592 3.557 3.483 3.41 3.338 3.743 4.542 4.91 4.927 4.41 3.283 2.95 3.235 3.278 3.335 3.39 3.435 3.445 3.427 3.402 3.36 3.31 3.26 3.213 3.17 3.125 3.088 3.065 3.05 3.05 3.065 3.072 3.068 3.083 3.12 3.163 3.205 3.235 3.25 3.25 3.24 3.235 3.24 3.253 3.273 3.295 3.313 3.333 3.36 3.38 3.39 3.395 3.392 3.38 3.365 3.36 3.357 3.35 3.337 3.317 3.285 3.225 3.145 3.065 2.995 2.958 2.945 2.935 2.96 3.065 3.222 3.35 3.4 3.397 3.39 3.393 3.4 3.4 3.375
6.347 6.32 6.29 6.275 6.265 6.258 6.253 6.245 6.235 6.225 6.23 6.255 6.285 6.307 6.31 6.287 6.253 6.22 6.188 6.153 6.118 6.095 6.093 6.098 6.105 6.107 6.103 6.1 6.1 6.1 6.1 6.1 6.1 6.1 6.105 6.118 6.138 6.162 6.157 6.113 6.08 6.08 6.107 6.14 6.16 6.178 6.213 6.267 6.315 6.34 6.345 6.353 6.375 6.402 6.412 6.41 6.407 6.397 6.352 6.275 6.2 6.14 6.077 6.002 5.92 5.82 5.715 5.623 5.548 5.498 5.435 5.34 5.25 5.19 5.137 5.07 4.987 4.862 4.647 4.375 4.18 4.12 4.1 4.05 3.987 3.922 3.855 3.815 3.818 3.832 3.847 3.857 3.847 3.815 3.77 3.72 3.68 3.65 3.618 3.583 3.56 3.557 3.537 3.485 3.412 3.35 3.307 3.263 3.223 3.188 3.16 3.14 3.138 3.258 3.432 3.505 3.528 3.552 3.565 3.565 3.568 3.575 3.547 3.475 3.398 3.508 4.192 4.815 4.907 4.739 3.705 2.991 3.215 3.31 3.352 3.407 3.46 3.505 3.51 3.48 3.44 3.39 3.34 3.293 3.25 3.207 3.162 3.118 3.08 3.06 3.06 3.067 3.062 3.053 3.068 3.103 3.14 3.18 3.21 3.232 3.247 3.245 3.243 3.255 3.275 3.3 3.322 3.337 3.353 3.375 3.395 3.4 3.395 3.388 3.377 3.36 3.348 3.342 3.332 3.31 3.275 3.232 3.172 3.1 3.033 2.97 2.925 2.908 2.938 3.038 3.187 3.33 3.402 3.407 3.393 3.38 3.373 3.373 3.375 3.365
6.372 6.337 6.303 6.28 6.273 6.27 6.268 6.263 6.258 6.25 6.258 6.285 6.315 6.337 6.337 6.312 6.278 6.243 6.208 6.173 6.138 6.108 6.1 6.11 6.12 6.12 6.11 6.103 6.1 6.1 6.1 6.1 6.1 6.1 6.105 6.123 6.145 6.17 6.172 6.13 6.078 6.045 6.048 6.068 6.083 6.1 6.138 6.193 6.248 6.295 6.322 6.345 6.375 6.405 6.417 6.415 6.412 6.407 6.365 6.285 6.208 6.138 6.068 5.993 5.92 5.837 5.742 5.645 5.548 5.465 5.383 5.283 5.175 5.085 5.015 4.945 4.875 4.78 4.585 4.315 4.15 4.115 4.09 4.047 4 3.942 3.878 3.825 3.813 3.827 3.837 3.84 3.84 3.832 3.812 3.782 3.75 3.72 3.69 3.657 3.623 3.59 3.542 3.48 3.44 3.415 3.377 3.335 3.295 3.252 3.213 3.183 3.213 3.345 3.46 3.495 3.515 3.533 3.543 3.548 3.553 3.557 3.532 3.462 3.415 3.913 4.65 4.89 4.912 4.19 3.146 3.08 3.345 3.38 3.415 3.462 3.505 3.545 3.542 3.5 3.457 3.415 3.37 3.325 3.285 3.242 3.2 3.155 3.108 3.075 3.065 3.06 3.048 3.038 3.053 3.087 3.123 3.16 3.19 3.21 3.23 3.245 3.258 3.28 3.305 3.327 3.347 3.362 3.377 3.395 3.407 3.405 3.395 3.385 3.375 3.36 3.342 3.327 3.305 3.268 3.225 3.183 3.128 3.065 3.005 2.945 2.9 2.92 3.025 3.165 3.305 3.4 3.417 3.403 3.388 3.375 3.363 3.353 3.348 3.34
6.39 6.352 6.318 6.305 6.308 6.305 6.305 6.305 6.302 6.288 6.29 6.32 6.345 6.355 6.355 6.342 6.312 6.277 6.24 6.203 6.168 6.135 6.128 6.14 6.142 6.135 6.125 6.115 6.108 6.103 6.1 6.1 6.1 6.1 6.108 6.13 6.155 6.177 6.185 6.152 6.097 6.04 6.013 6.02 6.028 6.035 6.07 6.13 6.19 6.253 6.3 6.33 6.36 6.4 6.422 6.42 6.418 6.415 6.375 6.295 6.217 6.143 6.07 5.998 5.925 5.85 5.762 5.665 5.565 5.46 5.348 5.235 5.125 5.02 4.935 4.865 4.795 4.71 4.542 4.288 4.133 4.102 4.07 4.03 3.992 3.947 3.892 3.835 3.81 3.817 3.82 3.823 3.825 3.82 3.807 3.795 3.787 3.78 3.757 3.722 3.687 3.625 3.493 3.365 3.345 3.385 3.41 3.395 3.355 3.315 3.273 3.24 3.288 3.407 3.482 3.505 3.525 3.538 3.545 3.55 3.553 3.555 3.52 3.43 3.618 4.347 4.857 4.892 4.629 3.545 2.986 3.327 3.43 3.432 3.433 3.46 3.497 3.532 3.527 3.482 3.443 3.42 3.392 3.35 3.31 3.275 3.24 3.195 3.145 3.093 3.06 3.047 3.032 3.02 3.033 3.07 3.105 3.14 3.17 3.19 3.213 3.245 3.275 3.3 3.325 3.34 3.357 3.375 3.39 3.405 3.41 3.408 3.4 3.39 3.375 3.355 3.335 3.315 3.285 3.243 3.198 3.163 3.138 3.098 3.04 2.978 2.945 3.013 3.15 3.285 3.387 3.422 3.412 3.398 3.383 3.37 3.358 3.345 3.338 3.33
6.402 6.365 6.335 6.34 6.357 6.36 6.36 6.355 6.342 6.323 6.325 6.35 6.362 6.365 6.365 6.362 6.345 6.312 6.277 6.24 6.205 6.175 6.163 6.165 6.16 6.15 6.145 6.143 6.132 6.11 6.098 6.1 6.1 6.1 6.113 6.137 6.162 6.185 6.197 6.172 6.112 6.045 6.01 6.01 6.01 6.01 6.038 6.095 6.158 6.222 6.27 6.3 6.34 6.397 6.43 6.428 6.423 6.42 6.38 6.3 6.225 6.155 6.083 6.01 5.94 5.865 5.775 5.675 5.57 5.455 5.33 5.203 5.085 4.98 4.895 4.825 4.747 4.652 4.497 4.27 4.123 4.085 4.05 4.01 3.975 3.937 3.89 3.84 3.81 3.808 3.81 3.812 3.807 3.78 3.75 3.745 3.77 3.802 3.805 3.777 3.742 3.655 3.453 3.23 3.17 3.25 3.34 3.395 3.397 3.365 3.325 3.31 3.348 3.442 3.515 3.535 3.552 3.56 3.565 3.57 3.57 3.557 3.498 3.483 4.038 4.717 4.877 4.879 3.948 3.001 3.203 3.455 3.482 3.455 3.43 3.435 3.463 3.495 3.49 3.45 3.423 3.42 3.405 3.365 3.333 3.312 3.282 3.232 3.172 3.098 3.048 3.032 3.015 2.998 3.01 3.05 3.085 3.12 3.15 3.17 3.203 3.25 3.287 3.312 3.33 3.33 3.343 3.37 3.39 3.405 3.412 3.415 3.41 3.4 3.38 3.35 3.325 3.305 3.275 3.235 3.2 3.183 3.18 3.175 3.137 3.073 3.058 3.14 3.257 3.36 3.42 3.422 3.408 3.393 3.378 3.365 3.355 3.348 3.343 3.34
6.405 6.378 6.358 6.37 6.397 6.412 6.412 6.397 6.375 6.355 6.355 6.37 6.375 6.375 6.375 6.375 6.37 6.347 6.315 6.28 6.245 6.215 6.198 6.193 6.19 6.188 6.19 6.192 6.165 6.115 6.095 6.1 6.1 6.103 6.118 6.142 6.167 6.192 6.205 6.177 6.115 6.045 6.01 6.01 6.01 6.01 6.033 6.08 6.135 6.195 6.243 6.283 6.34 6.405 6.44 6.44 6.43 6.422 6.382 6.308 6.238 6.17 6.097 6.022 5.95 5.877 5.787 5.68 5.565 5.445 5.317 5.183 5.055 4.943 4.855 4.777 4.685 4.585 4.432 4.24 4.115 4.063 4.027 3.99 3.955 3.92 3.877 3.833 3.805 3.803 3.807 3.797 3.762 3.708 3.678 3.698 3.743 3.792 3.822 3.822 3.795 3.682 3.457 3.21 3.105 3.155 3.235 3.315 3.37 3.39 3.387 3.393 3.42 3.488 3.55 3.565 3.575 3.58 3.583 3.587 3.587 3.552 3.443 3.72 4.477 4.88 4.892 4.492 3.35 2.968 3.425 3.53 3.505 3.468 3.443 3.433 3.438 3.457 3.453 3.43 3.425 3.43 3.415 3.383 3.365 3.355 3.322 3.257 3.177 3.09 3.035 3.015 2.993 2.975 2.99 3.03 3.067 3.102 3.13 3.16 3.208 3.262 3.302 3.317 3.317 3.308 3.318 3.352 3.385 3.405 3.415 3.42 3.42 3.415 3.392 3.355 3.323 3.3 3.27 3.24 3.225 3.22 3.215 3.227 3.222 3.17 3.175 3.26 3.335 3.392 3.427 3.42 3.403 3.388 3.373 3.363 3.358 3.355 3.353 3.36
6.408 6.388 6.38 6.4 6.43 6.452 6.452 6.43 6.405 6.385 6.375 6.378 6.382 6.385 6.385 6.385 6.385 6.38 6.36 6.33 6.3 6.273 6.253 6.245 6.248 6.253 6.257 6.237 6.175 6.11 6.09 6.097 6.1 6.105 6.123 6.147 6.17 6.187 6.18 6.14 6.09 6.04 6.013 6.01 6.01 6.01 6.03 6.075 6.123 6.173 6.225 6.283 6.348 6.412 6.45 6.45 6.44 6.43 6.39 6.32 6.25 6.177 6.105 6.03 5.955 5.882 5.79 5.675 5.555 5.432 5.303 5.17 5.04 4.915 4.81 4.715 4.615 4.517 4.38 4.225 4.11 4.04 4.003 3.967 3.932 3.897 3.86 3.82 3.8 3.8 3.787 3.748 3.688 3.63 3.623 3.67 3.725 3.778 3.817 3.837 3.835 3.712 3.478 3.278 3.17 3.165 3.22 3.28 3.343 3.402 3.44 3.465 3.497 3.545 3.582 3.59 3.595 3.6 3.603 3.607 3.595 3.518 3.53 4.138 4.78 4.887 4.774 3.783 3.016 3.32 3.545 3.56 3.52 3.483 3.458 3.443 3.433 3.433 3.43 3.428 3.432 3.44 3.432 3.415 3.405 3.392 3.347 3.265 3.175 3.085 3.025 2.995 2.968 2.953 2.968 3.005 3.045 3.083 3.118 3.165 3.22 3.275 3.307 3.305 3.295 3.283 3.293 3.33 3.367 3.395 3.41 3.415 3.42 3.42 3.395 3.355 3.317 3.292 3.278 3.268 3.263 3.257 3.253 3.263 3.285 3.27 3.28 3.33 3.365 3.41 3.432 3.42 3.4 3.383 3.37 3.365 3.365 3.368 3.378 3.4
6.42 6.4 6.403 6.43 6.455 6.472 6.477 6.46 6.435 6.413 6.393 6.385 6.388 6.392 6.395 6.395 6.393 6.397 6.407 6.397 6.373 6.35 6.333 6.323 6.318 6.317 6.305 6.25 6.17 6.103 6.08 6.09 6.097 6.108 6.127 6.147 6.162 6.157 6.12 6.08 6.068 6.075 6.065 6.05 6.05 6.05 6.058 6.088 6.133 6.178 6.233 6.298 6.36 6.422 6.46 6.457 6.445 6.435 6.395 6.325 6.25 6.152 6.07 6.007 5.935 5.86 5.765 5.65 5.532 5.417 5.3 5.175 5.043 4.913 4.798 4.693 4.585 4.48 4.36 4.235 4.12 4.028 3.978 3.943 3.908 3.872 3.838 3.818 3.818 3.82 3.79 3.728 3.663 3.618 3.63 3.685 3.743 3.795 3.83 3.853 3.865 3.75 3.53 3.373 3.275 3.23 3.26 3.32 3.38 3.427 3.46 3.495 3.535 3.575 3.597 3.602 3.61 3.62 3.627 3.627 3.577 3.453 3.85 4.607 4.892 4.905 4.277 3.231 3.085 3.467 3.587 3.572 3.535 3.495 3.47 3.457 3.443 3.428 3.423 3.427 3.435 3.447 3.45 3.44 3.43 3.417 3.365 3.275 3.185 3.098 3.038 3.005 2.975 2.955 2.968 3.005 3.045 3.078 3.118 3.172 3.227 3.275 3.29 3.28 3.27 3.26 3.265 3.295 3.332 3.365 3.382 3.387 3.39 3.382 3.347 3.3 3.26 3.26 3.295 3.305 3.3 3.295 3.29 3.29 3.32 3.345 3.34 3.343 3.373 3.425 3.442 3.425 3.405 3.385 3.375 3.375 3.375 3.38 3.415 3.457
6.425 6.422 6.428 6.45 6.465 6.475 6.485 6.482 6.465 6.44 6.415 6.4 6.395 6.398 6.4 6.4 6.395 6.403 6.44 6.462 6.447 6.428 6.415 6.405 6.395 6.38 6.327 6.245 6.165 6.095 6.07 6.08 6.092 6.105 6.117 6.132 6.135 6.118 6.115 6.145 6.168 6.193 6.185 6.148 6.14 6.138 6.13 6.13 6.158 6.203 6.258 6.32 6.38 6.44 6.472 6.462 6.445 6.432 6.392 6.317 6.215 6.08 5.988 5.95 5.895 5.82 5.722 5.61 5.5 5.395 5.295 5.185 5.057 4.928 4.818 4.715 4.603 4.49 4.373 4.253 4.138 4.028 3.955 3.918 3.882 3.848 3.823 3.828 3.852 3.865 3.835 3.773 3.713 3.67 3.683 3.737 3.79 3.835 3.867 3.887 3.89 3.785 3.605 3.483 3.395 3.318 3.308 3.36 3.415 3.447 3.47 3.505 3.545 3.585 3.605 3.61 3.623 3.64 3.652 3.63 3.515 3.583 4.275 4.857 4.902 4.677 3.618 2.986 3.292 3.475 3.565 3.57 3.545 3.508 3.485 3.472 3.452 3.43 3.42 3.423 3.433 3.452 3.462 3.453 3.443 3.435 3.385 3.298 3.21 3.125 3.07 3.042 3.015 2.99 3 3.04 3.072 3.09 3.123 3.175 3.22 3.252 3.26 3.25 3.245 3.248 3.248 3.258 3.288 3.32 3.335 3.337 3.335 3.32 3.272 3.208 3.17 3.223 3.32 3.35 3.343 3.335 3.33 3.325 3.338 3.362 3.345 3.34 3.388 3.442 3.457 3.433 3.41 3.39 3.383 3.385 3.385 3.393 3.445 3.512
6.387 6.427 6.445 6.455 6.465 6.475 6.485 6.492 6.487 6.467 6.445 6.425 6.41 6.405 6.405 6.402 6.393 6.405 6.455 6.502 6.515 6.505 6.495 6.487 6.475 6.447 6.375 6.263 6.163 6.088 6.06 6.073 6.087 6.098 6.103 6.12 6.15 6.188 6.255 6.345 6.372 6.357 6.325 6.265 6.238 6.23 6.217 6.203 6.203 6.23 6.28 6.34 6.4 6.457 6.485 6.472 6.45 6.43 6.38 6.277 6.14 5.99 5.893 5.862 5.835 5.777 5.682 5.575 5.472 5.37 5.272 5.172 5.065 4.945 4.833 4.735 4.63 4.517 4.397 4.275 4.158 4.04 3.943 3.89 3.855 3.825 3.823 3.848 3.882 3.907 3.887 3.832 3.78 3.733 3.738 3.787 3.83 3.87 3.905 3.92 3.91 3.825 3.695 3.598 3.512 3.425 3.375 3.4 3.442 3.458 3.478 3.515 3.555 3.592 3.615 3.625 3.64 3.66 3.67 3.592 3.49 3.983 4.695 4.902 4.922 4.07 3.068 3.08 3.3 3.445 3.535 3.55 3.547 3.522 3.5 3.482 3.455 3.43 3.418 3.42 3.438 3.465 3.477 3.467 3.458 3.452 3.407 3.322 3.237 3.155 3.103 3.077 3.052 3.03 3.038 3.067 3.085 3.095 3.123 3.165 3.195 3.22 3.23 3.225 3.23 3.24 3.242 3.24 3.25 3.272 3.285 3.282 3.275 3.26 3.21 3.13 3.11 3.213 3.347 3.395 3.388 3.38 3.373 3.367 3.353 3.343 3.33 3.345 3.402 3.457 3.47 3.44 3.415 3.395 3.388 3.393 3.398 3.408 3.46 3.545
6.36 6.43 6.46 6.465 6.473 6.48 6.488 6.495 6.5 6.492 6.475 6.455 6.435 6.42 6.413 6.405 6.393 6.41 6.462 6.517 6.557 6.56 6.54 6.522 6.5 6.467 6.4 6.285 6.173 6.088 6.055 6.068 6.083 6.095 6.1 6.11 6.185 6.325 6.46 6.565 6.585 6.522 6.452 6.39 6.342 6.317 6.302 6.29 6.278 6.273 6.303 6.36 6.42 6.475 6.487 6.455 6.41 6.365 6.29 6.167 6.032 5.895 5.798 5.763 5.75 5.722 5.647 5.545 5.445 5.345 5.245 5.145 5.047 4.947 4.847 4.752 4.652 4.54 4.42 4.3 4.18 4.06 3.945 3.868 3.828 3.815 3.835 3.867 3.9 3.927 3.922 3.885 3.842 3.795 3.79 3.83 3.867 3.905 3.937 3.942 3.925 3.872 3.787 3.702 3.622 3.542 3.465 3.443 3.46 3.468 3.49 3.53 3.57 3.605 3.63 3.647 3.665 3.682 3.647 3.495 3.688 4.435 4.895 4.915 4.582 3.463 2.936 3.232 3.32 3.43 3.505 3.52 3.53 3.527 3.51 3.485 3.455 3.43 3.415 3.423 3.45 3.48 3.49 3.482 3.475 3.467 3.427 3.347 3.262 3.183 3.135 3.11 3.085 3.063 3.06 3.075 3.085 3.095 3.115 3.143 3.168 3.193 3.205 3.21 3.223 3.235 3.24 3.235 3.23 3.233 3.233 3.225 3.215 3.2 3.16 3.11 3.125 3.23 3.37 3.437 3.433 3.428 3.422 3.412 3.375 3.33 3.32 3.355 3.415 3.467 3.477 3.45 3.425 3.403 3.393 3.4 3.408 3.42 3.475 3.565
6.375 6.45 6.482 6.487 6.49 6.495 6.5 6.505 6.512 6.512 6.497 6.475 6.455 6.435 6.423 6.418 6.41 6.423 6.468 6.522 6.56 6.56 6.535 6.505 6.472 6.435 6.37 6.272 6.168 6.1 6.093 6.105 6.118 6.128 6.123 6.108 6.155 6.315 6.512 6.665 6.705 6.62 6.517 6.455 6.412 6.387 6.375 6.362 6.347 6.33 6.343 6.395 6.452 6.452 6.39 6.322 6.257 6.192 6.102 5.982 5.86 5.755 5.703 5.693 5.688 5.672 5.61 5.51 5.413 5.315 5.21 5.105 5.005 4.912 4.837 4.757 4.665 4.577 4.48 4.36 4.23 4.098 3.965 3.858 3.808 3.815 3.845 3.872 3.897 3.915 3.912 3.895 3.865 3.823 3.818 3.855 3.89 3.925 3.952 3.95 3.922 3.88 3.82 3.747 3.672 3.595 3.515 3.475 3.48 3.49 3.515 3.555 3.592 3.62 3.64 3.66 3.68 3.675 3.57 3.52 4.103 4.772 4.912 4.847 3.868 3.008 3.14 3.275 3.362 3.442 3.487 3.5 3.51 3.52 3.515 3.49 3.463 3.438 3.423 3.435 3.465 3.495 3.502 3.493 3.485 3.475 3.435 3.36 3.277 3.203 3.158 3.132 3.107 3.083 3.07 3.075 3.085 3.095 3.11 3.13 3.155 3.18 3.195 3.208 3.223 3.235 3.24 3.235 3.225 3.21 3.193 3.18 3.17 3.17 3.178 3.188 3.218 3.293 3.405 3.472 3.477 3.475 3.475 3.455 3.405 3.343 3.325 3.37 3.427 3.467 3.47 3.445 3.42 3.408 3.41 3.42 3.43 3.468 3.543 3.63
6.395 6.47 6.505 6.51 6.51 6.515 6.52 6.525 6.53 6.525 6.507 6.483 6.463 6.448 6.44 6.44 6.437 6.44 6.473 6.515 6.532 6.53 6.51 6.48 6.445 6.405 6.34 6.245 6.165 6.148 6.167 6.182 6.192 6.192 6.177 6.15 6.135 6.23 6.415 6.565 6.642 6.622 6.532 6.455 6.435 6.44 6.435 6.42 6.403 6.388 6.398 6.445 6.45 6.33 6.193 6.113 6.043 5.977 5.887 5.768 5.663 5.608 5.61 5.637 5.65 5.637 5.575 5.475 5.385 5.295 5.183 5.063 4.955 4.86 4.797 4.745 4.67 4.605 4.542 4.457 4.342 4.203 4.06 3.925 3.83 3.813 3.84 3.862 3.875 3.882 3.88 3.87 3.852 3.82 3.823 3.865 3.9 3.935 3.955 3.94 3.9 3.85 3.797 3.737 3.665 3.588 3.515 3.49 3.507 3.52 3.543 3.58 3.61 3.625 3.64 3.66 3.655 3.6 3.458 3.803 4.567 4.9 4.925 4.395 3.318 2.995 3.242 3.317 3.395 3.452 3.482 3.495 3.503 3.51 3.51 3.495 3.475 3.45 3.438 3.458 3.49 3.52 3.525 3.505 3.488 3.477 3.44 3.363 3.283 3.215 3.17 3.145 3.12 3.095 3.083 3.08 3.085 3.095 3.11 3.13 3.155 3.18 3.195 3.21 3.225 3.235 3.24 3.235 3.217 3.19 3.168 3.155 3.16 3.193 3.242 3.29 3.325 3.392 3.475 3.515 3.527 3.53 3.525 3.49 3.427 3.358 3.338 3.385 3.43 3.452 3.447 3.423 3.413 3.428 3.445 3.458 3.493 3.57 3.662 3.737
6.435 6.49 6.525 6.53 6.533 6.537 6.54 6.545 6.545 6.53 6.51 6.488 6.47 6.463 6.46 6.46 6.46 6.46 6.472 6.49 6.498 6.5 6.482 6.448 6.412 6.375 6.31 6.233 6.205 6.225 6.245 6.257 6.265 6.26 6.242 6.21 6.16 6.173 6.27 6.37 6.46 6.527 6.52 6.463 6.458 6.49 6.495 6.48 6.46 6.443 6.45 6.445 6.332 6.133 5.985 5.908 5.833 5.762 5.67 5.573 5.52 5.505 5.523 5.565 5.6 5.6 5.54 5.448 5.37 5.285 5.17 5.038 4.91 4.805 4.748 4.715 4.665 4.61 4.56 4.51 4.437 4.34 4.217 4.07 3.915 3.825 3.825 3.84 3.845 3.847 3.845 3.835 3.825 3.813 3.828 3.87 3.907 3.945 3.952 3.917 3.87 3.82 3.77 3.715 3.652 3.582 3.518 3.505 3.53 3.547 3.57 3.597 3.615 3.625 3.64 3.635 3.575 3.485 3.563 4.237 4.845 4.915 4.744 3.715 3.028 3.215 3.282 3.35 3.402 3.447 3.477 3.49 3.495 3.5 3.5 3.49 3.48 3.46 3.453 3.48 3.515 3.545 3.55 3.525 3.498 3.482 3.445 3.37 3.295 3.228 3.183 3.157 3.13 3.105 3.095 3.09 3.088 3.095 3.11 3.133 3.157 3.18 3.195 3.21 3.225 3.237 3.242 3.227 3.197 3.165 3.145 3.153 3.19 3.24 3.295 3.355 3.402 3.455 3.51 3.542 3.567 3.582 3.567 3.512 3.437 3.36 3.343 3.385 3.41 3.425 3.423 3.413 3.433 3.465 3.488 3.523 3.598 3.692 3.78 3.815
6.51 6.528 6.547 6.55 6.555 6.56 6.56 6.562 6.555 6.533 6.51 6.493 6.483 6.478 6.475 6.477 6.48 6.475 6.468 6.468 6.47 6.475 6.46 6.418 6.378 6.342 6.293 6.26 6.272 6.3 6.322 6.332 6.332 6.325 6.302 6.255 6.185 6.14 6.163 6.228 6.305 6.385 6.44 6.457 6.49 6.54 6.552 6.537 6.52 6.492 6.447 6.332 6.135 5.923 5.78 5.703 5.628 5.553 5.478 5.433 5.423 5.42 5.44 5.485 5.53 5.552 5.51 5.43 5.357 5.272 5.16 5.025 4.885 4.763 4.703 4.688 4.667 4.63 4.578 4.525 4.47 4.412 4.332 4.21 4.037 3.873 3.813 3.815 3.813 3.81 3.808 3.805 3.803 3.803 3.823 3.862 3.91 3.947 3.937 3.89 3.84 3.79 3.738 3.683 3.63 3.57 3.523 3.523 3.547 3.57 3.592 3.607 3.615 3.625 3.612 3.552 3.463 3.42 3.95 4.682 4.905 4.934 4.175 3.161 3.073 3.25 3.305 3.357 3.4 3.442 3.47 3.48 3.485 3.49 3.492 3.485 3.478 3.465 3.468 3.5 3.535 3.565 3.57 3.545 3.515 3.49 3.447 3.38 3.31 3.24 3.195 3.17 3.14 3.115 3.105 3.102 3.098 3.098 3.11 3.135 3.16 3.18 3.195 3.21 3.225 3.237 3.235 3.207 3.175 3.145 3.143 3.183 3.237 3.29 3.342 3.395 3.432 3.455 3.483 3.52 3.56 3.592 3.575 3.507 3.432 3.36 3.343 3.37 3.388 3.403 3.413 3.433 3.467 3.502 3.545 3.615 3.71 3.805 3.847 3.822
6.562 6.57 6.58 6.58 6.585 6.59 6.59 6.582 6.562 6.535 6.515 6.505 6.498 6.493 6.49 6.492 6.49 6.472 6.458 6.455 6.455 6.46 6.445 6.403 6.36 6.323 6.293 6.295 6.322 6.345 6.36 6.38 6.395 6.387 6.35 6.28 6.198 6.148 6.143 6.175 6.238 6.3 6.36 6.415 6.477 6.535 6.52 6.467 6.427 6.377 6.287 6.117 5.903 5.733 5.63 5.55 5.473 5.413 5.398 5.405 5.405 5.405 5.405 5.43 5.478 5.515 5.492 5.417 5.342 5.26 5.15 5.015 4.875 4.745 4.68 4.678 4.677 4.652 4.602 4.552 4.5 4.442 4.38 4.282 4.117 3.92 3.825 3.82 3.81 3.803 3.795 3.795 3.8 3.8 3.808 3.843 3.897 3.937 3.932 3.888 3.835 3.783 3.728 3.673 3.618 3.56 3.528 3.538 3.563 3.587 3.607 3.617 3.622 3.607 3.545 3.455 3.378 3.638 4.405 4.895 4.925 4.637 3.545 2.981 3.232 3.285 3.323 3.358 3.4 3.442 3.462 3.463 3.465 3.47 3.485 3.492 3.488 3.48 3.49 3.523 3.555 3.58 3.58 3.555 3.525 3.495 3.447 3.38 3.31 3.238 3.19 3.165 3.137 3.118 3.11 3.11 3.107 3.105 3.115 3.14 3.165 3.185 3.192 3.197 3.21 3.222 3.215 3.183 3.153 3.133 3.155 3.217 3.277 3.33 3.38 3.417 3.435 3.443 3.453 3.478 3.515 3.555 3.54 3.47 3.403 3.358 3.358 3.38 3.398 3.413 3.43 3.457 3.49 3.523 3.58 3.662 3.752 3.847 3.802 3.645
6.583 6.605 6.62 6.62 6.623 6.627 6.63 6.612 6.573 6.538 6.525 6.522 6.515 6.51 6.51 6.505 6.487 6.46 6.445 6.445 6.448 6.455 6.44 6.398 6.358 6.32 6.29 6.282 6.287 6.287 6.28 6.297 6.34 6.375 6.357 6.28 6.203 6.165 6.15 6.155 6.2 6.26 6.312 6.345 6.4 6.437 6.367 6.258 6.17 6.1 6.022 5.865 5.678 5.588 5.535 5.455 5.395 5.373 5.403 5.45 5.465 5.465 5.445 5.428 5.455 5.495 5.475 5.4 5.327 5.247 5.135 5.002 4.865 4.735 4.673 4.673 4.677 4.665 4.625 4.58 4.532 4.47 4.385 4.275 4.13 3.953 3.858 3.85 3.837 3.825 3.81 3.8 3.8 3.8 3.8 3.823 3.87 3.915 3.94 3.917 3.863 3.808 3.753 3.695 3.635 3.57 3.538 3.553 3.577 3.602 3.62 3.63 3.615 3.552 3.475 3.405 3.475 4.11 4.772 4.917 4.902 3.958 3.046 3.145 3.267 3.322 3.355 3.37 3.403 3.447 3.46 3.445 3.438 3.44 3.467 3.5 3.51 3.505 3.515 3.547 3.572 3.58 3.57 3.547 3.52 3.49 3.442 3.372 3.297 3.22 3.168 3.143 3.125 3.118 3.113 3.11 3.113 3.115 3.125 3.148 3.172 3.192 3.19 3.178 3.183 3.197 3.19 3.158 3.135 3.133 3.16 3.227 3.305 3.365 3.402 3.42 3.43 3.437 3.438 3.443 3.468 3.505 3.49 3.423 3.375 3.365 3.385 3.412 3.432 3.45 3.463 3.475 3.5 3.53 3.585 3.668 3.752 3.84 3.757 3.453
6.615 6.645 6.66 6.66 6.66 6.665 6.67 6.647 6.595 6.548 6.53 6.532 6.532 6.527 6.522 6.507 6.48 6.45 6.435 6.435 6.44 6.45 6.435 6.395 6.358 6.32 6.285 6.255 6.225 6.198 6.17 6.158 6.19 6.26 6.29 6.255 6.21 6.185 6.17 6.158 6.173 6.22 6.257 6.265 6.305 6.297 6.185 6.058 5.94 5.838 5.753 5.625 5.51 5.483 5.445 5.39 5.37 5.373 5.41 5.477 5.522 5.535 5.515 5.475 5.458 5.475 5.455 5.383 5.312 5.232 5.12 4.987 4.853 4.728 4.67 4.67 4.675 4.675 4.645 4.6 4.555 4.49 4.385 4.253 4.12 3.975 3.89 3.877 3.86 3.845 3.83 3.815 3.805 3.8 3.8 3.808 3.84 3.885 3.927 3.937 3.897 3.842 3.785 3.727 3.662 3.585 3.55 3.568 3.592 3.615 3.63 3.62 3.57 3.5 3.44 3.398 3.828 4.587 4.915 4.942 4.487 3.385 2.988 3.252 3.305 3.36 3.395 3.4 3.415 3.45 3.46 3.438 3.418 3.415 3.443 3.485 3.515 3.525 3.54 3.565 3.572 3.567 3.552 3.53 3.507 3.48 3.435 3.365 3.283 3.2 3.148 3.128 3.12 3.12 3.117 3.115 3.12 3.125 3.135 3.155 3.178 3.197 3.195 3.175 3.165 3.17 3.162 3.143 3.135 3.138 3.158 3.22 3.32 3.392 3.41 3.415 3.425 3.432 3.432 3.428 3.433 3.457 3.442 3.395 3.383 3.388 3.405 3.435 3.462 3.485 3.497 3.505 3.518 3.54 3.595 3.68 3.745 3.782 3.655 3.275
6.655 6.682 6.697 6.7 6.7 6.705 6.707 6.677 6.622 6.568 6.535 6.535 6.542 6.54 6.525 6.5 6.467 6.435 6.423 6.427 6.435 6.442 6.427 6.392 6.357 6.32 6.282 6.245 6.208 6.173 6.138 6.113 6.118 6.16 6.198 6.205 6.192 6.177 6.17 6.162 6.162 6.18 6.192 6.188 6.192 6.135 6.008 5.883 5.755 5.633 5.533 5.448 5.405 5.403 5.385 5.37 5.37 5.375 5.415 5.485 5.55 5.59 5.58 5.54 5.5 5.477 5.44 5.37 5.3 5.217 5.105 4.973 4.84 4.718 4.663 4.667 4.672 4.677 4.66 4.617 4.57 4.507 4.402 4.263 4.123 3.985 3.908 3.89 3.87 3.855 3.84 3.825 3.812 3.803 3.8 3.8 3.818 3.855 3.9 3.935 3.925 3.875 3.817 3.757 3.68 3.595 3.563 3.583 3.605 3.627 3.632 3.595 3.538 3.485 3.44 3.608 4.305 4.87 4.94 4.797 3.783 3.051 3.217 3.287 3.342 3.4 3.435 3.44 3.445 3.46 3.46 3.435 3.41 3.4 3.42 3.46 3.503 3.537 3.557 3.562 3.558 3.553 3.537 3.513 3.49 3.467 3.425 3.355 3.27 3.185 3.138 3.128 3.125 3.125 3.123 3.122 3.127 3.132 3.142 3.162 3.185 3.205 3.205 3.185 3.165 3.153 3.145 3.14 3.143 3.145 3.158 3.24 3.352 3.405 3.415 3.42 3.428 3.43 3.427 3.422 3.418 3.423 3.415 3.403 3.407 3.413 3.43 3.457 3.485 3.515 3.535 3.545 3.553 3.563 3.577 3.605 3.622 3.61 3.395 2.96
6.695 6.72 6.735 6.74 6.743 6.747 6.742 6.705 6.648 6.598 6.555 6.535 6.54 6.54 6.52 6.487 6.453 6.428 6.418 6.418 6.425 6.427 6.41 6.377 6.347 6.315 6.275 6.238 6.202 6.165 6.133 6.115 6.108 6.123 6.147 6.15 6.135 6.125 6.125 6.125 6.125 6.127 6.125 6.117 6.095 6.018 5.908 5.798 5.683 5.575 5.475 5.398 5.37 5.37 5.37 5.37 5.37 5.38 5.423 5.49 5.555 5.6 5.595 5.552 5.51 5.472 5.427 5.365 5.295 5.21 5.092 4.96 4.83 4.71 4.64 4.635 4.657 4.675 4.67 4.635 4.58 4.515 4.42 4.285 4.132 3.98 3.898 3.882 3.865 3.847 3.832 3.82 3.81 3.803 3.8 3.8 3.805 3.828 3.87 3.915 3.935 3.907 3.847 3.772 3.688 3.605 3.575 3.597 3.62 3.64 3.627 3.58 3.53 3.488 3.503 4.05 4.742 4.935 4.965 4.257 3.216 3.065 3.265 3.322 3.377 3.43 3.46 3.467 3.472 3.475 3.465 3.443 3.42 3.408 3.423 3.46 3.503 3.547 3.567 3.563 3.558 3.548 3.53 3.508 3.485 3.465 3.427 3.36 3.278 3.195 3.145 3.135 3.135 3.135 3.128 3.123 3.125 3.13 3.132 3.142 3.167 3.19 3.197 3.185 3.165 3.148 3.153 3.165 3.168 3.17 3.21 3.307 3.385 3.415 3.427 3.432 3.435 3.425 3.412 3.407 3.403 3.408 3.415 3.417 3.42 3.43 3.445 3.463 3.49 3.522 3.572 3.61 3.62 3.62 3.545 3.443 3.408 3.355 3.047 2.675
6.732 6.76 6.775 6.78 6.785 6.79 6.777 6.735 6.68 6.64 6.595 6.548 6.533 6.53 6.507 6.475 6.453 6.445 6.435 6.418 6.408 6.4 6.38 6.35 6.325 6.297 6.262 6.23 6.195 6.158 6.132 6.12 6.11 6.112 6.115 6.095 6.068 6.053 6.05 6.05 6.055 6.065 6.065 6.058 6.045 6 5.92 5.825 5.725 5.625 5.525 5.433 5.38 5.37 5.37 5.37 5.37 5.388 5.437 5.492 5.532 5.557 5.552 5.515 5.47 5.44 5.407 5.357 5.295 5.207 5.087 4.953 4.82 4.713 4.633 4.585 4.593 4.625 4.652 4.635 4.562 4.477 4.382 4.265 4.122 3.965 3.875 3.862 3.852 3.835 3.818 3.808 3.803 3.8 3.8 3.8 3.8 3.808 3.84 3.885 3.925 3.925 3.865 3.78 3.695 3.615 3.588 3.612 3.632 3.642 3.622 3.575 3.53 3.498 3.775 4.5 4.94 4.96 4.692 3.605 2.998 3.23 3.295 3.352 3.402 3.442 3.465 3.477 3.485 3.485 3.475 3.455 3.44 3.433 3.448 3.483 3.52 3.562 3.582 3.577 3.567 3.55 3.53 3.512 3.495 3.475 3.437 3.375 3.302 3.223 3.168 3.153 3.148 3.145 3.135 3.12 3.115 3.12 3.115 3.108 3.123 3.147 3.165 3.167 3.155 3.138 3.17 3.21 3.21 3.23 3.295 3.357 3.395 3.427 3.442 3.445 3.435 3.405 3.383 3.38 3.385 3.405 3.42 3.42 3.43 3.455 3.463 3.46 3.48 3.51 3.582 3.672 3.707 3.697 3.57 3.368 3.235 3.04 2.725 2.56
6.772 6.8 6.815 6.82 6.825 6.832 6.815 6.768 6.723 6.687 6.642 6.583 6.538 6.52 6.5 6.48 6.475 6.472 6.46 6.438 6.415 6.388 6.355 6.325 6.3 6.275 6.245 6.215 6.182 6.14 6.11 6.097 6.082 6.072 6.057 6.03 6 5.978 5.97 5.975 5.99 6.005 6.007 6.008 6.012 5.997 5.95 5.872 5.775 5.675 5.575 5.48 5.405 5.373 5.37 5.37 5.37 5.39 5.432 5.462 5.48 5.495 5.497 5.472 5.433 5.41 5.382 5.34 5.287 5.202 5.082 4.947 4.817 4.72 4.647 4.573 4.523 4.523 4.562 4.557 4.485 4.395 4.295 4.197 4.087 3.95 3.855 3.835 3.83 3.818 3.805 3.8 3.8 3.8 3.8 3.8 3.8 3.8 3.818 3.855 3.892 3.897 3.852 3.782 3.705 3.628 3.603 3.622 3.635 3.64 3.62 3.58 3.545 3.638 4.235 4.835 4.957 4.949 4.005 3.041 3.113 3.262 3.325 3.372 3.412 3.445 3.467 3.482 3.492 3.497 3.49 3.473 3.463 3.458 3.473 3.507 3.543 3.58 3.6 3.59 3.57 3.548 3.528 3.515 3.5 3.482 3.445 3.385 3.322 3.248 3.195 3.178 3.165 3.157 3.145 3.125 3.113 3.112 3.105 3.088 3.085 3.103 3.12 3.13 3.132 3.12 3.17 3.242 3.255 3.29 3.34 3.37 3.403 3.437 3.455 3.445 3.415 3.375 3.353 3.36 3.383 3.407 3.423 3.433 3.46 3.492 3.497 3.485 3.483 3.5 3.57 3.682 3.767 3.777 3.642 3.402 3.117 2.78 2.583 2.56
6.815 6.84 6.855 6.86 6.865 6.872 6.85 6.805 6.767 6.732 6.69 6.63 6.563 6.523 6.51 6.505 6.502 6.497 6.485 6.465 6.445 6.403 6.348 6.31 6.283 6.255 6.225 6.195 6.165 6.103 6.045 6.025 6.007 5.995 5.98 5.957 5.93 5.905 5.898 5.91 5.928 5.942 5.95 5.958 5.972 5.967 5.94 5.895 5.82 5.725 5.628 5.535 5.448 5.388 5.37 5.37 5.37 5.38 5.395 5.405 5.418 5.433 5.44 5.423 5.398 5.385 5.357 5.312 5.265 5.19 5.067 4.92 4.772 4.675 4.62 4.557 4.495 4.453 4.44 4.412 4.358 4.295 4.213 4.12 4.025 3.915 3.833 3.81 3.808 3.803 3.8 3.8 3.8 3.8 3.8 3.8 3.8 3.8 3.805 3.825 3.842 3.835 3.802 3.752 3.692 3.633 3.613 3.625 3.633 3.637 3.622 3.59 3.563 3.955 4.662 4.965 4.98 4.55 3.388 2.923 3.217 3.292 3.345 3.382 3.415 3.447 3.472 3.485 3.498 3.51 3.507 3.497 3.49 3.483 3.498 3.532 3.567 3.602 3.615 3.595 3.57 3.545 3.525 3.515 3.503 3.49 3.455 3.395 3.335 3.27 3.225 3.205 3.187 3.172 3.155 3.135 3.118 3.107 3.095 3.075 3.06 3.06 3.07 3.083 3.095 3.098 3.158 3.26 3.303 3.328 3.36 3.383 3.41 3.443 3.455 3.43 3.39 3.35 3.338 3.36 3.388 3.413 3.435 3.46 3.495 3.527 3.532 3.52 3.505 3.5 3.56 3.67 3.78 3.81 3.632 3.322 2.93 2.628 2.56 2.56
6.83 6.852 6.867 6.882 6.9 6.907 6.885 6.845 6.805 6.765 6.725 6.67 6.595 6.545 6.533 6.53 6.528 6.525 6.515 6.492 6.472 6.43 6.36 6.303 6.268 6.24 6.21 6.18 6.145 6.062 5.973 5.938 5.923 5.915 5.902 5.88 5.858 5.853 5.85 5.853 5.87 5.883 5.895 5.91 5.93 5.93 5.907 5.88 5.837 5.767 5.68 5.59 5.5 5.418 5.375 5.37 5.37 5.37 5.37 5.373 5.378 5.385 5.39 5.383 5.375 5.365 5.322 5.258 5.202 5.135 5.01 4.83 4.635 4.535 4.51 4.465 4.415 4.365 4.322 4.285 4.24 4.198 4.155 4.085 3.99 3.89 3.823 3.803 3.8 3.8 3.8 3.8 3.8 3.8 3.8 3.8 3.8 3.8 3.8 3.792 3.782 3.77 3.74 3.695 3.648 3.618 3.615 3.625 3.633 3.637 3.63 3.605 3.75 4.38 4.912 4.982 4.844 3.818 3.008 3.145 3.247 3.31 3.352 3.387 3.42 3.455 3.48 3.493 3.507 3.515 3.517 3.517 3.51 3.503 3.518 3.552 3.587 3.617 3.62 3.597 3.573 3.548 3.53 3.52 3.51 3.5 3.465 3.405 3.345 3.285 3.245 3.222 3.2 3.18 3.16 3.142 3.125 3.105 3.085 3.065 3.048 3.048 3.07 3.093 3.108 3.125 3.193 3.3 3.367 3.4 3.425 3.448 3.47 3.47 3.45 3.42 3.38 3.34 3.34 3.372 3.398 3.423 3.443 3.465 3.5 3.532 3.537 3.522 3.507 3.495 3.545 3.655 3.75 3.712 3.45 3.03 2.678 2.56 2.56 2.56
6.82 6.84 6.85 6.865 6.892 6.912 6.9 6.86 6.812 6.765 6.727 6.69 6.625 6.575 6.56 6.555 6.553 6.55 6.54 6.518 6.5 6.457 6.38 6.305 6.255 6.225 6.195 6.165 6.12 6.025 5.91 5.853 5.843 5.84 5.825 5.803 5.808 5.835 5.813 5.79 5.82 5.84 5.853 5.868 5.885 5.89 5.872 5.845 5.817 5.78 5.717 5.635 5.542 5.448 5.385 5.37 5.37 5.37 5.37 5.37 5.37 5.37 5.37 5.37 5.37 5.347 5.285 5.205 5.133 5.047 4.897 4.687 4.468 4.355 4.342 4.317 4.275 4.225 4.193 4.18 4.15 4.113 4.095 4.067 3.995 3.895 3.83 3.808 3.8 3.8 3.8 3.8 3.8 3.8 3.8 3.8 3.8 3.8 3.792 3.758 3.723 3.707 3.677 3.633 3.605 3.608 3.618 3.625 3.635 3.642 3.643 3.67 4.153 4.795 4.987 5.002 4.317 3.218 2.99 3.2 3.262 3.317 3.36 3.393 3.43 3.467 3.492 3.507 3.515 3.513 3.518 3.527 3.525 3.52 3.535 3.567 3.597 3.617 3.617 3.6 3.577 3.555 3.54 3.53 3.52 3.51 3.475 3.415 3.352 3.29 3.25 3.228 3.205 3.185 3.165 3.147 3.127 3.097 3.073 3.055 3.048 3.065 3.107 3.152 3.177 3.208 3.283 3.377 3.455 3.507 3.537 3.55 3.532 3.48 3.435 3.412 3.38 3.34 3.345 3.385 3.415 3.44 3.45 3.455 3.478 3.507 3.515 3.5 3.488 3.48 3.528 3.63 3.66 3.505 3.145 2.74 2.56 2.56 2.56 2.56
6.81 6.827 6.832 6.838 6.853 6.875 6.872 6.84 6.797 6.75 6.713 6.69 6.647 6.605 6.59 6.585 6.58 6.575 6.565 6.548 6.53 6.48 6.4 6.32 6.253 6.21 6.18 6.15 6.092 5.982 5.853 5.773 5.768 5.77 5.753 5.758 5.803 5.835 5.785 5.728 5.75 5.797 5.82 5.83 5.84 5.85 5.84 5.81 5.785 5.762 5.73 5.665 5.57 5.47 5.395 5.37 5.37 5.37 5.37 5.37 5.37 5.37 5.37 5.37 5.365 5.325 5.255 5.187 5.102 4.962 4.76 4.535 4.313 4.175 4.153 4.15 4.127 4.083 4.058 4.067 4.057 4.03 4.015 4.007 3.977 3.9 3.84 3.82 3.805 3.8 3.8 3.8 3.8 3.8 3.8 3.8 3.8 3.8 3.777 3.728 3.678 3.648 3.615 3.585 3.59 3.61 3.622 3.628 3.635 3.645 3.653 3.9 4.562 4.987 5.002 4.737 3.625 2.951 3.15 3.212 3.268 3.322 3.367 3.403 3.443 3.482 3.507 3.515 3.513 3.51 3.515 3.527 3.535 3.535 3.55 3.577 3.597 3.612 3.615 3.6 3.58 3.56 3.548 3.54 3.53 3.52 3.485 3.425 3.36 3.295 3.255 3.235 3.212 3.19 3.17 3.147 3.117 3.083 3.06 3.055 3.065 3.088 3.13 3.19 3.238 3.295 3.38 3.462 3.54 3.607 3.627 3.592 3.527 3.453 3.403 3.387 3.372 3.34 3.343 3.387 3.427 3.455 3.465 3.463 3.465 3.485 3.495 3.483 3.473 3.468 3.512 3.555 3.485 3.257 2.865 2.598 2.56 2.56 2.56 2.77
6.8 6.81 6.815 6.82 6.825 6.835 6.828 6.803 6.775 6.735 6.698 6.68 6.657 6.635 6.625 6.617 6.61 6.602 6.592 6.58 6.557 6.5 6.42 6.34 6.263 6.203 6.165 6.135 6.065 5.94 5.805 5.705 5.69 5.703 5.71 5.758 5.82 5.835 5.77 5.68 5.663 5.72 5.77 5.79 5.8 5.812 5.807 5.783 5.76 5.74 5.72 5.672 5.59 5.495 5.408 5.37 5.37 5.37 5.37 5.37 5.37 5.37 5.37 5.37 5.362 5.323 5.26 5.182 5.047 4.85 4.62 4.385 4.158 3.998 3.955 3.96 3.957 3.935 3.925 3.945 3.955 3.948 3.935 3.925 3.917 3.887 3.853 3.835 3.818 3.805 3.803 3.805 3.805 3.797 3.795 3.8 3.8 3.792 3.757 3.702 3.647 3.6 3.573 3.575 3.595 3.615 3.63 3.64 3.65 3.66 3.755 4.303 4.887 5.012 4.997 4.082 3.046 3.025 3.17 3.225 3.28 3.333 3.375 3.415 3.455 3.495 3.515 3.513 3.51 3.508 3.51 3.523 3.535 3.545 3.56 3.578 3.593 3.61 3.615 3.6 3.58 3.562 3.552 3.545 3.537 3.53 3.492 3.43 3.365 3.303 3.263 3.24 3.217 3.195 3.17 3.14 3.105 3.07 3.058 3.073 3.095 3.115 3.163 3.238 3.31 3.39 3.475 3.54 3.59 3.637 3.63 3.562 3.492 3.423 3.37 3.355 3.35 3.335 3.343 3.385 3.432 3.467 3.477 3.475 3.47 3.472 3.475 3.465 3.457 3.452 3.447 3.385 3.257 2.972 2.658 2.56 2.56 2.56 2.783 3.282
6.792 6.785 6.787 6.793 6.803 6.812 6.8 6.773 6.748 6.715 6.685 6.67 6.657 6.647 6.642 6.635 6.627 6.62 6.607 6.59 6.562 6.507 6.435 6.36 6.28 6.205 6.153 6.115 6.03 5.897 5.765 5.648 5.62 5.663 5.71 5.775 5.84 5.837 5.755 5.655 5.593 5.62 5.692 5.735 5.752 5.765 5.775 5.77 5.75 5.728 5.705 5.657 5.58 5.497 5.415 5.355 5.32 5.297 5.32 5.36 5.37 5.37 5.37 5.373 5.377 5.355 5.275 5.13 4.93 4.71 4.48 4.243 4.01 3.823 3.755 3.763 3.788 3.825 3.85 3.87 3.888 3.89 3.883 3.878 3.875 3.873 3.865 3.852 3.837 3.823 3.818 3.817 3.802 3.77 3.757 3.772 3.79 3.775 3.72 3.66 3.603 3.56 3.555 3.575 3.598 3.63 3.658 3.673 3.687 3.688 4.03 4.705 5.027 5.027 4.609 3.44 2.916 3.167 3.223 3.278 3.327 3.36 3.393 3.435 3.475 3.507 3.515 3.51 3.51 3.51 3.515 3.528 3.543 3.558 3.572 3.585 3.6 3.615 3.612 3.595 3.575 3.557 3.547 3.54 3.535 3.53 3.49 3.425 3.363 3.305 3.265 3.24 3.22 3.197 3.165 3.13 3.095 3.075 3.085 3.11 3.138 3.18 3.255 3.343 3.417 3.465 3.505 3.542 3.565 3.582 3.562 3.5 3.433 3.38 3.353 3.343 3.335 3.33 3.338 3.37 3.417 3.457 3.47 3.462 3.457 3.455 3.45 3.442 3.437 3.415 3.332 3.202 2.975 2.688 2.56 2.56 2.56 2.745 3.262 3.677
6.788 6.758 6.753 6.763 6.783 6.8 6.79 6.76 6.733 6.708 6.683 6.663 6.65 6.64 6.635 6.63 6.622 6.612 6.595 6.57 6.542 6.495 6.43 6.362 6.29 6.217 6.15 6.09 5.99 5.853 5.72 5.618 5.615 5.675 5.73 5.793 5.855 5.84 5.742 5.64 5.545 5.543 5.625 5.677 5.695 5.705 5.73 5.752 5.745 5.722 5.692 5.63 5.543 5.462 5.382 5.28 5.19 5.145 5.215 5.335 5.37 5.37 5.375 5.387 5.402 5.36 5.215 5.01 4.79 4.57 4.342 4.107 3.87 3.675 3.618 3.66 3.728 3.81 3.86 3.878 3.883 3.875 3.87 3.87 3.87 3.87 3.87 3.867 3.857 3.845 3.837 3.82 3.777 3.725 3.693 3.703 3.735 3.72 3.655 3.593 3.55 3.535 3.545 3.565 3.6 3.657 3.702 3.72 3.73 3.853 4.43 4.962 5.035 4.892 3.858 3.011 3.14 3.255 3.31 3.357 3.387 3.395 3.418 3.46 3.495 3.515 3.517 3.513 3.513 3.52 3.532 3.545 3.558 3.573 3.588 3.602 3.612 3.615 3.605 3.585 3.565 3.545 3.535 3.532 3.527 3.52 3.48 3.415 3.358 3.305 3.268 3.242 3.217 3.19 3.155 3.12 3.1 3.11 3.135 3.163 3.213 3.295 3.387 3.46 3.51 3.512 3.485 3.478 3.49 3.507 3.487 3.428 3.375 3.355 3.355 3.35 3.34 3.335 3.333 3.345 3.383 3.422 3.435 3.428 3.425 3.425 3.422 3.417 3.402 3.34 3.215 3.062 2.773 2.56 2.56 2.56 2.713 3.195 3.64 3.78
6.783 6.74 6.723 6.74 6.77 6.792 6.785 6.758 6.735 6.715 6.69 6.665 6.645 6.63 6.625 6.617 6.602 6.585 6.565 6.54 6.515 6.472 6.41 6.345 6.28 6.215 6.145 6.062 5.945 5.805 5.67 5.618 5.673 5.732 5.775 5.825 5.865 5.827 5.722 5.617 5.52 5.518 5.592 5.63 5.64 5.65 5.673 5.707 5.725 5.715 5.675 5.597 5.503 5.417 5.317 5.175 5.048 4.985 5.108 5.307 5.37 5.372 5.385 5.385 5.365 5.257 5.07 4.87 4.65 4.43 4.205 3.97 3.73 3.635 3.675 3.713 3.773 3.852 3.902 3.907 3.895 3.878 3.87 3.87 3.87 3.87 3.87 3.87 3.867 3.857 3.835 3.795 3.743 3.69 3.643 3.628 3.64 3.625 3.578 3.538 3.525 3.525 3.535 3.568 3.623 3.69 3.745 3.77 3.758 4.175 4.832 5.05 5.05 4.402 3.286 3.028 3.272 3.34 3.39 3.417 3.425 3.425 3.445 3.477 3.5 3.515 3.52 3.52 3.525 3.535 3.548 3.562 3.575 3.59 3.605 3.612 3.612 3.607 3.595 3.575 3.555 3.535 3.525 3.522 3.517 3.51 3.472 3.413 3.36 3.31 3.273 3.242 3.21 3.18 3.145 3.123 3.133 3.16 3.193 3.243 3.317 3.402 3.46 3.51 3.565 3.557 3.5 3.453 3.43 3.435 3.415 3.373 3.358 3.36 3.365 3.36 3.35 3.343 3.338 3.338 3.355 3.385 3.397 3.395 3.395 3.395 3.395 3.38 3.335 3.237 3.11 2.892 2.648 2.56 2.56 2.56 3.013 3.627 3.8 3.825
6.783 6.745 6.718 6.728 6.76 6.787 6.787 6.765 6.745 6.725 6.7 6.675 6.65 6.625 6.61 6.595 6.575 6.555 6.535 6.518 6.497 6.452 6.39 6.328 6.265 6.203 6.16 6.06 5.895 5.753 5.645 5.648 5.73 5.785 5.807 5.825 5.832 5.787 5.692 5.588 5.508 5.52 5.572 5.587 5.593 5.6 5.623 5.658 5.685 5.695 5.652 5.563 5.465 5.368 5.243 5.085 4.933 4.835 4.988 5.25 5.352 5.357 5.325 5.267 5.225 5.132 4.905 4.685 4.502 4.29 4.067 3.835 3.683 3.735 3.825 3.835 3.86 3.907 3.932 3.92 3.9 3.88 3.87 3.87 3.87 3.87 3.87 3.87 3.87 3.855 3.817 3.768 3.715 3.663 3.61 3.57 3.555 3.548 3.528 3.515 3.515 3.515 3.535 3.59 3.657 3.722 3.782 3.788 3.94 4.567 5.042 5.06 4.797 3.705 3.038 3.262 3.355 3.415 3.447 3.455 3.455 3.455 3.467 3.485 3.5 3.515 3.523 3.53 3.542 3.555 3.565 3.578 3.592 3.607 3.617 3.615 3.608 3.6 3.585 3.565 3.545 3.525 3.515 3.513 3.508 3.5 3.467 3.415 3.365 3.315 3.273 3.238 3.203 3.17 3.145 3.15 3.18 3.213 3.258 3.327 3.405 3.457 3.458 3.495 3.577 3.575 3.517 3.462 3.412 3.383 3.36 3.35 3.357 3.365 3.37 3.367 3.36 3.35 3.345 3.345 3.348 3.358 3.365 3.365 3.368 3.37 3.358 3.32 3.245 3.137 2.937 2.678 2.56 2.56 2.56 2.855 3.472 3.83 3.875 3.89
6.81 6.78 6.745 6.733 6.758 6.785 6.792 6.785 6.767 6.743 6.713 6.685 6.66 6.633 6.608 6.585 6.565 6.545 6.52 6.505 6.49 6.442 6.38 6.32 6.26 6.215 6.205 6.085 5.86 5.693 5.61 5.635 5.707 5.747 5.75 5.742 5.735 5.712 5.65 5.555 5.493 5.507 5.535 5.54 5.548 5.555 5.588 5.635 5.668 5.69 5.65 5.553 5.458 5.358 5.22 5.05 4.88 4.755 4.88 5.16 5.277 5.24 5.15 5.07 5.06 5.065 4.797 4.448 4.28 4.125 3.93 3.75 3.728 3.822 3.88 3.9 3.92 3.935 3.935 3.92 3.9 3.88 3.87 3.87 3.87 3.87 3.87 3.87 3.865 3.84 3.8 3.752 3.7 3.645 3.59 3.55 3.533 3.53 3.528 3.525 3.523 3.515 3.543 3.61 3.68 3.747 3.797 3.83 4.32 4.94 5.08 5.057 4.185 3.143 3.138 3.36 3.427 3.462 3.47 3.47 3.47 3.475 3.485 3.493 3.505 3.52 3.53 3.54 3.555 3.572 3.583 3.593 3.607 3.62 3.627 3.625 3.615 3.605 3.59 3.57 3.548 3.528 3.518 3.515 3.513 3.502 3.47 3.42 3.37 3.32 3.275 3.24 3.208 3.173 3.165 3.198 3.235 3.268 3.32 3.392 3.455 3.467 3.433 3.468 3.54 3.527 3.475 3.425 3.375 3.338 3.313 3.305 3.315 3.325 3.342 3.355 3.35 3.342 3.342 3.345 3.342 3.34 3.343 3.345 3.35 3.388 3.362 3.26 3.165 3.07 2.795 2.563 2.56 2.56 2.74 3.347 3.812 3.88 3.915 3.92
6.86 6.83 6.79 6.753 6.76 6.785 6.792 6.797 6.795 6.775 6.74 6.703 6.67 6.645 6.622 6.6 6.575 6.545 6.507 6.485 6.47 6.432 6.38 6.318 6.268 6.263 6.255 6.105 5.85 5.643 5.543 5.553 5.61 5.642 5.64 5.63 5.62 5.61 5.585 5.517 5.47 5.477 5.49 5.5 5.51 5.52 5.563 5.632 5.682 5.712 5.675 5.575 5.488 5.41 5.28 5.1 4.928 4.8 4.895 5.11 5.132 5.027 4.93 4.888 4.915 4.965 4.74 4.263 3.978 3.867 3.75 3.698 3.75 3.83 3.88 3.9 3.915 3.92 3.92 3.915 3.9 3.88 3.87 3.87 3.87 3.87 3.87 3.87 3.855 3.82 3.78 3.737 3.69 3.635 3.583 3.56 3.557 3.553 3.55 3.55 3.542 3.525 3.55 3.617 3.688 3.76 3.778 4.053 4.72 5.095 5.09 4.702 3.568 3.048 3.347 3.437 3.47 3.477 3.475 3.475 3.478 3.49 3.505 3.51 3.518 3.53 3.54 3.55 3.568 3.592 3.605 3.61 3.62 3.633 3.642 3.642 3.635 3.625 3.61 3.588 3.563 3.543 3.533 3.53 3.527 3.515 3.48 3.427 3.375 3.325 3.283 3.25 3.22 3.188 3.193 3.247 3.295 3.325 3.38 3.45 3.475 3.447 3.408 3.437 3.475 3.442 3.395 3.345 3.308 3.295 3.27 3.238 3.235 3.248 3.277 3.312 3.32 3.315 3.32 3.327 3.327 3.325 3.328 3.335 3.378 3.47 3.432 3.243 3.102 2.92 2.67 2.56 2.56 2.56 3.043 3.67 3.842 3.895 3.92 3.92
6.91 6.88 6.837 6.785 6.77 6.783 6.788 6.795 6.81 6.805 6.77 6.73 6.69 6.658 6.635 6.607 6.57 6.527 6.483 6.458 6.437 6.405 6.367 6.323 6.308 6.34 6.307 6.12 5.86 5.618 5.483 5.473 5.51 5.532 5.525 5.515 5.505 5.495 5.485 5.455 5.435 5.442 5.453 5.465 5.477 5.493 5.538 5.615 5.685 5.732 5.702 5.613 5.54 5.475 5.355 5.188 5.038 4.918 4.97 5.045 4.94 4.808 4.73 4.73 4.775 4.825 4.692 4.225 3.75 3.563 3.575 3.663 3.752 3.83 3.88 3.897 3.902 3.9 3.9 3.9 3.895 3.88 3.87 3.87 3.87 3.87 3.87 3.867 3.845 3.805 3.763 3.72 3.677 3.625 3.583 3.575 3.58 3.577 3.572 3.565 3.55 3.53 3.555 3.623 3.695 3.763 3.87 4.438 5.015 5.105 4.972 3.945 3.091 3.27 3.442 3.48 3.482 3.48 3.48 3.485 3.495 3.51 3.525 3.53 3.533 3.54 3.55 3.565 3.59 3.617 3.63 3.63 3.635 3.647 3.655 3.655 3.655 3.65 3.632 3.608 3.583 3.56 3.548 3.542 3.535 3.522 3.487 3.433 3.38 3.328 3.288 3.26 3.232 3.203 3.215 3.282 3.345 3.385 3.44 3.482 3.46 3.415 3.38 3.392 3.4 3.36 3.315 3.278 3.265 3.262 3.237 3.19 3.163 3.17 3.203 3.25 3.282 3.29 3.295 3.305 3.31 3.31 3.32 3.368 3.475 3.577 3.505 3.268 3.035 2.748 2.56 2.56 2.56 2.85 3.452 3.79 3.84 3.89 3.917 3.92
6.955 6.93 6.885 6.828 6.793 6.79 6.805 6.825 6.84 6.82 6.777 6.742 6.705 6.67 6.635 6.593 6.547 6.5 6.455 6.428 6.403 6.37 6.348 6.348 6.38 6.43 6.362 6.14 5.885 5.635 5.473 5.435 5.438 5.438 5.433 5.425 5.418 5.413 5.408 5.393 5.385 5.4 5.417 5.43 5.443 5.463 5.513 5.588 5.665 5.735 5.732 5.665 5.6 5.535 5.432 5.297 5.167 5.043 4.977 4.903 4.755 4.62 4.565 4.59 4.635 4.685 4.645 4.27 3.723 3.45 3.503 3.662 3.765 3.832 3.877 3.887 3.887 3.883 3.88 3.88 3.88 3.875 3.87 3.87 3.87 3.87 3.867 3.857 3.835 3.797 3.753 3.708 3.663 3.618 3.595 3.597 3.6 3.597 3.587 3.57 3.55 3.533 3.56 3.633 3.71 3.748 4.158 4.847 5.12 5.112 4.51 3.381 3.1 3.417 3.487 3.49 3.485 3.48 3.483 3.495 3.512 3.527 3.54 3.547 3.55 3.553 3.563 3.585 3.615 3.642 3.655 3.655 3.657 3.662 3.665 3.668 3.672 3.672 3.655 3.63 3.605 3.58 3.565 3.555 3.543 3.527 3.492 3.44 3.387 3.333 3.295 3.27 3.243 3.215 3.238 3.31 3.382 3.442 3.48 3.475 3.43 3.383 3.35 3.338 3.315 3.283 3.255 3.238 3.235 3.23 3.202 3.153 3.105 3.095 3.13 3.178 3.222 3.252 3.265 3.277 3.287 3.305 3.363 3.473 3.607 3.685 3.567 3.295 2.925 2.63 2.56 2.56 2.583 3.168 3.752 3.798 3.845 3.892 3.917 3.92
6.985 6.975 6.932 6.88 6.843 6.835 6.855 6.882 6.875 6.822 6.773 6.738 6.703 6.677 6.64 6.583 6.525 6.473 6.43 6.398 6.378 6.363 6.358 6.38 6.435 6.502 6.425 6.19 5.945 5.703 5.523 5.46 5.438 5.408 5.39 5.383 5.38 5.378 5.375 5.35 5.323 5.335 5.362 5.387 5.407 5.433 5.487 5.56 5.632 5.705 5.72 5.665 5.6 5.545 5.475 5.375 5.255 5.125 4.988 4.843 4.695 4.548 4.493 4.525 4.56 4.598 4.602 4.387 3.97 3.615 3.54 3.673 3.782 3.847 3.872 3.875 3.875 3.873 3.87 3.87 3.87 3.87 3.87 3.87 3.87 3.87 3.862 3.845 3.825 3.792 3.748 3.702 3.655 3.623 3.618 3.62 3.62 3.615 3.598 3.575 3.558 3.565 3.595 3.65 3.728 3.91 4.552 5.09 5.125 4.874 3.81 3.123 3.332 3.45 3.487 3.482 3.477 3.475 3.477 3.49 3.51 3.525 3.54 3.555 3.56 3.56 3.573 3.6 3.63 3.657 3.67 3.67 3.672 3.675 3.677 3.682 3.685 3.685 3.672 3.647 3.623 3.6 3.585 3.575 3.56 3.535 3.492 3.44 3.385 3.33 3.3 3.28 3.253 3.23 3.26 3.335 3.41 3.477 3.492 3.458 3.41 3.363 3.328 3.303 3.278 3.258 3.248 3.24 3.235 3.22 3.178 3.125 3.073 3.045 3.065 3.108 3.155 3.195 3.215 3.228 3.248 3.3 3.422 3.585 3.732 3.772 3.585 3.212 2.78 2.56 2.56 2.56 2.883 3.485 3.79 3.838 3.88 3.91 3.92 3.92
6.995 7.008 6.988 6.953 6.923 6.905 6.915 6.925 6.885 6.82 6.77 6.733 6.703 6.69 6.66 6.595 6.525 6.463 6.42 6.395 6.388 6.39 6.393 6.41 6.465 6.545 6.485 6.267 6.03 5.788 5.595 5.515 5.482 5.435 5.39 5.363 5.355 5.353 5.35 5.312 5.258 5.255 5.287 5.322 5.352 5.385 5.445 5.52 5.587 5.652 5.662 5.61 5.558 5.517 5.465 5.387 5.287 5.165 5.03 4.887 4.725 4.55 4.49 4.532 4.565 4.587 4.572 4.482 4.29 3.955 3.72 3.74 3.822 3.865 3.87 3.87 3.87 3.87 3.87 3.87 3.87 3.87 3.87 3.87 3.87 3.867 3.855 3.835 3.815 3.787 3.745 3.698 3.658 3.64 3.64 3.64 3.637 3.63 3.612 3.593 3.6 3.647 3.655 3.668 3.758 4.295 4.962 5.14 5.129 4.297 3.231 3.138 3.332 3.425 3.47 3.467 3.463 3.46 3.463 3.473 3.49 3.505 3.525 3.547 3.557 3.563 3.58 3.607 3.635 3.66 3.672 3.675 3.678 3.68 3.685 3.695 3.7 3.7 3.687 3.663 3.64 3.623 3.61 3.597 3.572 3.535 3.485 3.43 3.375 3.32 3.295 3.285 3.265 3.245 3.275 3.353 3.43 3.49 3.495 3.46 3.415 3.37 3.333 3.31 3.3 3.285 3.275 3.27 3.252 3.215 3.162 3.108 3.058 3.02 3.015 3.048 3.092 3.13 3.15 3.173 3.218 3.293 3.44 3.635 3.815 3.792 3.495 3.005 2.633 2.56 2.56 2.785 3.412 3.815 3.84 3.885 3.912 3.92 3.92 3.92
7.058 7.093 7.087 7.053 7.018 6.985 6.97 6.945 6.885 6.818 6.765 6.728 6.71 6.71 6.68 6.618 6.555 6.495 6.458 6.445 6.44 6.437 6.432 6.442 6.495 6.575 6.535 6.34 6.107 5.873 5.678 5.578 5.53 5.477 5.422 5.373 5.34 5.328 5.32 5.27 5.193 5.175 5.21 5.245 5.272 5.303 5.362 5.442 5.517 5.59 5.61 5.575 5.537 5.5 5.445 5.375 5.295 5.197 5.075 4.922 4.732 4.54 4.48 4.532 4.58 4.585 4.53 4.45 4.375 4.215 3.97 3.878 3.892 3.875 3.87 3.87 3.87 3.867 3.865 3.865 3.867 3.87 3.87 3.87 3.87 3.862 3.845 3.825 3.805 3.78 3.742 3.698 3.668 3.66 3.66 3.657 3.65 3.64 3.628 3.635 3.685 3.752 3.723 3.69 3.98 4.7 5.155 5.145 4.777 3.648 3.066 3.272 3.323 3.398 3.45 3.452 3.448 3.445 3.45 3.46 3.47 3.483 3.505 3.53 3.55 3.565 3.585 3.61 3.635 3.66 3.675 3.68 3.682 3.685 3.69 3.702 3.712 3.717 3.705 3.683 3.665 3.648 3.635 3.612 3.572 3.527 3.475 3.42 3.368 3.315 3.288 3.282 3.272 3.258 3.293 3.392 3.462 3.49 3.492 3.465 3.43 3.39 3.358 3.34 3.327 3.313 3.305 3.29 3.25 3.198 3.145 3.093 3.043 3 2.985 3.003 3.033 3.063 3.095 3.15 3.22 3.298 3.44 3.627 3.77 3.682 3.302 2.813 2.56 2.56 2.56 3.11 3.772 3.875 3.885 3.912 3.92 3.92 3.92 3.92
7.175 7.222 7.21 7.162 7.117 7.07 7.02 6.963 6.895 6.823 6.765 6.73 6.72 6.727 6.705 6.652 6.602 6.555 6.52 6.5 6.477 6.455 6.435 6.428 6.48 6.582 6.572 6.395 6.165 5.935 5.743 5.622 5.53 5.447 5.402 5.375 5.347 5.317 5.282 5.22 5.13 5.098 5.127 5.16 5.185 5.21 5.26 5.335 5.412 5.475 5.505 5.507 5.497 5.475 5.425 5.355 5.28 5.2 5.1 4.937 4.725 4.53 4.47 4.525 4.58 4.595 4.54 4.45 4.363 4.275 4.132 4.018 3.965 3.91 3.885 3.875 3.868 3.863 3.86 3.86 3.865 3.87 3.87 3.87 3.867 3.855 3.835 3.815 3.792 3.767 3.735 3.703 3.688 3.682 3.677 3.67 3.66 3.65 3.66 3.71 3.78 3.847 3.807 3.82 4.405 5.032 5.155 5.042 4.01 3.093 3.195 3.307 3.343 3.39 3.43 3.437 3.435 3.435 3.44 3.45 3.455 3.463 3.485 3.513 3.54 3.565 3.588 3.613 3.637 3.66 3.675 3.68 3.685 3.69 3.695 3.707 3.72 3.73 3.722 3.702 3.687 3.67 3.647 3.61 3.565 3.52 3.467 3.412 3.36 3.31 3.283 3.28 3.278 3.28 3.343 3.43 3.462 3.48 3.485 3.462 3.435 3.405 3.38 3.365 3.352 3.34 3.325 3.287 3.235 3.183 3.13 3.08 3.03 2.985 2.968 2.975 2.99 3.02 3.078 3.155 3.23 3.305 3.41 3.517 3.57 3.477 3.055 2.648 2.56 2.56 2.738 3.38 3.865 3.895 3.912 3.92 3.92 3.92 3.92 3.92
7.245 7.3 7.295 7.245 7.192 7.132 7.065 6.995 6.917 6.835 6.775 6.74 6.73 6.74 6.725 6.682 6.64 6.585 6.527 6.49 6.457 6.425 6.395 6.388 6.448 6.532 6.512 6.352 6.142 5.94 5.76 5.627 5.498 5.363 5.265 5.213 5.197 5.182 5.15 5.097 5.03 5.01 5.04 5.07 5.095 5.12 5.16 5.218 5.273 5.31 5.34 5.367 5.387 5.387 5.342 5.267 5.195 5.127 5.047 4.91 4.71 4.515 4.458 4.512 4.567 4.62 4.63 4.565 4.465 4.365 4.263 4.148 4.04 3.965 3.928 3.91 3.887 3.865 3.852 3.852 3.857 3.86 3.86 3.857 3.847 3.83 3.81 3.792 3.775 3.755 3.73 3.713 3.707 3.7 3.69 3.68 3.67 3.663 3.693 3.76 3.83 3.855 3.805 4.125 4.83 5.167 5.155 4.57 3.408 3.04 3.29 3.34 3.375 3.405 3.42 3.425 3.425 3.425 3.43 3.44 3.448 3.455 3.475 3.505 3.535 3.565 3.592 3.617 3.64 3.66 3.675 3.683 3.688 3.693 3.7 3.713 3.727 3.737 3.727 3.705 3.69 3.675 3.645 3.6 3.552 3.505 3.455 3.402 3.35 3.305 3.295 3.305 3.305 3.333 3.397 3.425 3.435 3.47 3.475 3.452 3.428 3.41 3.387 3.365 3.352 3.34 3.32 3.28 3.228 3.175 3.125 3.075 3.025 2.98 2.963 2.97 2.983 3.018 3.085 3.165 3.24 3.317 3.365 3.365 3.355 3.24 2.845 2.56 2.56 2.56 3.04 3.67 3.845 3.897 3.925 3.923 3.92 3.92 3.92 3.917
7.27 7.332 7.345 7.297 7.237 7.17 7.1 7.022 6.93 6.84 6.78 6.75 6.74 6.747 6.737 6.7 6.657 6.582 6.495 6.445 6.412 6.38 6.35 6.368 6.442 6.477 6.41 6.268 6.1 5.93 5.76 5.62 5.485 5.325 5.165 5.033 4.94 4.895 4.875 4.86 4.875 4.907 4.94 4.97 4.995 5.025 5.083 5.133 5.153 5.17 5.188 5.205 5.228 5.238 5.2 5.13 5.068 5.015 4.94 4.825 4.67 4.49 4.433 4.495 4.555 4.617 4.68 4.695 4.63 4.53 4.42 4.285 4.14 4.028 3.967 3.93 3.885 3.847 3.833 3.832 3.835 3.835 3.832 3.825 3.81 3.79 3.768 3.748 3.735 3.722 3.712 3.715 3.715 3.705 3.695 3.685 3.678 3.675 3.705 3.77 3.8 3.78 3.9 4.54 5.11 5.17 4.934 3.83 3.081 3.252 3.327 3.37 3.395 3.41 3.415 3.415 3.415 3.418 3.423 3.43 3.443 3.458 3.48 3.51 3.54 3.57 3.597 3.622 3.642 3.66 3.675 3.687 3.695 3.7 3.71 3.72 3.732 3.742 3.73 3.703 3.683 3.665 3.632 3.585 3.537 3.49 3.44 3.39 3.345 3.31 3.323 3.352 3.355 3.4 3.417 3.398 3.425 3.46 3.462 3.44 3.423 3.412 3.387 3.348 3.323 3.31 3.295 3.27 3.23 3.178 3.125 3.078 3.03 2.983 2.965 2.978 2.995 3.03 3.095 3.175 3.253 3.332 3.355 3.315 3.272 3.008 2.663 2.56 2.56 2.68 3.282 3.79 3.845 3.905 3.932 3.928 3.925 3.922 3.885 3.827
7.23 7.32 7.37 7.342 7.275 7.205 7.125 7.03 6.93 6.843 6.788 6.765 6.755 6.755 6.75 6.717 6.665 6.575 6.465 6.4 6.367 6.335 6.315 6.358 6.422 6.432 6.357 6.222 6.082 5.932 5.767 5.618 5.475 5.315 5.155 4.995 4.835 4.705 4.638 4.66 4.743 4.797 4.825 4.863 4.908 4.98 5.08 5.135 5.143 5.148 5.15 5.153 5.165 5.163 5.11 5.03 4.965 4.915 4.832 4.715 4.587 4.44 4.395 4.468 4.537 4.6 4.67 4.74 4.757 4.695 4.572 4.412 4.227 4.055 3.95 3.892 3.838 3.808 3.805 3.805 3.805 3.805 3.797 3.785 3.77 3.75 3.727 3.703 3.68 3.665 3.668 3.687 3.705 3.707 3.7 3.693 3.69 3.69 3.72 3.76 3.76 3.79 4.283 4.965 5.187 5.174 4.352 3.228 3.085 3.297 3.362 3.387 3.395 3.398 3.402 3.405 3.408 3.413 3.418 3.428 3.443 3.46 3.485 3.515 3.545 3.575 3.602 3.625 3.642 3.66 3.675 3.69 3.702 3.71 3.72 3.727 3.735 3.745 3.735 3.705 3.678 3.655 3.62 3.57 3.523 3.477 3.43 3.385 3.35 3.323 3.34 3.39 3.417 3.412 3.378 3.375 3.415 3.447 3.45 3.435 3.428 3.42 3.395 3.345 3.3 3.28 3.265 3.245 3.22 3.18 3.13 3.083 3.037 2.99 2.973 2.99 3.01 3.043 3.105 3.185 3.268 3.347 3.365 3.32 3.25 2.883 2.56 2.56 2.56 2.973 3.585 3.805 3.855 3.912 3.937 3.933 3.93 3.92 3.84 3.715
7.095 7.23 7.35 7.37 7.31 7.232 7.137 7.033 6.93 6.848 6.8 6.78 6.77 6.765 6.76 6.732 6.667 6.565 6.445 6.36 6.32 6.29 6.295 6.345 6.367 6.36 6.305 6.18 6.042 5.907 5.76 5.612 5.465 5.302 5.135 4.965 4.795 4.628 4.535 4.573 4.645 4.693 4.74 4.798 4.888 5.018 5.13 5.187 5.207 5.21 5.213 5.215 5.217 5.185 5.103 5.005 4.915 4.838 4.743 4.63 4.518 4.4 4.375 4.448 4.52 4.58 4.635 4.707 4.785 4.795 4.672 4.467 4.245 4.028 3.895 3.838 3.795 3.78 3.778 3.775 3.775 3.773 3.76 3.745 3.73 3.71 3.69 3.665 3.635 3.61 3.613 3.64 3.673 3.702 3.713 3.71 3.71 3.708 3.73 3.76 3.79 4.028 4.71 5.185 5.185 4.829 3.658 3.021 3.25 3.335 3.38 3.385 3.385 3.385 3.39 3.395 3.4 3.407 3.415 3.43 3.448 3.465 3.49 3.52 3.55 3.58 3.607 3.625 3.64 3.66 3.675 3.688 3.703 3.715 3.725 3.732 3.738 3.745 3.735 3.705 3.675 3.647 3.61 3.56 3.51 3.463 3.422 3.39 3.362 3.338 3.345 3.405 3.437 3.375 3.338 3.375 3.415 3.442 3.447 3.44 3.435 3.43 3.402 3.352 3.3 3.26 3.235 3.215 3.195 3.17 3.132 3.088 3.043 2.998 2.988 3.01 3.03 3.06 3.12 3.2 3.285 3.362 3.37 3.315 3.117 2.755 2.56 2.56 2.638 3.245 3.82 3.872 3.897 3.927 3.94 3.935 3.93 3.91 3.82 3.68
