ncols         200
nrows         71
xllcorner     548000
yllcorner     254615
cellsize      5
NODATA_value  -9999.0
23.91 24 24.092 24.155 24.213 24.283 24.373 24.478 24.595 24.707 24.79 24.85 24.91 24.983 25.128 25.36 25.622 25.777 25.787 25.752 25.708 25.663 25.655 25.695 25.748 25.793 25.825 25.85 25.873 25.898 25.938 26.003 26.078 26.14 26.095 25.975 25.933 25.935 25.935 25.94 25.943 25.945 25.953 25.975 26.008 26.042 26.043 26.003 25.96 25.92 25.89 25.87 25.85 25.838 25.85 25.89 25.948 26.015 26.06 26.055 26.023 25.99 25.965 25.943 25.92 25.898 25.893 25.923 25.975 26.033 26.085 26.13 26.17 26.21 26.268 26.36 26.47 26.583 26.69 26.785 26.875 26.965 27.06 27.16 27.26 27.36 27.468 27.583 27.7 27.815 27.948 28.11 28.275 28.438 28.595 28.745 28.895 29.04 29.215 29.425 29.635 29.843 30.09 30.372 30.645 30.915 31.213 31.565 31.945 32.325 32.743 33.203 33.663 34.118 34.575 35.055 35.557 36.063 36.617 37.212 37.79 38.36 38.955 39.59 40.243 40.885 41.417 41.87 42.335 42.787 43.187 43.547 43.912 44.265 44.592 44.907 45.212 45.485 45.712 45.92 46.13 46.337 46.49 46.595 46.712 46.837 46.945 47.025 47.095 47.17 47.21 47.22 47.242 47.267 47.295 47.325 47.357 47.385 47.4 47.405 47.402 47.4 47.4 47.403 47.41 47.428 47.46 47.492 47.512 47.53 47.552 47.575 47.592 47.61 47.632 47.647 47.653 47.655 47.673 47.712 47.747 47.755 47.74 47.72 47.705 47.703 47.705 47.705 47.705 47.71 47.743 47.793 47.838 47.878 47.933 48.005 48.075 48.145 48.245 48.343
23.795 23.893 23.99 24.05 24.12 24.213 24.305 24.388 24.49 24.605 24.69 24.753 24.828 24.925 25.088 25.32 25.57 25.705 25.692 25.648 25.603 25.563 25.568 25.615 25.663 25.707 25.745 25.77 25.79 25.813 25.853 25.92 25.982 26.017 25.972 25.898 25.9 25.907 25.895 25.898 25.9 25.898 25.895 25.903 25.92 25.94 25.935 25.9 25.865 25.833 25.805 25.785 25.775 25.783 25.805 25.838 25.883 25.94 25.982 25.992 25.977 25.953 25.932 25.915 25.895 25.873 25.87 25.9 25.948 26.005 26.06 26.107 26.15 26.19 26.248 26.335 26.44 26.555 26.68 26.8 26.9 26.99 27.085 27.183 27.28 27.383 27.493 27.607 27.72 27.83 27.96 28.118 28.28 28.44 28.595 28.745 28.887 29.015 29.18 29.39 29.6 29.81 30.065 30.36 30.64 30.91 31.215 31.575 31.955 32.333 32.77 33.275 33.76 34.212 34.65 35.095 35.575 36.078 36.64 37.26 37.867 38.45 39.038 39.653 40.29 40.925 41.445 41.875 42.325 42.78 43.182 43.542 43.905 44.252 44.577 44.877 45.145 45.382 45.592 45.79 45.995 46.197 46.34 46.433 46.535 46.655 46.762 46.842 46.917 46.99 47.022 47.02 47.025 47.045 47.075 47.108 47.148 47.187 47.207 47.21 47.205 47.198 47.195 47.198 47.21 47.24 47.28 47.32 47.35 47.37 47.393 47.417 47.438 47.455 47.478 47.497 47.512 47.52 47.538 47.572 47.592 47.59 47.575 47.56 47.56 47.57 47.575 47.575 47.578 47.583 47.62 47.682 47.73 47.778 47.845 47.922 47.995 48.068 48.19 48.327
23.738 23.798 23.885 23.958 24.053 24.162 24.26 24.33 24.408 24.508 24.595 24.675 24.773 24.88 25.048 25.282 25.522 25.635 25.605 25.553 25.503 25.47 25.485 25.535 25.58 25.625 25.662 25.687 25.71 25.73 25.77 25.827 25.862 25.88 25.855 25.83 25.862 25.882 25.868 25.858 25.86 25.855 25.848 25.843 25.845 25.86 25.852 25.818 25.785 25.75 25.72 25.71 25.718 25.735 25.76 25.79 25.828 25.877 25.915 25.932 25.935 25.917 25.898 25.882 25.867 25.85 25.85 25.88 25.925 25.978 26.03 26.08 26.127 26.17 26.233 26.32 26.415 26.525 26.655 26.795 26.917 27.015 27.11 27.208 27.305 27.408 27.515 27.628 27.737 27.845 27.973 28.125 28.283 28.44 28.595 28.74 28.87 28.988 29.15 29.36 29.57 29.78 30.035 30.332 30.622 30.903 31.218 31.583 31.96 32.338 32.785 33.317 33.837 34.307 34.745 35.173 35.615 36.095 36.65 37.275 37.91 38.527 39.132 39.74 40.365 40.975 41.475 41.895 42.325 42.77 43.175 43.535 43.895 44.237 44.54 44.8 45.035 45.265 45.475 45.665 45.862 46.057 46.195 46.285 46.378 46.48 46.575 46.655 46.737 46.81 46.837 46.83 46.823 46.83 46.86 46.9 46.945 46.99 47.012 47.012 47.005 46.995 46.988 46.995 47.023 47.057 47.098 47.142 47.182 47.21 47.23 47.255 47.28 47.3 47.322 47.345 47.365 47.38 47.4 47.42 47.425 47.422 47.413 47.41 47.425 47.44 47.445 47.448 47.452 47.458 47.493 47.562 47.623 47.68 47.758 47.84 47.917 47.995 48.113 48.26
23.715 23.728 23.793 23.89 24.002 24.117 24.217 24.29 24.353 24.428 24.523 24.628 24.73 24.835 25.003 25.232 25.467 25.57 25.525 25.465 25.405 25.375 25.4 25.447 25.492 25.54 25.575 25.6 25.625 25.648 25.68 25.715 25.738 25.758 25.763 25.778 25.82 25.857 25.855 25.828 25.817 25.81 25.802 25.795 25.788 25.785 25.767 25.732 25.697 25.66 25.635 25.642 25.665 25.687 25.715 25.745 25.778 25.815 25.843 25.86 25.875 25.875 25.862 25.847 25.835 25.82 25.825 25.863 25.908 25.953 26 26.053 26.105 26.155 26.223 26.31 26.398 26.5 26.63 26.775 26.915 27.032 27.135 27.235 27.335 27.438 27.543 27.65 27.758 27.865 27.985 28.13 28.285 28.44 28.59 28.723 28.845 28.965 29.125 29.33 29.538 29.748 30.005 30.3 30.595 30.89 31.218 31.587 31.965 32.345 32.8 33.335 33.872 34.37 34.817 35.25 35.682 36.133 36.668 37.293 37.94 38.585 39.21 39.825 40.447 41.027 41.505 41.925 42.345 42.77 43.16 43.51 43.855 44.16 44.417 44.657 44.895 45.135 45.352 45.545 45.737 45.92 46.05 46.137 46.225 46.312 46.395 46.475 46.555 46.625 46.652 46.648 46.64 46.64 46.668 46.71 46.753 46.795 46.815 46.81 46.803 46.795 46.785 46.798 46.835 46.872 46.915 46.96 47.005 47.042 47.067 47.095 47.122 47.145 47.167 47.192 47.212 47.232 47.25 47.255 47.255 47.255 47.257 47.272 47.292 47.307 47.317 47.322 47.327 47.335 47.37 47.443 47.52 47.595 47.678 47.76 47.84 47.928 48.045 48.183
23.667 23.668 23.728 23.825 23.94 24.055 24.157 24.237 24.3 24.363 24.475 24.605 24.708 24.813 24.948 25.148 25.382 25.477 25.422 25.357 25.293 25.268 25.303 25.352 25.398 25.445 25.48 25.505 25.53 25.568 25.613 25.645 25.67 25.695 25.713 25.728 25.763 25.812 25.822 25.787 25.765 25.755 25.747 25.742 25.735 25.722 25.68 25.625 25.585 25.545 25.528 25.545 25.58 25.63 25.675 25.705 25.738 25.77 25.793 25.808 25.823 25.825 25.812 25.797 25.783 25.78 25.81 25.86 25.905 25.945 25.99 26.043 26.098 26.16 26.235 26.32 26.41 26.515 26.648 26.793 26.933 27.06 27.17 27.27 27.373 27.49 27.608 27.713 27.818 27.923 28.038 28.178 28.33 28.478 28.61 28.73 28.853 28.978 29.133 29.33 29.535 29.735 29.983 30.278 30.575 30.875 31.208 31.58 31.96 32.34 32.798 33.335 33.862 34.352 34.805 35.245 35.685 36.13 36.68 37.333 37.99 38.64 39.27 39.892 40.49 41.012 41.46 41.877 42.295 42.707 43.08 43.42 43.722 43.96 44.19 44.435 44.682 44.952 45.195 45.392 45.587 45.76 45.885 45.975 46.057 46.142 46.225 46.302 46.378 46.445 46.475 46.475 46.472 46.473 46.495 46.535 46.575 46.607 46.615 46.608 46.603 46.595 46.588 46.603 46.64 46.68 46.725 46.772 46.817 46.857 46.89 46.92 46.95 46.977 47 47.02 47.04 47.067 47.085 47.088 47.09 47.088 47.08 47.077 47.087 47.107 47.125 47.132 47.15 47.198 47.268 47.35 47.44 47.525 47.605 47.685 47.77 47.885 48.03 48.18
23.568 23.608 23.688 23.758 23.86 23.975 24.077 24.165 24.237 24.3 24.42 24.58 24.702 24.808 24.915 25.058 25.262 25.36 25.302 25.233 25.168 25.15 25.195 25.252 25.302 25.347 25.382 25.408 25.445 25.51 25.577 25.622 25.652 25.677 25.687 25.683 25.695 25.737 25.747 25.718 25.703 25.695 25.685 25.678 25.673 25.667 25.612 25.523 25.463 25.42 25.405 25.43 25.488 25.572 25.635 25.668 25.702 25.737 25.765 25.78 25.782 25.767 25.748 25.733 25.728 25.753 25.805 25.862 25.912 25.955 26 26.053 26.113 26.185 26.265 26.353 26.453 26.568 26.703 26.845 26.977 27.1 27.21 27.315 27.433 27.568 27.697 27.807 27.913 28.018 28.135 28.275 28.417 28.545 28.663 28.778 28.898 29.023 29.17 29.36 29.56 29.743 29.973 30.263 30.56 30.863 31.198 31.568 31.943 32.32 32.78 33.312 33.815 34.285 34.735 35.175 35.62 36.075 36.66 37.367 38.05 38.697 39.327 39.92 40.442 40.905 41.335 41.752 42.165 42.57 42.94 43.257 43.505 43.703 43.92 44.165 44.438 44.745 45.005 45.205 45.39 45.545 45.677 45.792 45.885 45.97 46.052 46.128 46.202 46.27 46.302 46.305 46.305 46.308 46.33 46.367 46.397 46.412 46.412 46.41 46.405 46.395 46.393 46.41 46.443 46.48 46.525 46.572 46.615 46.655 46.69 46.72 46.752 46.785 46.81 46.83 46.858 46.895 46.917 46.923 46.93 46.927 46.9 46.865 46.845 46.845 46.868 46.918 46.99 47.088 47.19 47.28 47.37 47.458 47.54 47.62 47.728 47.88 48.045 48.21
23.473 23.573 23.665 23.718 23.79 23.893 23.995 24.082 24.165 24.238 24.348 24.522 24.685 24.805 24.913 25.02 25.165 25.245 25.192 25.115 25.045 25.033 25.085 25.145 25.202 25.25 25.285 25.325 25.393 25.475 25.545 25.595 25.632 25.66 25.665 25.652 25.645 25.66 25.662 25.645 25.638 25.632 25.625 25.618 25.615 25.615 25.567 25.465 25.373 25.305 25.288 25.338 25.425 25.525 25.595 25.632 25.668 25.705 25.735 25.742 25.727 25.703 25.683 25.675 25.695 25.74 25.795 25.855 25.912 25.962 26.01 26.07 26.14 26.215 26.298 26.393 26.503 26.623 26.755 26.89 27.017 27.14 27.255 27.375 27.513 27.655 27.782 27.897 28.007 28.113 28.233 28.367 28.49 28.6 28.715 28.832 28.948 29.068 29.208 29.388 29.577 29.748 29.97 30.253 30.543 30.85 31.193 31.56 31.93 32.305 32.76 33.27 33.75 34.215 34.665 35.11 35.565 36.025 36.618 37.362 38.092 38.755 39.347 39.862 40.325 40.775 41.207 41.622 42.032 42.432 42.785 43.05 43.257 43.45 43.658 43.918 44.228 44.552 44.815 45 45.155 45.295 45.435 45.572 45.697 45.797 45.877 45.952 46.025 46.09 46.125 46.132 46.135 46.14 46.165 46.192 46.205 46.21 46.21 46.208 46.202 46.195 46.195 46.215 46.245 46.28 46.322 46.365 46.405 46.445 46.48 46.513 46.55 46.587 46.617 46.647 46.685 46.725 46.752 46.762 46.772 46.767 46.735 46.695 46.653 46.643 46.698 46.798 46.913 47.025 47.125 47.213 47.3 47.39 47.475 47.575 47.72 47.888 48.053 48.225
23.463 23.568 23.645 23.698 23.753 23.825 23.913 23.995 24.08 24.165 24.273 24.445 24.645 24.797 24.907 25.015 25.115 25.15 25.097 25.013 24.94 24.935 24.988 25.043 25.098 25.15 25.203 25.272 25.357 25.442 25.512 25.56 25.6 25.63 25.632 25.612 25.592 25.585 25.582 25.577 25.572 25.567 25.563 25.56 25.56 25.56 25.522 25.43 25.323 25.225 25.203 25.275 25.375 25.475 25.552 25.597 25.635 25.675 25.695 25.685 25.663 25.64 25.625 25.638 25.68 25.73 25.785 25.845 25.905 25.965 26.025 26.095 26.17 26.245 26.335 26.442 26.557 26.675 26.803 26.93 27.055 27.185 27.315 27.453 27.598 27.742 27.87 27.983 28.097 28.208 28.32 28.438 28.548 28.655 28.768 28.885 29.003 29.118 29.245 29.408 29.585 29.75 29.97 30.25 30.535 30.845 31.19 31.555 31.925 32.295 32.728 33.21 33.68 34.148 34.605 35.06 35.52 35.98 36.575 37.33 38.097 38.762 39.282 39.74 40.19 40.642 41.075 41.485 41.895 42.29 42.6 42.817 43.015 43.213 43.433 43.718 44.04 44.36 44.607 44.765 44.905 45.042 45.182 45.325 45.467 45.597 45.695 45.77 45.842 45.912 45.947 45.955 45.962 45.97 45.987 46 46.005 46.01 46.01 46.005 46 45.995 45.998 46.02 46.05 46.08 46.115 46.152 46.19 46.23 46.265 46.3 46.34 46.382 46.422 46.46 46.5 46.54 46.572 46.595 46.615 46.605 46.562 46.518 46.488 46.528 46.628 46.735 46.848 46.96 47.06 47.147 47.235 47.325 47.428 47.565 47.73 47.895 48.063 48.243
23.535 23.6 23.653 23.708 23.76 23.81 23.883 23.97 24.053 24.138 24.24 24.405 24.62 24.787 24.9 24.997 25.057 25.067 25.017 24.93 24.875 24.89 24.94 24.99 25.038 25.08 25.133 25.207 25.292 25.377 25.447 25.492 25.532 25.567 25.565 25.535 25.51 25.495 25.49 25.49 25.493 25.498 25.503 25.505 25.505 25.505 25.48 25.402 25.298 25.193 25.16 25.223 25.315 25.415 25.5 25.557 25.6 25.637 25.647 25.63 25.61 25.59 25.588 25.625 25.68 25.73 25.788 25.85 25.91 25.973 26.045 26.125 26.2 26.275 26.37 26.485 26.603 26.725 26.855 26.983 27.11 27.248 27.393 27.54 27.685 27.832 27.965 28.075 28.193 28.323 28.443 28.545 28.648 28.755 28.858 28.965 29.088 29.208 29.328 29.465 29.623 29.785 30.003 30.283 30.568 30.868 31.208 31.573 31.937 32.29 32.693 33.16 33.63 34.098 34.56 35.02 35.48 35.938 36.53 37.282 38.032 38.657 39.147 39.6 40.05 40.497 40.925 41.335 41.74 42.112 42.392 42.6 42.8 43 43.245 43.55 43.862 44.145 44.355 44.505 44.645 44.78 44.92 45.065 45.208 45.357 45.472 45.547 45.625 45.702 45.737 45.74 45.75 45.76 45.77 45.78 45.79 45.797 45.8 45.797 45.792 45.785 45.79 45.812 45.837 45.86 45.89 45.927 45.965 46.005 46.04 46.075 46.118 46.165 46.212 46.257 46.3 46.34 46.375 46.405 46.432 46.425 46.38 46.338 46.355 46.455 46.572 46.68 46.79 46.887 46.972 47.062 47.155 47.258 47.395 47.555 47.72 47.895 48.083 48.27
23.622 23.657 23.688 23.74 23.785 23.825 23.9 24.002 24.09 24.17 24.268 24.42 24.62 24.78 24.875 24.932 24.957 24.967 24.935 24.865 24.843 24.88 24.93 24.975 25.01 25.035 25.07 25.128 25.2 25.282 25.352 25.397 25.44 25.485 25.485 25.448 25.415 25.395 25.395 25.403 25.413 25.43 25.447 25.455 25.455 25.45 25.425 25.37 25.282 25.175 25.138 25.18 25.253 25.35 25.437 25.505 25.555 25.592 25.607 25.592 25.57 25.55 25.56 25.618 25.685 25.74 25.8 25.867 25.93 25.99 26.065 26.152 26.232 26.308 26.4 26.518 26.645 26.78 26.915 27.045 27.183 27.33 27.48 27.628 27.775 27.93 28.065 28.18 28.315 28.472 28.607 28.705 28.805 28.915 29.01 29.1 29.213 29.335 29.458 29.583 29.718 29.87 30.078 30.35 30.63 30.91 31.24 31.605 31.955 32.283 32.67 33.135 33.602 34.063 34.52 34.98 35.437 35.888 36.475 37.207 37.895 38.49 38.992 39.445 39.895 40.34 40.765 41.17 41.55 41.892 42.172 42.397 42.605 42.81 43.073 43.375 43.645 43.875 44.067 44.227 44.372 44.51 44.65 44.798 44.948 45.105 45.22 45.295 45.378 45.46 45.492 45.485 45.49 45.5 45.51 45.525 45.54 45.552 45.56 45.557 45.555 45.558 45.568 45.585 45.605 45.625 45.655 45.695 45.735 45.775 45.813 45.853 45.9 45.95 46 46.05 46.097 46.137 46.17 46.197 46.22 46.222 46.19 46.188 46.273 46.397 46.515 46.625 46.725 46.802 46.873 46.958 47.058 47.19 47.355 47.52 47.693 47.888 48.105 48.313
23.697 23.705 23.725 23.767 23.8 23.838 23.913 24.02 24.12 24.208 24.315 24.458 24.625 24.752 24.807 24.83 24.845 24.86 24.843 24.813 24.825 24.868 24.91 24.942 24.963 24.983 25.018 25.065 25.12 25.19 25.257 25.308 25.355 25.405 25.41 25.373 25.34 25.32 25.32 25.333 25.35 25.37 25.39 25.405 25.41 25.392 25.355 25.315 25.252 25.16 25.128 25.16 25.208 25.29 25.375 25.442 25.5 25.547 25.57 25.555 25.53 25.51 25.533 25.605 25.682 25.747 25.81 25.88 25.945 26.008 26.085 26.175 26.26 26.34 26.435 26.56 26.7 26.84 26.978 27.115 27.263 27.415 27.565 27.715 27.868 28.025 28.17 28.31 28.47 28.637 28.77 28.873 28.985 29.1 29.195 29.273 29.36 29.47 29.593 29.718 29.843 29.978 30.163 30.415 30.685 30.953 31.273 31.625 31.952 32.268 32.65 33.107 33.57 34.028 34.485 34.94 35.387 35.833 36.408 37.087 37.722 38.322 38.84 39.287 39.735 40.18 40.6 40.98 41.325 41.655 41.942 42.18 42.402 42.63 42.887 43.142 43.365 43.575 43.772 43.94 44.092 44.237 44.382 44.537 44.695 44.852 44.967 45.048 45.132 45.215 45.247 45.233 45.225 45.23 45.243 45.258 45.273 45.287 45.298 45.3 45.308 45.325 45.342 45.357 45.375 45.395 45.425 45.465 45.505 45.545 45.588 45.635 45.687 45.74 45.79 45.84 45.89 45.932 45.963 45.985 46.003 46.015 46.028 46.095 46.217 46.34 46.455 46.557 46.64 46.708 46.775 46.858 46.978 47.14 47.315 47.488 47.678 47.885 48.115 48.355
23.732 23.735 23.752 23.782 23.81 23.85 23.928 24.032 24.137 24.24 24.36 24.5 24.635 24.71 24.728 24.74 24.753 24.768 24.77 24.78 24.815 24.857 24.89 24.908 24.923 24.945 24.98 25.023 25.068 25.12 25.175 25.225 25.275 25.325 25.335 25.31 25.29 25.275 25.27 25.278 25.29 25.305 25.328 25.35 25.357 25.332 25.29 25.247 25.2 25.14 25.12 25.15 25.185 25.24 25.31 25.375 25.435 25.495 25.527 25.518 25.495 25.478 25.513 25.595 25.675 25.75 25.82 25.89 25.955 26.02 26.103 26.195 26.283 26.373 26.48 26.613 26.757 26.902 27.048 27.198 27.35 27.5 27.653 27.808 27.962 28.118 28.278 28.447 28.622 28.795 28.937 29.055 29.172 29.287 29.385 29.46 29.533 29.62 29.73 29.855 29.98 30.105 30.26 30.48 30.738 30.995 31.295 31.623 31.938 32.253 32.628 33.073 33.53 33.99 34.445 34.892 35.335 35.778 36.31 36.925 37.538 38.15 38.68 39.125 39.57 40.01 40.405 40.75 41.08 41.41 41.7 41.94 42.17 42.397 42.622 42.842 43.055 43.267 43.472 43.645 43.797 43.947 44.105 44.272 44.44 44.6 44.717 44.802 44.885 44.967 45.005 44.987 44.967 44.965 44.978 44.993 45.01 45.025 45.04 45.057 45.075 45.095 45.112 45.127 45.142 45.16 45.19 45.23 45.27 45.31 45.357 45.412 45.467 45.522 45.575 45.625 45.675 45.733 45.78 45.805 45.825 45.845 45.905 46.025 46.157 46.282 46.392 46.478 46.548 46.613 46.68 46.778 46.925 47.1 47.28 47.468 47.673 47.888 48.125 48.388
23.735 23.75 23.765 23.78 23.805 23.848 23.925 24.025 24.138 24.265 24.4 24.537 24.66 24.715 24.713 24.715 24.725 24.738 24.75 24.77 24.805 24.85 24.88 24.893 24.91 24.935 24.97 25.01 25.053 25.098 25.13 25.163 25.21 25.26 25.28 25.267 25.25 25.235 25.23 25.233 25.238 25.248 25.27 25.295 25.297 25.27 25.228 25.183 25.14 25.11 25.118 25.15 25.185 25.225 25.275 25.338 25.4 25.463 25.502 25.5 25.48 25.468 25.508 25.59 25.673 25.76 25.843 25.915 25.983 26.05 26.138 26.238 26.33 26.423 26.533 26.665 26.807 26.955 27.117 27.287 27.445 27.595 27.748 27.9 28.055 28.21 28.375 28.555 28.735 28.922 29.097 29.237 29.355 29.47 29.57 29.645 29.715 29.803 29.913 30.033 30.158 30.283 30.42 30.608 30.845 31.095 31.378 31.69 32.005 32.308 32.633 33.038 33.49 33.95 34.4 34.843 35.285 35.71 36.185 36.76 37.37 37.957 38.467 38.915 39.357 39.772 40.13 40.46 40.79 41.125 41.42 41.66 41.875 42.065 42.265 42.482 42.697 42.917 43.137 43.322 43.475 43.628 43.792 43.967 44.14 44.29 44.397 44.482 44.565 44.652 44.692 44.672 44.66 44.68 44.712 44.732 44.75 44.765 44.787 44.815 44.835 44.857 44.872 44.88 44.89 44.905 44.94 44.987 45.03 45.07 45.12 45.18 45.238 45.295 45.35 45.4 45.465 45.56 45.635 45.67 45.698 45.723 45.795 45.927 46.07 46.207 46.325 46.412 46.483 46.553 46.625 46.745 46.918 47.09 47.28 47.49 47.705 47.923 48.158 48.423
23.737 23.763 23.78 23.783 23.793 23.823 23.898 24.013 24.145 24.29 24.435 24.57 24.695 24.765 24.763 24.745 24.745 24.755 24.765 24.778 24.8 24.84 24.872 24.89 24.91 24.938 24.975 25.015 25.058 25.1 25.118 25.125 25.16 25.207 25.23 25.225 25.21 25.195 25.19 25.19 25.195 25.205 25.225 25.245 25.24 25.21 25.168 25.128 25.103 25.103 25.128 25.163 25.2 25.24 25.285 25.343 25.405 25.467 25.505 25.502 25.485 25.473 25.513 25.595 25.683 25.78 25.872 25.955 26.03 26.1 26.19 26.297 26.395 26.488 26.593 26.715 26.85 26.998 27.175 27.367 27.54 27.695 27.845 27.993 28.145 28.3 28.465 28.645 28.833 29.035 29.23 29.4 29.537 29.652 29.75 29.825 29.91 30.023 30.14 30.25 30.37 30.495 30.633 30.805 31.015 31.255 31.533 31.842 32.145 32.415 32.693 33.035 33.45 33.905 34.355 34.797 35.225 35.618 36.053 36.608 37.2 37.735 38.212 38.662 39.082 39.457 39.8 40.13 40.463 40.805 41.105 41.34 41.527 41.685 41.873 42.088 42.31 42.545 42.777 42.975 43.137 43.295 43.46 43.627 43.78 43.905 44 44.085 44.173 44.265 44.307 44.295 44.318 44.383 44.44 44.472 44.492 44.508 44.533 44.565 44.59 44.612 44.625 44.623 44.623 44.635 44.678 44.737 44.787 44.83 44.88 44.94 45.002 45.065 45.12 45.18 45.283 45.415 45.5 45.542 45.58 45.608 45.68 45.81 45.952 46.095 46.232 46.355 46.45 46.53 46.605 46.738 46.932 47.113 47.313 47.547 47.775 47.99 48.205 48.455
23.747 23.78 23.8 23.8 23.795 23.793 23.875 24.03 24.177 24.322 24.465 24.597 24.72 24.812 24.83 24.8 24.78 24.778 24.785 24.795 24.808 24.835 24.865 24.888 24.913 24.943 24.98 25.02 25.06 25.097 25.112 25.108 25.12 25.153 25.17 25.17 25.165 25.153 25.148 25.153 25.158 25.165 25.18 25.187 25.175 25.148 25.118 25.1 25.103 25.118 25.143 25.18 25.22 25.26 25.308 25.363 25.42 25.482 25.515 25.507 25.493 25.48 25.518 25.605 25.7 25.8 25.895 25.985 26.07 26.148 26.24 26.347 26.45 26.55 26.658 26.775 26.9 27.045 27.225 27.422 27.612 27.787 27.942 28.087 28.237 28.39 28.558 28.748 28.95 29.157 29.35 29.535 29.705 29.837 29.933 30.018 30.13 30.255 30.37 30.478 30.588 30.708 30.853 31.023 31.208 31.423 31.69 31.987 32.26 32.505 32.778 33.09 33.44 33.858 34.307 34.737 35.135 35.513 35.923 36.438 36.985 37.485 37.957 38.387 38.767 39.122 39.465 39.8 40.143 40.49 40.79 41.002 41.16 41.303 41.48 41.7 41.94 42.19 42.422 42.62 42.795 42.96 43.12 43.265 43.387 43.502 43.6 43.688 43.78 43.875 43.92 43.94 44.013 44.1 44.16 44.197 44.227 44.25 44.275 44.31 44.342 44.367 44.377 44.37 44.365 44.37 44.41 44.475 44.535 44.588 44.64 44.703 44.768 44.833 44.898 44.99 45.13 45.275 45.36 45.405 45.45 45.488 45.563 45.69 45.83 45.97 46.115 46.26 46.39 46.5 46.588 46.723 46.93 47.133 47.348 47.595 47.837 48.06 48.263 48.493
23.712 23.78 23.807 23.792 23.77 23.748 23.838 24.022 24.195 24.355 24.495 24.62 24.74 24.852 24.897 24.875 24.845 24.825 24.825 24.833 24.838 24.85 24.868 24.89 24.918 24.948 24.985 25.025 25.063 25.095 25.108 25.103 25.103 25.11 25.115 25.115 25.115 25.11 25.11 25.12 25.125 25.13 25.138 25.135 25.123 25.108 25.1 25.105 25.12 25.138 25.163 25.2 25.243 25.285 25.333 25.385 25.44 25.5 25.527 25.515 25.5 25.49 25.53 25.625 25.725 25.825 25.92 26.01 26.1 26.188 26.285 26.393 26.5 26.608 26.723 26.845 26.965 27.1 27.273 27.468 27.665 27.86 28.027 28.175 28.325 28.478 28.655 28.862 29.075 29.28 29.47 29.655 29.84 30.002 30.125 30.237 30.362 30.485 30.6 30.71 30.815 30.925 31.073 31.248 31.425 31.615 31.845 32.103 32.35 32.59 32.863 33.175 33.495 33.848 34.25 34.65 35.03 35.41 35.803 36.26 36.758 37.24 37.687 38.075 38.433 38.788 39.135 39.48 39.83 40.18 40.465 40.645 40.782 40.92 41.095 41.323 41.575 41.83 42.057 42.252 42.435 42.605 42.75 42.872 42.985 43.097 43.2 43.295 43.393 43.487 43.558 43.628 43.725 43.817 43.88 43.915 43.95 43.985 44.017 44.052 44.087 44.12 44.13 44.123 44.12 44.123 44.158 44.22 44.283 44.345 44.408 44.475 44.54 44.605 44.698 44.833 44.99 45.135 45.222 45.267 45.31 45.368 45.468 45.598 45.73 45.868 46.015 46.16 46.3 46.435 46.553 46.71 46.933 47.158 47.39 47.64 47.89 48.125 48.33 48.54
23.573 23.692 23.76 23.737 23.703 23.68 23.773 23.967 24.16 24.335 24.472 24.587 24.702 24.83 24.927 24.947 24.925 24.9 24.893 24.898 24.903 24.91 24.92 24.938 24.955 24.973 25.003 25.04 25.078 25.11 25.123 25.12 25.115 25.105 25.1 25.1 25.1 25.1 25.105 25.115 25.12 25.133 25.145 25.14 25.13 25.123 25.125 25.135 25.148 25.188 25.238 25.275 25.315 25.353 25.383 25.423 25.48 25.54 25.565 25.553 25.54 25.53 25.575 25.675 25.775 25.873 25.965 26.055 26.143 26.228 26.33 26.445 26.555 26.665 26.785 26.912 27.035 27.163 27.323 27.515 27.715 27.912 28.085 28.235 28.387 28.545 28.73 28.942 29.157 29.367 29.56 29.745 29.93 30.11 30.265 30.392 30.515 30.652 30.815 30.957 31.065 31.168 31.305 31.48 31.66 31.84 32.033 32.253 32.49 32.73 32.978 33.26 33.575 33.895 34.223 34.573 34.945 35.325 35.713 36.148 36.623 37.067 37.455 37.813 38.163 38.487 38.808 39.15 39.502 39.845 40.097 40.252 40.385 40.53 40.71 40.93 41.177 41.432 41.657 41.85 42.037 42.212 42.352 42.467 42.58 42.69 42.805 42.915 43.015 43.11 43.205 43.302 43.4 43.505 43.587 43.632 43.667 43.705 43.747 43.787 43.825 43.86 43.88 43.885 43.883 43.885 43.92 43.98 44.043 44.11 44.182 44.255 44.323 44.388 44.5 44.662 44.827 44.985 45.082 45.122 45.16 45.263 45.412 45.543 45.668 45.803 45.968 46.135 46.278 46.413 46.548 46.735 46.975 47.213 47.453 47.7 47.95 48.19 48.4 48.598
23.393 23.555 23.66 23.655 23.63 23.613 23.708 23.902 24.085 24.247 24.38 24.493 24.618 24.765 24.905 24.985 24.997 24.98 24.97 24.975 24.985 24.997 25.01 25.022 25.022 25.018 25.035 25.068 25.105 25.142 25.16 25.155 25.142 25.128 25.12 25.12 25.12 25.12 25.125 25.135 25.148 25.173 25.19 25.185 25.175 25.163 25.163 25.175 25.203 25.28 25.357 25.4 25.437 25.47 25.485 25.5 25.545 25.602 25.625 25.618 25.61 25.598 25.64 25.74 25.837 25.93 26.02 26.11 26.195 26.273 26.375 26.497 26.61 26.723 26.845 26.977 27.105 27.23 27.383 27.568 27.763 27.955 28.125 28.278 28.435 28.595 28.778 28.988 29.205 29.422 29.62 29.805 29.993 30.18 30.34 30.465 30.6 30.773 30.982 31.185 31.33 31.438 31.568 31.728 31.9 32.08 32.265 32.468 32.693 32.93 33.15 33.373 33.65 33.965 34.265 34.56 34.89 35.255 35.65 36.092 36.535 36.917 37.267 37.615 37.935 38.195 38.468 38.8 39.142 39.457 39.687 39.835 39.975 40.14 40.325 40.53 40.76 41.007 41.23 41.42 41.613 41.8 41.947 42.06 42.17 42.28 42.405 42.532 42.64 42.737 42.835 42.935 43.043 43.165 43.267 43.335 43.382 43.42 43.465 43.512 43.552 43.587 43.62 43.642 43.647 43.648 43.683 43.745 43.81 43.88 43.955 44.032 44.105 44.175 44.295 44.465 44.638 44.812 44.925 44.968 45.03 45.195 45.38 45.503 45.623 45.753 45.933 46.14 46.315 46.46 46.6 46.798 47.042 47.285 47.525 47.77 48.017 48.255 48.467 48.68
23.245 23.45 23.55 23.557 23.55 23.545 23.645 23.827 23.99 24.137 24.27 24.4 24.55 24.71 24.86 24.97 25.032 25.052 25.052 25.06 25.07 25.085 25.097 25.097 25.08 25.063 25.075 25.105 25.14 25.177 25.192 25.182 25.167 25.15 25.14 25.14 25.14 25.14 25.145 25.163 25.19 25.22 25.235 25.23 25.217 25.2 25.2 25.225 25.288 25.392 25.472 25.517 25.56 25.597 25.612 25.61 25.625 25.665 25.685 25.68 25.675 25.663 25.705 25.802 25.892 25.98 26.07 26.157 26.24 26.318 26.415 26.538 26.66 26.78 26.905 27.04 27.172 27.3 27.45 27.628 27.813 27.997 28.167 28.325 28.485 28.648 28.828 29.035 29.258 29.48 29.68 29.868 30.06 30.25 30.412 30.55 30.715 30.91 31.118 31.345 31.557 31.707 31.84 31.99 32.15 32.325 32.51 32.703 32.908 33.132 33.347 33.543 33.763 34.043 34.337 34.61 34.893 35.208 35.585 36 36.377 36.725 37.072 37.387 37.645 37.865 38.123 38.437 38.747 39.035 39.26 39.423 39.585 39.76 39.945 40.145 40.358 40.585 40.803 40.998 41.195 41.39 41.54 41.65 41.76 41.87 41.993 42.127 42.252 42.362 42.465 42.573 42.695 42.825 42.93 43.012 43.085 43.135 43.18 43.23 43.275 43.315 43.35 43.38 43.4 43.41 43.45 43.515 43.58 43.653 43.728 43.805 43.883 43.965 44.098 44.273 44.45 44.627 44.755 44.818 44.938 45.16 45.347 45.465 45.58 45.703 45.88 46.105 46.317 46.497 46.658 46.863 47.108 47.353 47.595 47.838 48.077 48.313 48.535 48.783
23.218 23.392 23.448 23.453 23.455 23.47 23.57 23.73 23.883 24.032 24.155 24.295 24.477 24.652 24.812 24.932 25.015 25.065 25.082 25.1 25.12 25.147 25.165 25.155 25.132 25.11 25.115 25.147 25.17 25.167 25.175 25.197 25.195 25.175 25.165 25.165 25.165 25.165 25.175 25.203 25.237 25.27 25.285 25.277 25.26 25.24 25.24 25.293 25.39 25.505 25.585 25.625 25.662 25.695 25.71 25.712 25.717 25.737 25.75 25.743 25.735 25.728 25.77 25.86 25.948 26.035 26.12 26.2 26.28 26.36 26.455 26.575 26.705 26.833 26.963 27.098 27.233 27.368 27.52 27.692 27.87 28.047 28.215 28.375 28.535 28.7 28.88 29.088 29.315 29.54 29.742 29.932 30.127 30.32 30.492 30.66 30.85 31.05 31.253 31.478 31.722 31.93 32.095 32.255 32.412 32.575 32.755 32.947 33.142 33.345 33.545 33.738 33.933 34.155 34.415 34.685 34.958 35.235 35.53 35.858 36.2 36.543 36.86 37.113 37.33 37.545 37.78 38.055 38.34 38.618 38.853 39.038 39.213 39.39 39.573 39.773 39.985 40.203 40.408 40.598 40.793 40.982 41.13 41.24 41.35 41.46 41.58 41.715 41.853 41.983 42.103 42.225 42.355 42.485 42.592 42.677 42.762 42.835 42.89 42.94 42.99 43.04 43.08 43.11 43.138 43.175 43.235 43.303 43.368 43.445 43.533 43.62 43.71 43.815 43.953 44.108 44.27 44.443 44.588 44.7 44.88 45.13 45.312 45.428 45.543 45.673 45.855 46.073 46.293 46.505 46.705 46.93 47.175 47.42 47.665 47.905 48.143 48.38 48.62 48.908
23.252 23.352 23.388 23.385 23.388 23.41 23.498 23.64 23.795 23.95 24.05 24.148 24.325 24.525 24.69 24.815 24.892 24.927 24.947 24.97 25 25.045 25.097 25.132 25.157 25.157 25.157 25.165 25.14 25.093 25.09 25.165 25.22 25.212 25.2 25.2 25.203 25.205 25.22 25.25 25.285 25.32 25.335 25.325 25.308 25.29 25.303 25.385 25.5 25.612 25.677 25.7 25.73 25.755 25.77 25.78 25.79 25.805 25.832 25.845 25.835 25.828 25.865 25.95 26.038 26.118 26.19 26.265 26.345 26.425 26.518 26.635 26.765 26.898 27.033 27.165 27.3 27.433 27.58 27.752 27.927 28.097 28.26 28.422 28.585 28.748 28.925 29.135 29.365 29.59 29.797 29.99 30.185 30.38 30.572 30.77 30.97 31.172 31.375 31.595 31.832 32.062 32.26 32.43 32.597 32.772 32.957 33.147 33.337 33.535 33.735 33.925 34.12 34.315 34.525 34.775 35.05 35.325 35.555 35.778 36.075 36.412 36.703 36.93 37.143 37.345 37.538 37.755 38.013 38.288 38.535 38.73 38.905 39.093 39.283 39.465 39.665 39.885 40.075 40.245 40.43 40.612 40.755 40.863 40.978 41.11 41.238 41.365 41.508 41.65 41.778 41.895 42.02 42.152 42.26 42.34 42.425 42.51 42.575 42.625 42.688 42.762 42.815 42.845 42.893 42.975 43.06 43.13 43.205 43.3 43.405 43.505 43.613 43.74 43.875 44.008 44.148 44.298 44.448 44.623 44.85 45.1 45.28 45.408 45.553 45.713 45.903 46.11 46.325 46.543 46.773 47.025 47.278 47.525 47.77 48.008 48.243 48.48 48.74 49.085
23.207 23.297 23.36 23.36 23.365 23.39 23.463 23.58 23.725 23.88 23.965 23.993 24.105 24.27 24.392 24.52 24.64 24.695 24.708 24.72 24.75 24.81 24.892 24.975 25.052 25.1 25.122 25.107 25.052 24.998 24.978 25.065 25.192 25.242 25.245 25.245 25.248 25.253 25.27 25.303 25.345 25.398 25.44 25.465 25.48 25.475 25.483 25.53 25.613 25.72 25.767 25.763 25.78 25.805 25.82 25.83 25.837 25.853 25.905 25.96 25.972 25.965 26 26.082 26.16 26.225 26.29 26.363 26.44 26.52 26.61 26.72 26.845 26.98 27.115 27.247 27.377 27.493 27.63 27.805 27.977 28.142 28.305 28.468 28.632 28.795 28.97 29.178 29.405 29.632 29.842 30.035 30.23 30.425 30.632 30.852 31.062 31.267 31.472 31.69 31.92 32.15 32.35 32.52 32.705 32.912 33.112 33.298 33.49 33.703 33.912 34.107 34.303 34.495 34.68 34.89 35.15 35.425 35.645 35.813 36.023 36.318 36.617 36.857 37.057 37.225 37.388 37.573 37.785 38.038 38.285 38.48 38.668 38.88 39.08 39.235 39.395 39.597 39.78 39.935 40.105 40.277 40.415 40.538 40.683 40.845 40.98 41.09 41.223 41.365 41.485 41.588 41.698 41.825 41.932 42.008 42.088 42.17 42.243 42.313 42.4 42.495 42.555 42.603 42.695 42.815 42.91 42.985 43.083 43.202 43.315 43.42 43.543 43.68 43.818 43.952 44.085 44.225 44.385 44.59 44.833 45.067 45.272 45.452 45.628 45.808 46 46.205 46.417 46.63 46.868 47.14 47.41 47.662 47.905 48.14 48.37 48.603 48.878 49.26
23.128 23.24 23.325 23.345 23.357 23.388 23.458 23.553 23.668 23.81 23.882 23.865 23.88 23.92 23.985 24.125 24.3 24.437 24.482 24.478 24.508 24.585 24.67 24.755 24.842 24.907 24.945 24.955 24.94 24.9 24.865 24.938 25.092 25.212 25.27 25.29 25.295 25.3 25.325 25.375 25.443 25.52 25.59 25.65 25.702 25.717 25.717 25.735 25.78 25.85 25.875 25.85 25.84 25.855 25.87 25.877 25.878 25.893 25.95 26.027 26.082 26.1 26.14 26.212 26.275 26.335 26.4 26.47 26.543 26.62 26.713 26.82 26.935 27.063 27.195 27.325 27.442 27.548 27.683 27.853 28.022 28.188 28.352 28.515 28.677 28.84 29.018 29.225 29.45 29.677 29.885 30.078 30.273 30.468 30.68 30.91 31.137 31.35 31.558 31.78 32.007 32.235 32.438 32.623 32.83 33.05 33.255 33.45 33.66 33.88 34.09 34.29 34.485 34.675 34.857 35.04 35.263 35.517 35.727 35.89 36.053 36.265 36.535 36.772 36.942 37.08 37.235 37.42 37.61 37.82 38.043 38.253 38.47 38.7 38.895 39.035 39.165 39.328 39.493 39.64 39.795 39.955 40.108 40.265 40.435 40.607 40.745 40.843 40.95 41.078 41.195 41.295 41.395 41.505 41.61 41.698 41.785 41.878 41.963 42.045 42.143 42.235 42.31 42.405 42.533 42.662 42.763 42.855 42.975 43.105 43.223 43.343 43.48 43.623 43.763 43.9 44.045 44.205 44.383 44.595 44.822 45.02 45.247 45.507 45.72 45.905 46.103 46.307 46.513 46.72 46.96 47.24 47.527 47.795 48.04 48.272 48.5 48.73 49.015 49.38
23.04 23.16 23.265 23.305 23.315 23.353 23.435 23.532 23.633 23.742 23.785 23.75 23.708 23.668 23.695 23.835 24.03 24.217 24.297 24.283 24.305 24.38 24.468 24.555 24.64 24.697 24.728 24.752 24.77 24.767 24.748 24.81 24.947 25.067 25.157 25.212 25.25 25.292 25.377 25.482 25.572 25.655 25.727 25.79 25.817 25.79 25.78 25.815 25.855 25.892 25.95 25.97 25.935 25.92 25.918 25.915 25.913 25.93 25.99 26.07 26.148 26.21 26.27 26.33 26.385 26.445 26.51 26.578 26.645 26.72 26.815 26.925 27.035 27.153 27.275 27.39 27.498 27.605 27.738 27.898 28.065 28.233 28.398 28.56 28.723 28.885 29.065 29.275 29.498 29.72 29.927 30.123 30.318 30.513 30.725 30.958 31.192 31.42 31.64 31.865 32.09 32.315 32.535 32.75 32.97 33.19 33.405 33.62 33.84 34.06 34.27 34.47 34.665 34.855 35.04 35.215 35.4 35.61 35.802 35.968 36.13 36.295 36.493 36.68 36.818 36.945 37.11 37.313 37.518 37.72 37.92 38.123 38.328 38.535 38.713 38.853 38.985 39.125 39.273 39.425 39.588 39.748 39.905 40.063 40.218 40.378 40.513 40.613 40.713 40.825 40.94 41.05 41.16 41.265 41.368 41.47 41.573 41.683 41.775 41.848 41.93 42.028 42.138 42.26 42.388 42.513 42.63 42.75 42.88 43.013 43.145 43.283 43.425 43.57 43.718 43.87 44.035 44.205 44.385 44.59 44.785 44.948 45.17 45.473 45.76 45.995 46.202 46.405 46.607 46.813 47.053 47.335 47.628 47.912 48.172 48.407 48.632 48.858 49.135 49.475
22.913 23.052 23.177 23.227 23.245 23.3 23.388 23.49 23.595 23.677 23.692 23.655 23.615 23.575 23.578 23.685 23.87 24.06 24.14 24.125 24.135 24.195 24.285 24.37 24.445 24.502 24.535 24.555 24.57 24.587 24.6 24.653 24.752 24.85 24.935 25.002 25.067 25.15 25.29 25.452 25.59 25.717 25.83 25.872 25.825 25.743 25.71 25.74 25.78 25.82 25.93 26.057 26.075 26.043 26.02 26.008 26.005 26.023 26.083 26.168 26.253 26.335 26.403 26.455 26.508 26.568 26.633 26.695 26.758 26.825 26.92 27.038 27.153 27.27 27.385 27.49 27.593 27.7 27.82 27.965 28.13 28.298 28.46 28.623 28.788 28.95 29.125 29.33 29.55 29.77 29.98 30.178 30.373 30.568 30.78 31.013 31.247 31.475 31.695 31.917 32.142 32.378 32.63 32.875 33.1 33.32 33.555 33.792 34.017 34.24 34.447 34.645 34.84 35.03 35.215 35.39 35.56 35.735 35.903 36.065 36.233 36.395 36.55 36.688 36.813 36.94 37.1 37.305 37.525 37.743 37.943 38.12 38.293 38.458 38.605 38.748 38.893 39.035 39.17 39.313 39.48 39.645 39.79 39.93 40.068 40.19 40.308 40.425 40.535 40.645 40.758 40.875 40.993 41.1 41.205 41.31 41.418 41.535 41.63 41.7 41.788 41.92 42.06 42.18 42.303 42.425 42.555 42.69 42.823 42.965 43.128 43.288 43.433 43.578 43.728 43.888 44.053 44.218 44.393 44.585 44.775 44.953 45.19 45.5 45.81 46.07 46.28 46.48 46.683 46.905 47.168 47.455 47.745 48.03 48.29 48.525 48.75 48.978 49.253 49.593
22.82 22.953 23.087 23.147 23.188 23.26 23.343 23.44 23.545 23.612 23.615 23.58 23.54 23.5 23.505 23.58 23.72 23.9 23.982 23.97 23.968 24.013 24.1 24.177 24.245 24.307 24.345 24.365 24.38 24.398 24.428 24.47 24.535 24.625 24.712 24.78 24.845 24.928 25.065 25.245 25.425 25.587 25.732 25.805 25.762 25.678 25.638 25.66 25.7 25.74 25.853 26.04 26.175 26.202 26.182 26.173 26.17 26.185 26.24 26.325 26.415 26.492 26.55 26.6 26.655 26.718 26.783 26.845 26.905 26.958 27.045 27.172 27.295 27.415 27.53 27.633 27.73 27.835 27.945 28.07 28.223 28.388 28.55 28.713 28.875 29.035 29.205 29.395 29.608 29.83 30.04 30.24 30.437 30.633 30.845 31.077 31.305 31.512 31.72 31.94 32.173 32.43 32.702 32.967 33.21 33.438 33.685 33.947 34.19 34.415 34.62 34.813 35.007 35.2 35.382 35.558 35.735 35.908 36.058 36.2 36.358 36.522 36.672 36.8 36.923 37.05 37.195 37.37 37.575 37.795 37.995 38.17 38.325 38.452 38.575 38.713 38.857 39 39.125 39.243 39.388 39.547 39.692 39.822 39.932 40.012 40.118 40.26 40.387 40.5 40.612 40.727 40.837 40.94 41.045 41.153 41.268 41.39 41.485 41.565 41.695 41.872 42.025 42.145 42.27 42.395 42.525 42.663 42.805 42.96 43.137 43.325 43.492 43.64 43.788 43.943 44.1 44.26 44.438 44.648 44.865 45.07 45.323 45.63 45.905 46.13 46.335 46.535 46.755 47.018 47.305 47.595 47.877 48.147 48.397 48.628 48.855 49.098 49.388 49.708
22.81 22.89 23 23.078 23.14 23.22 23.3 23.393 23.49 23.54 23.53 23.497 23.462 23.425 23.438 23.505 23.595 23.742 23.827 23.815 23.805 23.835 23.91 23.983 24.048 24.112 24.155 24.175 24.195 24.22 24.255 24.295 24.34 24.408 24.488 24.56 24.63 24.708 24.84 25.012 25.167 25.3 25.442 25.597 25.662 25.612 25.565 25.58 25.623 25.665 25.778 25.965 26.155 26.282 26.332 26.352 26.355 26.367 26.413 26.49 26.577 26.647 26.703 26.758 26.82 26.885 26.95 27.015 27.067 27.105 27.183 27.31 27.44 27.565 27.682 27.785 27.878 27.978 28.088 28.203 28.33 28.483 28.645 28.805 28.965 29.125 29.295 29.475 29.67 29.885 30.097 30.3 30.5 30.695 30.908 31.135 31.342 31.538 31.743 31.968 32.218 32.49 32.765 33.037 33.302 33.547 33.8 34.077 34.347 34.585 34.79 34.98 35.173 35.367 35.55 35.73 35.92 36.102 36.25 36.37 36.5 36.653 36.797 36.917 37.035 37.16 37.305 37.465 37.64 37.845 38.042 38.2 38.325 38.433 38.545 38.678 38.82 38.96 39.085 39.195 39.318 39.458 39.58 39.673 39.745 39.808 39.915 40.07 40.218 40.348 40.465 40.575 40.68 40.783 40.89 41.003 41.123 41.245 41.345 41.463 41.64 41.835 41.99 42.113 42.24 42.368 42.5 42.645 42.8 42.96 43.133 43.332 43.532 43.697 43.85 44.008 44.165 44.325 44.513 44.747 44.99 45.208 45.46 45.74 45.975 46.185 46.39 46.608 46.868 47.155 47.445 47.727 47.992 48.25 48.5 48.735 48.973 49.223 49.505 49.815
22.825 22.878 22.948 23.025 23.1 23.18 23.26 23.347 23.425 23.457 23.445 23.415 23.385 23.355 23.375 23.443 23.508 23.61 23.673 23.668 23.673 23.698 23.748 23.803 23.855 23.915 23.965 23.993 24.025 24.065 24.108 24.148 24.185 24.23 24.288 24.355 24.425 24.495 24.603 24.74 24.863 24.98 25.128 25.315 25.477 25.522 25.493 25.503 25.547 25.59 25.7 25.875 26.04 26.19 26.307 26.387 26.447 26.512 26.585 26.66 26.735 26.8 26.86 26.922 26.987 27.052 27.117 27.175 27.215 27.245 27.32 27.445 27.578 27.708 27.833 27.94 28.03 28.125 28.233 28.348 28.463 28.59 28.738 28.895 29.058 29.22 29.388 29.565 29.748 29.945 30.153 30.355 30.558 30.758 30.965 31.173 31.368 31.565 31.773 32.01 32.278 32.553 32.828 33.103 33.375 33.64 33.908 34.187 34.472 34.735 34.95 35.142 35.335 35.53 35.72 35.907 36.102 36.292 36.442 36.555 36.667 36.792 36.92 37.035 37.15 37.273 37.413 37.57 37.73 37.908 38.073 38.195 38.305 38.415 38.528 38.655 38.795 38.935 39.063 39.183 39.308 39.433 39.525 39.58 39.633 39.7 39.818 39.975 40.133 40.27 40.378 40.478 40.58 40.683 40.793 40.903 41.008 41.113 41.235 41.405 41.605 41.803 41.963 42.093 42.225 42.358 42.503 42.658 42.81 42.965 43.13 43.325 43.54 43.74 43.918 44.08 44.24 44.4 44.593 44.833 45.088 45.333 45.58 45.818 46.03 46.24 46.463 46.72 47.005 47.295 47.578 47.843 48.098 48.355 48.61 48.86 49.11 49.363 49.658 50.013
22.835 22.877 22.933 23.005 23.08 23.153 23.228 23.303 23.358 23.382 23.375 23.345 23.318 23.305 23.338 23.403 23.47 23.54 23.578 23.59 23.61 23.635 23.67 23.71 23.75 23.795 23.838 23.875 23.92 23.97 24.025 24.073 24.11 24.145 24.195 24.263 24.33 24.395 24.465 24.555 24.658 24.76 24.888 25.045 25.215 25.357 25.407 25.428 25.47 25.513 25.598 25.73 25.867 26 26.12 26.232 26.345 26.457 26.585 26.722 26.837 26.915 26.972 27.03 27.087 27.145 27.212 27.307 27.377 27.41 27.485 27.608 27.74 27.873 28.003 28.113 28.205 28.298 28.4 28.515 28.63 28.743 28.87 29.015 29.175 29.34 29.505 29.68 29.858 30.045 30.235 30.425 30.628 30.833 31.035 31.23 31.425 31.625 31.84 32.093 32.37 32.645 32.913 33.18 33.453 33.728 34.007 34.29 34.572 34.847 35.077 35.272 35.467 35.672 35.872 36.06 36.252 36.445 36.597 36.71 36.82 36.927 37.04 37.158 37.273 37.395 37.545 37.71 37.868 38.028 38.155 38.255 38.368 38.483 38.598 38.725 38.865 39.005 39.125 39.24 39.37 39.497 39.585 39.633 39.683 39.763 39.895 40.055 40.202 40.308 40.39 40.485 40.585 40.69 40.805 40.915 41.01 41.1 41.24 41.438 41.638 41.82 41.97 42.105 42.24 42.388 42.558 42.72 42.865 43.013 43.178 43.373 43.593 43.823 44.022 44.185 44.345 44.518 44.725 44.963 45.213 45.468 45.71 45.933 46.148 46.363 46.605 46.883 47.17 47.46 47.733 47.985 48.24 48.5 48.763 49.033 49.295 49.548 49.858 50.242
22.815 22.86 22.915 22.997 23.082 23.153 23.22 23.28 23.315 23.33 23.32 23.298 23.29 23.298 23.333 23.395 23.462 23.52 23.555 23.573 23.593 23.62 23.655 23.692 23.727 23.758 23.788 23.825 23.87 23.92 23.98 24.042 24.09 24.128 24.185 24.265 24.34 24.405 24.46 24.52 24.598 24.683 24.788 24.913 25.048 25.198 25.302 25.352 25.395 25.44 25.493 25.563 25.673 25.805 25.925 26.035 26.142 26.248 26.393 26.58 26.747 26.882 26.985 27.05 27.1 27.15 27.25 27.44 27.572 27.623 27.703 27.81 27.938 28.072 28.197 28.305 28.4 28.493 28.593 28.705 28.82 28.933 29.053 29.183 29.325 29.48 29.645 29.82 30 30.195 30.378 30.538 30.72 30.923 31.125 31.323 31.52 31.72 31.945 32.213 32.495 32.772 33.033 33.283 33.548 33.823 34.103 34.388 34.67 34.947 35.182 35.378 35.583 35.807 36.015 36.195 36.378 36.565 36.722 36.84 36.947 37.053 37.163 37.28 37.4 37.53 37.693 37.872 38.04 38.197 38.317 38.408 38.513 38.625 38.74 38.873 39.015 39.155 39.265 39.355 39.468 39.595 39.685 39.738 39.805 39.905 40.045 40.192 40.302 40.372 40.44 40.53 40.635 40.753 40.875 40.992 41.097 41.19 41.333 41.53 41.712 41.865 42.002 42.138 42.28 42.453 42.645 42.812 42.955 43.115 43.305 43.505 43.72 43.955 44.155 44.315 44.488 44.685 44.905 45.138 45.38 45.63 45.877 46.115 46.34 46.56 46.805 47.08 47.365 47.652 47.92 48.17 48.425 48.683 48.948 49.23 49.507 49.765 50.06 50.435
22.763 22.827 22.895 22.985 23.082 23.165 23.232 23.277 23.29 23.288 23.28 23.28 23.295 23.31 23.338 23.393 23.452 23.505 23.54 23.558 23.577 23.605 23.637 23.67 23.697 23.722 23.753 23.788 23.825 23.87 23.93 24 24.062 24.11 24.173 24.26 24.345 24.415 24.47 24.52 24.578 24.653 24.755 24.877 24.995 25.102 25.195 25.265 25.32 25.37 25.415 25.455 25.52 25.62 25.728 25.835 25.94 26.043 26.175 26.34 26.502 26.677 26.852 26.992 27.085 27.15 27.308 27.545 27.712 27.825 27.94 28.042 28.15 28.272 28.39 28.495 28.593 28.69 28.79 28.898 29.01 29.125 29.247 29.372 29.497 29.633 29.79 29.968 30.153 30.36 30.557 30.705 30.85 31.025 31.22 31.42 31.62 31.823 32.058 32.335 32.623 32.905 33.165 33.408 33.658 33.923 34.2 34.482 34.765 35.047 35.287 35.493 35.718 35.952 36.162 36.34 36.513 36.692 36.847 36.965 37.072 37.178 37.288 37.405 37.533 37.67 37.83 38.015 38.2 38.37 38.492 38.578 38.668 38.768 38.883 39.02 39.167 39.31 39.417 39.495 39.583 39.695 39.787 39.855 39.945 40.055 40.185 40.295 40.365 40.425 40.49 40.578 40.69 40.815 40.94 41.06 41.177 41.283 41.425 41.602 41.755 41.895 42.035 42.173 42.335 42.53 42.73 42.903 43.063 43.26 43.47 43.667 43.868 44.087 44.285 44.458 44.655 44.868 45.09 45.32 45.555 45.8 46.05 46.295 46.53 46.755 47.003 47.28 47.563 47.847 48.115 48.363 48.613 48.868 49.135 49.42 49.71 49.983 50.275 50.63
22.713 22.788 22.873 22.97 23.07 23.167 23.247 23.277 23.262 23.247 23.255 23.275 23.297 23.317 23.342 23.387 23.44 23.49 23.525 23.542 23.552 23.562 23.585 23.612 23.637 23.67 23.71 23.747 23.782 23.823 23.88 23.95 24.02 24.083 24.158 24.25 24.34 24.42 24.48 24.53 24.58 24.638 24.718 24.818 24.915 25.008 25.09 25.16 25.228 25.293 25.353 25.405 25.458 25.51 25.583 25.678 25.77 25.86 25.963 26.098 26.25 26.413 26.6 26.802 26.977 27.12 27.302 27.5 27.662 27.822 27.98 28.12 28.252 28.39 28.53 28.667 28.787 28.89 28.99 29.092 29.2 29.315 29.44 29.557 29.662 29.783 29.94 30.123 30.308 30.525 30.74 30.9 31.03 31.168 31.333 31.52 31.725 31.935 32.18 32.468 32.763 33.042 33.295 33.537 33.783 34.033 34.3 34.58 34.86 35.142 35.397 35.625 35.86 36.097 36.31 36.49 36.66 36.835 36.985 37.095 37.198 37.303 37.415 37.54 37.673 37.81 37.97 38.155 38.345 38.532 38.667 38.755 38.84 38.925 39.033 39.168 39.315 39.463 39.573 39.648 39.723 39.81 39.9 39.993 40.095 40.2 40.3 40.373 40.43 40.488 40.548 40.635 40.753 40.88 41.005 41.125 41.248 41.373 41.51 41.65 41.785 41.925 42.065 42.218 42.405 42.61 42.815 43.01 43.21 43.432 43.64 43.832 44.025 44.228 44.428 44.625 44.838 45.053 45.275 45.505 45.735 45.973 46.22 46.465 46.708 46.945 47.2 47.48 47.763 48.047 48.315 48.56 48.805 49.055 49.323 49.61 49.905 50.193 50.498 50.845
22.68 22.76 22.843 22.928 23.03 23.14 23.23 23.247 23.207 23.182 23.192 23.217 23.242 23.27 23.307 23.357 23.412 23.462 23.482 23.48 23.472 23.465 23.477 23.503 23.54 23.597 23.652 23.69 23.728 23.775 23.838 23.913 23.985 24.055 24.138 24.232 24.325 24.407 24.482 24.545 24.595 24.645 24.705 24.78 24.86 24.938 25.02 25.105 25.183 25.263 25.338 25.4 25.442 25.465 25.518 25.603 25.685 25.765 25.848 25.953 26.08 26.213 26.37 26.57 26.793 27.005 27.187 27.345 27.493 27.65 27.82 27.99 28.157 28.322 28.487 28.655 28.817 28.957 29.077 29.195 29.325 29.46 29.58 29.68 29.783 29.92 30.093 30.278 30.47 30.7 30.917 31.087 31.23 31.358 31.515 31.69 31.883 32.095 32.348 32.642 32.922 33.175 33.415 33.657 33.902 34.148 34.41 34.69 34.97 35.235 35.48 35.717 35.955 36.202 36.44 36.635 36.81 36.995 37.155 37.263 37.353 37.448 37.558 37.688 37.823 37.963 38.128 38.315 38.508 38.705 38.857 38.952 39.038 39.12 39.225 39.365 39.513 39.658 39.77 39.848 39.923 39.988 40.055 40.148 40.253 40.355 40.44 40.505 40.565 40.623 40.68 40.755 40.85 40.958 41.08 41.213 41.348 41.49 41.64 41.775 41.895 42.015 42.148 42.325 42.54 42.758 42.973 43.17 43.37 43.592 43.8 43.99 44.182 44.385 44.595 44.808 45.022 45.238 45.46 45.69 45.92 46.155 46.398 46.643 46.89 47.13 47.395 47.687 47.973 48.257 48.525 48.77 49.013 49.273 49.558 49.85 50.143 50.448 50.78 51.138
22.655 22.742 22.817 22.88 22.965 23.072 23.157 23.165 23.12 23.088 23.09 23.115 23.148 23.188 23.24 23.3 23.355 23.397 23.402 23.378 23.353 23.338 23.348 23.385 23.448 23.525 23.585 23.623 23.67 23.73 23.8 23.882 23.96 24.033 24.115 24.207 24.292 24.368 24.46 24.555 24.62 24.67 24.73 24.797 24.855 24.908 24.993 25.102 25.2 25.287 25.362 25.41 25.415 25.425 25.485 25.568 25.652 25.735 25.82 25.915 26.02 26.13 26.255 26.418 26.625 26.845 27.032 27.187 27.33 27.483 27.65 27.817 27.983 28.147 28.313 28.48 28.67 28.855 29 29.14 29.317 29.517 29.66 29.76 29.895 30.068 30.258 30.448 30.633 30.865 31.092 31.267 31.425 31.585 31.78 31.955 32.113 32.303 32.545 32.817 33.065 33.295 33.53 33.772 34.018 34.265 34.53 34.81 35.072 35.305 35.528 35.76 36.005 36.28 36.562 36.783 36.97 37.172 37.345 37.457 37.542 37.623 37.723 37.853 37.993 38.14 38.31 38.5 38.695 38.892 39.055 39.165 39.252 39.338 39.455 39.61 39.765 39.91 40.02 40.092 40.152 40.2 40.25 40.323 40.418 40.52 40.612 40.69 40.755 40.815 40.877 40.945 41.018 41.103 41.213 41.345 41.49 41.64 41.805 41.97 42.1 42.205 42.335 42.528 42.758 42.99 43.197 43.365 43.533 43.735 43.945 44.14 44.338 44.558 44.78 44.995 45.21 45.425 45.65 45.88 46.11 46.345 46.585 46.83 47.075 47.305 47.575 47.89 48.187 48.472 48.74 48.985 49.24 49.535 49.85 50.15 50.45 50.785 51.145 51.508
22.645 22.725 22.8 22.855 22.915 23 23.062 23.057 23.02 22.988 22.988 23.023 23.07 23.123 23.18 23.235 23.277 23.31 23.32 23.295 23.258 23.23 23.243 23.303 23.38 23.457 23.517 23.565 23.625 23.69 23.763 23.847 23.93 24.01 24.092 24.172 24.243 24.313 24.41 24.527 24.627 24.695 24.755 24.81 24.845 24.88 24.96 25.08 25.195 25.3 25.372 25.39 25.37 25.383 25.45 25.532 25.618 25.7 25.788 25.885 25.99 26.1 26.215 26.338 26.488 26.685 26.875 27.025 27.165 27.313 27.475 27.643 27.808 27.97 28.135 28.31 28.51 28.712 28.873 29.04 29.26 29.505 29.712 29.883 30.068 30.265 30.46 30.625 30.768 30.987 31.227 31.407 31.605 31.832 32.057 32.235 32.375 32.54 32.75 32.973 33.19 33.415 33.648 33.885 34.13 34.383 34.647 34.907 35.137 35.355 35.575 35.803 36.068 36.383 36.713 36.96 37.15 37.358 37.533 37.648 37.73 37.805 37.898 38.028 38.178 38.333 38.5 38.688 38.882 39.077 39.25 39.372 39.465 39.558 39.685 39.845 40.007 40.165 40.267 40.317 40.36 40.4 40.45 40.515 40.593 40.685 40.778 40.86 40.938 41.008 41.075 41.15 41.233 41.323 41.423 41.535 41.658 41.795 41.96 42.137 42.3 42.43 42.578 42.78 43.005 43.227 43.412 43.568 43.723 43.893 44.09 44.29 44.503 44.743 44.97 45.185 45.4 45.615 45.84 46.07 46.302 46.537 46.775 47.015 47.247 47.47 47.74 48.067 48.39 48.687 48.955 49.213 49.503 49.825 50.15 50.465 50.798 51.167 51.54 51.897
22.653 22.717 22.782 22.835 22.888 22.95 22.982 22.96 22.925 22.895 22.903 22.953 23.005 23.06 23.115 23.157 23.19 23.22 23.24 23.227 23.195 23.168 23.188 23.255 23.328 23.4 23.463 23.523 23.587 23.65 23.725 23.81 23.898 23.985 24.06 24.125 24.19 24.258 24.35 24.473 24.595 24.697 24.765 24.8 24.823 24.85 24.925 25.045 25.165 25.285 25.352 25.347 25.32 25.34 25.415 25.498 25.583 25.665 25.755 25.855 25.96 26.07 26.185 26.3 26.415 26.563 26.725 26.873 27.018 27.165 27.328 27.5 27.668 27.833 28.003 28.185 28.38 28.575 28.77 28.998 29.253 29.51 29.775 30.05 30.295 30.495 30.657 30.772 30.878 31.078 31.312 31.515 31.77 32.052 32.305 32.492 32.645 32.823 33.02 33.215 33.413 33.62 33.83 34.043 34.268 34.505 34.743 34.968 35.185 35.403 35.62 35.878 36.218 36.605 36.978 37.253 37.44 37.618 37.785 37.9 37.973 38.043 38.118 38.225 38.368 38.525 38.69 38.875 39.07 39.265 39.448 39.577 39.667 39.752 39.867 40.015 40.173 40.397 40.51 40.503 40.547 40.592 40.647 40.715 40.783 40.87 40.97 41.058 41.148 41.223 41.29 41.375 41.465 41.558 41.658 41.765 41.873 41.988 42.128 42.293 42.467 42.632 42.812 43.025 43.245 43.445 43.612 43.77 43.927 44.083 44.253 44.453 44.69 44.937 45.16 45.375 45.59 45.805 46.027 46.255 46.49 46.725 46.957 47.187 47.41 47.63 47.9 48.23 48.567 48.89 49.183 49.475 49.795 50.125 50.452 50.792 51.16 51.542 51.917 52.277
22.652 22.7 22.752 22.81 22.86 22.912 22.932 22.908 22.875 22.845 22.858 22.913 22.965 23.01 23.05 23.085 23.115 23.145 23.17 23.172 23.155 23.135 23.16 23.225 23.29 23.36 23.425 23.488 23.553 23.623 23.705 23.793 23.885 23.978 24.05 24.11 24.173 24.248 24.338 24.448 24.573 24.695 24.767 24.793 24.815 24.85 24.915 25.015 25.135 25.255 25.315 25.3 25.28 25.31 25.388 25.47 25.555 25.638 25.73 25.838 25.945 26.055 26.168 26.283 26.4 26.518 26.653 26.808 26.96 27.11 27.278 27.458 27.633 27.805 27.978 28.168 28.363 28.545 28.765 29.03 29.3 29.57 29.848 30.21 30.525 30.688 30.802 30.897 30.993 31.17 31.405 31.648 31.935 32.232 32.515 32.742 32.933 33.135 33.34 33.535 33.73 33.917 34.09 34.275 34.488 34.733 34.993 35.225 35.438 35.648 35.855 36.133 36.528 36.962 37.335 37.627 37.845 38.005 38.195 38.348 38.42 38.485 38.53 38.593 38.705 38.838 38.988 39.16 39.34 39.52 39.688 39.78 39.825 39.885 39.978 40.11 40.318 40.66 40.767 40.678 40.71 40.765 40.83 40.9 40.965 41.078 41.232 41.35 41.435 41.48 41.528 41.615 41.705 41.803 41.91 42.02 42.13 42.23 42.328 42.455 42.618 42.8 43 43.215 43.437 43.63 43.787 43.945 44.105 44.262 44.423 44.628 44.875 45.11 45.325 45.54 45.755 45.965 46.18 46.407 46.642 46.875 47.105 47.33 47.552 47.783 48.063 48.395 48.738 49.077 49.417 49.752 50.08 50.41 50.74 51.087 51.462 51.845 52.225 52.595
22.627 22.653 22.7 22.772 22.83 22.88 22.897 22.88 22.855 22.825 22.835 22.887 22.932 22.957 22.985 23.022 23.057 23.09 23.112 23.122 23.117 23.103 23.13 23.195 23.26 23.33 23.395 23.455 23.528 23.618 23.71 23.8 23.895 23.99 24.065 24.125 24.2 24.3 24.39 24.473 24.583 24.702 24.772 24.8 24.838 24.895 24.95 25.01 25.108 25.225 25.277 25.263 25.263 25.298 25.368 25.452 25.535 25.608 25.703 25.827 25.942 26.05 26.163 26.28 26.397 26.51 26.645 26.807 26.965 27.115 27.288 27.477 27.662 27.84 28.01 28.208 28.422 28.615 28.838 29.105 29.375 29.645 29.915 30.46 30.917 30.953 30.958 31.023 31.118 31.28 31.528 31.81 32.11 32.41 32.71 32.98 33.215 33.442 33.657 33.852 34.03 34.192 34.35 34.538 34.78 35.068 35.375 35.657 35.895 36.105 36.308 36.555 36.923 37.337 37.68 37.98 38.25 38.445 38.667 38.897 39.012 39.067 39.09 39.115 39.195 39.305 39.445 39.615 39.783 39.948 40.088 40.148 40.138 40.1 40.163 40.308 40.568 40.975 41.067 40.895 40.865 40.93 41 41.07 41.13 41.283 41.53 41.695 41.745 41.74 41.773 41.86 41.955 42.065 42.182 42.295 42.397 42.482 42.563 42.658 42.783 42.95 43.153 43.378 43.602 43.787 43.943 44.1 44.26 44.423 44.59 44.803 45.04 45.252 45.463 45.677 45.89 46.095 46.305 46.533 46.765 46.993 47.22 47.447 47.675 47.943 48.26 48.588 48.923 49.265 49.63 50.002 50.347 50.68 51.01 51.35 51.713 52.093 52.482 52.862
22.58 22.593 22.64 22.72 22.79 22.845 22.862 22.847 22.827 22.803 22.815 22.855 22.877 22.893 22.92 22.96 23 23.035 23.055 23.065 23.07 23.068 23.1 23.165 23.23 23.298 23.365 23.44 23.53 23.63 23.725 23.815 23.908 24 24.078 24.153 24.255 24.37 24.46 24.53 24.613 24.712 24.782 24.825 24.885 24.952 25.005 25.045 25.105 25.2 25.247 25.245 25.258 25.288 25.35 25.43 25.505 25.573 25.668 25.802 25.932 26.045 26.16 26.277 26.387 26.495 26.63 26.797 26.965 27.12 27.293 27.487 27.68 27.867 28.045 28.245 28.472 28.683 28.915 29.185 29.455 29.725 29.993 30.632 31.267 31.342 31.272 31.265 31.288 31.423 31.695 31.998 32.303 32.608 32.912 33.192 33.445 33.692 33.927 34.13 34.292 34.44 34.608 34.825 35.105 35.412 35.72 36.03 36.317 36.565 36.782 36.993 37.32 37.705 38.017 38.315 38.612 38.86 39.113 39.42 39.605 39.642 39.65 39.655 39.705 39.81 39.96 40.14 40.315 40.48 40.595 40.655 40.67 40.598 40.74 40.967 41.105 41.34 41.435 41.38 41.357 41.34 41.303 41.38 41.535 41.663 41.86 42.012 42.01 41.983 42.02 42.113 42.218 42.335 42.455 42.567 42.657 42.73 42.81 42.9 42.995 43.123 43.315 43.555 43.772 43.942 44.1 44.26 44.42 44.585 44.76 44.97 45.19 45.39 45.6 45.815 46.022 46.223 46.43 46.655 46.882 47.108 47.333 47.56 47.82 48.145 48.492 48.815 49.13 49.458 49.82 50.21 50.587 50.942 51.282 51.623 51.973 52.343 52.735 53.122
22.523 22.533 22.58 22.66 22.737 22.802 22.825 22.81 22.792 22.775 22.78 22.8 22.81 22.825 22.855 22.895 22.938 22.975 22.995 23.008 23.02 23.03 23.07 23.135 23.2 23.268 23.343 23.437 23.542 23.645 23.74 23.83 23.92 24.01 24.103 24.208 24.322 24.437 24.527 24.595 24.662 24.735 24.802 24.867 24.94 25.005 25.055 25.092 25.132 25.19 25.227 25.238 25.253 25.275 25.328 25.4 25.468 25.535 25.633 25.768 25.91 26.04 26.158 26.268 26.373 26.48 26.615 26.783 26.955 27.123 27.3 27.495 27.69 27.885 28.078 28.285 28.518 28.743 28.985 29.252 29.517 29.782 30.05 30.518 31.23 31.582 31.53 31.477 31.455 31.603 31.9 32.205 32.51 32.815 33.117 33.395 33.645 33.892 34.13 34.347 34.53 34.688 34.883 35.148 35.45 35.757 36.065 36.375 36.682 36.977 37.24 37.438 37.71 38.055 38.353 38.65 38.95 39.238 39.545 39.915 40.162 40.21 40.21 40.21 40.23 40.32 40.48 40.66 40.83 40.962 41.037 41.082 41.132 41.145 41.29 41.467 41.512 41.575 41.657 41.762 41.777 41.752 41.767 41.857 42.025 42.107 42.187 42.26 42.245 42.225 42.27 42.372 42.485 42.602 42.715 42.827 42.917 42.985 43.063 43.145 43.225 43.328 43.505 43.738 43.938 44.1 44.26 44.42 44.583 44.75 44.928 45.125 45.33 45.533 45.74 45.95 46.153 46.348 46.553 46.775 47.003 47.23 47.455 47.7 48.015 48.375 48.725 49.045 49.34 49.658 50.005 50.38 50.777 51.167 51.542 51.898 52.243 52.598 52.97 53.342
22.482 22.485 22.525 22.605 22.685 22.752 22.775 22.762 22.747 22.73 22.725 22.738 22.75 22.765 22.795 22.835 22.88 22.928 22.955 22.97 22.985 23 23.043 23.108 23.173 23.24 23.32 23.42 23.53 23.645 23.755 23.85 23.94 24.03 24.14 24.262 24.377 24.492 24.572 24.627 24.69 24.75 24.815 24.89 24.965 25.035 25.08 25.107 25.142 25.18 25.212 25.232 25.247 25.268 25.313 25.378 25.443 25.513 25.618 25.758 25.905 26.048 26.17 26.275 26.38 26.495 26.638 26.808 26.983 27.16 27.35 27.55 27.745 27.94 28.143 28.365 28.605 28.84 29.06 29.295 29.555 29.815 30.095 30.435 31.105 31.602 31.595 31.543 31.585 31.805 32.11 32.415 32.72 33.025 33.322 33.595 33.845 34.085 34.31 34.532 34.742 34.943 35.19 35.488 35.795 36.103 36.41 36.72 37.03 37.343 37.647 37.903 38.148 38.44 38.753 39.068 39.372 39.62 39.893 40.272 40.542 40.615 40.635 40.657 40.685 40.767 40.91 41.06 41.185 41.252 41.287 41.325 41.37 41.41 41.442 41.493 41.56 41.63 41.705 41.797 41.833 41.895 42.022 42.11 42.185 42.257 42.325 42.38 42.42 42.45 42.517 42.62 42.725 42.83 42.935 43.077 43.2 43.268 43.35 43.44 43.515 43.615 43.785 43.998 44.19 44.358 44.523 44.685 44.848 45.015 45.185 45.363 45.55 45.74 45.928 46.128 46.34 46.555 46.755 46.96 47.19 47.418 47.648 47.918 48.255 48.62 48.935 49.212 49.495 49.848 50.2 50.518 50.898 51.302 51.745 52.192 52.57 52.865 53.168 53.52
22.442 22.443 22.48 22.557 22.632 22.695 22.715 22.705 22.69 22.673 22.67 22.682 22.695 22.71 22.74 22.785 22.843 22.902 22.935 22.95 22.965 22.98 23.02 23.083 23.147 23.213 23.293 23.393 23.51 23.647 23.772 23.872 23.965 24.058 24.173 24.302 24.422 24.532 24.6 24.638 24.69 24.75 24.815 24.89 24.973 25.052 25.09 25.1 25.125 25.16 25.195 25.222 25.24 25.26 25.305 25.368 25.44 25.525 25.64 25.785 25.935 26.08 26.202 26.308 26.425 26.56 26.715 26.888 27.065 27.245 27.44 27.647 27.845 28.04 28.248 28.483 28.732 28.977 29.17 29.348 29.585 29.848 30.148 30.498 30.993 31.495 31.66 31.623 31.738 32.018 32.323 32.625 32.928 33.232 33.527 33.795 34.04 34.27 34.49 34.713 34.94 35.213 35.552 35.895 36.21 36.523 36.835 37.145 37.455 37.77 38.085 38.397 38.675 38.958 39.285 39.57 39.787 39.937 40.148 40.475 40.71 40.802 40.85 40.895 40.965 41.072 41.195 41.305 41.372 41.395 41.408 41.435 41.477 41.51 41.53 41.56 41.613 41.68 41.755 41.827 41.885 41.95 42.03 42.102 42.165 42.232 42.31 42.39 42.477 42.572 42.69 42.815 42.917 43.013 43.13 43.31 43.48 43.572 43.665 43.78 43.87 43.973 44.143 44.35 44.55 44.73 44.898 45.063 45.225 45.388 45.553 45.72 45.893 46.068 46.24 46.425 46.633 46.857 47.035 47.208 47.435 47.668 47.91 48.183 48.515 48.845 49.087 49.323 49.693 50.112 50.425 50.688 51 51.378 51.89 52.455 52.77 52.998 53.383 53.748
22.39 22.398 22.435 22.51 22.58 22.637 22.652 22.64 22.628 22.615 22.615 22.628 22.64 22.655 22.688 22.748 22.825 22.89 22.92 22.933 22.945 22.958 22.998 23.06 23.123 23.185 23.265 23.375 23.51 23.66 23.785 23.887 23.987 24.083 24.198 24.335 24.462 24.567 24.63 24.66 24.7 24.753 24.815 24.898 24.995 25.077 25.11 25.11 25.118 25.143 25.175 25.205 25.23 25.255 25.303 25.378 25.465 25.56 25.68 25.825 25.973 26.117 26.243 26.363 26.505 26.655 26.815 26.985 27.158 27.335 27.528 27.735 27.94 28.14 28.355 28.598 28.852 29.107 29.307 29.45 29.633 29.888 30.21 30.572 30.935 31.432 31.725 31.738 31.928 32.232 32.535 32.835 33.135 33.44 33.732 33.99 34.223 34.45 34.683 34.918 35.155 35.473 35.882 36.285 36.66 37.01 37.332 37.645 37.955 38.268 38.583 38.91 39.235 39.53 39.78 39.952 40.067 40.173 40.38 40.637 40.807 40.922 40.99 41.055 41.168 41.3 41.417 41.492 41.52 41.53 41.538 41.553 41.585 41.612 41.63 41.65 41.678 41.73 41.805 41.862 41.893 41.945 42.02 42.08 42.135 42.205 42.29 42.385 42.49 42.605 42.755 42.92 43.062 43.185 43.328 43.525 43.73 43.87 43.978 44.102 44.21 44.33 44.51 44.722 44.93 45.115 45.283 45.45 45.615 45.775 45.94 46.11 46.28 46.455 46.63 46.805 46.988 47.185 47.315 47.453 47.688 47.935 48.185 48.45 48.755 49.017 49.205 49.488 49.98 50.417 50.678 50.923 51.178 51.483 51.933 52.475 52.845 53.225 53.775 54.263
22.302 22.33 22.383 22.455 22.525 22.577 22.59 22.58 22.57 22.558 22.555 22.57 22.587 22.605 22.65 22.728 22.812 22.88 22.91 22.92 22.93 22.94 22.98 23.048 23.11 23.17 23.258 23.385 23.53 23.677 23.8 23.903 24.005 24.105 24.225 24.362 24.495 24.602 24.66 24.69 24.725 24.765 24.825 24.918 25.02 25.1 25.13 25.13 25.128 25.135 25.16 25.19 25.22 25.258 25.323 25.415 25.513 25.613 25.73 25.87 26.015 26.16 26.3 26.445 26.6 26.752 26.915 27.085 27.255 27.428 27.615 27.82 28.03 28.238 28.463 28.713 28.97 29.232 29.44 29.575 29.715 29.948 30.283 30.645 31.008 31.437 31.725 31.878 32.143 32.445 32.745 33.045 33.345 33.65 33.935 34.183 34.418 34.655 34.9 35.145 35.388 35.72 36.145 36.57 36.995 37.402 37.78 38.132 38.455 38.765 39.082 39.42 39.712 39.917 40.062 40.177 40.295 40.405 40.577 40.767 40.902 41.032 41.135 41.242 41.377 41.512 41.61 41.645 41.655 41.662 41.67 41.68 41.695 41.712 41.73 41.75 41.765 41.793 41.847 41.887 41.903 41.94 41.997 42.05 42.11 42.193 42.295 42.407 42.52 42.635 42.785 42.96 43.137 43.305 43.487 43.71 43.937 44.13 44.275 44.402 44.527 44.682 44.88 45.095 45.307 45.497 45.667 45.832 45.99 46.14 46.3 46.472 46.647 46.825 47 47.17 47.337 47.51 47.603 47.723 47.965 48.215 48.463 48.715 48.975 49.208 49.413 49.755 50.25 50.685 51.003 51.275 51.548 51.878 52.345 52.903 53.423 53.905 54.44 55.05
22.205 22.26 22.33 22.4 22.47 22.525 22.542 22.535 22.522 22.5 22.493 22.51 22.53 22.565 22.633 22.718 22.802 22.877 22.91 22.915 22.925 22.938 22.988 23.065 23.13 23.193 23.29 23.428 23.575 23.717 23.833 23.93 24.03 24.135 24.258 24.393 24.527 24.635 24.69 24.723 24.757 24.793 24.85 24.938 25.035 25.117 25.15 25.15 25.148 25.15 25.175 25.21 25.24 25.283 25.368 25.475 25.578 25.683 25.798 25.933 26.075 26.22 26.37 26.522 26.677 26.835 27.005 27.18 27.352 27.525 27.708 27.91 28.12 28.335 28.575 28.835 29.097 29.357 29.552 29.685 29.82 30.053 30.393 30.745 31.1 31.458 31.768 32.048 32.342 32.637 32.935 33.232 33.527 33.825 34.115 34.385 34.64 34.885 35.127 35.373 35.628 35.975 36.405 36.833 37.257 37.685 38.112 38.52 38.9 39.252 39.552 39.802 39.977 40.095 40.217 40.345 40.472 40.592 40.723 40.863 41 41.135 41.25 41.357 41.482 41.617 41.707 41.74 41.76 41.78 41.787 41.782 41.78 41.79 41.81 41.83 41.847 41.857 41.875 41.897 41.908 41.928 41.972 42.025 42.088 42.182 42.3 42.42 42.537 42.658 42.815 43 43.183 43.368 43.58 43.817 44.052 44.272 44.44 44.572 44.715 44.895 45.112 45.34 45.565 45.767 45.935 46.085 46.23 46.37 46.527 46.702 46.872 47.077 47.3 47.482 47.645 47.81 47.92 48.065 48.308 48.568 48.848 49.135 49.418 49.678 49.923 50.27 50.73 51.178 51.555 51.873 52.213 52.68 53.298 53.945 54.47 54.877 55.31 55.875
22.148 22.21 22.28 22.353 22.425 22.487 22.51 22.495 22.472 22.44 22.43 22.45 22.483 22.545 22.625 22.71 22.8 22.89 22.93 22.925 22.93 22.943 23.003 23.097 23.172 23.24 23.343 23.485 23.632 23.77 23.88 23.973 24.07 24.175 24.295 24.427 24.555 24.657 24.72 24.757 24.792 24.828 24.883 24.96 25.048 25.132 25.17 25.17 25.17 25.175 25.205 25.252 25.29 25.328 25.415 25.537 25.65 25.755 25.87 26.005 26.145 26.288 26.438 26.59 26.745 26.905 27.08 27.265 27.445 27.62 27.8 28 28.213 28.438 28.693 28.962 29.23 29.477 29.652 29.78 29.938 30.203 30.548 30.893 31.24 31.59 31.93 32.22 32.49 32.782 33.077 33.37 33.66 33.955 34.26 34.56 34.845 35.11 35.355 35.6 35.875 36.238 36.665 37.095 37.52 37.945 38.375 38.792 39.197 39.567 39.832 39.992 40.112 40.23 40.353 40.48 40.608 40.753 40.888 40.985 41.1 41.237 41.342 41.418 41.51 41.63 41.73 41.78 41.82 41.872 41.887 41.86 41.843 41.85 41.867 41.88 41.887 41.887 41.89 41.9 41.9 41.908 41.948 42.003 42.065 42.153 42.265 42.39 42.517 42.653 42.835 43.045 43.237 43.425 43.638 43.872 44.107 44.325 44.492 44.633 44.79 44.98 45.202 45.437 45.67 45.882 46.057 46.207 46.35 46.49 46.65 46.822 46.98 47.198 47.485 47.74 47.932 48.1 48.268 48.493 48.783 49.088 49.41 49.74 50.062 50.362 50.64 50.993 51.435 51.865 52.265 52.638 53.078 53.658 54.32 54.955 55.435 55.8 56.15 56.575
22.103 22.157 22.222 22.302 22.38 22.447 22.472 22.447 22.415 22.38 22.368 22.4 22.463 22.54 22.62 22.703 22.798 22.905 22.957 22.95 22.945 22.95 23.008 23.112 23.207 23.29 23.4 23.545 23.69 23.822 23.93 24.02 24.113 24.213 24.33 24.457 24.575 24.677 24.747 24.787 24.825 24.863 24.918 24.993 25.07 25.15 25.19 25.19 25.19 25.198 25.23 25.282 25.33 25.373 25.458 25.585 25.71 25.822 25.94 26.075 26.215 26.355 26.505 26.66 26.815 26.975 27.15 27.342 27.532 27.712 27.895 28.095 28.313 28.545 28.805 29.082 29.357 29.592 29.75 29.875 30.068 30.368 30.713 31.06 31.41 31.76 32.107 32.392 32.628 32.898 33.19 33.48 33.773 34.075 34.385 34.692 34.997 35.29 35.567 35.827 36.12 36.5 36.925 37.347 37.755 38.16 38.567 38.962 39.337 39.662 39.907 40.085 40.232 40.367 40.487 40.61 40.745 40.927 41.092 41.16 41.223 41.34 41.445 41.51 41.575 41.66 41.753 41.82 41.888 41.967 41.987 41.953 41.925 41.913 41.908 41.903 41.895 41.89 41.893 41.893 41.885 41.89 41.925 41.983 42.048 42.12 42.22 42.345 42.483 42.635 42.835 43.07 43.285 43.48 43.693 43.927 44.157 44.375 44.55 44.703 44.875 45.068 45.285 45.513 45.74 45.957 46.145 46.312 46.467 46.61 46.768 46.932 47.085 47.28 47.575 47.902 48.177 48.385 48.655 49.03 49.385 49.713 50.038 50.365 50.687 50.992 51.29 51.65 52.08 52.51 52.932 53.41 54.002 54.59 55.092 55.575 55.975 56.295 56.617 56.977
22.055 22.093 22.14 22.222 22.305 22.367 22.382 22.36 22.335 22.31 22.318 22.38 22.457 22.535 22.615 22.698 22.798 22.915 22.98 22.98 22.97 22.965 23.015 23.12 23.228 23.335 23.46 23.602 23.745 23.875 23.98 24.07 24.16 24.253 24.36 24.48 24.595 24.702 24.775 24.815 24.855 24.897 24.955 25.027 25.097 25.167 25.207 25.21 25.212 25.223 25.258 25.31 25.363 25.415 25.503 25.63 25.76 25.882 26.007 26.142 26.28 26.423 26.573 26.728 26.885 27.048 27.225 27.418 27.61 27.798 27.988 28.193 28.415 28.65 28.91 29.192 29.475 29.717 29.88 30.003 30.223 30.553 30.898 31.245 31.595 31.945 32.292 32.59 32.817 33.043 33.305 33.59 33.888 34.195 34.505 34.815 35.122 35.425 35.727 36.017 36.337 36.72 37.125 37.525 37.91 38.292 38.675 39.055 39.4 39.685 39.932 40.135 40.305 40.465 40.61 40.743 40.898 41.117 41.297 41.362 41.393 41.46 41.548 41.613 41.67 41.733 41.803 41.883 41.975 42.07 42.097 42.068 42.04 42.01 41.983 41.963 41.945 41.933 41.923 41.903 41.878 41.87 41.905 41.968 42.033 42.1 42.193 42.323 42.475 42.638 42.838 43.075 43.308 43.525 43.748 43.98 44.205 44.425 44.618 44.79 44.973 45.163 45.37 45.59 45.813 46.033 46.225 46.4 46.57 46.728 46.883 47.035 47.185 47.36 47.638 47.993 48.345 48.665 49.083 49.592 50.017 50.365 50.685 50.955 51.222 51.525 51.84 52.21 52.627 53.06 53.483 54.007 54.62 55.095 55.447 55.83 56.195 56.503 56.825 57.208
22.01 22.025 22.045 22.117 22.18 22.212 22.215 22.2 22.193 22.205 22.263 22.352 22.432 22.51 22.59 22.677 22.785 22.907 22.992 23.012 23.005 22.995 23.04 23.145 23.253 23.368 23.5 23.64 23.785 23.92 24.025 24.115 24.202 24.28 24.368 24.48 24.595 24.702 24.777 24.82 24.857 24.9 24.962 25.035 25.1 25.165 25.205 25.212 25.223 25.245 25.29 25.345 25.4 25.458 25.55 25.68 25.807 25.93 26.06 26.195 26.333 26.483 26.638 26.795 26.955 27.12 27.305 27.5 27.69 27.88 28.078 28.29 28.513 28.743 29.003 29.287 29.562 29.822 30.062 30.233 30.46 30.805 31.152 31.49 31.81 32.12 32.425 32.7 32.945 33.182 33.435 33.71 34.005 34.315 34.625 34.935 35.245 35.552 35.855 36.16 36.493 36.86 37.242 37.625 38.007 38.39 38.77 39.127 39.43 39.695 39.952 40.17 40.345 40.515 40.685 40.865 41.068 41.3 41.485 41.56 41.588 41.62 41.678 41.748 41.813 41.88 41.94 42 42.085 42.182 42.217 42.195 42.17 42.14 42.11 42.085 42.065 42.06 42.048 42.01 41.965 41.923 41.933 41.993 42.06 42.13 42.223 42.363 42.525 42.688 42.885 43.118 43.353 43.59 43.82 44.045 44.273 44.498 44.722 44.927 45.115 45.305 45.505 45.718 45.933 46.143 46.348 46.54 46.718 46.893 47.053 47.2 47.353 47.52 47.81 48.195 48.568 48.965 49.435 49.94 50.455 50.907 51.187 51.388 51.648 51.975 52.333 52.728 53.153 53.578 53.98 54.423 54.9 55.343 55.735 56.088 56.415 56.72 57.065 57.48
21.975 21.97 21.953 21.98 22.005 22.015 22.015 22.02 22.05 22.1 22.183 22.285 22.377 22.462 22.545 22.638 22.75 22.875 22.975 23.025 23.04 23.038 23.083 23.182 23.285 23.393 23.52 23.663 23.815 23.957 24.065 24.152 24.227 24.285 24.36 24.465 24.575 24.68 24.752 24.795 24.827 24.863 24.927 25.007 25.08 25.147 25.187 25.203 25.228 25.27 25.327 25.387 25.445 25.505 25.6 25.727 25.85 25.97 26.1 26.238 26.383 26.543 26.702 26.86 27.023 27.19 27.38 27.585 27.78 27.973 28.175 28.39 28.61 28.833 29.088 29.367 29.622 29.875 30.185 30.477 30.747 31.055 31.365 31.662 31.94 32.21 32.475 32.725 32.975 33.24 33.535 33.88 34.213 34.505 34.798 35.093 35.385 35.68 35.983 36.295 36.623 36.97 37.34 37.72 38.103 38.485 38.852 39.167 39.438 39.702 39.965 40.197 40.385 40.56 40.77 41.03 41.247 41.445 41.63 41.725 41.775 41.805 41.853 41.933 42.013 42.087 42.145 42.178 42.228 42.31 42.345 42.322 42.298 42.27 42.24 42.218 42.215 42.235 42.232 42.18 42.097 42.028 42.023 42.068 42.13 42.2 42.298 42.445 42.61 42.773 42.97 43.203 43.44 43.688 43.92 44.135 44.36 44.59 44.835 45.08 45.292 45.485 45.685 45.895 46.097 46.293 46.515 46.747 46.945 47.123 47.288 47.44 47.595 47.763 48.075 48.497 48.88 49.283 49.733 50.195 50.705 51.222 51.575 51.838 52.123 52.428 52.79 53.225 53.705 54.142 54.503 54.868 55.323 55.85 56.312 56.605 56.82 57.033 57.355 57.805
21.945 21.93 21.905 21.893 21.885 21.878 21.875 21.9 21.955 22.015 22.098 22.205 22.31 22.405 22.495 22.598 22.715 22.837 22.932 22.995 23.04 23.068 23.123 23.215 23.312 23.415 23.543 23.693 23.85 23.997 24.105 24.177 24.235 24.288 24.363 24.46 24.563 24.662 24.727 24.762 24.79 24.818 24.88 24.968 25.05 25.125 25.175 25.21 25.255 25.305 25.363 25.427 25.49 25.553 25.648 25.77 25.89 26.01 26.14 26.288 26.445 26.607 26.767 26.925 27.088 27.255 27.448 27.66 27.867 28.068 28.273 28.487 28.705 28.925 29.175 29.44 29.675 29.905 30.21 30.595 30.952 31.232 31.478 31.72 31.973 32.24 32.505 32.755 32.993 33.29 33.68 34.122 34.515 34.813 35.09 35.367 35.63 35.875 36.125 36.425 36.765 37.103 37.448 37.815 38.197 38.575 38.907 39.185 39.445 39.71 39.975 40.223 40.445 40.675 40.958 41.265 41.443 41.585 41.752 41.852 41.935 41.987 42.045 42.13 42.22 42.3 42.352 42.375 42.395 42.445 42.47 42.448 42.423 42.398 42.375 42.37 42.39 42.42 42.397 42.3 42.175 42.113 42.133 42.168 42.213 42.273 42.37 42.52 42.688 42.855 43.055 43.293 43.54 43.795 44.03 44.24 44.455 44.68 44.925 45.19 45.44 45.655 45.86 46.065 46.257 46.448 46.675 46.932 47.17 47.367 47.532 47.688 47.845 48.008 48.32 48.77 49.185 49.603 50.06 50.53 51.003 51.523 52.045 52.43 52.687 52.93 53.255 53.718 54.242 54.697 55.043 55.385 55.87 56.447 56.95 57.23 57.35 57.48 57.763 58.203
21.922 21.917 21.91 21.898 21.878 21.853 21.848 21.87 21.905 21.945 22.018 22.125 22.238 22.345 22.45 22.563 22.68 22.797 22.888 22.955 23.02 23.08 23.153 23.243 23.335 23.438 23.573 23.728 23.885 24.032 24.13 24.185 24.238 24.293 24.365 24.46 24.56 24.647 24.697 24.725 24.753 24.78 24.84 24.933 25.023 25.11 25.18 25.233 25.287 25.342 25.4 25.465 25.533 25.6 25.695 25.815 25.933 26.053 26.19 26.348 26.51 26.67 26.833 26.995 27.158 27.325 27.518 27.733 27.948 28.157 28.37 28.585 28.8 29.02 29.258 29.498 29.723 29.948 30.255 30.67 31.09 31.41 31.643 31.865 32.095 32.338 32.58 32.833 33.098 33.453 33.912 34.387 34.827 35.157 35.402 35.637 35.86 36.062 36.26 36.535 36.885 37.23 37.57 37.92 38.292 38.645 38.935 39.195 39.463 39.745 40.03 40.31 40.59 40.888 41.202 41.51 41.667 41.75 41.872 41.967 42.06 42.142 42.225 42.315 42.41 42.5 42.552 42.567 42.575 42.595 42.6 42.58 42.558 42.535 42.523 42.533 42.56 42.587 42.532 42.385 42.248 42.208 42.245 42.28 42.315 42.358 42.445 42.595 42.768 42.943 43.148 43.393 43.648 43.903 44.138 44.35 44.56 44.775 45.015 45.283 45.553 45.805 46.025 46.22 46.41 46.6 46.828 47.09 47.35 47.587 47.777 47.94 48.097 48.255 48.563 49.02 49.493 49.953 50.408 50.883 51.37 51.915 52.48 52.927 53.22 53.442 53.733 54.19 54.752 55.23 55.592 55.938 56.385 56.917 57.365 57.66 57.81 57.97 58.26 58.662
21.862 21.897 21.912 21.912 21.902 21.88 21.875 21.895 21.907 21.913 21.968 22.075 22.19 22.305 22.42 22.538 22.653 22.77 22.873 22.953 23.028 23.1 23.18 23.27 23.36 23.463 23.603 23.76 23.915 24.057 24.14 24.188 24.242 24.295 24.368 24.465 24.557 24.627 24.667 24.693 24.72 24.755 24.828 24.928 25.023 25.117 25.195 25.252 25.308 25.368 25.447 25.53 25.6 25.67 25.765 25.885 26 26.115 26.255 26.415 26.575 26.733 26.902 27.077 27.243 27.413 27.605 27.82 28.035 28.245 28.46 28.677 28.895 29.12 29.348 29.57 29.795 30.028 30.35 30.77 31.205 31.59 31.867 32.09 32.31 32.533 32.745 32.995 33.315 33.683 34.123 34.607 35.045 35.352 35.562 35.757 35.952 36.147 36.355 36.638 36.987 37.34 37.69 38.037 38.397 38.733 39.023 39.305 39.595 39.898 40.2 40.505 40.818 41.132 41.447 41.75 41.9 41.925 41.995 42.09 42.185 42.29 42.385 42.47 42.565 42.657 42.71 42.722 42.73 42.74 42.742 42.73 42.71 42.69 42.68 42.685 42.705 42.732 42.672 42.51 42.363 42.323 42.36 42.397 42.432 42.465 42.55 42.71 42.888 43.065 43.275 43.52 43.773 44.033 44.275 44.493 44.705 44.918 45.148 45.408 45.68 45.95 46.18 46.37 46.563 46.763 46.998 47.26 47.52 47.777 47.997 48.18 48.35 48.51 48.808 49.308 49.898 50.408 50.828 51.263 51.737 52.262 52.777 53.23 53.59 53.882 54.19 54.683 55.31 55.79 56.148 56.503 56.893 57.302 57.663 58.022 58.272 58.475 58.778 59.143
21.73 21.797 21.842 21.875 21.9 21.905 21.902 21.907 21.905 21.895 21.945 22.055 22.17 22.287 22.403 22.52 22.64 22.765 22.88 22.97 23.05 23.127 23.208 23.298 23.39 23.485 23.62 23.785 23.945 24.082 24.155 24.195 24.245 24.298 24.375 24.467 24.54 24.597 24.64 24.668 24.698 24.74 24.82 24.932 25.04 25.135 25.207 25.265 25.325 25.388 25.485 25.602 25.69 25.763 25.858 25.975 26.087 26.193 26.325 26.487 26.645 26.79 26.963 27.162 27.34 27.51 27.705 27.917 28.13 28.335 28.545 28.765 28.99 29.228 29.46 29.675 29.895 30.135 30.468 30.883 31.305 31.73 32.072 32.315 32.535 32.755 32.95 33.183 33.525 33.9 34.315 34.765 35.13 35.397 35.615 35.81 36.003 36.198 36.433 36.743 37.093 37.445 37.795 38.147 38.51 38.872 39.212 39.525 39.83 40.137 40.442 40.747 41.052 41.355 41.657 41.937 42.072 42.08 42.128 42.228 42.338 42.455 42.542 42.608 42.695 42.782 42.83 42.847 42.86 42.87 42.885 42.887 42.87 42.853 42.845 42.845 42.853 42.875 42.827 42.678 42.523 42.46 42.485 42.522 42.555 42.58 42.673 42.85 43.035 43.215 43.423 43.665 43.925 44.203 44.455 44.675 44.89 45.105 45.333 45.575 45.835 46.102 46.33 46.525 46.73 46.945 47.185 47.443 47.7 47.962 48.19 48.385 48.575 48.753 49.12 49.758 50.432 50.945 51.32 51.635 52.02 52.51 52.99 53.43 53.82 54.19 54.623 55.255 55.917 56.377 56.73 57.065 57.385 57.69 57.98 58.353 58.712 59 59.31 59.643
21.63 21.708 21.773 21.838 21.895 21.92 21.912 21.898 21.883 21.873 21.925 22.038 22.153 22.27 22.388 22.505 22.63 22.762 22.88 22.975 23.065 23.15 23.233 23.323 23.415 23.505 23.635 23.805 23.972 24.105 24.172 24.208 24.248 24.303 24.38 24.455 24.51 24.562 24.607 24.643 24.683 24.73 24.803 24.92 25.047 25.15 25.222 25.28 25.345 25.413 25.51 25.642 25.762 25.855 25.95 26.06 26.165 26.268 26.4 26.557 26.702 26.838 27.008 27.22 27.425 27.61 27.805 28.012 28.217 28.423 28.635 28.863 29.103 29.35 29.582 29.79 30 30.248 30.593 31.007 31.423 31.845 32.245 32.542 32.765 32.967 33.14 33.358 33.7 34.1 34.5 34.867 35.162 35.422 35.655 35.857 36.05 36.26 36.525 36.85 37.2 37.55 37.9 38.255 38.62 39.005 39.39 39.74 40.06 40.367 40.67 40.96 41.242 41.53 41.82 42.07 42.19 42.215 42.275 42.385 42.505 42.622 42.705 42.76 42.833 42.905 42.945 42.967 42.987 43 43.02 43.037 43.032 43.02 43.015 43.015 43.013 43.02 42.98 42.852 42.705 42.615 42.615 42.647 42.67 42.688 42.788 42.978 43.17 43.36 43.573 43.825 44.105 44.395 44.647 44.865 45.083 45.298 45.525 45.763 46.005 46.26 46.487 46.695 46.915 47.138 47.378 47.63 47.885 48.147 48.377 48.575 48.775 48.975 49.435 50.257 51.007 51.43 51.68 51.888 52.225 52.71 53.19 53.627 54.015 54.45 55.073 55.86 56.527 56.955 57.282 57.585 57.87 58.143 58.413 58.768 59.172 59.52 59.838 60.18
21.648 21.758 21.838 21.892 21.915 21.92 21.912 21.893 21.87 21.855 21.905 22.02 22.138 22.255 22.373 22.495 22.625 22.757 22.875 22.973 23.07 23.168 23.26 23.35 23.44 23.53 23.658 23.825 23.995 24.125 24.19 24.225 24.26 24.308 24.367 24.427 24.48 24.53 24.577 24.622 24.67 24.72 24.785 24.895 25.032 25.152 25.237 25.302 25.367 25.435 25.538 25.67 25.802 25.92 26.027 26.135 26.235 26.34 26.47 26.615 26.75 26.885 27.053 27.26 27.48 27.69 27.892 28.097 28.3 28.505 28.73 28.975 29.227 29.477 29.705 29.91 30.115 30.368 30.72 31.133 31.548 31.963 32.382 32.74 32.985 33.165 33.325 33.535 33.87 34.275 34.642 34.935 35.183 35.435 35.685 35.905 36.103 36.34 36.63 36.955 37.305 37.658 38.01 38.365 38.733 39.118 39.515 39.905 40.267 40.592 40.88 41.135 41.398 41.685 41.972 42.205 42.32 42.375 42.46 42.57 42.683 42.79 42.865 42.92 42.98 43.03 43.06 43.085 43.11 43.13 43.155 43.182 43.195 43.19 43.185 43.185 43.18 43.177 43.142 43.035 42.895 42.775 42.74 42.765 42.78 42.798 42.908 43.105 43.303 43.498 43.725 44.003 44.295 44.582 44.835 45.055 45.275 45.493 45.717 45.955 46.19 46.425 46.65 46.87 47.1 47.33 47.57 47.82 48.072 48.33 48.565 48.775 48.987 49.203 49.598 50.462 51.33 51.697 51.84 52.04 52.42 52.908 53.39 53.825 54.258 54.83 55.585 56.427 57.085 57.48 57.78 58.065 58.35 58.627 58.93 59.293 59.67 60.025 60.38 60.763
21.71 21.86 21.932 21.937 21.92 21.915 21.917 21.9 21.875 21.848 21.89 22.008 22.125 22.245 22.363 22.483 22.612 22.747 22.877 22.993 23.095 23.2 23.3 23.388 23.475 23.563 23.685 23.85 24.015 24.14 24.205 24.24 24.275 24.307 24.335 24.38 24.435 24.485 24.537 24.592 24.642 24.69 24.75 24.858 24.997 25.117 25.207 25.282 25.357 25.445 25.563 25.697 25.827 25.945 26.057 26.17 26.277 26.398 26.538 26.678 26.813 26.95 27.108 27.303 27.52 27.74 27.952 28.157 28.362 28.575 28.817 29.077 29.332 29.582 29.817 30.03 30.235 30.493 30.853 31.265 31.678 32.092 32.505 32.887 33.167 33.35 33.51 33.713 34.038 34.412 34.732 35.007 35.245 35.473 35.713 35.943 36.168 36.435 36.735 37.06 37.41 37.763 38.118 38.473 38.843 39.23 39.625 40.025 40.42 40.777 41.072 41.307 41.553 41.83 42.058 42.292 42.485 42.575 42.67 42.777 42.875 42.955 43.015 43.07 43.125 43.167 43.198 43.223 43.248 43.275 43.305 43.333 43.352 43.355 43.35 43.35 43.347 43.345 43.312 43.21 43.073 42.943 42.878 42.88 42.893 42.913 43.03 43.235 43.435 43.633 43.875 44.17 44.465 44.747 45.002 45.232 45.457 45.677 45.9 46.13 46.36 46.582 46.792 47.012 47.247 47.48 47.732 47.997 48.25 48.502 48.742 48.965 49.183 49.413 49.723 50.45 51.297 51.715 51.92 52.193 52.615 53.105 53.59 54.063 54.623 55.302 56.02 56.757 57.387 57.81 58.127 58.437 58.75 59.067 59.43 59.817 60.19 60.565 60.943 61.332
21.702 21.86 21.94 21.925 21.91 21.915 21.922 21.91 21.885 21.845 21.878 21.997 22.117 22.237 22.355 22.47 22.593 22.73 22.877 23.025 23.145 23.247 23.345 23.433 23.517 23.6 23.72 23.88 24.03 24.15 24.217 24.252 24.282 24.3 24.31 24.335 24.378 24.425 24.48 24.54 24.595 24.645 24.705 24.813 24.942 25.045 25.13 25.21 25.303 25.438 25.587 25.722 25.842 25.945 26.05 26.165 26.293 26.445 26.61 26.76 26.9 27.04 27.19 27.368 27.568 27.783 28 28.205 28.415 28.64 28.89 29.157 29.417 29.67 29.915 30.142 30.355 30.62 30.988 31.402 31.81 32.202 32.585 32.952 33.25 33.47 33.67 33.887 34.18 34.502 34.798 35.09 35.345 35.56 35.773 35.993 36.245 36.535 36.84 37.168 37.518 37.87 38.225 38.58 38.95 39.343 39.737 40.135 40.527 40.887 41.205 41.465 41.703 41.948 42.14 42.368 42.635 42.787 42.88 42.977 43.05 43.105 43.158 43.213 43.267 43.315 43.35 43.378 43.405 43.438 43.467 43.487 43.505 43.515 43.515 43.515 43.515 43.515 43.477 43.372 43.243 43.123 43.05 43.028 43.02 43.028 43.145 43.36 43.565 43.773 44.03 44.33 44.627 44.905 45.157 45.397 45.63 45.852 46.07 46.29 46.515 46.732 46.93 47.135 47.36 47.593 47.858 48.145 48.415 48.67 48.908 49.13 49.37 49.645 49.963 50.503 51.17 51.627 51.955 52.34 52.798 53.287 53.798 54.34 54.965 55.637 56.255 56.855 57.475 57.97 58.322 58.66 59.018 59.44 59.89 60.307 60.722 61.14 61.522 61.89
21.628 21.765 21.887 21.91 21.905 21.915 21.925 21.917 21.89 21.838 21.863 21.985 22.108 22.23 22.348 22.463 22.58 22.71 22.863 23.027 23.177 23.295 23.39 23.477 23.56 23.64 23.758 23.902 24.035 24.157 24.23 24.26 24.28 24.29 24.3 24.315 24.338 24.37 24.42 24.48 24.54 24.598 24.66 24.758 24.867 24.96 25.048 25.138 25.265 25.443 25.612 25.74 25.842 25.938 26.04 26.168 26.325 26.503 26.68 26.842 26.995 27.14 27.293 27.463 27.643 27.838 28.045 28.255 28.475 28.705 28.955 29.225 29.492 29.755 30.005 30.24 30.468 30.75 31.115 31.505 31.887 32.25 32.605 32.96 33.257 33.5 33.74 33.99 34.27 34.567 34.865 35.162 35.437 35.67 35.877 36.08 36.33 36.63 36.94 37.273 37.625 37.98 38.335 38.69 39.063 39.457 39.85 40.245 40.627 40.973 41.308 41.625 41.895 42.125 42.333 42.538 42.773 42.97 43.077 43.145 43.195 43.245 43.3 43.357 43.412 43.465 43.502 43.533 43.567 43.6 43.625 43.64 43.652 43.665 43.68 43.69 43.69 43.69 43.647 43.54 43.415 43.305 43.24 43.21 43.183 43.168 43.265 43.475 43.69 43.918 44.19 44.49 44.79 45.065 45.312 45.555 45.792 46.022 46.24 46.453 46.675 46.887 47.08 47.273 47.48 47.71 47.975 48.27 48.562 48.835 49.088 49.343 49.63 49.94 50.268 50.695 51.203 51.645 52.063 52.538 52.998 53.45 54.025 54.632 55.2 55.815 56.41 56.965 57.553 58.095 58.498 58.865 59.31 59.843 60.337 60.748 61.172 61.62 62.045 62.385
21.555 21.665 21.82 21.897 21.905 21.915 21.925 21.922 21.887 21.823 21.848 21.973 22.098 22.223 22.345 22.463 22.578 22.703 22.855 23.02 23.185 23.33 23.432 23.515 23.595 23.675 23.783 23.91 24.035 24.16 24.235 24.257 24.27 24.28 24.29 24.308 24.33 24.353 24.39 24.443 24.498 24.555 24.618 24.698 24.788 24.875 24.97 25.095 25.27 25.467 25.635 25.75 25.845 25.94 26.048 26.2 26.383 26.57 26.747 26.912 27.077 27.232 27.392 27.567 27.742 27.92 28.108 28.318 28.545 28.775 29.023 29.29 29.563 29.835 30.095 30.335 30.57 30.845 31.182 31.545 31.902 32.258 32.615 32.97 33.265 33.505 33.75 34.023 34.322 34.625 34.927 35.227 35.52 35.775 35.983 36.193 36.453 36.753 37.065 37.4 37.75 38.1 38.45 38.8 39.175 39.57 39.963 40.357 40.73 41.073 41.438 41.822 42.135 42.373 42.585 42.785 42.977 43.145 43.247 43.298 43.343 43.39 43.443 43.5 43.557 43.612 43.655 43.687 43.725 43.752 43.767 43.777 43.785 43.795 43.83 43.867 43.875 43.875 43.827 43.717 43.595 43.485 43.42 43.387 43.355 43.34 43.415 43.598 43.815 44.058 44.342 44.647 44.95 45.222 45.465 45.705 45.945 46.185 46.41 46.62 46.835 47.04 47.23 47.42 47.615 47.833 48.095 48.393 48.695 48.987 49.27 49.565 49.877 50.19 50.52 50.927 51.375 51.795 52.253 52.772 53.245 53.708 54.328 54.955 55.48 56.025 56.583 57.125 57.673 58.223 58.708 59.178 59.722 60.297 60.787 61.185 61.582 62.015 62.477 62.79
21.578 21.635 21.773 21.88 21.897 21.91 21.922 21.925 21.885 21.818 21.853 21.983 22.11 22.238 22.363 22.483 22.6 22.728 22.878 23.04 23.197 23.337 23.442 23.525 23.602 23.685 23.79 23.91 24.035 24.152 24.217 24.235 24.245 24.265 24.295 24.325 24.353 24.378 24.41 24.453 24.5 24.553 24.613 24.69 24.775 24.86 24.96 25.108 25.3 25.5 25.665 25.775 25.87 25.965 26.085 26.255 26.445 26.635 26.81 26.975 27.145 27.307 27.477 27.657 27.832 28.01 28.193 28.398 28.625 28.858 29.103 29.363 29.635 29.91 30.177 30.43 30.67 30.923 31.213 31.55 31.908 32.265 32.622 32.977 33.275 33.515 33.773 34.063 34.37 34.675 34.977 35.28 35.585 35.867 36.098 36.338 36.613 36.908 37.225 37.56 37.908 38.255 38.603 38.95 39.308 39.683 40.075 40.47 40.833 41.193 41.595 42.015 42.385 42.647 42.852 43.037 43.195 43.322 43.402 43.455 43.503 43.548 43.593 43.643 43.7 43.757 43.795 43.822 43.857 43.882 43.895 43.903 43.908 43.915 43.958 44.027 44.062 44.065 44.015 43.905 43.783 43.663 43.588 43.55 43.515 43.52 43.603 43.753 43.948 44.19 44.48 44.79 45.097 45.372 45.615 45.855 46.095 46.337 46.567 46.78 46.987 47.185 47.375 47.565 47.755 47.968 48.233 48.535 48.843 49.14 49.417 49.705 50.02 50.335 50.678 51.09 51.532 51.968 52.453 52.99 53.505 54.045 54.662 55.277 55.835 56.35 56.865 57.4 57.94 58.49 59.013 59.538 60.105 60.675 61.162 61.562 61.955 62.375 62.825 63.12
21.685 21.705 21.768 21.855 21.875 21.89 21.9 21.905 21.88 21.823 21.868 22.012 22.145 22.272 22.397 22.52 22.64 22.77 22.92 23.075 23.21 23.325 23.425 23.51 23.59 23.68 23.79 23.912 24.027 24.122 24.172 24.185 24.205 24.243 24.3 24.355 24.387 24.415 24.448 24.485 24.53 24.58 24.643 24.73 24.822 24.91 25.013 25.16 25.345 25.54 25.702 25.812 25.91 26.008 26.138 26.315 26.508 26.7 26.875 27.038 27.205 27.37 27.545 27.727 27.907 28.087 28.273 28.483 28.71 28.945 29.19 29.445 29.71 29.983 30.255 30.52 30.77 31.023 31.29 31.58 31.915 32.275 32.63 32.985 33.285 33.53 33.805 34.11 34.42 34.725 35.025 35.325 35.63 35.93 36.222 36.507 36.785 37.083 37.4 37.738 38.093 38.445 38.795 39.142 39.48 39.825 40.195 40.578 40.953 41.343 41.76 42.18 42.597 42.93 43.122 43.248 43.37 43.482 43.56 43.617 43.667 43.71 43.75 43.793 43.843 43.897 43.925 43.94 43.97 43.995 44.012 44.025 44.032 44.038 44.073 44.155 44.23 44.255 44.205 44.095 43.97 43.843 43.753 43.71 43.678 43.703 43.808 43.935 44.095 44.323 44.61 44.923 45.235 45.515 45.762 46.005 46.247 46.487 46.712 46.922 47.125 47.322 47.515 47.705 47.903 48.128 48.398 48.698 49.005 49.297 49.555 49.818 50.12 50.435 50.795 51.235 51.688 52.158 52.688 53.238 53.778 54.343 54.947 55.565 56.17 56.732 57.26 57.795 58.348 58.91 59.42 59.893 60.418 60.98 61.467 61.872 62.27 62.695 63.085 63.35
21.732 21.777 21.79 21.825 21.835 21.84 21.842 21.85 21.85 21.823 21.875 22.027 22.175 22.307 22.432 22.557 22.682 22.812 22.952 23.085 23.197 23.302 23.405 23.495 23.583 23.68 23.792 23.905 23.995 24.075 24.12 24.138 24.173 24.218 24.282 24.36 24.417 24.455 24.485 24.52 24.56 24.605 24.673 24.765 24.862 24.958 25.07 25.223 25.398 25.582 25.74 25.85 25.95 26.05 26.19 26.378 26.572 26.765 26.942 27.105 27.268 27.43 27.603 27.788 27.975 28.16 28.353 28.57 28.803 29.038 29.28 29.535 29.795 30.06 30.33 30.6 30.868 31.133 31.398 31.663 31.953 32.285 32.638 32.995 33.295 33.555 33.848 34.155 34.465 34.772 35.075 35.375 35.675 35.995 36.348 36.677 36.97 37.265 37.578 37.923 38.287 38.645 38.992 39.335 39.67 40.005 40.348 40.7 41.087 41.502 41.92 42.34 42.76 43.16 43.402 43.47 43.543 43.642 43.715 43.775 43.83 43.875 43.912 43.95 43.993 44.035 44.055 44.063 44.085 44.107 44.125 44.14 44.152 44.163 44.193 44.268 44.36 44.425 44.395 44.282 44.157 44.03 43.918 43.865 43.848 43.893 44.012 44.135 44.268 44.463 44.742 45.057 45.37 45.65 45.9 46.147 46.395 46.637 46.855 47.055 47.255 47.455 47.653 47.853 48.068 48.308 48.578 48.868 49.17 49.455 49.707 49.955 50.23 50.535 50.913 51.38 51.85 52.358 52.927 53.5 54.065 54.625 55.215 55.835 56.455 57.067 57.657 58.225 58.79 59.357 59.867 60.31 60.773 61.295 61.77 62.175 62.58 62.987 63.317 63.563
21.7 21.77 21.787 21.792 21.778 21.768 21.77 21.783 21.798 21.81 21.885 22.033 22.187 22.335 22.465 22.587 22.712 22.835 22.955 23.065 23.17 23.275 23.38 23.48 23.577 23.68 23.78 23.867 23.942 24.02 24.072 24.105 24.145 24.187 24.252 24.337 24.417 24.48 24.522 24.56 24.595 24.632 24.7 24.795 24.898 25 25.128 25.29 25.458 25.63 25.778 25.888 25.993 26.1 26.25 26.443 26.638 26.83 27.007 27.173 27.335 27.495 27.67 27.86 28.05 28.24 28.443 28.665 28.898 29.13 29.37 29.625 29.885 30.143 30.41 30.688 30.973 31.257 31.518 31.773 32.038 32.323 32.65 33.002 33.307 33.588 33.893 34.2 34.51 34.82 35.125 35.425 35.725 36.088 36.497 36.85 37.16 37.473 37.795 38.135 38.488 38.843 39.188 39.525 39.865 40.205 40.527 40.838 41.193 41.6 42.02 42.44 42.86 43.277 43.557 43.642 43.707 43.795 43.862 43.925 43.985 44.035 44.072 44.107 44.142 44.175 44.19 44.19 44.203 44.223 44.238 44.253 44.268 44.283 44.313 44.38 44.47 44.547 44.542 44.442 44.322 44.202 44.08 44.015 44.02 44.088 44.205 44.322 44.435 44.573 44.827 45.17 45.5 45.785 46.035 46.285 46.535 46.777 46.992 47.19 47.39 47.59 47.798 48.018 48.245 48.49 48.763 49.05 49.342 49.615 49.862 50.105 50.355 50.64 51.03 51.523 52.03 52.573 53.155 53.738 54.325 54.905 55.503 56.13 56.76 57.395 58.067 58.697 59.255 59.81 60.312 60.752 61.182 61.632 62.055 62.45 62.857 63.24 63.55 63.797
21.65 21.722 21.762 21.772 21.74 21.723 21.728 21.748 21.773 21.805 21.898 22.045 22.198 22.35 22.477 22.59 22.712 22.83 22.93 23.028 23.132 23.237 23.342 23.447 23.552 23.64 23.71 23.785 23.86 23.942 24.01 24.05 24.09 24.13 24.195 24.28 24.365 24.45 24.51 24.55 24.587 24.633 24.72 24.832 24.938 25.043 25.185 25.367 25.543 25.71 25.85 25.96 26.07 26.183 26.338 26.53 26.72 26.897 27.07 27.245 27.41 27.57 27.75 27.947 28.14 28.33 28.538 28.765 28.998 29.233 29.47 29.718 29.975 30.233 30.508 30.795 31.09 31.405 31.672 31.9 32.15 32.413 32.695 33.015 33.33 33.63 33.94 34.25 34.557 34.865 35.173 35.475 35.785 36.193 36.662 37.05 37.383 37.718 38.052 38.385 38.72 39.058 39.393 39.732 40.07 40.39 40.685 40.973 41.285 41.65 42.06 42.48 42.902 43.307 43.562 43.675 43.81 43.925 43.987 44.05 44.107 44.155 44.195 44.23 44.263 44.313 44.342 44.34 44.363 44.39 44.395 44.4 44.408 44.415 44.43 44.475 44.547 44.612 44.625 44.552 44.437 44.32 44.223 44.178 44.183 44.25 44.36 44.467 44.56 44.64 44.843 45.19 45.565 45.902 46.172 46.42 46.67 46.91 47.13 47.335 47.533 47.73 47.95 48.187 48.42 48.663 48.932 49.217 49.502 49.77 50.017 50.262 50.503 50.76 51.148 51.67 52.24 52.833 53.428 54.02 54.618 55.203 55.81 56.457 57.1 57.743 58.475 59.177 59.745 60.305 60.76 61.14 61.562 61.972 62.318 62.663 63.062 63.45 63.775 64.025
21.597 21.69 21.757 21.767 21.738 21.718 21.72 21.745 21.778 21.815 21.91 22.06 22.21 22.36 22.482 22.583 22.698 22.817 22.91 22.99 23.088 23.193 23.298 23.402 23.492 23.55 23.603 23.675 23.758 23.852 23.927 23.972 24.015 24.053 24.115 24.2 24.288 24.382 24.45 24.49 24.538 24.605 24.72 24.862 24.982 25.088 25.238 25.442 25.642 25.817 25.955 26.067 26.18 26.29 26.443 26.63 26.8 26.948 27.118 27.315 27.49 27.65 27.833 28.035 28.232 28.425 28.635 28.868 29.108 29.352 29.588 29.82 30.068 30.325 30.605 30.9 31.208 31.547 31.847 32.07 32.288 32.535 32.795 33.105 33.43 33.72 34.013 34.308 34.605 34.91 35.22 35.525 35.868 36.343 36.857 37.28 37.637 37.973 38.308 38.642 38.975 39.295 39.615 39.94 40.247 40.535 40.818 41.11 41.41 41.73 42.105 42.522 42.94 43.32 43.55 43.705 43.902 44.03 44.09 44.147 44.197 44.242 44.285 44.32 44.383 44.472 44.515 44.535 44.593 44.64 44.647 44.642 44.62 44.582 44.548 44.55 44.595 44.65 44.687 44.637 44.523 44.425 44.373 44.355 44.35 44.39 44.485 44.58 44.647 44.705 44.843 45.135 45.56 45.967 46.277 46.55 46.805 47.042 47.265 47.477 47.677 47.875 48.1 48.347 48.588 48.83 49.088 49.363 49.647 49.915 50.165 50.415 50.66 50.893 51.265 51.815 52.48 53.157 53.763 54.368 54.962 55.51 56.103 56.782 57.445 58.095 58.855 59.63 60.247 60.842 61.285 61.545 61.895 62.297 62.605 62.873 63.228 63.622 63.957 64.205
21.55 21.68 21.765 21.767 21.745 21.725 21.725 21.75 21.788 21.83 21.925 22.075 22.225 22.372 22.495 22.59 22.69 22.802 22.897 22.97 23.05 23.148 23.252 23.345 23.407 23.45 23.498 23.568 23.663 23.767 23.845 23.892 23.937 23.978 24.038 24.125 24.22 24.317 24.387 24.435 24.503 24.59 24.708 24.86 25.007 25.13 25.283 25.495 25.72 25.915 26.057 26.172 26.285 26.397 26.54 26.702 26.847 26.983 27.153 27.362 27.56 27.73 27.915 28.12 28.322 28.523 28.74 28.983 29.228 29.475 29.71 29.935 30.17 30.418 30.698 31.003 31.325 31.672 32.012 32.272 32.465 32.675 32.935 33.267 33.597 33.878 34.153 34.43 34.715 35.008 35.303 35.6 36.028 36.572 37.07 37.51 37.89 38.23 38.565 38.897 39.222 39.527 39.82 40.105 40.385 40.665 40.95 41.248 41.55 41.85 42.178 42.568 42.962 43.315 43.593 43.822 44.022 44.13 44.187 44.237 44.283 44.328 44.372 44.413 44.54 44.67 44.713 44.77 44.842 44.9 44.902 44.862 44.802 44.727 44.655 44.63 44.658 44.698 44.742 44.715 44.63 44.578 44.55 44.537 44.532 44.543 44.598 44.667 44.723 44.778 44.858 45.098 45.56 46 46.33 46.645 46.93 47.175 47.395 47.61 47.817 48.023 48.253 48.505 48.752 49 49.25 49.515 49.792 50.055 50.3 50.532 50.757 50.97 51.383 51.975 52.69 53.472 54.12 54.722 55.285 55.79 56.38 57.092 57.785 58.453 59.225 60.06 60.745 61.392 61.885 62.075 62.29 62.628 62.927 63.155 63.433 63.79 64.11 64.337
21.563 21.702 21.775 21.77 21.752 21.735 21.735 21.763 21.803 21.845 21.94 22.09 22.24 22.387 22.507 22.603 22.698 22.795 22.882 22.957 23.03 23.11 23.197 23.265 23.31 23.35 23.398 23.473 23.575 23.682 23.762 23.81 23.852 23.898 23.963 24.055 24.155 24.252 24.33 24.398 24.483 24.578 24.695 24.845 25.005 25.155 25.32 25.53 25.76 25.975 26.132 26.242 26.35 26.465 26.6 26.745 26.882 27.018 27.183 27.39 27.605 27.802 27.997 28.2 28.402 28.61 28.843 29.097 29.35 29.597 29.832 30.057 30.285 30.52 30.795 31.108 31.44 31.792 32.15 32.46 32.675 32.855 33.095 33.42 33.76 34.06 34.335 34.61 34.89 35.168 35.445 35.765 36.265 36.812 37.27 37.725 38.135 38.487 38.82 39.145 39.447 39.722 39.985 40.25 40.523 40.798 41.083 41.382 41.687 41.99 42.293 42.628 42.985 43.34 43.695 43.96 44.13 44.235 44.283 44.328 44.373 44.415 44.458 44.505 44.697 44.877 44.92 44.977 45.032 45.075 45.052 44.977 44.905 44.832 44.76 44.725 44.74 44.773 44.815 44.815 44.778 44.752 44.727 44.71 44.695 44.683 44.708 44.76 44.813 44.865 44.918 45.123 45.583 46.03 46.36 46.698 47.027 47.297 47.52 47.735 47.947 48.162 48.395 48.642 48.882 49.125 49.382 49.652 49.92 50.16 50.375 50.577 50.773 50.968 51.46 52.122 52.838 53.707 54.455 55.057 55.575 56.06 56.658 57.385 58.107 58.813 59.598 60.455 61.232 61.967 62.485 62.675 62.807 63.007 63.247 63.475 63.71 63.982 64.242 64.447
21.652 21.757 21.785 21.773 21.758 21.748 21.765 21.805 21.843 21.88 21.968 22.11 22.26 22.407 22.528 22.628 22.722 22.8 22.87 22.945 23.02 23.09 23.145 23.185 23.225 23.265 23.32 23.405 23.507 23.602 23.67 23.715 23.758 23.813 23.89 23.985 24.085 24.185 24.29 24.39 24.483 24.58 24.7 24.85 25.01 25.175 25.348 25.538 25.752 25.975 26.142 26.252 26.36 26.48 26.62 26.765 26.907 27.05 27.215 27.42 27.643 27.862 28.07 28.27 28.47 28.683 28.925 29.185 29.445 29.702 29.945 30.172 30.397 30.625 30.898 31.215 31.548 31.9 32.262 32.61 32.88 33.075 33.275 33.563 33.922 34.245 34.52 34.795 35.075 35.347 35.613 35.963 36.45 36.955 37.43 37.915 38.37 38.745 39.062 39.355 39.625 39.88 40.135 40.398 40.667 40.938 41.215 41.515 41.82 42.117 42.412 42.705 43.028 43.403 43.785 44.055 44.235 44.372 44.443 44.493 44.535 44.575 44.615 44.655 44.835 45.027 45.08 45.12 45.16 45.182 45.147 45.075 45.005 44.935 44.863 44.833 44.863 44.908 44.952 44.96 44.93 44.905 44.877 44.847 44.822 44.803 44.823 44.878 44.93 44.98 45.03 45.263 45.705 46.11 46.453 46.803 47.132 47.402 47.627 47.842 48.055 48.265 48.49 48.73 48.952 49.173 49.43 49.712 50.005 50.25 50.44 50.63 50.82 51.01 51.513 52.215 52.96 53.865 54.7 55.335 55.827 56.305 56.9 57.642 58.407 59.165 59.952 60.76 61.517 62.327 62.947 63.152 63.225 63.322 63.5 63.73 63.942 64.12 64.312 64.532
21.725 21.79 21.792 21.778 21.768 21.775 21.815 21.872 21.917 21.953 22.033 22.163 22.303 22.445 22.565 22.662 22.742 22.8 22.86 22.933 23.007 23.08 23.117 23.13 23.158 23.198 23.26 23.35 23.44 23.512 23.565 23.605 23.658 23.733 23.823 23.92 24.02 24.123 24.25 24.387 24.502 24.603 24.723 24.875 25.04 25.215 25.383 25.543 25.728 25.94 26.117 26.237 26.353 26.485 26.63 26.775 26.92 27.078 27.26 27.468 27.69 27.915 28.127 28.33 28.535 28.753 28.995 29.258 29.528 29.797 30.045 30.275 30.5 30.725 31 31.323 31.653 32.003 32.365 32.715 33.01 33.24 33.452 33.728 34.095 34.435 34.71 34.98 35.25 35.515 35.78 36.15 36.625 37.11 37.6 38.095 38.575 38.965 39.26 39.522 39.777 40.032 40.287 40.545 40.81 41.075 41.345 41.638 41.935 42.225 42.515 42.795 43.09 43.493 43.887 44.14 44.345 44.515 44.627 44.712 44.77 44.81 44.847 44.868 44.953 45.1 45.192 45.24 45.28 45.29 45.245 45.175 45.102 45.03 44.955 44.948 45.02 45.085 45.122 45.112 45.07 45.038 45.007 44.97 44.94 44.92 44.94 45 45.055 45.105 45.203 45.503 45.907 46.26 46.612 46.947 47.24 47.497 47.725 47.935 48.137 48.335 48.555 48.785 48.99 49.188 49.428 49.728 50.075 50.355 50.548 50.74 50.93 51.12 51.55 52.258 53.08 53.98 54.83 55.51 56.037 56.52 57.098 57.84 58.632 59.417 60.197 60.925 61.573 62.352 63.057 63.36 63.445 63.518 63.69 63.897 64.052 64.16 64.328 64.55
21.715 21.778 21.795 21.788 21.795 21.82 21.868 21.932 21.992 22.038 22.118 22.24 22.365 22.497 22.605 22.68 22.74 22.79 22.85 22.92 22.993 23.062 23.095 23.095 23.103 23.133 23.198 23.277 23.345 23.402 23.453 23.503 23.575 23.665 23.76 23.86 23.963 24.07 24.2 24.355 24.502 24.622 24.748 24.905 25.083 25.265 25.43 25.58 25.735 25.915 26.092 26.228 26.355 26.498 26.642 26.788 26.943 27.12 27.32 27.53 27.748 27.97 28.187 28.395 28.608 28.83 29.07 29.34 29.627 29.902 30.145 30.375 30.6 30.825 31.1 31.425 31.758 32.103 32.455 32.792 33.08 33.327 33.57 33.823 34.18 34.577 34.882 35.145 35.405 35.665 35.96 36.37 36.855 37.337 37.81 38.267 38.722 39.095 39.372 39.635 39.892 40.152 40.413 40.693 40.98 41.245 41.51 41.79 42.08 42.37 42.66 42.935 43.203 43.6 44 44.25 44.465 44.635 44.76 44.88 44.982 45.045 45.075 45.08 45.09 45.178 45.285 45.347 45.397 45.4 45.342 45.27 45.195 45.118 45.043 45.053 45.167 45.262 45.285 45.257 45.215 45.178 45.145 45.105 45.063 45.038 45.06 45.12 45.177 45.23 45.405 45.74 46.092 46.432 46.76 47.055 47.33 47.59 47.817 48.017 48.21 48.405 48.615 48.822 49.015 49.205 49.43 49.755 50.155 50.457 50.653 50.847 51.04 51.23 51.618 52.325 53.19 54.085 54.907 55.592 56.185 56.717 57.283 58 58.792 59.575 60.322 60.987 61.6 62.283 62.922 63.337 63.565 63.702 63.852 63.997 64.097 64.183 64.332 64.502
