ncols         200
nrows         72
xllcorner     548000
yllcorner     258035
cellsize      5
NODATA_value  -9999.0
8.403 8.61 8.533 9.31 10.27 10.267 10.187 9.99 9.75 9.51 9.348 9.285 9.24 9.195 9.185 9.215 9.255 9.29 9.28 9.215 9.14 9.068 9.018 9.013 9.03 9.05 9.093 9.17 9.26 9.365 9.475 9.575 9.673 9.765 9.86 9.965 10.08 10.195 10.283 10.345 10.408 10.47 10.495 10.485 10.475 10.447 10.4 10.35 10.298 10.265 10.225 10.14 10.035 9.963 9.963 9.988 10.005 10.02 10.063 10.15 10.237 10.302 10.337 10.363 10.397 10.435 10.46 10.47 10.48 10.493 10.51 10.53 10.547 10.547 10.515 10.465 10.417 10.38 10.355 10.335 10.315 10.295 10.282 10.28 10.282 10.285 10.282 10.27 10.248 10.225 10.215 10.212 10.208 10.208 10.215 10.225 10.233 10.24 10.275 10.333 10.39 10.437 10.472 10.505 10.535 10.573 10.62 10.673 10.725 10.772 10.81 10.84 10.872 10.905 10.927 10.927 10.912 10.897 10.875 10.843 10.808 10.773 10.753 10.748 10.74 10.733 10.72 10.705 10.695 10.688 10.693 10.707 10.722 10.735 10.735 10.725 10.715 10.71 10.713 10.718 10.725 10.73 10.727 10.725 10.72 10.715 10.715 10.715 10.713 10.71 10.715 10.725 10.738 10.75 10.76 10.773 10.787 10.8 10.815 10.835 10.85 10.865 10.885 10.91 10.935 10.958 10.988 11.033 11.09 11.145 11.18 11.2 11.22 11.24 11.245 11.23 11.215 11.208 11.21 11.223 11.235 11.235 11.23 11.227 11.225 11.227 11.215 11.177 11.135 11.098 11.06 11.02 10.98 10.943 10.91 10.88 10.853 10.825 10.785 10.735
8.383 8.585 8.348 9.048 10.169 10.252 10.197 10.03 9.8 9.563 9.405 9.343 9.295 9.25 9.238 9.263 9.3 9.337 9.317 9.24 9.165 9.108 9.1 9.125 9.145 9.165 9.215 9.303 9.395 9.49 9.578 9.66 9.755 9.855 9.958 10.062 10.162 10.243 10.31 10.375 10.435 10.477 10.487 10.48 10.445 10.392 10.345 10.295 10.242 10.175 10.095 10.002 9.898 9.818 9.8 9.815 9.828 9.84 9.873 9.948 10.045 10.145 10.22 10.262 10.297 10.337 10.37 10.385 10.395 10.408 10.425 10.447 10.467 10.47 10.435 10.38 10.338 10.323 10.325 10.317 10.3 10.28 10.273 10.275 10.277 10.282 10.285 10.277 10.258 10.233 10.215 10.208 10.203 10.2 10.205 10.218 10.228 10.238 10.275 10.335 10.393 10.445 10.487 10.52 10.55 10.588 10.635 10.685 10.735 10.772 10.79 10.81 10.84 10.87 10.882 10.875 10.862 10.847 10.83 10.802 10.77 10.74 10.72 10.71 10.7 10.695 10.693 10.685 10.675 10.67 10.673 10.682 10.697 10.712 10.72 10.717 10.71 10.7 10.695 10.698 10.705 10.715 10.715 10.71 10.708 10.708 10.71 10.71 10.705 10.7 10.703 10.713 10.727 10.74 10.748 10.758 10.772 10.785 10.793 10.803 10.815 10.83 10.852 10.88 10.905 10.93 10.965 11.015 11.075 11.13 11.165 11.185 11.207 11.227 11.23 11.218 11.205 11.2 11.205 11.218 11.23 11.243 11.242 11.233 11.23 11.227 11.205 11.165 11.125 11.085 11.05 11.015 10.975 10.94 10.91 10.88 10.85 10.817 10.773 10.72
8.37 8.567 8.23 8.765 9.982 10.22 10.172 10.06 9.875 9.645 9.485 9.41 9.355 9.31 9.295 9.313 9.345 9.38 9.357 9.283 9.223 9.188 9.193 9.227 9.255 9.283 9.345 9.44 9.535 9.627 9.705 9.77 9.853 9.95 10.052 10.152 10.237 10.302 10.363 10.425 10.47 10.48 10.475 10.462 10.4 10.323 10.27 10.22 10.152 10.05 9.95 9.862 9.765 9.683 9.658 9.672 9.682 9.69 9.718 9.785 9.88 9.99 10.09 10.145 10.18 10.227 10.272 10.297 10.31 10.323 10.34 10.36 10.37 10.362 10.325 10.273 10.253 10.268 10.285 10.29 10.282 10.265 10.258 10.262 10.265 10.268 10.277 10.285 10.277 10.257 10.233 10.21 10.2 10.2 10.21 10.232 10.25 10.263 10.3 10.357 10.41 10.46 10.5 10.53 10.563 10.605 10.653 10.702 10.745 10.757 10.755 10.763 10.785 10.815 10.827 10.817 10.802 10.782 10.77 10.762 10.74 10.708 10.685 10.678 10.673 10.67 10.67 10.665 10.655 10.65 10.65 10.653 10.665 10.68 10.69 10.697 10.695 10.685 10.68 10.683 10.688 10.695 10.695 10.69 10.695 10.705 10.71 10.71 10.708 10.705 10.705 10.71 10.72 10.73 10.738 10.745 10.755 10.765 10.77 10.77 10.775 10.79 10.815 10.845 10.872 10.898 10.933 10.985 11.045 11.1 11.135 11.158 11.188 11.217 11.225 11.215 11.208 11.21 11.22 11.23 11.243 11.262 11.257 11.233 11.225 11.22 11.195 11.155 11.115 11.075 11.045 11.02 10.987 10.952 10.92 10.89 10.855 10.815 10.767 10.715
8.363 8.552 8.288 8.653 9.79 10.18 10.115 10.03 9.915 9.725 9.565 9.485 9.42 9.37 9.355 9.37 9.395 9.42 9.397 9.343 9.308 9.283 9.28 9.32 9.362 9.408 9.485 9.58 9.675 9.765 9.84 9.9 9.968 10.05 10.145 10.232 10.297 10.355 10.415 10.46 10.475 10.47 10.462 10.43 10.345 10.255 10.192 10.122 10.02 9.898 9.795 9.715 9.627 9.545 9.515 9.527 9.535 9.538 9.563 9.628 9.723 9.84 9.952 10.02 10.063 10.118 10.167 10.197 10.22 10.237 10.252 10.26 10.255 10.247 10.218 10.185 10.195 10.225 10.245 10.255 10.26 10.25 10.243 10.25 10.255 10.255 10.265 10.28 10.285 10.277 10.255 10.228 10.208 10.198 10.208 10.235 10.262 10.283 10.32 10.372 10.42 10.47 10.51 10.543 10.58 10.625 10.67 10.715 10.737 10.73 10.728 10.73 10.738 10.76 10.772 10.76 10.737 10.71 10.698 10.702 10.697 10.672 10.65 10.645 10.648 10.65 10.648 10.643 10.635 10.63 10.63 10.63 10.638 10.65 10.66 10.67 10.675 10.67 10.665 10.668 10.673 10.677 10.678 10.68 10.693 10.705 10.71 10.71 10.71 10.71 10.71 10.71 10.713 10.72 10.73 10.735 10.74 10.75 10.752 10.748 10.745 10.753 10.775 10.808 10.84 10.865 10.903 10.958 11.015 11.07 11.108 11.138 11.175 11.21 11.22 11.215 11.218 11.225 11.235 11.248 11.265 11.287 11.282 11.248 11.223 11.21 11.185 11.145 11.105 11.065 11.035 11.015 10.992 10.962 10.927 10.892 10.853 10.81 10.765 10.72
8.355 8.54 8.453 8.645 9.595 10.135 10.058 9.973 9.89 9.77 9.648 9.57 9.5 9.438 9.418 9.432 9.45 9.467 9.455 9.425 9.4 9.375 9.368 9.405 9.465 9.532 9.622 9.72 9.815 9.905 9.98 10.037 10.092 10.155 10.227 10.295 10.352 10.407 10.45 10.465 10.462 10.457 10.445 10.387 10.285 10.18 10.085 9.98 9.86 9.743 9.645 9.565 9.483 9.408 9.378 9.383 9.385 9.385 9.41 9.47 9.565 9.687 9.802 9.89 9.953 10.015 10.065 10.095 10.125 10.147 10.155 10.15 10.14 10.133 10.12 10.123 10.15 10.18 10.2 10.21 10.223 10.228 10.23 10.237 10.243 10.245 10.255 10.27 10.28 10.285 10.272 10.247 10.222 10.2 10.205 10.238 10.27 10.3 10.34 10.388 10.433 10.48 10.522 10.56 10.602 10.647 10.69 10.717 10.717 10.703 10.7 10.705 10.705 10.712 10.712 10.693 10.668 10.64 10.628 10.633 10.635 10.63 10.623 10.62 10.623 10.628 10.628 10.623 10.618 10.613 10.61 10.613 10.618 10.623 10.63 10.64 10.65 10.655 10.655 10.655 10.657 10.66 10.665 10.677 10.69 10.702 10.71 10.71 10.712 10.715 10.715 10.713 10.71 10.713 10.72 10.725 10.73 10.738 10.738 10.733 10.728 10.725 10.74 10.773 10.808 10.838 10.88 10.935 10.99 11.045 11.088 11.125 11.165 11.202 11.223 11.228 11.235 11.245 11.255 11.27 11.29 11.312 11.307 11.272 11.237 11.207 11.175 11.135 11.095 11.058 11.03 11.01 10.993 10.97 10.935 10.895 10.855 10.813 10.773 10.74
8.348 8.535 8.622 8.625 9.405 10.147 10.08 9.998 9.915 9.823 9.733 9.66 9.59 9.52 9.478 9.478 9.492 9.507 9.515 9.505 9.482 9.46 9.453 9.488 9.553 9.632 9.73 9.827 9.92 10.002 10.07 10.127 10.18 10.232 10.287 10.345 10.402 10.442 10.435 10.412 10.405 10.4 10.375 10.29 10.175 10.06 9.94 9.82 9.705 9.603 9.515 9.435 9.358 9.295 9.27 9.27 9.27 9.273 9.283 9.32 9.403 9.515 9.635 9.755 9.847 9.917 9.97 10 10.033 10.065 10.075 10.065 10.055 10.04 10.038 10.06 10.092 10.127 10.16 10.18 10.195 10.21 10.22 10.227 10.233 10.238 10.245 10.258 10.27 10.28 10.275 10.25 10.225 10.205 10.215 10.255 10.29 10.325 10.365 10.41 10.455 10.502 10.53 10.55 10.592 10.635 10.675 10.692 10.682 10.667 10.663 10.667 10.67 10.665 10.652 10.633 10.608 10.58 10.57 10.575 10.578 10.593 10.608 10.613 10.615 10.62 10.625 10.62 10.613 10.603 10.593 10.595 10.6 10.6 10.605 10.615 10.625 10.632 10.637 10.64 10.64 10.64 10.648 10.662 10.677 10.695 10.707 10.71 10.713 10.72 10.725 10.723 10.718 10.715 10.72 10.725 10.73 10.733 10.73 10.728 10.723 10.718 10.73 10.76 10.795 10.83 10.875 10.93 10.983 11.035 11.08 11.12 11.16 11.2 11.24 11.262 11.27 11.28 11.285 11.293 11.31 11.332 11.322 11.282 11.245 11.207 11.17 11.13 11.09 11.06 11.04 11.02 11.003 10.982 10.95 10.91 10.868 10.825 10.793 10.765
8.345 8.532 8.712 8.503 9.088 10.105 10.2 10.12 10.032 9.923 9.825 9.755 9.685 9.615 9.555 9.523 9.52 9.533 9.552 9.565 9.555 9.535 9.535 9.573 9.633 9.713 9.807 9.9 9.98 10.045 10.105 10.167 10.225 10.278 10.332 10.387 10.427 10.44 10.397 10.333 10.305 10.297 10.252 10.142 10.018 9.9 9.78 9.665 9.568 9.485 9.405 9.328 9.263 9.215 9.195 9.195 9.198 9.205 9.193 9.195 9.258 9.35 9.485 9.642 9.75 9.825 9.88 9.913 9.955 10 10.015 10.005 9.99 9.963 9.955 9.983 10.02 10.062 10.115 10.162 10.187 10.202 10.213 10.22 10.227 10.232 10.238 10.248 10.26 10.27 10.262 10.238 10.22 10.213 10.233 10.28 10.32 10.355 10.395 10.44 10.488 10.537 10.547 10.528 10.545 10.587 10.625 10.642 10.637 10.625 10.62 10.622 10.62 10.602 10.587 10.58 10.56 10.533 10.523 10.525 10.54 10.58 10.61 10.62 10.627 10.632 10.635 10.63 10.617 10.6 10.585 10.58 10.58 10.58 10.585 10.595 10.605 10.61 10.613 10.617 10.62 10.62 10.625 10.64 10.663 10.687 10.702 10.708 10.713 10.728 10.74 10.74 10.735 10.73 10.735 10.74 10.74 10.735 10.73 10.73 10.725 10.72 10.738 10.77 10.805 10.84 10.885 10.94 10.99 11.037 11.08 11.12 11.16 11.2 11.25 11.297 11.32 11.33 11.33 11.323 11.33 11.35 11.332 11.28 11.238 11.202 11.165 11.125 11.093 11.075 11.06 11.04 11.02 11 10.97 10.93 10.888 10.848 10.815 10.785
8.343 8.528 8.715 8.285 8.641 9.95 10.34 10.252 10.145 10.023 9.925 9.852 9.78 9.71 9.65 9.6 9.565 9.56 9.578 9.602 9.615 9.605 9.615 9.66 9.718 9.793 9.877 9.957 10.02 10.075 10.135 10.2 10.265 10.322 10.372 10.407 10.42 10.417 10.372 10.288 10.22 10.192 10.13 10.003 9.87 9.743 9.628 9.53 9.45 9.375 9.298 9.233 9.185 9.145 9.125 9.128 9.135 9.142 9.13 9.138 9.2 9.283 9.42 9.57 9.66 9.735 9.793 9.835 9.89 9.942 9.957 9.94 9.912 9.878 9.87 9.903 9.945 9.988 10.045 10.115 10.17 10.197 10.207 10.213 10.22 10.225 10.23 10.24 10.25 10.26 10.253 10.235 10.228 10.225 10.248 10.297 10.345 10.385 10.425 10.47 10.523 10.575 10.587 10.548 10.52 10.543 10.572 10.585 10.587 10.582 10.577 10.57 10.555 10.53 10.515 10.515 10.507 10.487 10.475 10.488 10.528 10.585 10.62 10.63 10.64 10.645 10.642 10.632 10.615 10.595 10.58 10.57 10.563 10.56 10.565 10.575 10.582 10.587 10.59 10.593 10.597 10.6 10.605 10.623 10.65 10.68 10.697 10.708 10.723 10.745 10.76 10.76 10.755 10.75 10.755 10.757 10.747 10.733 10.728 10.73 10.727 10.725 10.745 10.78 10.815 10.85 10.895 10.947 10.995 11.04 11.08 11.12 11.16 11.2 11.25 11.31 11.357 11.38 11.377 11.363 11.358 11.37 11.35 11.29 11.238 11.195 11.155 11.123 11.105 11.095 11.08 11.06 11.04 11.02 10.99 10.95 10.91 10.87 10.835 10.805
8.348 8.525 8.712 8.238 8.356 9.622 10.314 10.365 10.242 10.12 10.025 9.95 9.875 9.805 9.743 9.69 9.64 9.608 9.61 9.633 9.655 9.668 9.695 9.747 9.802 9.865 9.932 9.995 10.05 10.105 10.165 10.23 10.297 10.355 10.39 10.4 10.4 10.395 10.347 10.26 10.172 10.102 10.007 9.873 9.738 9.605 9.498 9.418 9.343 9.27 9.208 9.16 9.12 9.085 9.075 9.083 9.088 9.09 9.103 9.15 9.22 9.295 9.398 9.5 9.578 9.655 9.72 9.773 9.83 9.882 9.892 9.865 9.83 9.803 9.808 9.843 9.885 9.925 9.975 10.045 10.12 10.175 10.2 10.205 10.21 10.218 10.225 10.235 10.245 10.255 10.255 10.25 10.245 10.24 10.263 10.31 10.36 10.41 10.457 10.505 10.557 10.61 10.627 10.592 10.543 10.518 10.52 10.528 10.533 10.535 10.527 10.508 10.485 10.463 10.448 10.445 10.443 10.433 10.435 10.475 10.535 10.595 10.63 10.637 10.645 10.652 10.647 10.63 10.61 10.59 10.575 10.565 10.555 10.548 10.548 10.555 10.56 10.565 10.57 10.57 10.575 10.58 10.588 10.61 10.64 10.67 10.695 10.715 10.737 10.765 10.78 10.777 10.772 10.77 10.77 10.762 10.747 10.73 10.723 10.728 10.73 10.733 10.755 10.79 10.825 10.86 10.903 10.95 10.995 11.042 11.083 11.12 11.16 11.2 11.25 11.31 11.37 11.415 11.422 11.41 11.4 11.395 11.365 11.305 11.247 11.195 11.155 11.135 11.125 11.112 11.095 11.075 11.055 11.035 11.007 10.97 10.93 10.89 10.852 10.82
8.393 8.548 8.715 8.38 8.23 8.923 9.81 10.305 10.272 10.15 10.085 10.042 9.97 9.897 9.83 9.772 9.72 9.675 9.665 9.685 9.705 9.723 9.75 9.797 9.852 9.907 9.96 10.015 10.07 10.125 10.185 10.25 10.31 10.352 10.37 10.372 10.375 10.362 10.3 10.197 10.097 9.995 9.887 9.767 9.633 9.503 9.4 9.325 9.253 9.195 9.155 9.118 9.08 9.06 9.083 9.11 9.115 9.115 9.15 9.223 9.295 9.363 9.413 9.453 9.515 9.597 9.667 9.723 9.777 9.82 9.82 9.79 9.763 9.758 9.78 9.815 9.855 9.885 9.918 9.978 10.053 10.127 10.17 10.175 10.18 10.21 10.24 10.25 10.26 10.27 10.278 10.28 10.278 10.275 10.295 10.34 10.39 10.432 10.467 10.51 10.56 10.612 10.635 10.607 10.557 10.505 10.48 10.483 10.49 10.495 10.485 10.46 10.435 10.42 10.41 10.405 10.4 10.398 10.425 10.483 10.545 10.597 10.625 10.632 10.638 10.652 10.657 10.638 10.615 10.59 10.575 10.57 10.56 10.55 10.543 10.54 10.543 10.55 10.557 10.56 10.565 10.57 10.578 10.6 10.63 10.66 10.682 10.7 10.725 10.752 10.765 10.762 10.76 10.77 10.777 10.765 10.75 10.738 10.73 10.733 10.738 10.748 10.773 10.808 10.843 10.878 10.915 10.958 11.003 11.05 11.092 11.128 11.165 11.205 11.255 11.315 11.375 11.43 11.45 11.44 11.43 11.41 11.365 11.305 11.25 11.2 11.168 11.153 11.14 11.125 11.105 11.085 11.065 11.045 11.017 10.982 10.945 10.905 10.865 10.828
8.475 8.612 8.75 8.52 8.24 8.415 9.058 9.86 10.172 10.11 10.068 10.085 10.052 9.982 9.913 9.85 9.795 9.748 9.735 9.755 9.77 9.775 9.788 9.82 9.868 9.922 9.975 10.028 10.08 10.135 10.195 10.255 10.3 10.322 10.332 10.337 10.33 10.282 10.19 10.077 9.965 9.855 9.76 9.667 9.547 9.42 9.32 9.248 9.193 9.158 9.127 9.093 9.07 9.075 9.12 9.18 9.205 9.208 9.25 9.332 9.41 9.472 9.49 9.473 9.488 9.553 9.622 9.677 9.725 9.755 9.75 9.725 9.72 9.74 9.768 9.8 9.835 9.847 9.863 9.915 9.99 10.07 10.117 10.125 10.148 10.215 10.265 10.275 10.288 10.3 10.31 10.32 10.325 10.323 10.343 10.39 10.43 10.45 10.465 10.49 10.528 10.577 10.6 10.58 10.537 10.485 10.455 10.453 10.458 10.462 10.452 10.428 10.41 10.405 10.4 10.395 10.395 10.4 10.435 10.497 10.552 10.59 10.61 10.618 10.63 10.657 10.67 10.652 10.625 10.585 10.565 10.57 10.567 10.56 10.548 10.535 10.533 10.538 10.547 10.557 10.565 10.57 10.575 10.593 10.62 10.65 10.665 10.668 10.685 10.71 10.72 10.72 10.73 10.76 10.782 10.775 10.76 10.75 10.745 10.748 10.758 10.775 10.8 10.835 10.87 10.905 10.94 10.975 11.018 11.062 11.105 11.142 11.18 11.22 11.268 11.325 11.385 11.442 11.465 11.452 11.435 11.405 11.355 11.295 11.245 11.205 11.18 11.167 11.152 11.135 11.115 11.092 11.07 11.05 11.022 10.988 10.952 10.915 10.875 10.835
8.542 8.63 8.7 8.542 8.293 8.368 8.67 9.18 9.795 10.04 10.008 10.04 10.077 10.055 9.995 9.93 9.872 9.82 9.805 9.82 9.825 9.825 9.835 9.858 9.89 9.938 9.99 10.043 10.095 10.147 10.202 10.245 10.27 10.285 10.295 10.29 10.242 10.15 10.04 9.93 9.82 9.71 9.618 9.542 9.45 9.338 9.245 9.19 9.158 9.132 9.103 9.08 9.083 9.1 9.145 9.22 9.28 9.303 9.348 9.432 9.515 9.572 9.572 9.537 9.513 9.528 9.578 9.625 9.66 9.685 9.685 9.68 9.7 9.727 9.753 9.785 9.807 9.803 9.808 9.855 9.93 10.01 10.062 10.093 10.153 10.24 10.29 10.3 10.315 10.33 10.34 10.352 10.365 10.368 10.388 10.425 10.445 10.458 10.472 10.488 10.508 10.538 10.547 10.53 10.505 10.465 10.435 10.43 10.428 10.43 10.422 10.403 10.395 10.395 10.39 10.39 10.4 10.413 10.45 10.505 10.545 10.575 10.595 10.608 10.635 10.672 10.682 10.66 10.622 10.573 10.55 10.56 10.567 10.565 10.552 10.538 10.528 10.525 10.535 10.55 10.56 10.568 10.575 10.59 10.61 10.635 10.65 10.648 10.653 10.67 10.68 10.69 10.72 10.762 10.787 10.782 10.773 10.765 10.76 10.768 10.783 10.8 10.828 10.862 10.898 10.935 10.97 11 11.035 11.075 11.115 11.155 11.197 11.24 11.285 11.34 11.398 11.455 11.477 11.457 11.427 11.392 11.345 11.293 11.253 11.218 11.193 11.18 11.165 11.145 11.122 11.098 11.073 11.05 11.025 10.992 10.957 10.922 10.885 10.845
8.512 8.552 8.58 8.522 8.303 8.385 8.645 8.763 9.185 9.745 9.942 9.95 10.02 10.062 10.045 9.99 9.93 9.88 9.867 9.875 9.875 9.875 9.885 9.905 9.927 9.96 10.005 10.057 10.107 10.155 10.19 10.207 10.225 10.242 10.245 10.205 10.117 10.015 9.913 9.803 9.688 9.573 9.48 9.41 9.333 9.25 9.19 9.158 9.133 9.108 9.09 9.093 9.108 9.125 9.17 9.245 9.325 9.38 9.435 9.507 9.572 9.615 9.61 9.58 9.547 9.528 9.543 9.575 9.605 9.63 9.645 9.665 9.693 9.718 9.743 9.765 9.77 9.755 9.753 9.798 9.875 9.955 10.023 10.09 10.175 10.265 10.317 10.33 10.342 10.357 10.37 10.38 10.392 10.402 10.417 10.435 10.448 10.462 10.477 10.492 10.505 10.515 10.51 10.488 10.468 10.44 10.418 10.413 10.408 10.405 10.4 10.393 10.388 10.385 10.385 10.395 10.41 10.425 10.458 10.495 10.525 10.555 10.58 10.608 10.645 10.685 10.692 10.658 10.61 10.563 10.545 10.555 10.565 10.568 10.557 10.542 10.528 10.52 10.528 10.543 10.555 10.565 10.578 10.593 10.608 10.625 10.632 10.63 10.63 10.635 10.65 10.683 10.725 10.767 10.792 10.792 10.787 10.78 10.78 10.795 10.81 10.825 10.853 10.888 10.925 10.965 11 11.03 11.06 11.093 11.13 11.17 11.213 11.255 11.302 11.357 11.41 11.46 11.472 11.445 11.41 11.375 11.337 11.3 11.265 11.23 11.205 11.187 11.172 11.155 11.13 11.105 11.08 11.052 11.025 10.995 10.96 10.925 10.89 10.852
8.428 8.473 8.518 8.552 8.358 8.408 8.685 8.705 8.795 9.218 9.69 9.857 9.912 9.975 9.995 9.95 9.895 9.87 9.877 9.89 9.9 9.912 9.927 9.94 9.952 9.972 10.005 10.047 10.092 10.137 10.137 10.12 10.135 10.155 10.155 10.1 10.005 9.908 9.815 9.712 9.598 9.48 9.385 9.313 9.243 9.198 9.173 9.148 9.123 9.11 9.133 9.163 9.178 9.193 9.238 9.315 9.393 9.447 9.482 9.522 9.567 9.602 9.602 9.575 9.547 9.523 9.525 9.555 9.585 9.613 9.643 9.675 9.7 9.725 9.75 9.75 9.733 9.718 9.718 9.763 9.84 9.92 10 10.082 10.17 10.26 10.315 10.332 10.347 10.355 10.372 10.395 10.402 10.41 10.42 10.432 10.447 10.46 10.477 10.495 10.505 10.51 10.5 10.475 10.448 10.418 10.405 10.408 10.405 10.4 10.395 10.393 10.388 10.39 10.403 10.418 10.433 10.45 10.473 10.5 10.53 10.56 10.59 10.625 10.663 10.697 10.707 10.675 10.628 10.585 10.57 10.58 10.587 10.582 10.565 10.548 10.533 10.525 10.53 10.545 10.56 10.57 10.583 10.597 10.612 10.617 10.613 10.61 10.61 10.618 10.643 10.682 10.725 10.765 10.792 10.797 10.79 10.79 10.805 10.825 10.84 10.855 10.888 10.93 10.97 11.01 11.048 11.08 11.11 11.138 11.16 11.19 11.23 11.27 11.305 11.345 11.395 11.442 11.447 11.415 11.38 11.342 11.315 11.292 11.262 11.227 11.202 11.185 11.167 11.155 11.135 11.107 11.08 11.052 11.022 10.99 10.955 10.92 10.885 10.85
8.355 8.413 8.49 8.577 8.393 8.438 8.72 8.73 8.73 8.84 9.233 9.632 9.77 9.842 9.877 9.833 9.803 9.815 9.84 9.86 9.885 9.915 9.935 9.942 9.952 9.968 9.99 10.02 10.06 10.105 10.082 10.02 10.008 10.025 10.027 9.99 9.91 9.813 9.722 9.632 9.53 9.418 9.323 9.253 9.208 9.193 9.177 9.155 9.145 9.16 9.207 9.262 9.292 9.305 9.35 9.43 9.487 9.51 9.515 9.525 9.55 9.582 9.587 9.56 9.532 9.505 9.51 9.55 9.587 9.618 9.652 9.692 9.72 9.745 9.767 9.752 9.713 9.69 9.7 9.75 9.825 9.905 9.983 10.06 10.143 10.23 10.285 10.305 10.312 10.297 10.317 10.372 10.395 10.4 10.41 10.425 10.437 10.445 10.465 10.49 10.505 10.51 10.5 10.475 10.442 10.405 10.395 10.41 10.415 10.41 10.405 10.4 10.4 10.415 10.435 10.452 10.47 10.487 10.505 10.528 10.555 10.585 10.618 10.652 10.685 10.715 10.727 10.71 10.675 10.635 10.618 10.625 10.62 10.595 10.57 10.553 10.54 10.535 10.54 10.555 10.57 10.58 10.59 10.602 10.61 10.6 10.59 10.59 10.598 10.62 10.648 10.678 10.715 10.757 10.787 10.79 10.79 10.81 10.835 10.855 10.873 10.89 10.93 10.985 11.032 11.075 11.112 11.145 11.177 11.205 11.213 11.22 11.248 11.285 11.308 11.323 11.358 11.405 11.412 11.377 11.337 11.293 11.27 11.265 11.247 11.215 11.188 11.173 11.158 11.15 11.135 11.103 11.073 11.047 11.017 10.982 10.945 10.91 10.875 10.84
8.3 8.395 8.51 8.607 8.41 8.463 8.747 8.753 8.755 8.758 8.883 9.223 9.545 9.715 9.76 9.735 9.745 9.775 9.8 9.825 9.86 9.897 9.92 9.93 9.945 9.963 9.983 10.005 10.035 10.072 10.047 9.965 9.905 9.895 9.892 9.862 9.805 9.717 9.628 9.542 9.452 9.35 9.263 9.215 9.2 9.197 9.185 9.178 9.195 9.225 9.273 9.34 9.397 9.427 9.472 9.532 9.555 9.56 9.565 9.565 9.568 9.575 9.57 9.545 9.515 9.485 9.493 9.54 9.587 9.622 9.658 9.7 9.737 9.767 9.78 9.755 9.703 9.665 9.68 9.74 9.813 9.892 9.97 10.043 10.12 10.202 10.255 10.26 10.24 10.208 10.225 10.302 10.365 10.39 10.4 10.412 10.422 10.428 10.445 10.475 10.5 10.51 10.497 10.467 10.43 10.393 10.385 10.402 10.415 10.417 10.415 10.415 10.425 10.445 10.465 10.485 10.505 10.523 10.54 10.56 10.583 10.61 10.642 10.675 10.705 10.732 10.742 10.732 10.712 10.68 10.663 10.657 10.632 10.598 10.57 10.558 10.55 10.545 10.55 10.563 10.575 10.585 10.595 10.6 10.595 10.58 10.57 10.578 10.6 10.627 10.653 10.68 10.713 10.752 10.78 10.788 10.808 10.842 10.867 10.885 10.907 10.93 10.97 11.032 11.092 11.14 11.177 11.21 11.242 11.27 11.277 11.273 11.275 11.298 11.32 11.325 11.338 11.37 11.375 11.337 11.29 11.243 11.223 11.225 11.22 11.2 11.178 11.165 11.158 11.152 11.135 11.1 11.068 11.04 11.01 10.975 10.938 10.903 10.868 10.832
8.313 8.435 8.56 8.642 8.44 8.498 8.775 8.778 8.78 8.783 8.785 8.908 9.218 9.53 9.657 9.675 9.705 9.735 9.765 9.802 9.845 9.882 9.907 9.922 9.94 9.957 9.977 10 10.02 10.035 10.002 9.925 9.842 9.788 9.758 9.725 9.685 9.617 9.533 9.448 9.365 9.283 9.225 9.208 9.205 9.205 9.21 9.23 9.26 9.29 9.338 9.405 9.475 9.532 9.575 9.597 9.602 9.607 9.612 9.612 9.6 9.572 9.545 9.52 9.492 9.468 9.48 9.528 9.578 9.625 9.665 9.705 9.748 9.785 9.787 9.75 9.7 9.658 9.668 9.73 9.8 9.878 9.955 10.028 10.103 10.178 10.217 10.205 10.178 10.153 10.17 10.238 10.313 10.367 10.39 10.4 10.408 10.413 10.43 10.46 10.49 10.507 10.492 10.455 10.415 10.378 10.37 10.388 10.405 10.42 10.428 10.438 10.455 10.475 10.495 10.518 10.54 10.56 10.58 10.6 10.62 10.643 10.668 10.695 10.723 10.747 10.757 10.747 10.735 10.715 10.695 10.67 10.635 10.6 10.575 10.568 10.563 10.558 10.56 10.57 10.58 10.59 10.595 10.587 10.575 10.56 10.555 10.575 10.605 10.632 10.66 10.69 10.72 10.752 10.78 10.805 10.837 10.872 10.9 10.92 10.942 10.967 11.01 11.072 11.137 11.195 11.237 11.272 11.305 11.33 11.337 11.33 11.32 11.32 11.327 11.332 11.338 11.347 11.335 11.29 11.24 11.195 11.175 11.175 11.178 11.175 11.167 11.162 11.157 11.152 11.135 11.1 11.065 11.035 11.002 10.965 10.93 10.895 10.86 10.825
8.373 8.488 8.612 8.677 8.485 8.545 8.802 8.805 8.808 8.813 8.815 8.843 9.033 9.372 9.572 9.61 9.64 9.67 9.707 9.755 9.8 9.832 9.847 9.86 9.882 9.902 9.92 9.935 9.94 9.937 9.897 9.822 9.745 9.688 9.648 9.605 9.565 9.52 9.46 9.39 9.32 9.258 9.225 9.22 9.22 9.233 9.275 9.315 9.333 9.355 9.4 9.465 9.532 9.597 9.622 9.613 9.617 9.63 9.637 9.627 9.592 9.548 9.513 9.488 9.463 9.453 9.483 9.533 9.583 9.638 9.685 9.725 9.765 9.807 9.82 9.788 9.745 9.708 9.715 9.77 9.833 9.893 9.958 10.038 10.118 10.187 10.218 10.205 10.188 10.173 10.19 10.248 10.313 10.362 10.382 10.39 10.398 10.405 10.423 10.453 10.485 10.505 10.49 10.45 10.41 10.383 10.385 10.405 10.423 10.445 10.47 10.49 10.51 10.533 10.553 10.575 10.6 10.62 10.64 10.66 10.68 10.695 10.705 10.723 10.748 10.772 10.777 10.763 10.75 10.737 10.715 10.68 10.645 10.61 10.59 10.588 10.583 10.578 10.57 10.57 10.58 10.59 10.592 10.58 10.565 10.55 10.543 10.558 10.587 10.62 10.65 10.68 10.71 10.74 10.77 10.8 10.832 10.865 10.895 10.92 10.942 10.977 11.032 11.095 11.157 11.22 11.267 11.302 11.335 11.36 11.365 11.355 11.345 11.335 11.33 11.335 11.34 11.335 11.305 11.255 11.205 11.163 11.143 11.14 11.143 11.147 11.147 11.145 11.14 11.135 11.125 11.097 11.062 11.03 10.995 10.958 10.923 10.888 10.85 10.81
8.44 8.545 8.665 8.71 8.508 8.565 8.817 8.832 8.842 8.845 8.848 8.883 9.03 9.3 9.477 9.517 9.552 9.585 9.623 9.67 9.707 9.727 9.73 9.728 9.742 9.765 9.78 9.787 9.787 9.782 9.742 9.668 9.61 9.59 9.565 9.515 9.473 9.445 9.42 9.382 9.33 9.273 9.243 9.24 9.253 9.29 9.355 9.417 9.44 9.445 9.468 9.518 9.577 9.635 9.647 9.618 9.6 9.605 9.612 9.597 9.56 9.515 9.48 9.455 9.443 9.453 9.498 9.557 9.61 9.663 9.712 9.755 9.798 9.847 9.877 9.87 9.84 9.803 9.813 9.865 9.91 9.943 9.995 10.078 10.157 10.227 10.26 10.255 10.242 10.225 10.243 10.302 10.35 10.37 10.377 10.383 10.39 10.4 10.418 10.448 10.48 10.502 10.49 10.45 10.42 10.418 10.435 10.455 10.475 10.505 10.54 10.57 10.595 10.617 10.638 10.658 10.68 10.7 10.72 10.737 10.75 10.755 10.755 10.763 10.783 10.805 10.802 10.78 10.765 10.755 10.732 10.698 10.665 10.63 10.61 10.612 10.61 10.605 10.59 10.573 10.575 10.585 10.587 10.577 10.565 10.552 10.54 10.538 10.555 10.585 10.615 10.645 10.678 10.712 10.742 10.765 10.793 10.825 10.855 10.883 10.918 10.97 11.035 11.102 11.165 11.225 11.272 11.305 11.332 11.355 11.362 11.355 11.342 11.33 11.328 11.332 11.33 11.317 11.285 11.235 11.19 11.155 11.133 11.123 11.12 11.122 11.12 11.115 11.11 11.105 11.1 11.085 11.055 11.02 10.985 10.95 10.918 10.885 10.845 10.795
8.515 8.61 8.717 8.742 8.488 8.538 8.82 8.845 8.867 8.877 8.885 8.93 9.04 9.23 9.375 9.42 9.462 9.5 9.535 9.57 9.59 9.6 9.6 9.59 9.588 9.598 9.61 9.62 9.628 9.627 9.588 9.53 9.51 9.507 9.482 9.44 9.41 9.393 9.38 9.365 9.337 9.29 9.26 9.273 9.31 9.36 9.423 9.5 9.56 9.575 9.57 9.58 9.615 9.67 9.685 9.65 9.608 9.575 9.558 9.545 9.522 9.485 9.45 9.435 9.445 9.468 9.513 9.577 9.637 9.69 9.74 9.79 9.842 9.897 9.93 9.935 9.925 9.898 9.908 9.952 9.977 9.995 10.045 10.122 10.195 10.262 10.295 10.295 10.29 10.278 10.298 10.34 10.357 10.363 10.37 10.378 10.385 10.395 10.415 10.445 10.472 10.495 10.487 10.46 10.455 10.468 10.485 10.51 10.54 10.575 10.612 10.647 10.677 10.702 10.725 10.742 10.76 10.78 10.797 10.807 10.81 10.81 10.81 10.813 10.82 10.832 10.827 10.805 10.788 10.772 10.747 10.715 10.685 10.65 10.63 10.635 10.637 10.635 10.62 10.595 10.583 10.585 10.585 10.575 10.565 10.555 10.545 10.535 10.533 10.55 10.58 10.61 10.645 10.685 10.715 10.735 10.758 10.785 10.815 10.855 10.91 10.97 11.035 11.105 11.17 11.23 11.275 11.302 11.327 11.35 11.357 11.35 11.337 11.325 11.322 11.322 11.31 11.292 11.262 11.218 11.18 11.15 11.125 11.11 11.1 11.098 11.095 11.088 11.08 11.075 11.07 11.06 11.04 11.01 10.977 10.945 10.915 10.882 10.84 10.788
8.59 8.677 8.77 8.777 8.44 8.475 8.817 8.842 8.87 8.895 8.918 8.977 9.072 9.187 9.277 9.323 9.368 9.41 9.443 9.46 9.47 9.48 9.485 9.485 9.485 9.488 9.488 9.485 9.483 9.475 9.45 9.428 9.425 9.423 9.405 9.38 9.363 9.35 9.34 9.33 9.32 9.298 9.293 9.33 9.38 9.43 9.49 9.565 9.645 9.692 9.7 9.69 9.69 9.72 9.727 9.687 9.627 9.563 9.518 9.498 9.478 9.448 9.428 9.435 9.458 9.483 9.528 9.593 9.658 9.717 9.772 9.827 9.885 9.94 9.97 9.975 9.975 9.97 9.985 10.015 10.032 10.048 10.093 10.165 10.235 10.3 10.33 10.33 10.327 10.322 10.335 10.35 10.355 10.363 10.37 10.38 10.39 10.398 10.415 10.443 10.465 10.488 10.493 10.49 10.505 10.523 10.543 10.575 10.613 10.648 10.685 10.72 10.753 10.785 10.807 10.82 10.832 10.847 10.857 10.862 10.865 10.867 10.87 10.87 10.87 10.867 10.855 10.835 10.813 10.79 10.765 10.735 10.703 10.668 10.653 10.658 10.66 10.66 10.647 10.622 10.6 10.588 10.58 10.57 10.563 10.555 10.545 10.535 10.525 10.525 10.548 10.583 10.62 10.66 10.69 10.713 10.735 10.76 10.795 10.848 10.91 10.97 11.035 11.105 11.17 11.23 11.272 11.295 11.32 11.345 11.352 11.342 11.33 11.32 11.312 11.302 11.287 11.27 11.242 11.208 11.175 11.145 11.12 11.103 11.088 11.078 11.07 11.063 11.058 11.053 11.045 11.035 11.023 11 10.97 10.94 10.91 10.877 10.835 10.783
8.62 8.707 8.792 8.832 8.373 8.34 8.792 8.835 8.865 8.898 8.935 8.992 9.075 9.157 9.215 9.26 9.308 9.355 9.385 9.395 9.405 9.415 9.443 9.47 9.48 9.485 9.475 9.458 9.44 9.408 9.388 9.385 9.38 9.378 9.368 9.355 9.343 9.348 9.368 9.373 9.365 9.355 9.378 9.428 9.47 9.51 9.56 9.625 9.692 9.747 9.772 9.772 9.767 9.767 9.75 9.695 9.62 9.545 9.495 9.468 9.443 9.423 9.428 9.453 9.478 9.503 9.55 9.618 9.683 9.745 9.8 9.852 9.907 9.96 9.99 9.995 9.997 10.005 10.03 10.06 10.08 10.098 10.14 10.21 10.277 10.327 10.347 10.35 10.347 10.345 10.347 10.353 10.358 10.365 10.38 10.397 10.408 10.413 10.428 10.453 10.475 10.505 10.54 10.565 10.585 10.605 10.635 10.678 10.718 10.753 10.79 10.825 10.85 10.867 10.872 10.875 10.885 10.895 10.902 10.907 10.91 10.915 10.92 10.922 10.92 10.905 10.885 10.862 10.837 10.813 10.79 10.765 10.733 10.7 10.688 10.69 10.69 10.687 10.672 10.647 10.623 10.6 10.585 10.578 10.573 10.563 10.55 10.54 10.53 10.52 10.533 10.57 10.61 10.65 10.685 10.713 10.738 10.763 10.803 10.86 10.92 10.975 11.028 11.09 11.155 11.215 11.252 11.27 11.292 11.315 11.322 11.312 11.3 11.29 11.282 11.272 11.26 11.245 11.227 11.205 11.175 11.145 11.12 11.103 11.088 11.073 11.063 11.06 11.06 11.058 11.048 11.035 11.022 10.995 10.958 10.925 10.895 10.865 10.832 10.785
8.615 8.705 8.793 8.88 8.58 8.231 8.495 8.81 8.872 8.91 8.948 8.985 9.045 9.125 9.185 9.23 9.283 9.337 9.367 9.375 9.385 9.398 9.445 9.505 9.53 9.535 9.525 9.502 9.465 9.405 9.375 9.38 9.38 9.375 9.365 9.358 9.363 9.395 9.44 9.47 9.477 9.47 9.495 9.552 9.597 9.63 9.648 9.668 9.71 9.76 9.785 9.79 9.79 9.772 9.732 9.67 9.597 9.525 9.475 9.445 9.425 9.423 9.44 9.472 9.5 9.525 9.575 9.647 9.715 9.775 9.825 9.87 9.922 9.972 10 10.005 10.01 10.023 10.053 10.092 10.122 10.145 10.19 10.255 10.305 10.33 10.34 10.347 10.35 10.35 10.353 10.358 10.362 10.368 10.388 10.417 10.432 10.44 10.455 10.48 10.515 10.563 10.62 10.67 10.7 10.72 10.755 10.805 10.85 10.89 10.922 10.942 10.947 10.945 10.935 10.923 10.925 10.935 10.945 10.95 10.953 10.96 10.965 10.965 10.955 10.935 10.915 10.89 10.862 10.835 10.815 10.8 10.775 10.745 10.73 10.73 10.725 10.715 10.695 10.67 10.647 10.623 10.608 10.602 10.592 10.575 10.56 10.55 10.54 10.53 10.54 10.573 10.61 10.65 10.69 10.725 10.755 10.78 10.82 10.88 10.935 10.982 11.023 11.068 11.128 11.187 11.22 11.233 11.25 11.27 11.275 11.26 11.245 11.235 11.233 11.235 11.227 11.213 11.205 11.197 11.175 11.145 11.123 11.107 11.09 11.075 11.073 11.077 11.08 11.08 11.07 11.052 11.03 10.99 10.945 10.908 10.873 10.84 10.815 10.785
8.612 8.715 8.805 8.897 8.9 8.57 8.266 8.498 8.83 8.93 8.965 8.993 9.03 9.093 9.153 9.205 9.265 9.325 9.355 9.358 9.365 9.38 9.43 9.507 9.562 9.58 9.565 9.522 9.457 9.385 9.355 9.367 9.377 9.377 9.37 9.378 9.41 9.453 9.497 9.54 9.57 9.578 9.605 9.67 9.732 9.772 9.762 9.73 9.733 9.77 9.797 9.795 9.775 9.74 9.695 9.637 9.57 9.5 9.453 9.433 9.425 9.428 9.448 9.485 9.517 9.545 9.595 9.67 9.742 9.807 9.857 9.895 9.94 9.985 10.01 10.018 10.025 10.04 10.07 10.115 10.16 10.192 10.232 10.277 10.302 10.318 10.33 10.34 10.347 10.352 10.358 10.362 10.368 10.373 10.393 10.425 10.452 10.47 10.49 10.528 10.58 10.64 10.7 10.76 10.81 10.84 10.875 10.925 10.967 11 11.017 11.02 11.017 11.015 11.005 10.985 10.973 10.975 10.985 10.993 11 11.01 11.012 11.002 10.985 10.965 10.942 10.915 10.885 10.855 10.835 10.825 10.81 10.785 10.77 10.765 10.752 10.737 10.717 10.693 10.67 10.648 10.632 10.622 10.605 10.585 10.57 10.56 10.55 10.54 10.55 10.58 10.613 10.65 10.69 10.73 10.767 10.798 10.84 10.895 10.943 10.99 11.03 11.063 11.108 11.16 11.19 11.2 11.213 11.23 11.232 11.212 11.193 11.18 11.178 11.185 11.187 11.18 11.175 11.175 11.167 11.145 11.125 11.11 11.093 11.08 11.08 11.09 11.097 11.1 11.09 11.062 11.025 10.98 10.935 10.895 10.853 10.815 10.79 10.767
8.562 8.72 8.825 8.905 8.962 8.955 8.655 8.326 8.503 8.852 8.98 9.008 9.035 9.075 9.128 9.188 9.253 9.313 9.342 9.345 9.35 9.34 9.35 9.417 9.497 9.575 9.585 9.518 9.443 9.37 9.34 9.355 9.37 9.383 9.395 9.425 9.47 9.51 9.555 9.6 9.64 9.673 9.72 9.793 9.862 9.885 9.857 9.822 9.795 9.797 9.805 9.78 9.74 9.7 9.655 9.6 9.538 9.473 9.435 9.433 9.435 9.435 9.455 9.492 9.527 9.563 9.615 9.69 9.765 9.835 9.887 9.925 9.962 10 10.025 10.035 10.045 10.06 10.09 10.132 10.18 10.222 10.255 10.277 10.293 10.308 10.323 10.335 10.345 10.355 10.363 10.368 10.373 10.378 10.398 10.433 10.468 10.5 10.54 10.595 10.657 10.72 10.78 10.84 10.9 10.95 10.985 11.017 11.045 11.065 11.075 11.077 11.08 11.08 11.072 11.055 11.035 11.023 11.025 11.038 11.05 11.06 11.055 11.035 11.015 10.993 10.965 10.935 10.905 10.875 10.853 10.84 10.83 10.815 10.8 10.787 10.775 10.76 10.74 10.717 10.695 10.672 10.652 10.635 10.615 10.595 10.58 10.57 10.56 10.553 10.563 10.59 10.62 10.653 10.69 10.733 10.775 10.813 10.858 10.905 10.95 11 11.04 11.07 11.103 11.137 11.16 11.17 11.18 11.192 11.187 11.165 11.145 11.13 11.125 11.13 11.14 11.145 11.145 11.148 11.15 11.142 11.128 11.113 11.098 11.085 11.085 11.095 11.102 11.107 11.097 11.06 11.015 10.972 10.928 10.885 10.843 10.8 10.77 10.748
8.453 8.665 8.815 8.885 8.922 8.955 9.005 8.79 8.423 8.495 8.85 9.035 9.077 9.125 9.18 9.24 9.293 9.33 9.348 9.353 9.357 9.255 9.073 8.963 8.975 9.2 9.49 9.562 9.488 9.413 9.38 9.393 9.405 9.42 9.463 9.52 9.563 9.6 9.648 9.7 9.748 9.798 9.865 9.942 9.975 9.937 9.895 9.875 9.85 9.817 9.78 9.737 9.695 9.655 9.615 9.57 9.518 9.463 9.435 9.438 9.44 9.443 9.463 9.498 9.535 9.583 9.645 9.72 9.795 9.855 9.9 9.94 9.977 10.017 10.045 10.055 10.065 10.08 10.105 10.143 10.187 10.23 10.26 10.275 10.29 10.305 10.325 10.345 10.355 10.365 10.375 10.38 10.385 10.398 10.425 10.465 10.503 10.545 10.6 10.662 10.727 10.79 10.855 10.922 10.985 11.045 11.072 11.078 11.095 11.115 11.125 11.13 11.135 11.14 11.137 11.122 11.105 11.085 11.075 11.083 11.095 11.105 11.095 11.07 11.05 11.025 10.995 10.965 10.933 10.898 10.865 10.843 10.83 10.82 10.807 10.792 10.78 10.77 10.755 10.735 10.712 10.687 10.665 10.645 10.625 10.608 10.598 10.59 10.58 10.575 10.585 10.61 10.64 10.67 10.705 10.75 10.795 10.835 10.878 10.923 10.97 11.015 11.05 11.08 11.107 11.122 11.13 11.14 11.15 11.157 11.147 11.123 11.103 11.09 11.088 11.095 11.103 11.118 11.133 11.138 11.14 11.14 11.132 11.12 11.105 11.09 11.083 11.085 11.092 11.1 11.087 11.045 11 10.962 10.925 10.883 10.84 10.798 10.763 10.74
8.815 8.745 8.748 8.825 8.862 8.89 8.978 9.115 8.935 8.583 8.455 8.55 8.85 9.152 9.297 9.34 9.36 9.37 9.375 9.395 9.332 9.08 8.743 8.443 8.253 8.408 8.972 9.435 9.545 9.507 9.47 9.475 9.482 9.488 9.54 9.63 9.69 9.73 9.783 9.847 9.907 9.965 10.035 10.072 10.03 9.955 9.908 9.885 9.852 9.79 9.723 9.675 9.635 9.598 9.57 9.55 9.517 9.47 9.445 9.445 9.445 9.448 9.468 9.508 9.555 9.613 9.683 9.757 9.822 9.865 9.9 9.94 9.983 10.03 10.062 10.075 10.085 10.1 10.12 10.15 10.193 10.235 10.262 10.278 10.292 10.305 10.328 10.357 10.375 10.385 10.395 10.4 10.413 10.443 10.478 10.515 10.558 10.605 10.66 10.725 10.787 10.838 10.91 11.002 11.075 11.135 11.155 11.143 11.148 11.163 11.172 11.18 11.19 11.202 11.202 11.19 11.175 11.155 11.138 11.13 11.135 11.145 11.135 11.11 11.087 11.06 11.03 11 10.965 10.923 10.88 10.845 10.825 10.815 10.802 10.788 10.778 10.775 10.765 10.742 10.718 10.695 10.675 10.655 10.638 10.623 10.617 10.617 10.61 10.605 10.615 10.64 10.67 10.7 10.735 10.78 10.825 10.865 10.905 10.95 10.995 11.03 11.06 11.09 11.107 11.105 11.105 11.112 11.117 11.12 11.11 11.088 11.07 11.063 11.063 11.07 11.085 11.113 11.135 11.14 11.14 11.14 11.135 11.125 11.113 11.1 11.085 11.075 11.078 11.085 11.07 11.028 10.988 10.953 10.92 10.885 10.842 10.8 10.768 10.742
9.422 8.943 8.685 8.735 8.785 8.825 8.915 9.07 9.235 9.162 8.838 8.663 8.653 8.65 8.833 9.175 9.365 9.4 9.42 9.39 9.177 8.84 8.503 8.175 7.86 7.775 8.133 8.83 9.362 9.525 9.557 9.553 9.555 9.555 9.603 9.705 9.8 9.865 9.925 9.997 10.067 10.132 10.165 10.127 10.05 9.973 9.923 9.887 9.825 9.74 9.663 9.61 9.573 9.54 9.523 9.52 9.51 9.477 9.453 9.45 9.45 9.453 9.478 9.53 9.59 9.65 9.717 9.782 9.83 9.865 9.9 9.943 9.993 10.045 10.077 10.092 10.105 10.12 10.14 10.165 10.2 10.24 10.265 10.28 10.295 10.305 10.325 10.36 10.39 10.405 10.415 10.428 10.455 10.495 10.533 10.57 10.615 10.665 10.722 10.782 10.83 10.868 10.943 11.055 11.152 11.225 11.245 11.225 11.215 11.215 11.22 11.233 11.25 11.267 11.267 11.255 11.242 11.225 11.205 11.19 11.183 11.182 11.172 11.147 11.122 11.095 11.065 11.03 10.99 10.947 10.905 10.865 10.833 10.813 10.798 10.788 10.785 10.785 10.775 10.75 10.725 10.703 10.68 10.663 10.65 10.638 10.633 10.637 10.637 10.635 10.645 10.67 10.7 10.733 10.768 10.808 10.85 10.89 10.932 10.975 11.01 11.04 11.07 11.09 11.09 11.08 11.08 11.082 11.08 11.08 11.07 11.053 11.043 11.038 11.038 11.05 11.08 11.115 11.135 11.14 11.143 11.145 11.14 11.13 11.12 11.107 11.092 11.078 11.068 11.067 11.05 11.013 10.98 10.947 10.913 10.88 10.842 10.803 10.77 10.735
9.585 8.975 8.713 8.718 8.745 8.775 8.863 9.02 9.185 9.347 9.432 9.34 9.082 8.84 8.775 8.775 8.823 9.093 9.35 9.257 8.94 8.602 8.267 7.933 7.68 7.59 7.648 7.988 8.715 9.332 9.562 9.625 9.625 9.623 9.665 9.765 9.875 9.967 10.025 10.08 10.147 10.207 10.2 10.132 10.062 9.987 9.927 9.865 9.78 9.693 9.62 9.573 9.538 9.503 9.485 9.483 9.48 9.47 9.458 9.458 9.46 9.468 9.503 9.563 9.628 9.69 9.747 9.793 9.83 9.865 9.903 9.952 10.007 10.06 10.092 10.107 10.12 10.135 10.157 10.185 10.215 10.245 10.265 10.277 10.292 10.305 10.325 10.36 10.395 10.42 10.443 10.473 10.508 10.545 10.588 10.63 10.675 10.725 10.778 10.825 10.863 10.9 10.97 11.08 11.197 11.297 11.332 11.315 11.297 11.283 11.278 11.29 11.31 11.327 11.327 11.315 11.305 11.292 11.275 11.258 11.243 11.228 11.207 11.182 11.157 11.13 11.097 11.057 11.013 10.97 10.93 10.89 10.85 10.815 10.798 10.795 10.795 10.795 10.785 10.76 10.735 10.713 10.69 10.675 10.665 10.655 10.65 10.655 10.66 10.66 10.673 10.702 10.735 10.767 10.8 10.835 10.875 10.915 10.955 10.99 11.02 11.05 11.072 11.075 11.065 11.055 11.05 11.048 11.043 11.04 11.035 11.025 11.02 11.015 11.02 11.045 11.08 11.117 11.137 11.142 11.147 11.15 11.145 11.135 11.125 11.112 11.097 11.082 11.067 11.057 11.035 11 10.97 10.94 10.907 10.872 10.837 10.802 10.762 10.715
9.457 8.858 8.793 8.788 8.785 8.78 8.828 8.958 9.115 9.275 9.347 9.347 9.382 9.44 9.335 9.035 8.918 9.163 9.305 9.055 8.69 8.355 8.02 7.735 7.608 7.59 7.58 7.771 8.56 9.34 9.595 9.67 9.68 9.685 9.728 9.828 9.945 10.047 10.07 10.073 10.125 10.177 10.167 10.105 10.042 9.975 9.907 9.832 9.745 9.66 9.598 9.568 9.54 9.503 9.483 9.478 9.475 9.47 9.473 9.485 9.493 9.503 9.543 9.605 9.668 9.73 9.78 9.815 9.85 9.885 9.915 9.955 10.005 10.055 10.09 10.105 10.12 10.142 10.17 10.2 10.227 10.247 10.26 10.27 10.285 10.31 10.35 10.393 10.428 10.46 10.498 10.54 10.578 10.615 10.658 10.703 10.748 10.795 10.843 10.888 10.93 10.97 11.023 11.11 11.225 11.34 11.395 11.385 11.365 11.345 11.338 11.35 11.367 11.377 11.375 11.362 11.352 11.35 11.342 11.325 11.305 11.277 11.245 11.217 11.19 11.157 11.12 11.08 11.035 10.988 10.95 10.915 10.875 10.835 10.815 10.815 10.815 10.81 10.8 10.78 10.755 10.735 10.715 10.7 10.69 10.675 10.67 10.677 10.683 10.685 10.7 10.732 10.765 10.795 10.828 10.865 10.905 10.945 10.972 10.993 11.02 11.05 11.062 11.055 11.045 11.038 11.033 11.028 11.023 11.023 11.025 11.023 11.018 11.013 11.023 11.048 11.08 11.12 11.14 11.145 11.15 11.152 11.15 11.14 11.127 11.107 11.087 11.075 11.06 11.045 11.022 10.988 10.955 10.922 10.892 10.86 10.822 10.787 10.745 10.695
9.205 8.798 8.857 8.863 8.862 8.84 8.833 8.908 9.043 9.2 9.27 9.253 9.26 9.305 9.365 9.42 9.452 9.447 9.24 8.84 8.455 8.103 7.795 7.628 7.59 7.583 7.65 8.198 9.09 9.585 9.672 9.688 9.705 9.735 9.803 9.908 10.03 10.135 10.13 10.07 10.083 10.132 10.122 10.06 9.997 9.93 9.865 9.8 9.722 9.638 9.58 9.567 9.557 9.528 9.508 9.505 9.5 9.483 9.488 9.517 9.535 9.548 9.588 9.65 9.71 9.772 9.822 9.858 9.892 9.925 9.945 9.963 9.995 10.04 10.072 10.09 10.115 10.145 10.175 10.205 10.227 10.24 10.25 10.26 10.285 10.333 10.392 10.45 10.495 10.53 10.57 10.617 10.66 10.7 10.743 10.788 10.833 10.88 10.933 10.985 11.03 11.073 11.115 11.168 11.258 11.37 11.43 11.432 11.42 11.4 11.395 11.41 11.42 11.417 11.41 11.398 11.395 11.407 11.407 11.387 11.357 11.317 11.28 11.25 11.217 11.18 11.14 11.097 11.05 11 10.965 10.937 10.9 10.863 10.845 10.845 10.84 10.825 10.815 10.805 10.785 10.763 10.743 10.73 10.715 10.693 10.688 10.7 10.71 10.715 10.73 10.76 10.79 10.82 10.855 10.895 10.935 10.975 10.995 10.995 11.01 11.04 11.05 11.04 11.033 11.028 11.025 11.02 11.018 11.027 11.035 11.035 11.033 11.03 11.038 11.055 11.083 11.12 11.14 11.145 11.152 11.157 11.157 11.147 11.125 11.09 11.065 11.055 11.04 11.025 11.005 10.972 10.935 10.895 10.865 10.837 10.8 10.765 10.725 10.675
8.865 8.83 8.908 8.945 8.943 8.9 8.868 8.905 8.995 9.125 9.19 9.17 9.158 9.178 9.225 9.25 9.237 9.207 9.02 8.633 8.225 7.87 7.65 7.59 7.645 7.893 8.215 8.835 9.49 9.667 9.685 9.703 9.735 9.808 9.908 10.013 10.125 10.225 10.22 10.13 10.075 10.088 10.077 10.012 9.947 9.88 9.815 9.755 9.692 9.615 9.565 9.563 9.565 9.55 9.533 9.525 9.51 9.488 9.495 9.535 9.57 9.593 9.63 9.693 9.755 9.817 9.867 9.902 9.935 9.965 9.985 9.995 10.01 10.035 10.06 10.088 10.12 10.15 10.18 10.205 10.22 10.23 10.24 10.263 10.308 10.365 10.428 10.495 10.555 10.597 10.64 10.692 10.742 10.785 10.828 10.873 10.92 10.97 11.025 11.08 11.13 11.177 11.22 11.258 11.31 11.397 11.455 11.465 11.467 11.457 11.455 11.462 11.462 11.455 11.445 11.443 11.455 11.472 11.47 11.44 11.397 11.353 11.315 11.28 11.24 11.2 11.157 11.11 11.06 11.01 10.973 10.947 10.92 10.89 10.873 10.867 10.855 10.835 10.825 10.82 10.81 10.79 10.77 10.755 10.73 10.705 10.703 10.72 10.735 10.743 10.76 10.79 10.82 10.85 10.885 10.925 10.965 11.005 11.022 11.013 11.01 11.03 11.037 11.028 11.025 11.02 11.015 11.013 11.018 11.032 11.042 11.045 11.047 11.05 11.055 11.07 11.093 11.122 11.14 11.145 11.155 11.162 11.16 11.14 11.105 11.065 11.04 11.03 11.017 11.005 10.985 10.952 10.91 10.865 10.833 10.807 10.777 10.745 10.705 10.655
8.703 8.985 9.22 9.263 9.113 8.953 8.905 8.925 8.995 9.08 9.123 9.105 9.088 9.083 9.06 9.018 8.98 8.942 8.825 8.472 8 7.693 7.595 7.65 8.072 8.525 8.93 9.447 9.665 9.68 9.695 9.735 9.815 9.922 10.025 10.12 10.22 10.305 10.297 10.21 10.122 10.073 10.03 9.96 9.895 9.83 9.765 9.705 9.65 9.588 9.553 9.558 9.563 9.563 9.553 9.535 9.515 9.495 9.505 9.545 9.59 9.63 9.675 9.738 9.8 9.86 9.91 9.945 9.977 10.007 10.022 10.03 10.037 10.045 10.065 10.098 10.13 10.16 10.187 10.203 10.21 10.22 10.24 10.285 10.343 10.4 10.465 10.533 10.597 10.66 10.715 10.768 10.82 10.867 10.913 10.96 11.01 11.06 11.112 11.167 11.225 11.277 11.32 11.357 11.393 11.443 11.48 11.49 11.5 11.505 11.505 11.502 11.498 11.493 11.49 11.5 11.52 11.532 11.52 11.48 11.43 11.385 11.345 11.302 11.26 11.22 11.175 11.123 11.07 11.02 10.98 10.955 10.935 10.913 10.895 10.883 10.868 10.85 10.838 10.83 10.825 10.815 10.795 10.77 10.74 10.715 10.715 10.735 10.753 10.768 10.788 10.815 10.845 10.875 10.913 10.955 10.995 11.035 11.05 11.04 11.028 11.025 11.025 11.018 11.015 11.013 11.008 11.01 11.025 11.04 11.05 11.055 11.06 11.067 11.075 11.09 11.107 11.127 11.142 11.15 11.16 11.167 11.155 11.12 11.08 11.04 11.015 11.005 10.995 10.985 10.962 10.922 10.878 10.835 10.8 10.775 10.75 10.72 10.682 10.635
8.878 9.438 10 10.055 9.68 9.213 8.973 8.948 9.012 9.077 9.118 9.118 9.103 9.097 9 8.793 8.635 8.595 8.592 8.287 7.81 7.61 7.588 7.773 8.365 8.92 9.365 9.662 9.678 9.695 9.725 9.79 9.892 10.002 10.072 10.137 10.23 10.307 10.297 10.212 10.13 10.052 9.98 9.91 9.845 9.78 9.725 9.683 9.638 9.59 9.57 9.58 9.588 9.595 9.588 9.565 9.545 9.523 9.533 9.575 9.62 9.673 9.73 9.79 9.85 9.905 9.952 9.99 10.023 10.052 10.06 10.058 10.06 10.065 10.083 10.11 10.14 10.165 10.19 10.207 10.215 10.225 10.263 10.325 10.385 10.443 10.505 10.573 10.643 10.725 10.795 10.845 10.895 10.948 10.998 11.045 11.095 11.145 11.195 11.25 11.307 11.357 11.4 11.437 11.472 11.5 11.515 11.525 11.535 11.545 11.545 11.54 11.535 11.528 11.533 11.55 11.567 11.572 11.545 11.497 11.45 11.402 11.355 11.307 11.265 11.225 11.187 11.142 11.09 11.04 11.003 10.98 10.96 10.94 10.923 10.908 10.892 10.873 10.855 10.848 10.843 10.835 10.817 10.79 10.76 10.745 10.755 10.775 10.795 10.805 10.818 10.845 10.875 10.905 10.943 10.985 11.025 11.06 11.07 11.057 11.042 11.03 11.023 11.018 11.013 11.01 11.008 11.018 11.038 11.053 11.065 11.07 11.073 11.078 11.085 11.097 11.112 11.127 11.14 11.15 11.16 11.165 11.145 11.103 11.06 11.02 10.99 10.975 10.965 10.955 10.932 10.892 10.848 10.805 10.773 10.747 10.72 10.693 10.66 10.615
9.285 10.09 10.817 10.945 10.53 9.888 9.345 9.065 9.028 9.092 9.152 9.182 9.175 9.185 9.12 8.833 8.49 8.27 8.162 7.928 7.658 7.59 7.58 7.893 8.56 9.242 9.62 9.675 9.703 9.755 9.813 9.858 9.933 10.037 10.085 10.098 10.16 10.24 10.232 10.15 10.073 10 9.93 9.86 9.798 9.74 9.71 9.702 9.677 9.64 9.625 9.635 9.645 9.655 9.645 9.618 9.595 9.57 9.58 9.625 9.675 9.735 9.795 9.855 9.907 9.947 9.99 10.035 10.07 10.1 10.105 10.09 10.083 10.085 10.1 10.125 10.15 10.16 10.18 10.215 10.235 10.245 10.29 10.365 10.43 10.488 10.55 10.62 10.703 10.8 10.875 10.925 10.978 11.035 11.085 11.128 11.175 11.225 11.275 11.327 11.377 11.422 11.462 11.5 11.53 11.545 11.555 11.565 11.575 11.582 11.582 11.577 11.572 11.565 11.57 11.587 11.595 11.59 11.557 11.505 11.457 11.41 11.36 11.308 11.26 11.22 11.19 11.162 11.12 11.07 11.035 11.015 10.995 10.977 10.96 10.942 10.922 10.895 10.875 10.87 10.865 10.857 10.842 10.815 10.798 10.805 10.825 10.842 10.852 10.842 10.848 10.88 10.91 10.94 10.978 11.017 11.05 11.072 11.077 11.065 11.05 11.04 11.03 11.023 11.018 11.015 11.018 11.033 11.055 11.072 11.085 11.09 11.09 11.088 11.09 11.098 11.108 11.122 11.135 11.145 11.152 11.152 11.13 11.088 11.045 11.005 10.968 10.94 10.925 10.915 10.895 10.862 10.822 10.78 10.748 10.72 10.695 10.675 10.645 10.6
9.808 10.695 11.355 11.467 11.135 10.645 10.032 9.45 9.123 9.088 9.167 9.227 9.242 9.268 9.3 9.097 8.695 8.237 7.838 7.648 7.595 7.585 7.728 8.313 9.12 9.577 9.672 9.708 9.778 9.87 9.93 9.945 9.983 10.07 10.12 10.105 10.115 10.172 10.17 10.093 10.02 9.95 9.88 9.815 9.763 9.718 9.705 9.72 9.72 9.697 9.683 9.69 9.702 9.712 9.7 9.67 9.643 9.618 9.63 9.68 9.738 9.8 9.86 9.912 9.952 9.985 10.023 10.07 10.115 10.147 10.15 10.13 10.113 10.105 10.118 10.137 10.147 10.145 10.163 10.21 10.25 10.268 10.31 10.39 10.465 10.532 10.598 10.675 10.775 10.88 10.955 11.008 11.065 11.125 11.175 11.215 11.257 11.305 11.352 11.4 11.445 11.487 11.527 11.557 11.575 11.585 11.595 11.605 11.612 11.617 11.617 11.613 11.61 11.605 11.607 11.615 11.612 11.602 11.57 11.517 11.465 11.417 11.367 11.313 11.26 11.215 11.185 11.167 11.142 11.1 11.065 11.048 11.03 11.013 10.997 10.977 10.95 10.92 10.898 10.89 10.887 10.882 10.868 10.85 10.855 10.875 10.892 10.897 10.887 10.868 10.875 10.91 10.942 10.975 11.012 11.045 11.065 11.08 11.082 11.072 11.06 11.05 11.04 11.03 11.025 11.023 11.028 11.048 11.072 11.092 11.105 11.107 11.105 11.102 11.103 11.105 11.108 11.118 11.13 11.137 11.14 11.137 11.115 11.075 11.032 10.99 10.953 10.92 10.895 10.878 10.855 10.825 10.792 10.755 10.72 10.695 10.677 10.66 10.63 10.588
10.315 11.152 11.655 11.687 11.432 11.107 10.68 10.095 9.505 9.163 9.128 9.222 9.29 9.355 9.445 9.302 8.755 8.1 7.708 7.605 7.595 7.73 8.23 9 9.537 9.675 9.718 9.8 9.902 9.987 10.027 10.045 10.065 10.115 10.152 10.14 10.123 10.132 10.112 10.04 9.97 9.903 9.84 9.788 9.743 9.7 9.693 9.715 9.732 9.74 9.74 9.745 9.757 9.767 9.755 9.725 9.695 9.67 9.688 9.745 9.805 9.862 9.915 9.955 9.987 10.02 10.055 10.1 10.15 10.187 10.19 10.17 10.147 10.128 10.13 10.14 10.138 10.135 10.158 10.203 10.248 10.283 10.333 10.413 10.495 10.573 10.65 10.745 10.855 10.96 11.037 11.095 11.155 11.215 11.262 11.297 11.332 11.37 11.41 11.455 11.502 11.547 11.582 11.6 11.612 11.625 11.632 11.64 11.645 11.65 11.652 11.647 11.645 11.64 11.635 11.632 11.627 11.617 11.582 11.53 11.477 11.425 11.373 11.318 11.263 11.213 11.18 11.163 11.147 11.122 11.097 11.082 11.067 11.05 11.03 11.005 10.975 10.945 10.923 10.913 10.91 10.905 10.898 10.902 10.92 10.94 10.947 10.935 10.915 10.895 10.905 10.94 10.975 11.01 11.037 11.055 11.07 11.085 11.087 11.08 11.07 11.06 11.05 11.043 11.037 11.03 11.038 11.063 11.088 11.112 11.125 11.123 11.118 11.115 11.115 11.115 11.115 11.118 11.123 11.125 11.123 11.12 11.102 11.063 11.018 10.975 10.94 10.908 10.875 10.848 10.82 10.79 10.76 10.728 10.698 10.677 10.66 10.64 10.615 10.58
10.765 11.487 11.792 11.78 11.612 11.352 11.085 10.715 10.16 9.555 9.185 9.148 9.257 9.362 9.467 9.452 8.977 8.17 7.69 7.608 7.63 8.078 8.912 9.495 9.685 9.738 9.823 9.927 10.015 10.07 10.102 10.127 10.15 10.177 10.185 10.16 10.13 10.105 10.077 10.025 9.958 9.895 9.84 9.793 9.748 9.713 9.708 9.725 9.745 9.77 9.79 9.8 9.81 9.82 9.81 9.78 9.753 9.738 9.765 9.825 9.885 9.927 9.957 9.99 10.02 10.045 10.065 10.1 10.15 10.19 10.192 10.17 10.147 10.135 10.145 10.157 10.155 10.153 10.175 10.218 10.26 10.31 10.383 10.468 10.55 10.633 10.723 10.825 10.932 11.035 11.115 11.175 11.235 11.292 11.327 11.35 11.38 11.41 11.448 11.492 11.54 11.582 11.605 11.615 11.627 11.64 11.647 11.652 11.657 11.665 11.67 11.665 11.66 11.66 11.652 11.642 11.635 11.625 11.592 11.538 11.485 11.435 11.383 11.328 11.273 11.218 11.178 11.155 11.137 11.122 11.115 11.107 11.092 11.077 11.055 11.025 10.995 10.965 10.943 10.93 10.922 10.917 10.92 10.935 10.955 10.975 10.972 10.95 10.93 10.918 10.933 10.965 11 11.035 11.047 11.048 11.057 11.072 11.085 11.087 11.08 11.07 11.06 11.055 11.05 11.053 11.068 11.088 11.113 11.14 11.147 11.14 11.135 11.13 11.128 11.125 11.125 11.125 11.123 11.118 11.113 11.11 11.095 11.057 11.015 10.973 10.935 10.903 10.868 10.835 10.805 10.775 10.745 10.71 10.678 10.655 10.635 10.617 10.6 10.572
11.162 11.732 11.85 11.812 11.735 11.542 11.295 11.062 10.722 10.197 9.613 9.218 9.16 9.273 9.385 9.48 9.382 8.915 8.28 7.793 7.991 8.807 9.45 9.687 9.763 9.853 9.95 10.035 10.09 10.13 10.165 10.19 10.215 10.225 10.192 10.14 10.095 10.058 10.042 10.03 9.982 9.92 9.865 9.82 9.785 9.765 9.76 9.765 9.78 9.803 9.827 9.85 9.865 9.875 9.865 9.838 9.823 9.825 9.86 9.917 9.96 9.975 9.99 10.02 10.047 10.062 10.065 10.08 10.118 10.155 10.157 10.135 10.128 10.14 10.165 10.187 10.192 10.19 10.21 10.253 10.305 10.373 10.46 10.552 10.635 10.72 10.81 10.905 11.007 11.105 11.18 11.24 11.3 11.355 11.38 11.388 11.41 11.44 11.48 11.525 11.562 11.59 11.605 11.613 11.623 11.635 11.642 11.648 11.655 11.667 11.672 11.668 11.668 11.675 11.67 11.65 11.635 11.625 11.595 11.543 11.493 11.447 11.397 11.342 11.285 11.225 11.178 11.148 11.125 11.108 11.108 11.115 11.107 11.092 11.072 11.047 11.02 10.99 10.963 10.943 10.93 10.925 10.93 10.943 10.96 10.98 10.977 10.955 10.943 10.945 10.963 10.988 11.018 11.052 11.06 11.043 11.038 11.048 11.067 11.085 11.087 11.08 11.07 11.068 11.075 11.098 11.117 11.128 11.148 11.172 11.177 11.163 11.153 11.148 11.142 11.138 11.135 11.135 11.128 11.115 11.11 11.11 11.092 11.057 11.02 10.977 10.938 10.905 10.87 10.835 10.805 10.775 10.74 10.698 10.66 10.633 10.61 10.592 10.575 10.555
11.522 11.875 11.867 11.83 11.795 11.687 11.48 11.25 11.02 10.707 10.24 9.675 9.265 9.188 9.283 9.377 9.437 9.405 9.092 8.595 8.808 9.465 9.697 9.778 9.877 9.972 10.055 10.11 10.15 10.19 10.225 10.252 10.262 10.235 10.175 10.11 10.053 10.005 9.988 9.995 9.985 9.942 9.893 9.86 9.84 9.825 9.818 9.815 9.823 9.84 9.865 9.892 9.915 9.93 9.925 9.91 9.91 9.92 9.955 9.997 10.01 10.01 10.023 10.047 10.067 10.075 10.075 10.078 10.093 10.12 10.125 10.118 10.135 10.16 10.182 10.205 10.222 10.23 10.25 10.298 10.368 10.45 10.54 10.635 10.725 10.812 10.9 10.988 11.085 11.177 11.245 11.303 11.36 11.415 11.44 11.44 11.448 11.47 11.51 11.547 11.57 11.59 11.605 11.613 11.62 11.63 11.638 11.645 11.658 11.672 11.675 11.675 11.685 11.695 11.69 11.665 11.643 11.63 11.597 11.548 11.505 11.462 11.415 11.36 11.3 11.24 11.188 11.148 11.118 11.095 11.095 11.11 11.115 11.105 11.085 11.065 11.042 11.015 10.988 10.965 10.945 10.933 10.938 10.95 10.965 10.985 10.985 10.973 10.973 10.98 10.995 11.015 11.038 11.07 11.08 11.055 11.033 11.028 11.043 11.067 11.085 11.087 11.085 11.095 11.123 11.155 11.172 11.178 11.188 11.207 11.212 11.193 11.175 11.165 11.158 11.153 11.148 11.145 11.135 11.12 11.113 11.107 11.087 11.055 11.02 10.98 10.943 10.908 10.873 10.838 10.805 10.772 10.73 10.685 10.65 10.618 10.588 10.565 10.548 10.532
11.777 11.917 11.88 11.845 11.81 11.762 11.637 11.432 11.205 10.972 10.687 10.28 9.75 9.328 9.215 9.273 9.335 9.385 9.39 9.315 9.432 9.677 9.8 9.897 9.992 10.077 10.127 10.165 10.21 10.25 10.285 10.302 10.28 10.222 10.16 10.098 10.03 9.97 9.948 9.953 9.96 9.955 9.933 9.915 9.9 9.883 9.873 9.87 9.873 9.883 9.905 9.93 9.955 9.977 9.985 9.99 10 10.01 10.03 10.045 10.045 10.045 10.053 10.068 10.08 10.087 10.087 10.085 10.088 10.1 10.11 10.125 10.152 10.177 10.2 10.22 10.242 10.263 10.298 10.363 10.445 10.53 10.62 10.715 10.81 10.902 10.99 11.075 11.165 11.247 11.31 11.367 11.422 11.472 11.495 11.497 11.5 11.508 11.532 11.557 11.575 11.593 11.605 11.615 11.623 11.63 11.64 11.65 11.663 11.675 11.683 11.693 11.705 11.712 11.705 11.682 11.657 11.637 11.605 11.56 11.52 11.48 11.432 11.375 11.315 11.255 11.2 11.155 11.118 11.088 11.085 11.1 11.11 11.112 11.1 11.08 11.057 11.032 11.01 10.99 10.965 10.943 10.945 10.96 10.975 10.992 10.998 11 11.007 11.015 11.03 11.05 11.07 11.095 11.1 11.075 11.045 11.023 11.025 11.05 11.078 11.095 11.113 11.14 11.175 11.21 11.227 11.232 11.237 11.247 11.245 11.225 11.205 11.188 11.175 11.17 11.165 11.155 11.142 11.13 11.117 11.105 11.082 11.05 11.017 10.98 10.945 10.91 10.875 10.84 10.802 10.762 10.718 10.675 10.638 10.603 10.57 10.543 10.523 10.508
11.927 11.932 11.893 11.858 11.822 11.782 11.695 11.535 11.332 11.117 10.905 10.662 10.317 9.825 9.39 9.225 9.248 9.335 9.435 9.51 9.652 9.82 9.917 10.012 10.105 10.17 10.18 10.193 10.24 10.29 10.327 10.315 10.257 10.2 10.155 10.102 10.035 9.97 9.945 9.953 9.96 9.975 9.98 9.97 9.955 9.938 9.928 9.925 9.925 9.93 9.948 9.973 9.997 10.02 10.035 10.047 10.06 10.06 10.065 10.075 10.075 10.075 10.08 10.09 10.097 10.097 10.09 10.085 10.085 10.095 10.118 10.145 10.17 10.195 10.22 10.24 10.26 10.293 10.353 10.432 10.517 10.602 10.692 10.785 10.88 10.967 11.047 11.132 11.22 11.295 11.355 11.412 11.462 11.497 11.515 11.525 11.53 11.53 11.543 11.565 11.585 11.6 11.613 11.623 11.63 11.64 11.65 11.66 11.673 11.688 11.703 11.717 11.727 11.722 11.702 11.68 11.657 11.632 11.602 11.565 11.525 11.485 11.442 11.39 11.33 11.27 11.218 11.175 11.135 11.1 11.09 11.1 11.11 11.12 11.115 11.092 11.068 11.045 11.022 11 10.977 10.953 10.953 10.972 10.988 11.003 11.015 11.025 11.035 11.053 11.075 11.095 11.115 11.127 11.12 11.095 11.065 11.038 11.033 11.055 11.085 11.113 11.142 11.177 11.212 11.247 11.267 11.272 11.277 11.28 11.275 11.26 11.24 11.22 11.205 11.2 11.19 11.165 11.145 11.132 11.117 11.1 11.072 11.038 11.005 10.972 10.937 10.902 10.867 10.832 10.795 10.752 10.708 10.665 10.625 10.588 10.555 10.525 10.505 10.493
11.995 11.948 11.908 11.872 11.83 11.772 11.68 11.545 11.377 11.185 10.99 10.792 10.582 10.29 9.877 9.478 9.368 9.505 9.648 9.74 9.813 9.923 10.032 10.125 10.207 10.257 10.245 10.215 10.24 10.3 10.325 10.285 10.223 10.178 10.145 10.11 10.055 9.99 9.965 9.978 9.993 10.015 10.025 10.017 10.005 9.99 9.98 9.975 9.975 9.978 9.993 10.017 10.04 10.057 10.072 10.082 10.08 10.06 10.063 10.092 10.107 10.11 10.113 10.12 10.115 10.092 10.075 10.068 10.075 10.1 10.13 10.162 10.19 10.215 10.24 10.26 10.29 10.34 10.41 10.495 10.58 10.665 10.755 10.845 10.93 11.002 11.075 11.158 11.245 11.322 11.382 11.435 11.47 11.485 11.5 11.517 11.527 11.53 11.545 11.572 11.595 11.61 11.625 11.637 11.645 11.653 11.663 11.675 11.69 11.712 11.73 11.742 11.742 11.72 11.69 11.663 11.64 11.617 11.59 11.557 11.52 11.48 11.442 11.402 11.35 11.29 11.24 11.202 11.165 11.13 11.113 11.113 11.12 11.13 11.125 11.1 11.075 11.055 11.03 11.003 10.98 10.958 10.96 10.987 11.005 11.02 11.032 11.043 11.063 11.095 11.125 11.145 11.157 11.155 11.14 11.117 11.09 11.063 11.058 11.08 11.11 11.138 11.168 11.202 11.238 11.272 11.29 11.295 11.3 11.302 11.302 11.295 11.28 11.26 11.245 11.235 11.21 11.17 11.145 11.13 11.11 11.085 11.055 11.022 10.988 10.955 10.92 10.885 10.852 10.818 10.782 10.745 10.702 10.658 10.615 10.573 10.535 10.508 10.495 10.487
12.007 11.96 11.92 11.88 11.822 11.757 11.66 11.527 11.382 11.21 11.017 10.822 10.625 10.435 10.245 9.977 9.758 9.808 9.95 9.995 10.003 10.053 10.145 10.23 10.305 10.345 10.325 10.275 10.258 10.29 10.292 10.245 10.2 10.16 10.128 10.102 10.065 10.013 9.99 10.008 10.033 10.057 10.065 10.06 10.052 10.04 10.03 10.025 10.025 10.025 10.038 10.06 10.077 10.092 10.105 10.102 10.08 10.05 10.05 10.087 10.125 10.142 10.142 10.135 10.11 10.075 10.055 10.055 10.078 10.11 10.14 10.175 10.207 10.235 10.26 10.29 10.34 10.4 10.47 10.555 10.642 10.727 10.815 10.897 10.965 11.028 11.1 11.18 11.263 11.345 11.407 11.445 11.46 11.465 11.48 11.5 11.517 11.528 11.545 11.575 11.602 11.62 11.635 11.65 11.66 11.667 11.678 11.695 11.715 11.737 11.755 11.757 11.74 11.71 11.68 11.65 11.623 11.6 11.575 11.545 11.515 11.48 11.44 11.405 11.365 11.31 11.263 11.227 11.19 11.155 11.138 11.133 11.133 11.14 11.132 11.108 11.085 11.065 11.04 11.01 10.983 10.96 10.965 10.995 11.02 11.037 11.05 11.07 11.105 11.142 11.172 11.187 11.185 11.177 11.162 11.14 11.117 11.09 11.085 11.108 11.135 11.163 11.193 11.227 11.262 11.295 11.312 11.318 11.323 11.327 11.325 11.32 11.315 11.3 11.282 11.257 11.215 11.17 11.143 11.122 11.095 11.065 11.035 11.005 10.972 10.938 10.903 10.87 10.837 10.803 10.768 10.732 10.695 10.652 10.607 10.56 10.518 10.49 10.48 10.477
12.008 11.97 11.927 11.872 11.805 11.74 11.64 11.502 11.365 11.215 11.04 10.847 10.65 10.45 10.31 10.237 10.117 10.082 10.147 10.167 10.18 10.195 10.223 10.282 10.362 10.402 10.382 10.337 10.297 10.282 10.262 10.22 10.18 10.143 10.113 10.087 10.06 10.028 10.02 10.045 10.075 10.1 10.105 10.1 10.095 10.087 10.08 10.075 10.075 10.075 10.083 10.1 10.115 10.125 10.122 10.1 10.07 10.04 10.038 10.073 10.12 10.157 10.157 10.13 10.095 10.06 10.043 10.058 10.09 10.12 10.153 10.187 10.22 10.25 10.285 10.335 10.395 10.452 10.522 10.61 10.697 10.78 10.862 10.932 10.99 11.052 11.125 11.205 11.285 11.365 11.417 11.435 11.442 11.448 11.46 11.483 11.505 11.523 11.545 11.575 11.605 11.63 11.648 11.66 11.67 11.68 11.695 11.717 11.74 11.762 11.772 11.757 11.73 11.7 11.67 11.64 11.61 11.585 11.56 11.53 11.503 11.472 11.438 11.403 11.367 11.325 11.285 11.25 11.21 11.178 11.163 11.157 11.153 11.15 11.137 11.115 11.095 11.075 11.05 11.02 10.99 10.965 10.97 11 11.028 11.05 11.075 11.11 11.15 11.185 11.21 11.215 11.205 11.2 11.185 11.16 11.14 11.118 11.115 11.135 11.158 11.185 11.215 11.25 11.285 11.315 11.335 11.34 11.345 11.347 11.342 11.337 11.332 11.322 11.3 11.26 11.212 11.17 11.138 11.108 11.075 11.045 11.015 10.985 10.955 10.92 10.885 10.855 10.822 10.79 10.755 10.717 10.68 10.64 10.597 10.55 10.505 10.473 10.463 10.465
12.002 11.957 11.897 11.832 11.767 11.705 11.6 11.452 11.31 11.167 11.025 10.86 10.665 10.465 10.318 10.265 10.26 10.257 10.263 10.278 10.292 10.295 10.278 10.288 10.352 10.402 10.39 10.35 10.31 10.272 10.237 10.202 10.165 10.128 10.098 10.072 10.048 10.035 10.05 10.08 10.11 10.135 10.142 10.137 10.132 10.127 10.122 10.117 10.115 10.115 10.12 10.135 10.15 10.152 10.135 10.105 10.075 10.05 10.045 10.073 10.12 10.165 10.167 10.133 10.095 10.06 10.048 10.068 10.1 10.13 10.165 10.2 10.23 10.263 10.303 10.355 10.415 10.47 10.54 10.63 10.715 10.785 10.855 10.927 10.995 11.067 11.14 11.212 11.287 11.36 11.4 11.407 11.415 11.433 11.458 11.483 11.505 11.525 11.55 11.58 11.61 11.642 11.665 11.675 11.685 11.695 11.708 11.727 11.75 11.772 11.772 11.745 11.717 11.69 11.662 11.635 11.605 11.578 11.55 11.52 11.493 11.468 11.437 11.4 11.365 11.33 11.295 11.26 11.223 11.198 11.185 11.18 11.175 11.162 11.142 11.12 11.1 11.08 11.055 11.025 10.995 10.978 10.99 11.02 11.045 11.068 11.097 11.135 11.172 11.207 11.227 11.227 11.22 11.215 11.207 11.19 11.17 11.15 11.15 11.17 11.19 11.215 11.24 11.27 11.305 11.335 11.35 11.35 11.355 11.355 11.347 11.34 11.33 11.32 11.295 11.25 11.205 11.17 11.14 11.105 11.07 11.038 10.998 10.96 10.927 10.892 10.86 10.83 10.8 10.765 10.725 10.685 10.645 10.61 10.575 10.53 10.485 10.458 10.453 10.457
11.987 11.912 11.83 11.765 11.702 11.637 11.527 11.375 11.227 11.08 10.955 10.837 10.672 10.475 10.343 10.305 10.31 10.343 10.375 10.39 10.392 10.382 10.355 10.32 10.335 10.377 10.37 10.327 10.282 10.24 10.208 10.182 10.15 10.11 10.08 10.055 10.043 10.055 10.08 10.11 10.135 10.152 10.165 10.167 10.165 10.16 10.155 10.152 10.148 10.145 10.15 10.165 10.175 10.17 10.15 10.12 10.1 10.093 10.09 10.1 10.133 10.175 10.18 10.145 10.108 10.073 10.063 10.083 10.11 10.143 10.177 10.21 10.243 10.278 10.313 10.353 10.405 10.46 10.53 10.617 10.692 10.747 10.808 10.885 10.965 11.042 11.115 11.187 11.26 11.327 11.365 11.373 11.393 11.433 11.47 11.495 11.517 11.54 11.565 11.595 11.625 11.66 11.685 11.695 11.707 11.717 11.72 11.728 11.748 11.77 11.762 11.728 11.7 11.675 11.65 11.627 11.6 11.57 11.54 11.513 11.49 11.47 11.44 11.4 11.365 11.33 11.293 11.26 11.233 11.213 11.203 11.197 11.19 11.175 11.15 11.123 11.1 11.077 11.05 11.025 11.008 11.003 11.02 11.05 11.075 11.093 11.115 11.145 11.178 11.215 11.235 11.235 11.23 11.228 11.23 11.225 11.21 11.19 11.19 11.21 11.233 11.257 11.275 11.295 11.325 11.355 11.362 11.353 11.355 11.355 11.343 11.33 11.32 11.31 11.285 11.24 11.2 11.175 11.15 11.115 11.077 11.037 10.985 10.933 10.893 10.86 10.83 10.797 10.762 10.722 10.68 10.64 10.603 10.575 10.542 10.498 10.463 10.45 10.45 10.452
11.952 11.848 11.755 11.687 11.62 11.55 11.442 11.292 11.14 10.99 10.868 10.772 10.655 10.485 10.37 10.365 10.4 10.45 10.485 10.492 10.482 10.467 10.442 10.398 10.363 10.363 10.347 10.3 10.25 10.205 10.175 10.155 10.13 10.095 10.063 10.048 10.06 10.085 10.11 10.132 10.145 10.155 10.17 10.185 10.192 10.192 10.188 10.185 10.18 10.175 10.18 10.19 10.192 10.185 10.168 10.148 10.143 10.147 10.15 10.15 10.16 10.19 10.192 10.158 10.122 10.088 10.08 10.1 10.125 10.158 10.19 10.223 10.257 10.292 10.327 10.36 10.4 10.45 10.517 10.592 10.65 10.7 10.76 10.835 10.912 10.988 11.065 11.145 11.222 11.29 11.33 11.355 11.398 11.445 11.48 11.505 11.53 11.555 11.58 11.61 11.643 11.677 11.702 11.715 11.73 11.74 11.74 11.74 11.748 11.765 11.755 11.718 11.685 11.658 11.633 11.61 11.587 11.56 11.53 11.508 11.49 11.47 11.44 11.4 11.363 11.328 11.293 11.265 11.248 11.23 11.22 11.212 11.2 11.185 11.16 11.13 11.103 11.075 11.05 11.038 11.035 11.035 11.05 11.077 11.1 11.118 11.138 11.163 11.19 11.225 11.245 11.245 11.243 11.243 11.245 11.245 11.242 11.23 11.23 11.25 11.275 11.3 11.315 11.328 11.348 11.372 11.377 11.365 11.36 11.355 11.343 11.328 11.313 11.3 11.275 11.235 11.205 11.185 11.157 11.12 11.077 11.032 10.98 10.918 10.865 10.83 10.797 10.76 10.718 10.675 10.635 10.6 10.57 10.542 10.508 10.473 10.455 10.45 10.45 10.447
11.89 11.773 11.675 11.602 11.532 11.46 11.357 11.21 11.055 10.905 10.783 10.688 10.595 10.483 10.425 10.46 10.51 10.557 10.585 10.582 10.567 10.552 10.532 10.492 10.427 10.365 10.315 10.265 10.217 10.173 10.14 10.12 10.1 10.075 10.058 10.065 10.09 10.115 10.133 10.143 10.148 10.155 10.17 10.19 10.207 10.22 10.22 10.215 10.212 10.207 10.207 10.21 10.21 10.205 10.198 10.195 10.197 10.202 10.205 10.205 10.205 10.215 10.205 10.17 10.135 10.103 10.1 10.123 10.148 10.173 10.2 10.235 10.27 10.305 10.34 10.372 10.408 10.445 10.498 10.555 10.605 10.653 10.71 10.785 10.86 10.935 11.015 11.098 11.18 11.258 11.315 11.36 11.41 11.457 11.492 11.517 11.542 11.565 11.592 11.625 11.66 11.695 11.72 11.735 11.747 11.757 11.76 11.76 11.758 11.762 11.75 11.712 11.675 11.643 11.618 11.595 11.572 11.547 11.523 11.505 11.49 11.47 11.442 11.405 11.365 11.33 11.303 11.28 11.265 11.25 11.237 11.225 11.207 11.192 11.17 11.14 11.11 11.08 11.063 11.062 11.065 11.065 11.078 11.1 11.12 11.14 11.16 11.185 11.21 11.237 11.255 11.255 11.255 11.255 11.257 11.26 11.262 11.26 11.268 11.29 11.315 11.34 11.355 11.367 11.382 11.395 11.395 11.382 11.37 11.36 11.347 11.33 11.31 11.292 11.27 11.24 11.215 11.192 11.157 11.115 11.072 11.027 10.975 10.91 10.848 10.8 10.758 10.715 10.673 10.63 10.593 10.563 10.538 10.51 10.483 10.465 10.455 10.447 10.445 10.442
11.81 11.693 11.583 11.498 11.43 11.36 11.272 11.145 10.995 10.845 10.72 10.625 10.533 10.483 10.503 10.55 10.6 10.645 10.642 10.61 10.597 10.592 10.582 10.537 10.45 10.35 10.275 10.225 10.178 10.15 10.135 10.115 10.095 10.08 10.083 10.1 10.125 10.15 10.163 10.168 10.17 10.173 10.185 10.205 10.225 10.245 10.252 10.25 10.247 10.232 10.225 10.23 10.227 10.223 10.225 10.23 10.232 10.237 10.24 10.24 10.24 10.24 10.22 10.185 10.153 10.128 10.133 10.158 10.18 10.187 10.203 10.237 10.272 10.31 10.345 10.38 10.415 10.443 10.485 10.54 10.588 10.633 10.69 10.765 10.84 10.915 10.995 11.08 11.168 11.253 11.317 11.365 11.415 11.465 11.5 11.525 11.55 11.57 11.6 11.635 11.67 11.702 11.722 11.735 11.75 11.77 11.78 11.78 11.775 11.767 11.745 11.705 11.665 11.633 11.605 11.58 11.558 11.535 11.515 11.497 11.482 11.465 11.437 11.4 11.363 11.335 11.318 11.3 11.282 11.26 11.237 11.22 11.2 11.185 11.172 11.15 11.12 11.09 11.078 11.082 11.085 11.093 11.108 11.125 11.145 11.163 11.178 11.2 11.225 11.25 11.265 11.265 11.265 11.265 11.27 11.277 11.28 11.283 11.297 11.32 11.345 11.367 11.382 11.397 11.41 11.415 11.41 11.395 11.38 11.367 11.35 11.33 11.31 11.287 11.255 11.22 11.192 11.165 11.127 11.082 11.04 11.002 10.955 10.89 10.828 10.778 10.733 10.69 10.65 10.608 10.57 10.54 10.513 10.49 10.475 10.468 10.46 10.44 10.417 10.405
11.73 11.61 11.49 11.383 11.303 11.237 11.17 11.082 10.955 10.805 10.68 10.585 10.518 10.528 10.58 10.623 10.67 10.715 10.687 10.605 10.568 10.565 10.555 10.505 10.415 10.313 10.235 10.185 10.153 10.16 10.165 10.145 10.13 10.125 10.13 10.145 10.168 10.192 10.207 10.21 10.21 10.21 10.218 10.235 10.258 10.28 10.29 10.287 10.27 10.235 10.225 10.24 10.242 10.24 10.243 10.247 10.25 10.255 10.26 10.26 10.26 10.26 10.24 10.205 10.18 10.168 10.178 10.2 10.207 10.193 10.198 10.23 10.268 10.31 10.345 10.377 10.41 10.435 10.48 10.542 10.592 10.64 10.7 10.775 10.85 10.925 11.008 11.093 11.18 11.265 11.327 11.373 11.418 11.465 11.502 11.527 11.55 11.57 11.6 11.635 11.665 11.687 11.7 11.715 11.745 11.782 11.8 11.8 11.79 11.767 11.735 11.695 11.66 11.635 11.603 11.568 11.545 11.522 11.503 11.485 11.467 11.45 11.42 11.383 11.358 11.345 11.332 11.317 11.295 11.26 11.228 11.203 11.18 11.165 11.16 11.152 11.132 11.105 11.093 11.095 11.103 11.123 11.14 11.155 11.172 11.188 11.2 11.215 11.235 11.26 11.275 11.275 11.275 11.275 11.28 11.292 11.3 11.305 11.32 11.34 11.362 11.38 11.395 11.41 11.42 11.425 11.42 11.405 11.388 11.372 11.355 11.335 11.31 11.277 11.228 11.173 11.135 11.105 11.07 11.028 10.99 10.962 10.92 10.858 10.805 10.767 10.727 10.685 10.642 10.595 10.555 10.528 10.505 10.49 10.48 10.475 10.46 10.42 10.378 10.348
11.653 11.528 11.41 11.29 11.183 11.103 11.042 10.985 10.9 10.77 10.643 10.558 10.545 10.6 10.657 10.7 10.742 10.785 10.752 10.645 10.558 10.52 10.495 10.44 10.365 10.275 10.198 10.16 10.163 10.19 10.195 10.18 10.175 10.175 10.183 10.198 10.215 10.237 10.25 10.25 10.25 10.248 10.253 10.27 10.292 10.315 10.322 10.307 10.27 10.225 10.215 10.237 10.255 10.26 10.26 10.265 10.27 10.273 10.277 10.28 10.28 10.28 10.262 10.235 10.22 10.213 10.22 10.227 10.212 10.188 10.19 10.223 10.265 10.31 10.345 10.375 10.403 10.428 10.473 10.535 10.595 10.65 10.71 10.785 10.862 10.938 11.02 11.107 11.193 11.277 11.342 11.385 11.425 11.47 11.507 11.53 11.55 11.57 11.597 11.627 11.647 11.663 11.675 11.703 11.753 11.8 11.82 11.812 11.79 11.76 11.725 11.688 11.66 11.64 11.607 11.568 11.535 11.508 11.488 11.47 11.453 11.435 11.408 11.38 11.368 11.36 11.347 11.327 11.295 11.255 11.22 11.19 11.163 11.145 11.14 11.14 11.137 11.12 11.105 11.113 11.133 11.157 11.175 11.188 11.2 11.215 11.23 11.24 11.253 11.272 11.285 11.285 11.282 11.28 11.288 11.302 11.315 11.325 11.34 11.36 11.377 11.39 11.405 11.42 11.43 11.435 11.427 11.412 11.395 11.38 11.362 11.335 11.3 11.26 11.207 11.143 11.088 11.05 11.015 10.98 10.953 10.927 10.885 10.833 10.793 10.76 10.722 10.677 10.63 10.58 10.54 10.518 10.508 10.5 10.49 10.477 10.442 10.388 10.343 10.31
11.583 11.448 11.325 11.205 11.085 10.98 10.91 10.858 10.8 10.715 10.608 10.563 10.605 10.675 10.732 10.767 10.795 10.822 10.782 10.677 10.575 10.495 10.438 10.375 10.305 10.23 10.173 10.165 10.19 10.22 10.23 10.225 10.225 10.225 10.235 10.25 10.265 10.282 10.29 10.29 10.288 10.283 10.288 10.305 10.325 10.345 10.342 10.307 10.263 10.218 10.208 10.233 10.258 10.275 10.28 10.285 10.29 10.29 10.295 10.3 10.3 10.3 10.29 10.275 10.265 10.255 10.247 10.232 10.208 10.183 10.185 10.22 10.262 10.307 10.345 10.373 10.398 10.423 10.468 10.53 10.593 10.655 10.723 10.798 10.875 10.952 11.033 11.12 11.205 11.29 11.355 11.395 11.435 11.477 11.51 11.53 11.55 11.57 11.59 11.61 11.625 11.64 11.663 11.705 11.762 11.815 11.832 11.81 11.777 11.745 11.715 11.688 11.665 11.642 11.612 11.575 11.535 11.5 11.475 11.455 11.44 11.425 11.405 11.393 11.385 11.375 11.357 11.325 11.285 11.245 11.21 11.18 11.15 11.128 11.12 11.123 11.128 11.123 11.123 11.142 11.167 11.192 11.21 11.22 11.232 11.247 11.26 11.27 11.277 11.288 11.295 11.295 11.29 11.285 11.293 11.308 11.325 11.343 11.358 11.375 11.39 11.403 11.417 11.427 11.435 11.442 11.435 11.415 11.395 11.377 11.355 11.32 11.28 11.24 11.19 11.127 11.063 11.008 10.97 10.943 10.918 10.892 10.857 10.817 10.782 10.75 10.712 10.665 10.615 10.565 10.533 10.52 10.512 10.507 10.497 10.467 10.415 10.355 10.307 10.27
11.528 11.375 11.24 11.125 11.008 10.895 10.81 10.75 10.693 10.633 10.593 10.623 10.695 10.75 10.77 10.772 10.782 10.797 10.755 10.655 10.557 10.463 10.403 10.36 10.293 10.22 10.178 10.183 10.21 10.24 10.255 10.255 10.255 10.257 10.267 10.282 10.297 10.31 10.322 10.33 10.327 10.323 10.323 10.333 10.35 10.37 10.36 10.315 10.268 10.228 10.223 10.248 10.273 10.292 10.3 10.305 10.31 10.313 10.323 10.333 10.335 10.335 10.323 10.305 10.295 10.285 10.267 10.243 10.215 10.19 10.19 10.218 10.258 10.302 10.347 10.383 10.41 10.435 10.48 10.548 10.61 10.673 10.74 10.81 10.885 10.965 11.043 11.125 11.212 11.297 11.36 11.4 11.437 11.475 11.505 11.525 11.545 11.567 11.587 11.603 11.618 11.633 11.658 11.703 11.757 11.812 11.825 11.795 11.762 11.73 11.705 11.685 11.665 11.64 11.615 11.585 11.545 11.505 11.475 11.458 11.443 11.43 11.42 11.413 11.405 11.39 11.36 11.32 11.278 11.238 11.21 11.185 11.155 11.13 11.12 11.123 11.128 11.135 11.148 11.168 11.192 11.215 11.232 11.245 11.257 11.27 11.28 11.29 11.297 11.305 11.307 11.305 11.303 11.305 11.315 11.33 11.348 11.365 11.378 11.39 11.405 11.418 11.43 11.438 11.445 11.447 11.43 11.402 11.38 11.36 11.332 11.295 11.257 11.215 11.165 11.11 11.045 10.98 10.94 10.915 10.887 10.855 10.82 10.785 10.75 10.72 10.68 10.63 10.583 10.543 10.51 10.492 10.485 10.48 10.465 10.42 10.36 10.302 10.255 10.212
11.485 11.3 11.155 11.055 10.942 10.83 10.743 10.68 10.63 10.613 10.65 10.722 10.78 10.795 10.77 10.74 10.73 10.74 10.7 10.6 10.503 10.41 10.37 10.365 10.322 10.255 10.21 10.205 10.223 10.25 10.265 10.265 10.268 10.275 10.285 10.298 10.31 10.323 10.342 10.36 10.367 10.365 10.36 10.363 10.373 10.39 10.38 10.335 10.29 10.26 10.26 10.285 10.305 10.315 10.32 10.325 10.33 10.335 10.352 10.372 10.382 10.385 10.365 10.335 10.318 10.305 10.29 10.265 10.235 10.21 10.205 10.22 10.253 10.298 10.35 10.402 10.437 10.463 10.51 10.58 10.647 10.71 10.768 10.828 10.898 10.975 11.053 11.13 11.215 11.3 11.36 11.398 11.433 11.47 11.5 11.52 11.54 11.565 11.59 11.607 11.625 11.64 11.66 11.695 11.743 11.795 11.805 11.775 11.748 11.72 11.695 11.675 11.652 11.625 11.605 11.587 11.555 11.515 11.488 11.472 11.458 11.45 11.445 11.435 11.42 11.395 11.36 11.317 11.273 11.233 11.21 11.195 11.17 11.145 11.138 11.143 11.153 11.17 11.18 11.19 11.21 11.23 11.247 11.262 11.275 11.285 11.295 11.305 11.313 11.32 11.322 11.32 11.325 11.34 11.355 11.368 11.383 11.4 11.41 11.415 11.425 11.435 11.445 11.455 11.457 11.445 11.415 11.38 11.355 11.335 11.305 11.267 11.227 11.177 11.127 11.08 11.022 10.96 10.92 10.892 10.855 10.807 10.765 10.732 10.7 10.67 10.63 10.583 10.545 10.522 10.485 10.44 10.423 10.417 10.392 10.34 10.278 10.22 10.178 10.142
11.417 11.208 11.058 10.97 10.872 10.765 10.68 10.643 10.645 10.69 10.76 10.815 10.827 10.802 10.765 10.725 10.693 10.685 10.642 10.548 10.455 10.365 10.32 10.325 10.32 10.282 10.248 10.24 10.245 10.263 10.275 10.278 10.285 10.295 10.305 10.315 10.325 10.338 10.355 10.377 10.397 10.405 10.402 10.4 10.403 10.412 10.4 10.36 10.325 10.3 10.3 10.32 10.33 10.335 10.34 10.345 10.353 10.36 10.378 10.402 10.422 10.432 10.415 10.38 10.35 10.33 10.312 10.285 10.255 10.23 10.225 10.235 10.255 10.293 10.345 10.405 10.455 10.49 10.54 10.612 10.685 10.75 10.805 10.858 10.918 10.988 11.065 11.142 11.22 11.3 11.36 11.398 11.433 11.467 11.497 11.52 11.54 11.565 11.59 11.61 11.63 11.647 11.67 11.7 11.735 11.777 11.785 11.758 11.735 11.712 11.688 11.665 11.64 11.61 11.59 11.58 11.562 11.53 11.503 11.488 11.478 11.472 11.465 11.45 11.425 11.395 11.36 11.315 11.27 11.23 11.205 11.195 11.18 11.16 11.158 11.173 11.19 11.21 11.22 11.225 11.235 11.25 11.265 11.277 11.29 11.3 11.31 11.32 11.327 11.335 11.34 11.345 11.36 11.38 11.395 11.405 11.42 11.437 11.445 11.445 11.448 11.455 11.465 11.467 11.455 11.435 11.407 11.37 11.335 11.31 11.28 11.237 11.187 11.133 11.083 11.04 10.992 10.938 10.895 10.857 10.807 10.75 10.705 10.677 10.65 10.62 10.583 10.545 10.523 10.51 10.475 10.415 10.373 10.355 10.322 10.263 10.198 10.143 10.098 10.06
11.317 11.103 10.953 10.87 10.788 10.7 10.655 10.68 10.735 10.8 10.852 10.862 10.837 10.8 10.76 10.72 10.678 10.645 10.59 10.5 10.41 10.32 10.27 10.273 10.288 10.287 10.278 10.275 10.275 10.283 10.29 10.295 10.305 10.315 10.325 10.332 10.34 10.352 10.37 10.393 10.417 10.435 10.437 10.435 10.435 10.435 10.42 10.39 10.36 10.338 10.335 10.345 10.35 10.355 10.363 10.37 10.38 10.39 10.403 10.422 10.447 10.467 10.455 10.42 10.385 10.355 10.335 10.31 10.28 10.253 10.245 10.258 10.273 10.298 10.345 10.405 10.463 10.513 10.57 10.642 10.717 10.785 10.84 10.892 10.947 11.008 11.078 11.155 11.23 11.305 11.365 11.403 11.438 11.47 11.498 11.52 11.543 11.568 11.59 11.61 11.63 11.65 11.675 11.705 11.735 11.765 11.77 11.748 11.725 11.705 11.68 11.653 11.625 11.595 11.575 11.565 11.555 11.537 11.518 11.508 11.502 11.495 11.482 11.46 11.43 11.397 11.36 11.315 11.27 11.23 11.205 11.195 11.185 11.178 11.185 11.205 11.227 11.25 11.26 11.262 11.265 11.27 11.28 11.29 11.3 11.31 11.32 11.33 11.34 11.353 11.365 11.38 11.4 11.42 11.435 11.445 11.46 11.475 11.48 11.48 11.48 11.48 11.477 11.465 11.445 11.425 11.4 11.365 11.325 11.29 11.252 11.2 11.143 11.088 11.04 11 10.955 10.907 10.862 10.813 10.755 10.695 10.65 10.623 10.598 10.573 10.545 10.523 10.51 10.497 10.462 10.405 10.348 10.305 10.263 10.205 10.148 10.098 10.048 10
11.198 11.01 10.918 10.88 10.8 10.725 10.72 10.785 10.85 10.915 10.925 10.875 10.833 10.797 10.757 10.715 10.667 10.602 10.542 10.475 10.385 10.295 10.248 10.255 10.275 10.292 10.3 10.297 10.298 10.305 10.31 10.315 10.325 10.335 10.34 10.343 10.35 10.363 10.385 10.41 10.433 10.455 10.465 10.462 10.457 10.445 10.425 10.4 10.372 10.36 10.36 10.365 10.37 10.378 10.398 10.42 10.433 10.44 10.438 10.438 10.457 10.48 10.47 10.435 10.4 10.365 10.352 10.342 10.315 10.285 10.275 10.29 10.308 10.33 10.375 10.435 10.49 10.54 10.593 10.655 10.727 10.797 10.855 10.91 10.965 11.023 11.09 11.165 11.24 11.315 11.375 11.413 11.448 11.48 11.507 11.53 11.552 11.572 11.59 11.61 11.63 11.648 11.67 11.7 11.727 11.75 11.76 11.747 11.725 11.705 11.68 11.65 11.618 11.588 11.57 11.56 11.55 11.543 11.535 11.527 11.52 11.512 11.497 11.47 11.437 11.4 11.357 11.313 11.27 11.235 11.215 11.205 11.195 11.195 11.213 11.235 11.257 11.275 11.28 11.28 11.28 11.285 11.295 11.305 11.315 11.328 11.34 11.35 11.363 11.385 11.408 11.425 11.445 11.465 11.477 11.485 11.498 11.51 11.515 11.515 11.515 11.505 11.478 11.45 11.43 11.41 11.382 11.345 11.305 11.265 11.217 11.16 11.103 11.048 11 10.96 10.915 10.868 10.83 10.785 10.725 10.665 10.618 10.585 10.56 10.538 10.518 10.505 10.495 10.482 10.445 10.385 10.325 10.268 10.22 10.175 10.125 10.075 10.025 9.975
11.1 10.943 10.91 10.957 10.92 10.845 10.84 10.905 10.97 11.03 11.005 10.905 10.835 10.793 10.752 10.702 10.625 10.528 10.48 10.457 10.39 10.3 10.258 10.268 10.285 10.305 10.315 10.313 10.318 10.33 10.335 10.338 10.345 10.355 10.355 10.353 10.36 10.37 10.393 10.425 10.45 10.475 10.49 10.485 10.467 10.44 10.415 10.39 10.373 10.375 10.38 10.385 10.395 10.41 10.44 10.48 10.505 10.515 10.497 10.465 10.463 10.48 10.472 10.437 10.4 10.365 10.36 10.367 10.352 10.325 10.318 10.335 10.355 10.38 10.425 10.485 10.535 10.572 10.613 10.663 10.725 10.795 10.855 10.91 10.968 11.03 11.1 11.175 11.25 11.325 11.385 11.425 11.462 11.495 11.522 11.545 11.562 11.575 11.59 11.61 11.627 11.64 11.66 11.687 11.71 11.727 11.74 11.742 11.73 11.71 11.685 11.655 11.623 11.595 11.58 11.57 11.563 11.56 11.555 11.543 11.533 11.527 11.51 11.48 11.442 11.398 11.353 11.31 11.275 11.248 11.23 11.223 11.218 11.22 11.238 11.26 11.275 11.28 11.277 11.278 11.285 11.298 11.31 11.32 11.335 11.355 11.37 11.383 11.405 11.437 11.46 11.473 11.49 11.51 11.522 11.528 11.535 11.545 11.55 11.547 11.54 11.52 11.48 11.438 11.408 11.385 11.355 11.315 11.278 11.24 11.187 11.125 11.068 11.01 10.96 10.92 10.872 10.823 10.792 10.765 10.717 10.66 10.61 10.573 10.543 10.515 10.495 10.485 10.478 10.47 10.427 10.355 10.29 10.233 10.19 10.152 10.105 10.055 10.005 9.955
11.037 10.888 10.86 10.95 10.997 10.965 10.963 11.027 11.09 11.132 11.085 10.965 10.863 10.795 10.74 10.657 10.537 10.435 10.4 10.4 10.375 10.305 10.268 10.28 10.295 10.315 10.325 10.33 10.343 10.357 10.365 10.365 10.368 10.375 10.375 10.37 10.373 10.378 10.398 10.432 10.465 10.495 10.507 10.492 10.462 10.43 10.405 10.388 10.385 10.395 10.403 10.41 10.425 10.445 10.475 10.52 10.562 10.587 10.57 10.52 10.485 10.483 10.475 10.44 10.4 10.365 10.36 10.375 10.38 10.365 10.36 10.383 10.408 10.435 10.478 10.527 10.565 10.598 10.638 10.683 10.733 10.795 10.855 10.913 10.975 11.04 11.11 11.185 11.26 11.335 11.395 11.435 11.475 11.51 11.535 11.552 11.565 11.575 11.59 11.607 11.62 11.63 11.648 11.667 11.685 11.702 11.712 11.72 11.722 11.712 11.69 11.66 11.63 11.603 11.585 11.58 11.58 11.58 11.575 11.563 11.55 11.54 11.52 11.485 11.442 11.395 11.35 11.313 11.285 11.263 11.245 11.24 11.24 11.245 11.26 11.275 11.28 11.277 11.273 11.278 11.295 11.312 11.325 11.338 11.36 11.385 11.403 11.423 11.458 11.495 11.515 11.525 11.538 11.555 11.567 11.573 11.578 11.585 11.587 11.575 11.552 11.525 11.485 11.435 11.39 11.36 11.33 11.29 11.252 11.215 11.16 11.095 11.033 10.973 10.923 10.877 10.827 10.778 10.745 10.727 10.702 10.655 10.605 10.565 10.528 10.495 10.475 10.468 10.463 10.457 10.415 10.335 10.26 10.2 10.158 10.122 10.082 10.035 9.988 9.948
10.965 10.833 10.82 10.91 11 11.047 11.085 11.15 11.21 11.217 11.135 11.015 10.897 10.79 10.687 10.565 10.43 10.343 10.32 10.32 10.317 10.29 10.275 10.29 10.305 10.325 10.34 10.355 10.37 10.385 10.395 10.395 10.395 10.397 10.395 10.39 10.39 10.39 10.405 10.438 10.472 10.507 10.515 10.485 10.45 10.42 10.403 10.4 10.405 10.418 10.433 10.448 10.463 10.478 10.508 10.558 10.613 10.647 10.63 10.582 10.535 10.503 10.477 10.44 10.4 10.365 10.36 10.375 10.39 10.398 10.408 10.435 10.462 10.49 10.525 10.56 10.59 10.623 10.663 10.707 10.75 10.8 10.86 10.923 10.985 11.05 11.12 11.195 11.27 11.345 11.405 11.445 11.485 11.52 11.542 11.555 11.565 11.575 11.587 11.6 11.61 11.62 11.633 11.645 11.658 11.675 11.688 11.695 11.705 11.71 11.697 11.67 11.64 11.61 11.595 11.598 11.6 11.602 11.597 11.585 11.573 11.558 11.532 11.49 11.443 11.395 11.353 11.323 11.3 11.278 11.265 11.265 11.265 11.268 11.277 11.282 11.28 11.275 11.275 11.29 11.307 11.325 11.345 11.365 11.39 11.415 11.44 11.472 11.512 11.552 11.575 11.585 11.595 11.607 11.615 11.617 11.62 11.622 11.615 11.59 11.56 11.53 11.49 11.44 11.39 11.348 11.31 11.268 11.225 11.185 11.132 11.068 11.003 10.943 10.888 10.833 10.78 10.73 10.698 10.683 10.665 10.637 10.6 10.56 10.52 10.483 10.463 10.458 10.453 10.447 10.405 10.322 10.24 10.173 10.125 10.09 10.055 10.015 9.983 9.96
10.918 10.84 10.873 10.953 11.04 11.128 11.202 11.265 11.285 11.227 11.12 11 10.877 10.737 10.595 10.46 10.34 10.28 10.27 10.27 10.27 10.275 10.293 10.313 10.33 10.348 10.36 10.375 10.39 10.405 10.417 10.422 10.425 10.422 10.418 10.415 10.415 10.425 10.435 10.445 10.473 10.51 10.515 10.48 10.445 10.415 10.405 10.41 10.418 10.445 10.483 10.515 10.535 10.545 10.578 10.635 10.68 10.695 10.672 10.627 10.58 10.533 10.49 10.45 10.41 10.378 10.375 10.393 10.41 10.428 10.45 10.48 10.505 10.53 10.56 10.59 10.62 10.648 10.685 10.73 10.773 10.818 10.875 10.94 11 11.06 11.128 11.202 11.277 11.35 11.402 11.44 11.477 11.512 11.535 11.545 11.555 11.57 11.585 11.595 11.605 11.615 11.625 11.635 11.645 11.658 11.673 11.685 11.695 11.705 11.702 11.682 11.655 11.625 11.613 11.617 11.62 11.622 11.622 11.615 11.603 11.587 11.558 11.513 11.465 11.415 11.373 11.343 11.32 11.295 11.285 11.29 11.29 11.287 11.287 11.285 11.28 11.275 11.283 11.305 11.32 11.335 11.36 11.385 11.41 11.44 11.472 11.51 11.55 11.59 11.622 11.64 11.647 11.655 11.657 11.655 11.657 11.66 11.645 11.615 11.582 11.542 11.495 11.445 11.395 11.345 11.3 11.258 11.213 11.168 11.113 11.048 10.985 10.923 10.863 10.805 10.75 10.703 10.675 10.66 10.643 10.62 10.592 10.56 10.52 10.483 10.463 10.458 10.452 10.43 10.367 10.282 10.205 10.15 10.11 10.075 10.04 10.01 9.995 9.98
10.943 10.95 11.015 11.083 11.158 11.24 11.31 11.325 11.267 11.17 11.062 10.942 10.805 10.645 10.495 10.375 10.293 10.258 10.25 10.25 10.26 10.288 10.32 10.345 10.365 10.382 10.388 10.39 10.4 10.415 10.43 10.442 10.45 10.448 10.445 10.443 10.45 10.482 10.495 10.478 10.48 10.51 10.515 10.482 10.448 10.415 10.405 10.41 10.43 10.48 10.537 10.587 10.625 10.647 10.68 10.72 10.735 10.73 10.705 10.66 10.61 10.557 10.51 10.47 10.435 10.41 10.41 10.43 10.447 10.46 10.48 10.51 10.538 10.565 10.595 10.625 10.65 10.673 10.708 10.75 10.795 10.843 10.898 10.96 11.017 11.07 11.133 11.207 11.277 11.337 11.382 11.42 11.455 11.49 11.512 11.523 11.543 11.57 11.59 11.597 11.603 11.61 11.622 11.635 11.645 11.655 11.67 11.685 11.695 11.707 11.71 11.697 11.675 11.645 11.63 11.635 11.64 11.64 11.645 11.647 11.637 11.625 11.595 11.548 11.503 11.458 11.413 11.37 11.34 11.315 11.305 11.31 11.307 11.3 11.293 11.285 11.28 11.275 11.285 11.31 11.327 11.345 11.37 11.395 11.425 11.465 11.5 11.533 11.57 11.61 11.65 11.68 11.692 11.698 11.698 11.693 11.693 11.695 11.68 11.647 11.605 11.55 11.495 11.445 11.395 11.345 11.3 11.257 11.21 11.16 11.102 11.038 10.972 10.908 10.848 10.793 10.743 10.703 10.68 10.667 10.645 10.605 10.575 10.557 10.525 10.488 10.465 10.46 10.44 10.382 10.303 10.225 10.17 10.14 10.11 10.075 10.045 10.025 10.015 10.002
11.04 11.1 11.165 11.23 11.292 11.345 11.357 11.297 11.205 11.112 11.007 10.875 10.712 10.543 10.408 10.325 10.275 10.243 10.233 10.245 10.273 10.31 10.345 10.372 10.397 10.42 10.425 10.418 10.415 10.425 10.442 10.457 10.467 10.472 10.473 10.478 10.508 10.552 10.565 10.54 10.518 10.518 10.512 10.485 10.45 10.415 10.403 10.42 10.465 10.525 10.585 10.64 10.69 10.732 10.757 10.765 10.765 10.76 10.735 10.687 10.635 10.58 10.53 10.495 10.47 10.45 10.448 10.465 10.48 10.49 10.51 10.54 10.57 10.6 10.63 10.657 10.677 10.698 10.73 10.773 10.818 10.865 10.92 10.977 11.03 11.08 11.138 11.205 11.265 11.315 11.36 11.398 11.433 11.467 11.49 11.51 11.543 11.577 11.597 11.6 11.6 11.605 11.618 11.632 11.645 11.658 11.672 11.685 11.698 11.712 11.715 11.705 11.69 11.665 11.65 11.655 11.66 11.66 11.665 11.67 11.67 11.665 11.635 11.588 11.543 11.5 11.455 11.408 11.368 11.335 11.325 11.327 11.32 11.31 11.3 11.29 11.283 11.278 11.288 11.313 11.335 11.355 11.38 11.41 11.45 11.495 11.53 11.56 11.593 11.63 11.668 11.702 11.732 11.745 11.742 11.737 11.733 11.73 11.712 11.667 11.61 11.55 11.495 11.445 11.395 11.345 11.3 11.255 11.205 11.155 11.097 11.03 10.96 10.895 10.835 10.785 10.748 10.713 10.69 10.67 10.63 10.58 10.55 10.54 10.522 10.49 10.467 10.445 10.39 10.318 10.243 10.188 10.16 10.14 10.11 10.078 10.058 10.045 10.035 10.025
11.18 11.237 11.275 11.31 11.345 11.362 11.322 11.235 11.145 11.052 10.937 10.785 10.613 10.455 10.358 10.31 10.27 10.235 10.23 10.26 10.297 10.332 10.365 10.395 10.425 10.452 10.46 10.45 10.442 10.443 10.455 10.47 10.483 10.495 10.505 10.527 10.567 10.61 10.622 10.6 10.567 10.54 10.517 10.488 10.453 10.418 10.41 10.45 10.51 10.57 10.63 10.682 10.73 10.777 10.797 10.795 10.795 10.79 10.762 10.712 10.657 10.602 10.558 10.53 10.51 10.49 10.485 10.498 10.51 10.523 10.543 10.573 10.605 10.635 10.662 10.682 10.7 10.72 10.75 10.795 10.84 10.885 10.937 10.987 11.035 11.085 11.138 11.193 11.245 11.297 11.342 11.378 11.413 11.445 11.475 11.51 11.545 11.58 11.602 11.605 11.605 11.607 11.615 11.63 11.645 11.66 11.675 11.685 11.7 11.715 11.715 11.705 11.695 11.68 11.67 11.673 11.678 11.68 11.685 11.69 11.695 11.7 11.675 11.63 11.585 11.54 11.495 11.45 11.405 11.363 11.345 11.34 11.33 11.32 11.31 11.3 11.29 11.283 11.293 11.318 11.343 11.365 11.395 11.435 11.48 11.525 11.56 11.59 11.62 11.655 11.69 11.723 11.76 11.785 11.785 11.78 11.775 11.762 11.73 11.672 11.61 11.55 11.495 11.445 11.395 11.345 11.297 11.25 11.2 11.15 11.09 11.02 10.953 10.888 10.83 10.79 10.76 10.727 10.695 10.655 10.605 10.555 10.523 10.513 10.505 10.487 10.457 10.402 10.33 10.26 10.203 10.173 10.155 10.135 10.11 10.088 10.075 10.065 10.055 10.045
11.31 11.335 11.31 11.285 11.29 11.295 11.255 11.17 11.08 10.972 10.852 10.71 10.54 10.395 10.338 10.322 10.285 10.248 10.248 10.285 10.322 10.352 10.38 10.41 10.44 10.467 10.475 10.467 10.462 10.465 10.48 10.498 10.513 10.528 10.54 10.557 10.59 10.63 10.645 10.627 10.597 10.562 10.53 10.495 10.46 10.438 10.45 10.503 10.565 10.625 10.677 10.715 10.755 10.802 10.825 10.822 10.82 10.802 10.76 10.71 10.657 10.615 10.588 10.565 10.545 10.53 10.528 10.535 10.545 10.56 10.578 10.603 10.635 10.665 10.69 10.707 10.725 10.743 10.773 10.82 10.865 10.902 10.945 10.993 11.04 11.09 11.138 11.185 11.235 11.287 11.332 11.368 11.4 11.427 11.458 11.495 11.532 11.567 11.59 11.595 11.595 11.595 11.602 11.617 11.632 11.65 11.665 11.677 11.692 11.705 11.717 11.72 11.708 11.695 11.693 11.698 11.703 11.705 11.718 11.733 11.74 11.75 11.732 11.688 11.64 11.59 11.535 11.483 11.437 11.393 11.365 11.355 11.345 11.335 11.325 11.315 11.305 11.298 11.308 11.333 11.36 11.385 11.42 11.465 11.51 11.552 11.595 11.635 11.665 11.7 11.73 11.755 11.788 11.817 11.825 11.817 11.807 11.777 11.725 11.662 11.6 11.543 11.49 11.44 11.39 11.34 11.29 11.24 11.19 11.137 11.077 11.01 10.945 10.88 10.825 10.79 10.76 10.727 10.692 10.65 10.6 10.55 10.518 10.508 10.5 10.48 10.432 10.365 10.295 10.225 10.175 10.15 10.132 10.117 10.102 10.09 10.077 10.065 10.055 10.045
11.4 11.39 11.333 11.26 11.23 11.227 11.19 11.105 10.997 10.857 10.74 10.637 10.49 10.343 10.303 10.327 10.312 10.275 10.275 10.312 10.342 10.365 10.39 10.42 10.447 10.47 10.477 10.475 10.478 10.493 10.517 10.54 10.557 10.572 10.575 10.573 10.59 10.625 10.64 10.627 10.607 10.577 10.543 10.508 10.49 10.5 10.528 10.573 10.633 10.695 10.737 10.758 10.783 10.825 10.85 10.847 10.83 10.787 10.733 10.68 10.643 10.628 10.615 10.595 10.58 10.575 10.575 10.58 10.59 10.603 10.615 10.63 10.655 10.685 10.71 10.732 10.755 10.77 10.8 10.847 10.885 10.913 10.95 11 11.05 11.102 11.15 11.19 11.233 11.28 11.325 11.36 11.387 11.407 11.433 11.468 11.505 11.54 11.56 11.565 11.565 11.568 11.578 11.593 11.61 11.63 11.647 11.662 11.675 11.685 11.707 11.732 11.732 11.72 11.72 11.73 11.735 11.738 11.758 11.787 11.807 11.817 11.802 11.76 11.707 11.647 11.58 11.515 11.463 11.418 11.388 11.375 11.365 11.358 11.35 11.338 11.328 11.328 11.34 11.363 11.387 11.413 11.45 11.495 11.535 11.573 11.625 11.685 11.725 11.76 11.785 11.8 11.825 11.852 11.862 11.85 11.82 11.77 11.71 11.648 11.585 11.53 11.48 11.43 11.38 11.333 11.285 11.235 11.18 11.12 11.06 11 10.937 10.87 10.818 10.783 10.75 10.715 10.685 10.655 10.612 10.565 10.533 10.52 10.502 10.467 10.412 10.345 10.275 10.208 10.153 10.118 10.098 10.085 10.077 10.072 10.06 10.045 10.035 10.025
11.452 11.43 11.375 11.285 11.21 11.173 11.125 11.022 10.88 10.72 10.603 10.525 10.42 10.288 10.245 10.29 10.315 10.302 10.303 10.332 10.355 10.375 10.4 10.427 10.452 10.475 10.485 10.49 10.505 10.528 10.552 10.577 10.6 10.615 10.615 10.605 10.605 10.625 10.635 10.623 10.605 10.585 10.563 10.55 10.565 10.595 10.625 10.66 10.708 10.765 10.805 10.817 10.825 10.85 10.872 10.86 10.815 10.76 10.708 10.668 10.655 10.655 10.645 10.63 10.625 10.628 10.63 10.633 10.638 10.648 10.658 10.665 10.68 10.705 10.73 10.755 10.78 10.798 10.828 10.867 10.895 10.92 10.958 11.008 11.06 11.115 11.165 11.2 11.233 11.275 11.317 11.347 11.367 11.383 11.408 11.442 11.477 11.51 11.53 11.535 11.538 11.543 11.553 11.57 11.59 11.61 11.63 11.645 11.655 11.663 11.683 11.72 11.745 11.747 11.75 11.76 11.767 11.773 11.793 11.827 11.86 11.88 11.87 11.827 11.765 11.695 11.625 11.555 11.493 11.443 11.413 11.4 11.39 11.382 11.375 11.365 11.36 11.363 11.375 11.395 11.415 11.44 11.478 11.52 11.555 11.59 11.645 11.717 11.777 11.82 11.845 11.853 11.865 11.887 11.895 11.867 11.815 11.755 11.695 11.635 11.575 11.52 11.47 11.42 11.373 11.327 11.28 11.227 11.165 11.1 11.04 10.982 10.925 10.86 10.81 10.775 10.74 10.705 10.675 10.65 10.62 10.58 10.545 10.522 10.49 10.45 10.395 10.325 10.258 10.193 10.138 10.098 10.065 10.045 10.04 10.04 10.035 10.025 10.015 10.013
11.49 11.47 11.417 11.33 11.24 11.145 11.04 10.905 10.743 10.585 10.47 10.393 10.313 10.215 10.185 10.23 10.275 10.305 10.323 10.345 10.365 10.385 10.41 10.435 10.46 10.485 10.5 10.515 10.538 10.563 10.585 10.61 10.635 10.652 10.655 10.645 10.637 10.637 10.638 10.63 10.618 10.605 10.605 10.625 10.657 10.692 10.725 10.76 10.797 10.84 10.872 10.88 10.88 10.887 10.887 10.85 10.793 10.738 10.698 10.685 10.685 10.685 10.68 10.675 10.677 10.682 10.685 10.685 10.688 10.695 10.702 10.707 10.715 10.73 10.75 10.775 10.8 10.823 10.85 10.88 10.905 10.928 10.965 11.018 11.073 11.13 11.177 11.21 11.24 11.275 11.307 11.33 11.345 11.36 11.383 11.415 11.45 11.482 11.502 11.507 11.512 11.518 11.53 11.55 11.57 11.593 11.613 11.625 11.633 11.638 11.66 11.7 11.737 11.762 11.775 11.785 11.795 11.803 11.822 11.857 11.895 11.927 11.925 11.877 11.807 11.737 11.67 11.6 11.533 11.473 11.438 11.425 11.415 11.405 11.398 11.395 11.395 11.395 11.405 11.425 11.448 11.473 11.503 11.54 11.575 11.608 11.663 11.737 11.81 11.87 11.9 11.905 11.91 11.922 11.91 11.86 11.8 11.74 11.68 11.623 11.565 11.51 11.46 11.413 11.367 11.322 11.27 11.21 11.145 11.08 11.02 10.96 10.905 10.848 10.8 10.765 10.728 10.693 10.663 10.638 10.615 10.585 10.547 10.51 10.47 10.43 10.375 10.305 10.24 10.175 10.12 10.08 10.04 10.013 10.005 10.005 10.005 10.003 10.003 10.015
11.52 11.502 11.45 11.34 11.21 11.062 10.922 10.79 10.63 10.478 10.398 10.345 10.265 10.185 10.165 10.21 10.26 10.31 10.342 10.36 10.383 10.408 10.438 10.468 10.495 10.52 10.54 10.56 10.583 10.605 10.618 10.633 10.655 10.675 10.68 10.67 10.66 10.648 10.653 10.667 10.665 10.655 10.665 10.698 10.735 10.775 10.807 10.837 10.87 10.905 10.915 10.905 10.905 10.905 10.895 10.858 10.805 10.75 10.72 10.72 10.72 10.72 10.72 10.722 10.727 10.73 10.73 10.73 10.732 10.735 10.74 10.747 10.753 10.765 10.78 10.8 10.825 10.85 10.875 10.898 10.923 10.945 10.978 11.028 11.085 11.142 11.187 11.22 11.25 11.28 11.305 11.323 11.338 11.353 11.365 11.388 11.42 11.455 11.475 11.48 11.488 11.498 11.52 11.545 11.565 11.588 11.605 11.615 11.623 11.633 11.655 11.69 11.73 11.767 11.79 11.8 11.81 11.825 11.838 11.858 11.892 11.927 11.93 11.88 11.81 11.745 11.692 11.637 11.57 11.505 11.463 11.445 11.435 11.425 11.422 11.425 11.425 11.425 11.435 11.455 11.478 11.505 11.538 11.573 11.605 11.63 11.678 11.753 11.827 11.887 11.912 11.917 11.925 11.93 11.9 11.84 11.78 11.723 11.667 11.613 11.558 11.503 11.45 11.402 11.357 11.312 11.257 11.195 11.13 11.065 11.005 10.945 10.89 10.835 10.788 10.752 10.715 10.678 10.653 10.633 10.61 10.587 10.545 10.493 10.45 10.407 10.352 10.285 10.218 10.155 10.105 10.068 10.03 9.998 9.985 9.985 9.988 9.993 10.003 10.017
11.532 11.492 11.395 11.245 11.075 10.905 10.778 10.677 10.537 10.393 10.35 10.357 10.302 10.223 10.2 10.238 10.285 10.335 10.367 10.385 10.413 10.445 10.48 10.52 10.552 10.577 10.6 10.62 10.64 10.657 10.658 10.653 10.668 10.69 10.695 10.685 10.67 10.648 10.66 10.705 10.725 10.72 10.73 10.765 10.805 10.845 10.875 10.895 10.92 10.955 10.952 10.913 10.895 10.895 10.895 10.882 10.845 10.793 10.765 10.763 10.76 10.76 10.763 10.767 10.77 10.767 10.765 10.767 10.77 10.77 10.773 10.78 10.793 10.813 10.825 10.835 10.855 10.88 10.905 10.925 10.948 10.972 11 11.04 11.093 11.147 11.192 11.225 11.255 11.285 11.31 11.327 11.343 11.357 11.365 11.373 11.393 11.425 11.445 11.45 11.465 11.488 11.517 11.55 11.575 11.595 11.61 11.62 11.633 11.65 11.67 11.695 11.73 11.77 11.795 11.805 11.823 11.85 11.855 11.845 11.86 11.895 11.897 11.847 11.78 11.713 11.673 11.65 11.602 11.538 11.49 11.465 11.45 11.44 11.44 11.447 11.45 11.45 11.46 11.483 11.51 11.545 11.582 11.615 11.64 11.658 11.698 11.767 11.835 11.88 11.895 11.898 11.903 11.907 11.88 11.82 11.763 11.707 11.655 11.605 11.552 11.495 11.44 11.39 11.345 11.3 11.245 11.182 11.118 11.055 10.995 10.935 10.878 10.823 10.775 10.737 10.7 10.66 10.64 10.632 10.612 10.59 10.545 10.48 10.428 10.382 10.327 10.263 10.198 10.14 10.098 10.062 10.025 9.99 9.975 9.978 9.985 9.997 10.007 10.015
11.51 11.4 11.245 11.082 10.915 10.748 10.623 10.537 10.43 10.308 10.27 10.312 10.32 10.27 10.25 10.278 10.31 10.355 10.39 10.415 10.45 10.485 10.52 10.565 10.605 10.635 10.66 10.68 10.7 10.712 10.707 10.693 10.69 10.705 10.71 10.695 10.672 10.645 10.655 10.715 10.767 10.782 10.798 10.835 10.875 10.915 10.942 10.958 10.978 11.007 11.005 10.95 10.9 10.885 10.885 10.885 10.872 10.835 10.81 10.807 10.805 10.805 10.807 10.807 10.802 10.798 10.795 10.8 10.805 10.805 10.808 10.82 10.843 10.867 10.88 10.883 10.89 10.91 10.935 10.955 10.975 10.998 11.028 11.063 11.103 11.153 11.195 11.225 11.255 11.285 11.31 11.33 11.347 11.362 11.37 11.37 11.375 11.398 11.417 11.428 11.45 11.48 11.513 11.547 11.58 11.605 11.62 11.633 11.65 11.673 11.695 11.715 11.74 11.773 11.798 11.815 11.845 11.88 11.885 11.86 11.848 11.867 11.865 11.812 11.747 11.68 11.643 11.64 11.622 11.572 11.525 11.495 11.47 11.455 11.455 11.462 11.467 11.473 11.485 11.513 11.55 11.59 11.625 11.65 11.667 11.683 11.718 11.775 11.827 11.865 11.88 11.88 11.88 11.885 11.86 11.8 11.745 11.69 11.638 11.592 11.542 11.487 11.435 11.385 11.337 11.29 11.235 11.17 11.105 11.045 10.985 10.925 10.865 10.808 10.76 10.72 10.68 10.64 10.62 10.62 10.612 10.592 10.545 10.478 10.415 10.36 10.303 10.243 10.188 10.133 10.09 10.055 10.018 9.985 9.97 9.978 9.99 10.003 10.013 10.02
