ncols         200
nrows         71
xllcorner     548000
yllcorner     255165
cellsize      5
NODATA_value  -9999.0
23.885 24.123 24.388 24.67 24.955 25.243 25.53 25.83 26.15 26.48 26.813 27.145 27.475 27.805 28.208 28.68 29.127 29.54 29.958 30.395 30.855 31.355 31.895 32.457 33.012 33.55 34.085 34.63 35.18 35.73 36.27 36.8 37.33 37.86 38.4 38.95 39.495 40.035 40.565 41.072 41.552 42.015 42.437 42.815 43.182 43.563 44.045 44.587 45.04 45.217 44.997 44.81 44.98 45.255 45.467 45.653 45.85 46.062 46.252 46.418 46.82 48.063 49.92 51.012 51.195 51.275 51.355 51.317 51.152 50.95 50.64 50.11 50.015 50.369 50.227 49.605 48.985 48.54 48.25 48.048 47.82 47.568 47.443 47.418 47.395 47.275 46.993 46.82 46.732 46.637 46.515 46.315 46.198 46.07 45.933 45.847 45.76 45.673 45.588 45.505 45.435 45.382 45.31 45.21 45.107 45.005 44.923 44.86 44.797 44.725 44.635 44.538 44.44 44.34 44.232 44.12 44.008 43.895 43.79 43.7 43.61 43.5 43.405 43.332 43.255 43.172 43.093 43.02 42.94 42.842 42.75 42.675 42.607 42.54 42.475 42.415 42.36 42.307 42.235 42.14 42.038 41.945 41.935 41.993 42.05 42.107 42.162 42.2 42.225 42.242 42.248 42.268 42.31 42.363 42.425 42.49 42.558 42.63 42.697 42.755 42.8 42.843 42.91 43.008 43.115 43.23 43.307 43.345 43.39 43.435 43.49 43.56 43.63 43.7 43.75 43.78 43.813 43.855 43.897 43.932 43.967 44 44.05 44.125 44.2 44.26 44.285 44.288 44.308 44.35 44.395 44.44 44.48 44.507 44.515 44.505 44.503 44.52 44.545 44.563
24.185 24.428 24.693 24.975 25.26 25.548 25.845 26.165 26.495 26.825 27.155 27.485 27.815 28.145 28.543 29.015 29.49 29.942 30.383 30.825 31.268 31.73 32.248 32.805 33.37 33.927 34.472 35.02 35.57 36.117 36.657 37.19 37.72 38.248 38.785 39.335 39.883 40.412 40.897 41.355 41.82 42.282 42.705 43.092 43.475 43.852 44.252 44.65 44.975 45.222 45.267 45.08 45.09 45.332 45.532 45.72 45.913 46.112 46.297 46.465 46.976 48.393 50.335 51.285 51.288 51.312 51.285 51.135 50.938 50.743 50.523 50.43 50.712 51.049 51.047 50.812 50.45 49.92 49.455 49.13 48.678 48.158 47.765 47.568 47.51 47.38 47.193 47.107 47.007 46.837 46.64 46.395 46.213 46.082 45.958 45.872 45.785 45.697 45.612 45.527 45.44 45.36 45.275 45.175 45.075 44.975 44.898 44.843 44.785 44.72 44.637 44.54 44.44 44.342 44.237 44.125 44.012 43.898 43.793 43.703 43.62 43.53 43.445 43.375 43.3 43.222 43.147 43.075 43.002 42.922 42.842 42.77 42.697 42.625 42.56 42.5 42.442 42.385 42.307 42.207 42.103 42.01 42 42.055 42.107 42.16 42.207 42.24 42.265 42.29 42.31 42.348 42.402 42.46 42.522 42.587 42.652 42.72 42.78 42.825 42.865 42.908 42.975 43.073 43.175 43.28 43.355 43.398 43.443 43.488 43.545 43.615 43.683 43.75 43.8 43.828 43.853 43.885 43.923 43.958 43.993 44.028 44.083 44.158 44.235 44.302 44.33 44.333 44.34 44.363 44.403 44.448 44.493 44.53 44.54 44.528 44.515 44.515 44.53 44.548
24.467 24.72 25.003 25.297 25.583 25.868 26.173 26.5 26.83 27.163 27.495 27.825 28.155 28.493 28.905 29.388 29.873 30.353 30.815 31.26 31.7 32.14 32.623 33.168 33.735 34.302 34.855 35.395 35.938 36.482 37.025 37.56 38.098 38.65 39.208 39.765 40.3 40.782 41.2 41.61 42.063 42.522 42.947 43.342 43.737 44.087 44.323 44.543 44.815 45.073 45.255 45.255 45.253 45.407 45.6 45.79 45.975 46.16 46.355 46.548 47.328 49.098 50.85 51.487 51.43 51.365 51.235 51.05 50.865 50.685 50.525 50.53 50.75 50.997 51.085 51.11 51.167 51.005 50.725 50.357 49.775 49.153 48.553 48.075 47.753 47.533 47.377 47.195 46.965 46.775 46.617 46.42 46.222 46.075 45.972 45.885 45.792 45.702 45.615 45.525 45.432 45.34 45.245 45.143 45.043 44.958 44.893 44.84 44.785 44.715 44.627 44.53 44.432 44.34 44.237 44.125 44.013 43.9 43.803 43.718 43.635 43.555 43.477 43.405 43.333 43.262 43.192 43.12 43.047 42.975 42.912 42.85 42.777 42.702 42.63 42.567 42.51 42.45 42.367 42.265 42.16 42.065 42.053 42.105 42.155 42.205 42.25 42.28 42.305 42.33 42.363 42.417 42.48 42.54 42.6 42.662 42.727 42.792 42.845 42.885 42.927 42.973 43.04 43.138 43.243 43.345 43.417 43.463 43.508 43.558 43.62 43.69 43.755 43.81 43.855 43.888 43.915 43.943 43.973 44.008 44.04 44.073 44.13 44.208 44.285 44.347 44.37 44.372 44.378 44.393 44.43 44.475 44.518 44.563 44.58 44.568 44.555 44.545 44.55 44.57
24.735 25.01 25.31 25.622 25.917 26.203 26.508 26.835 27.168 27.503 27.835 28.165 28.505 28.863 29.293 29.795 30.297 30.787 31.252 31.697 32.135 32.565 33.03 33.558 34.118 34.685 35.235 35.765 36.3 36.84 37.38 37.933 38.503 39.09 39.672 40.212 40.692 41.125 41.515 41.89 42.308 42.76 43.185 43.58 43.985 44.33 44.475 44.558 44.765 45.015 45.175 45.267 45.34 45.447 45.625 45.805 45.975 46.138 46.363 46.768 48.031 50.132 51.469 51.65 51.537 51.402 51.247 51.087 50.915 50.733 50.595 50.58 50.718 50.945 51.055 51.108 51.215 51.27 51.262 51.092 50.74 50.3 49.797 49.24 48.66 47.945 47.358 47.018 46.768 46.645 46.5 46.32 46.163 46.05 45.96 45.867 45.772 45.68 45.587 45.493 45.4 45.307 45.21 45.11 45.025 44.963 44.908 44.852 44.787 44.705 44.61 44.51 44.418 44.33 44.232 44.123 44.01 43.913 43.828 43.743 43.66 43.58 43.503 43.43 43.363 43.297 43.228 43.155 43.083 43.013 42.96 42.915 42.852 42.778 42.7 42.628 42.565 42.505 42.42 42.315 42.21 42.115 42.098 42.145 42.195 42.245 42.287 42.318 42.345 42.37 42.408 42.47 42.535 42.595 42.658 42.72 42.785 42.85 42.9 42.94 42.985 43.035 43.108 43.205 43.31 43.415 43.49 43.538 43.588 43.645 43.71 43.78 43.837 43.875 43.915 43.957 43.992 44.02 44.048 44.083 44.115 44.145 44.198 44.275 44.345 44.39 44.407 44.41 44.418 44.44 44.478 44.522 44.568 44.617 44.637 44.625 44.615 44.605 44.61 44.63
25.023 25.305 25.608 25.93 26.242 26.538 26.843 27.173 27.51 27.847 28.18 28.518 28.878 29.25 29.678 30.188 30.712 31.22 31.69 32.127 32.557 32.985 33.453 33.973 34.513 35.068 35.615 36.148 36.685 37.22 37.758 38.33 38.93 39.532 40.107 40.602 41.035 41.452 41.84 42.2 42.578 43.003 43.425 43.825 44.24 44.6 44.735 44.723 44.798 44.99 45.15 45.233 45.318 45.433 45.59 45.755 45.91 46.06 46.378 47.288 49.043 50.914 51.709 51.672 51.57 51.427 51.253 51.095 50.947 50.778 50.668 50.675 50.745 50.91 51.04 51.097 51.16 51.185 51.2 51.215 51.19 51.032 50.722 50.447 50.057 48.892 47.488 46.78 46.585 46.512 46.38 46.223 46.11 46.02 45.93 45.835 45.74 45.647 45.553 45.46 45.367 45.272 45.175 45.09 45.03 44.977 44.925 44.86 44.775 44.685 44.59 44.495 44.408 44.32 44.225 44.123 44.025 43.943 43.862 43.775 43.688 43.605 43.53 43.463 43.397 43.332 43.265 43.192 43.118 43.05 43.003 42.967 42.92 42.852 42.775 42.695 42.623 42.557 42.47 42.365 42.26 42.168 42.15 42.193 42.238 42.285 42.325 42.355 42.385 42.41 42.45 42.515 42.585 42.65 42.713 42.778 42.842 42.907 42.96 43.003 43.05 43.1 43.175 43.275 43.378 43.482 43.562 43.618 43.675 43.735 43.8 43.86 43.9 43.93 43.97 44.017 44.06 44.095 44.125 44.158 44.19 44.22 44.27 44.335 44.385 44.422 44.442 44.45 44.465 44.488 44.523 44.57 44.623 44.68 44.702 44.688 44.675 44.665 44.67 44.695
25.32 25.6 25.903 26.228 26.55 26.863 27.18 27.513 27.85 28.19 28.535 28.893 29.265 29.643 30.07 30.58 31.118 31.647 32.127 32.555 32.978 33.403 33.873 34.395 34.928 35.47 36.008 36.54 37.08 37.618 38.158 38.725 39.325 39.935 40.497 40.96 41.373 41.782 42.165 42.522 42.88 43.263 43.668 44.08 44.5 44.87 45.015 44.985 44.97 45.028 45.128 45.21 45.295 45.393 45.523 45.675 45.822 45.97 46.508 47.87 49.977 51.392 51.64 51.67 51.602 51.452 51.263 51.09 50.95 50.787 50.718 50.77 50.818 50.908 51.002 51.047 51.075 51.098 51.118 51.14 51.17 51.155 51.002 50.98 50.622 49.339 47.725 46.69 46.428 46.38 46.28 46.168 46.08 45.99 45.9 45.805 45.707 45.612 45.517 45.425 45.33 45.237 45.155 45.09 45.037 44.985 44.93 44.852 44.76 44.668 44.575 44.487 44.4 44.31 44.22 44.132 44.052 43.975 43.892 43.807 43.72 43.632 43.557 43.495 43.432 43.367 43.3 43.227 43.153 43.088 43.045 43.01 42.97 42.92 42.85 42.767 42.688 42.612 42.52 42.415 42.31 42.22 42.205 42.245 42.285 42.325 42.36 42.39 42.42 42.448 42.49 42.558 42.632 42.702 42.767 42.832 42.897 42.962 43.017 43.067 43.12 43.17 43.245 43.345 43.445 43.547 43.635 43.702 43.765 43.825 43.88 43.92 43.95 43.983 44.023 44.07 44.118 44.165 44.205 44.235 44.265 44.295 44.335 44.378 44.415 44.455 44.48 44.495 44.515 44.535 44.57 44.623 44.683 44.742 44.762 44.748 44.735 44.723 44.73 44.77
25.58 25.868 26.2 26.547 26.87 27.193 27.523 27.858 28.195 28.563 28.955 29.338 29.715 30.095 30.513 31.005 31.54 32.08 32.565 32.993 33.415 33.835 34.308 34.835 35.37 35.908 36.428 36.945 37.48 38.02 38.56 39.118 39.708 40.315 40.87 41.32 41.725 42.115 42.477 42.832 43.19 43.56 43.955 44.368 44.78 45.172 45.365 45.373 45.327 45.21 45.168 45.238 45.32 45.388 45.47 45.588 45.71 45.923 46.898 48.675 50.616 51.552 51.552 51.65 51.632 51.472 51.275 51.09 50.86 50.65 50.67 50.792 50.855 50.907 50.958 50.99 51.013 51.035 51.063 51.093 51.115 51.137 51.107 51.032 50.222 48.685 47.365 46.585 46.338 46.278 46.197 46.107 46.02 45.925 45.832 45.74 45.642 45.547 45.452 45.357 45.262 45.18 45.117 45.062 45.007 44.952 44.897 44.832 44.75 44.655 44.563 44.475 44.387 44.3 44.215 44.135 44.057 43.98 43.902 43.822 43.735 43.647 43.573 43.51 43.45 43.392 43.327 43.255 43.185 43.125 43.085 43.05 43.01 42.975 42.915 42.827 42.745 42.662 42.57 42.467 42.363 42.275 42.253 42.285 42.322 42.357 42.39 42.42 42.45 42.478 42.528 42.605 42.68 42.75 42.82 42.885 42.947 43.01 43.067 43.122 43.177 43.235 43.315 43.417 43.52 43.617 43.702 43.772 43.837 43.9 43.952 43.99 44.018 44.05 44.095 44.148 44.203 44.258 44.3 44.33 44.36 44.39 44.42 44.45 44.483 44.515 44.545 44.568 44.585 44.605 44.64 44.698 44.765 44.825 44.84 44.823 44.808 44.79 44.803 44.855
25.803 26.108 26.472 26.865 27.212 27.538 27.868 28.208 28.578 29 29.432 29.84 30.23 30.61 31.015 31.473 31.983 32.517 33.002 33.435 33.862 34.29 34.768 35.295 35.83 36.365 36.873 37.365 37.883 38.42 38.963 39.52 40.098 40.695 41.24 41.68 42.07 42.43 42.775 43.13 43.5 43.89 44.29 44.695 45.075 45.472 45.805 45.855 45.683 45.435 45.285 45.313 45.38 45.42 45.465 45.545 45.645 46.028 47.135 48.707 50.102 50.889 51.305 51.622 51.65 51.488 51.292 50.922 50.308 50.183 50.51 50.702 50.822 50.887 50.932 50.96 50.98 50.995 51.025 51.07 51.102 51.123 51.14 50.807 49.49 47.855 46.87 46.43 46.275 46.192 46.107 46.02 45.925 45.82 45.725 45.64 45.547 45.45 45.355 45.263 45.178 45.11 45.053 44.998 44.943 44.888 44.84 44.797 44.735 44.645 44.55 44.46 44.372 44.285 44.2 44.12 44.04 43.96 43.89 43.82 43.737 43.653 43.578 43.515 43.46 43.412 43.352 43.28 43.218 43.165 43.125 43.09 43.055 43.03 42.97 42.875 42.79 42.707 42.617 42.52 42.42 42.338 42.308 42.323 42.35 42.385 42.422 42.452 42.48 42.503 42.558 42.647 42.727 42.8 42.87 42.935 42.995 43.055 43.112 43.168 43.228 43.3 43.39 43.495 43.597 43.69 43.767 43.83 43.893 43.958 44.02 44.072 44.107 44.138 44.188 44.252 44.315 44.37 44.41 44.44 44.47 44.5 44.53 44.56 44.588 44.61 44.64 44.672 44.693 44.713 44.748 44.803 44.868 44.927 44.945 44.925 44.908 44.895 44.908 44.948
26.04 26.355 26.715 27.127 27.53 27.882 28.22 28.595 29.018 29.465 29.9 30.322 30.735 31.125 31.533 31.975 32.445 32.955 33.437 33.873 34.305 34.745 35.233 35.76 36.29 36.82 37.327 37.81 38.303 38.823 39.365 39.925 40.495 41.077 41.607 42.027 42.387 42.73 43.067 43.43 43.827 44.23 44.63 45 45.31 45.72 46.552 46.855 46.326 45.798 45.461 45.393 45.42 45.45 45.483 45.54 45.73 46.222 46.917 47.553 48.4 49.325 50.197 51.085 51.54 51.537 51.245 50.32 49.536 49.833 50.31 50.535 50.73 50.85 50.907 50.932 50.945 50.955 50.985 51.037 51.09 51.13 51.122 50.395 48.753 47.441 46.87 46.518 46.25 46.098 46.012 45.922 45.82 45.71 45.613 45.532 45.45 45.355 45.26 45.178 45.11 45.05 44.99 44.932 44.877 44.823 44.778 44.745 44.705 44.632 44.54 44.45 44.36 44.27 44.185 44.103 44.02 43.94 43.87 43.805 43.735 43.657 43.585 43.528 43.48 43.435 43.378 43.313 43.255 43.208 43.168 43.135 43.11 43.087 43.027 42.93 42.835 42.75 42.662 42.57 42.475 42.398 42.373 42.38 42.395 42.42 42.455 42.485 42.505 42.523 42.58 42.677 42.767 42.85 42.922 42.985 43.042 43.1 43.158 43.22 43.293 43.375 43.47 43.57 43.665 43.755 43.83 43.89 43.95 44.013 44.075 44.137 44.192 44.23 44.28 44.352 44.422 44.48 44.52 44.55 44.58 44.61 44.64 44.667 44.69 44.71 44.74 44.78 44.812 44.838 44.873 44.923 44.978 45.035 45.055 45.04 45.033 45.03 45.04 45.06
26.29 26.605 26.958 27.365 27.795 28.2 28.598 29.03 29.48 29.93 30.365 30.787 31.21 31.62 32.045 32.495 32.945 33.415 33.878 34.318 34.758 35.223 35.73 36.25 36.768 37.285 37.785 38.265 38.745 39.24 39.768 40.325 40.895 41.467 41.96 42.335 42.67 43.002 43.33 43.708 44.137 44.55 44.917 45.217 45.48 46.153 47.617 48.482 48.015 47.19 46.573 46.148 45.766 45.605 45.603 45.6 45.76 46.147 46.577 46.778 47.048 47.741 48.913 50.48 51.474 51.529 50.897 49.471 49.083 49.807 50.113 50.338 50.56 50.755 50.867 50.9 50.91 50.923 50.953 50.998 51.043 51.09 50.897 49.822 48.298 47.438 47.067 46.707 46.345 46.065 45.915 45.813 45.708 45.6 45.5 45.417 45.34 45.255 45.173 45.105 45.045 44.985 44.927 44.87 44.812 44.757 44.713 44.68 44.652 44.607 44.53 44.44 44.347 44.255 44.17 44.085 44 43.92 43.85 43.785 43.72 43.652 43.592 43.547 43.502 43.457 43.407 43.35 43.295 43.247 43.21 43.185 43.165 43.142 43.085 42.99 42.89 42.795 42.705 42.615 42.523 42.455 42.44 42.45 42.458 42.468 42.488 42.51 42.528 42.545 42.603 42.697 42.792 42.885 42.962 43.025 43.082 43.142 43.21 43.285 43.367 43.452 43.542 43.635 43.725 43.815 43.89 43.95 44.01 44.07 44.13 44.193 44.255 44.31 44.373 44.448 44.52 44.585 44.63 44.663 44.695 44.723 44.748 44.77 44.79 44.813 44.843 44.88 44.923 44.96 45 45.05 45.1 45.15 45.172 45.17 45.17 45.17 45.18 45.195
26.59 26.903 27.24 27.633 28.06 28.493 28.955 29.425 29.88 30.337 30.795 31.235 31.655 32.075 32.527 32.995 33.445 33.895 34.343 34.788 35.253 35.76 36.28 36.79 37.3 37.825 38.33 38.8 39.273 39.75 40.235 40.758 41.323 41.885 42.302 42.603 42.92 43.245 43.578 43.968 44.402 44.772 45.05 45.278 45.655 46.785 48.572 49.817 49.889 49.324 48.607 47.83 47.013 46.391 46.058 45.858 45.823 45.933 46.218 46.435 46.523 46.953 48.068 49.657 50.689 50.747 49.932 48.911 49.208 49.922 50.115 50.343 50.568 50.707 50.807 50.885 50.895 50.908 50.943 50.998 51.04 51.077 50.495 49.015 47.783 47.265 46.93 46.575 46.242 45.98 45.815 45.705 45.598 45.495 45.395 45.303 45.223 45.145 45.075 45.017 44.962 44.905 44.852 44.8 44.74 44.682 44.637 44.605 44.577 44.55 44.497 44.415 44.32 44.225 44.14 44.057 43.972 43.887 43.815 43.75 43.685 43.622 43.572 43.535 43.492 43.45 43.405 43.35 43.298 43.263 43.24 43.22 43.2 43.18 43.127 43.035 42.935 42.835 42.74 42.65 42.565 42.51 42.5 42.507 42.512 42.517 42.528 42.543 42.557 42.57 42.62 42.71 42.802 42.897 42.977 43.042 43.105 43.175 43.255 43.335 43.42 43.505 43.597 43.697 43.79 43.877 43.95 44.01 44.07 44.13 44.193 44.255 44.318 44.383 44.462 44.547 44.62 44.69 44.75 44.792 44.825 44.853 44.873 44.888 44.9 44.918 44.948 44.99 45.043 45.093 45.14 45.19 45.237 45.277 45.305 45.315 45.318 45.32 45.328 45.343
26.947 27.26 27.585 27.948 28.355 28.788 29.258 29.75 30.22 30.68 31.16 31.64 32.08 32.503 32.97 33.465 33.93 34.38 34.828 35.29 35.795 36.325 36.847 37.36 37.878 38.43 38.957 39.428 39.898 40.373 40.828 41.283 41.798 42.312 42.655 42.885 43.165 43.483 43.83 44.227 44.6 44.877 45.105 45.303 45.978 47.498 49.365 50.534 50.704 50.517 50.129 49.657 48.94 48.042 47.313 46.726 46.368 46.233 46.34 46.398 46.445 46.758 47.345 48.228 48.868 48.975 48.771 49.043 49.867 50.242 50.333 50.555 50.717 50.64 50.7 50.887 50.895 50.905 50.945 51.02 51.082 50.967 49.967 48.21 47.093 46.783 46.52 46.213 45.985 45.828 45.71 45.603 45.5 45.408 45.31 45.203 45.11 45.03 44.963 44.907 44.852 44.797 44.75 44.707 44.655 44.595 44.55 44.52 44.493 44.47 44.432 44.367 44.282 44.188 44.1 44.02 43.932 43.838 43.763 43.702 43.638 43.575 43.525 43.485 43.448 43.41 43.365 43.315 43.28 43.27 43.26 43.24 43.22 43.197 43.145 43.062 42.967 42.865 42.77 42.685 42.613 42.563 42.548 42.552 42.558 42.563 42.573 42.585 42.592 42.595 42.635 42.72 42.81 42.902 42.982 43.05 43.12 43.2 43.285 43.368 43.452 43.538 43.64 43.755 43.855 43.942 44.012 44.07 44.133 44.195 44.26 44.325 44.39 44.455 44.54 44.642 44.727 44.8 44.867 44.922 44.965 44.997 45.015 45.025 45.033 45.043 45.073 45.125 45.185 45.24 45.29 45.337 45.377 45.407 45.435 45.46 45.472 45.475 45.483 45.498
27.28 27.622 27.958 28.305 28.675 29.083 29.545 30.052 30.55 31.022 31.505 32.005 32.485 32.927 33.395 33.907 34.402 34.865 35.328 35.828 36.355 36.888 37.415 37.93 38.465 39.04 39.582 40.067 40.547 41.03 41.482 41.9 42.337 42.74 43.015 43.22 43.445 43.725 44.075 44.43 44.708 44.943 45.198 45.55 46.605 48.355 50.007 50.802 50.817 50.727 50.652 50.567 50.179 49.45 48.887 48.412 47.725 47.323 47.228 46.99 46.9 46.975 47 47.26 47.65 47.938 48.39 49.297 50.209 50.547 50.605 50.725 50.687 50.433 50.588 50.895 50.9 50.908 50.945 51.022 51.1 50.657 49.285 47.593 46.63 46.383 46.183 45.99 45.85 45.722 45.605 45.505 45.417 45.332 45.235 45.12 45.008 44.913 44.845 44.79 44.73 44.673 44.628 44.595 44.557 44.505 44.463 44.438 44.413 44.39 44.355 44.302 44.237 44.15 44.06 43.975 43.882 43.785 43.708 43.65 43.587 43.525 43.475 43.438 43.405 43.372 43.333 43.3 43.29 43.29 43.28 43.26 43.237 43.207 43.152 43.077 42.992 42.895 42.805 42.733 42.67 42.618 42.595 42.598 42.603 42.608 42.615 42.622 42.622 42.62 42.655 42.733 42.82 42.91 42.99 43.065 43.148 43.235 43.32 43.403 43.485 43.57 43.675 43.795 43.907 44.005 44.077 44.135 44.2 44.265 44.33 44.395 44.46 44.525 44.61 44.72 44.822 44.905 44.972 45.035 45.092 45.137 45.16 45.17 45.18 45.19 45.22 45.275 45.335 45.39 45.437 45.475 45.505 45.53 45.558 45.592 45.617 45.625 45.635 45.653
27.565 27.957 28.322 28.677 29.03 29.398 29.838 30.343 30.855 31.355 31.85 32.35 32.85 33.33 33.818 34.335 34.85 35.352 35.86 36.385 36.917 37.452 37.98 38.508 39.067 39.64 40.155 40.627 41.102 41.575 42.012 42.415 42.787 43.075 43.302 43.522 43.74 43.985 44.305 44.642 44.95 45.255 45.575 46.065 47.39 49.28 50.467 50.78 50.79 50.762 50.705 50.642 50.49 49.98 49.692 49.759 49.494 48.95 48.438 48.063 47.772 47.46 47.155 47.063 47.193 47.553 48.057 48.685 49.427 50.022 50.379 50.582 50.457 50.198 50.488 50.877 50.907 50.913 50.938 51 51.035 50.262 48.598 47.108 46.383 46.138 45.968 45.847 45.725 45.61 45.505 45.415 45.335 45.25 45.155 45.042 44.92 44.808 44.728 44.67 44.61 44.55 44.503 44.473 44.448 44.415 44.383 44.36 44.338 44.315 44.277 44.225 44.172 44.105 44.02 43.925 43.827 43.733 43.655 43.595 43.535 43.478 43.43 43.395 43.365 43.335 43.313 43.307 43.31 43.312 43.302 43.28 43.255 43.217 43.16 43.085 43.008 42.925 42.848 42.785 42.725 42.67 42.645 42.645 42.65 42.655 42.655 42.653 42.648 42.643 42.675 42.75 42.835 42.925 43.008 43.09 43.18 43.272 43.357 43.435 43.515 43.6 43.705 43.825 43.948 44.06 44.14 44.202 44.268 44.333 44.4 44.468 44.533 44.598 44.685 44.795 44.905 44.997 45.067 45.13 45.187 45.242 45.277 45.292 45.307 45.322 45.357 45.415 45.475 45.532 45.575 45.602 45.627 45.65 45.68 45.715 45.747 45.772 45.79 45.81
27.86 28.277 28.665 29.025 29.382 29.743 30.17 30.673 31.19 31.703 32.205 32.705 33.205 33.705 34.212 34.73 35.25 35.78 36.325 36.877 37.435 37.99 38.535 39.075 39.622 40.16 40.637 41.065 41.505 41.967 42.392 42.777 43.077 43.282 43.5 43.737 43.972 44.217 44.48 44.795 45.165 45.542 45.915 46.603 48.18 49.917 50.65 50.74 50.77 50.777 50.74 50.69 50.64 50.228 49.968 50.235 50.452 50.222 49.705 49.407 48.655 47.783 47.485 47.293 47.158 47.203 47.343 47.521 47.936 48.58 49.195 49.677 49.927 49.967 50.355 50.82 50.91 50.917 50.935 50.975 50.792 49.697 47.938 46.668 46.16 45.95 45.8 45.685 45.572 45.47 45.377 45.292 45.21 45.135 45.057 44.952 44.83 44.713 44.623 44.56 44.5 44.448 44.408 44.38 44.36 44.34 44.315 44.288 44.265 44.245 44.205 44.15 44.1 44.045 43.967 43.87 43.77 43.675 43.6 43.54 43.48 43.428 43.39 43.36 43.33 43.3 43.29 43.3 43.307 43.317 43.31 43.285 43.262 43.23 43.18 43.112 43.038 42.963 42.895 42.835 42.78 42.74 42.718 42.713 42.718 42.72 42.713 42.698 42.688 42.683 42.708 42.778 42.863 42.95 43.037 43.125 43.213 43.3 43.402 43.5 43.578 43.66 43.765 43.888 44.01 44.117 44.197 44.265 44.33 44.395 44.47 44.545 44.612 44.678 44.765 44.875 44.98 45.067 45.135 45.195 45.252 45.307 45.345 45.365 45.387 45.417 45.462 45.52 45.582 45.645 45.687 45.715 45.745 45.772 45.802 45.835 45.87 45.905 45.925 45.94
28.185 28.605 28.995 29.355 29.723 30.108 30.55 31.055 31.57 32.072 32.57 33.07 33.57 34.07 34.578 35.092 35.608 36.135 36.69 37.265 37.845 38.44 39.032 39.577 40.092 40.607 41.092 41.49 41.873 42.32 42.747 43.087 43.305 43.47 43.683 43.92 44.163 44.42 44.65 44.875 45.185 45.555 45.968 47.083 48.942 50.182 50.547 50.7 50.782 50.807 50.778 50.743 50.742 50.425 50.243 50.497 50.652 50.712 50.467 50.037 48.972 47.945 47.755 47.642 47.547 47.445 47.31 47.25 47.326 47.431 47.651 48.153 48.795 49.27 49.82 50.462 50.732 50.76 50.79 50.827 50.365 48.985 47.235 46.22 45.965 45.778 45.628 45.515 45.41 45.313 45.223 45.138 45.063 45.003 44.935 44.842 44.73 44.615 44.528 44.465 44.413 44.378 44.35 44.325 44.303 44.28 44.255 44.225 44.198 44.175 44.135 44.08 44.03 43.977 43.902 43.807 43.71 43.613 43.535 43.478 43.425 43.38 43.35 43.327 43.3 43.27 43.26 43.27 43.285 43.305 43.302 43.28 43.26 43.237 43.2 43.142 43.075 43.005 42.94 42.888 42.855 42.84 42.82 42.803 42.8 42.8 42.79 42.768 42.748 42.74 42.763 42.82 42.898 42.983 43.07 43.16 43.24 43.315 43.435 43.575 43.672 43.753 43.858 43.98 44.085 44.17 44.247 44.32 44.388 44.455 44.535 44.62 44.695 44.763 44.848 44.952 45.047 45.125 45.19 45.247 45.305 45.36 45.395 45.418 45.45 45.495 45.548 45.605 45.67 45.735 45.78 45.813 45.848 45.887 45.925 45.955 45.987 46.022 46.04 46.045
28.485 28.925 29.325 29.7 30.088 30.49 30.94 31.44 31.942 32.438 32.935 33.435 33.935 34.433 34.94 35.455 35.963 36.485 37.04 37.633 38.245 38.875 39.487 40.03 40.54 41.052 41.552 41.952 42.285 42.683 43.077 43.337 43.493 43.655 43.868 44.105 44.358 44.625 44.86 45.05 45.268 45.575 46.231 47.785 49.482 50.195 50.385 50.575 50.735 50.822 50.825 50.805 50.807 50.593 50.518 50.715 50.755 50.695 50.405 49.637 48.61 48.055 47.957 47.86 47.75 47.63 47.51 47.615 47.73 47.373 47.071 47.173 47.42 47.848 48.485 49.252 49.827 50.02 50.082 50.38 49.904 48.27 46.633 45.85 45.75 45.605 45.458 45.35 45.25 45.155 45.068 44.993 44.935 44.88 44.81 44.725 44.625 44.515 44.433 44.385 44.35 44.325 44.302 44.277 44.25 44.223 44.195 44.165 44.133 44.105 44.065 44.01 43.96 43.91 43.837 43.743 43.647 43.55 43.473 43.42 43.375 43.335 43.308 43.29 43.267 43.24 43.23 43.245 43.27 43.297 43.297 43.278 43.26 43.24 43.205 43.152 43.097 43.04 42.993 42.965 42.953 42.947 42.93 42.905 42.888 42.883 42.872 42.845 42.818 42.803 42.825 42.878 42.94 43.018 43.102 43.185 43.257 43.328 43.445 43.605 43.745 43.845 43.947 44.055 44.137 44.215 44.295 44.37 44.443 44.515 44.595 44.685 44.77 44.845 44.93 45.025 45.107 45.18 45.245 45.3 45.355 45.412 45.45 45.48 45.525 45.575 45.63 45.693 45.76 45.825 45.872 45.91 45.95 45.998 46.042 46.075 46.105 46.14 46.16 46.158
28.75 29.22 29.66 30.072 30.475 30.88 31.325 31.813 32.308 32.805 33.303 33.803 34.305 34.803 35.308 35.82 36.328 36.853 37.43 38.063 38.712 39.36 39.955 40.48 40.99 41.5 42.01 42.425 42.742 43.075 43.362 43.545 43.68 43.84 44.053 44.298 44.56 44.83 45.072 45.27 45.445 45.64 46.698 48.775 50.12 50.405 50.545 50.675 50.783 50.852 50.872 50.87 50.87 50.768 50.745 50.767 50.61 50.37 50.055 49.16 48.278 48.055 47.932 47.81 47.675 47.53 47.385 47.515 47.835 47.652 47.242 46.98 46.71 46.706 46.978 47.505 48.205 48.697 49.077 49.714 49.272 47.535 46.205 45.675 45.553 45.425 45.293 45.193 45.095 45 44.923 44.863 44.81 44.757 44.69 44.602 44.507 44.413 44.348 44.317 44.292 44.27 44.25 44.225 44.195 44.167 44.137 44.105 44.07 44.037 43.997 43.945 43.893 43.84 43.77 43.677 43.583 43.488 43.418 43.372 43.33 43.29 43.263 43.245 43.227 43.208 43.205 43.23 43.26 43.287 43.29 43.275 43.26 43.242 43.21 43.163 43.115 43.068 43.048 43.052 43.055 43.052 43.037 43.015 42.99 42.972 42.955 42.925 42.893 42.868 42.888 42.942 42.998 43.06 43.132 43.203 43.27 43.34 43.455 43.615 43.775 43.915 44.022 44.107 44.185 44.263 44.34 44.417 44.495 44.573 44.655 44.745 44.835 44.92 45.005 45.087 45.163 45.235 45.297 45.353 45.408 45.465 45.512 45.555 45.605 45.655 45.71 45.775 45.842 45.907 45.962 46.01 46.06 46.11 46.155 46.19 46.222 46.257 46.277 46.275
29.025 29.505 29.99 30.45 30.865 31.27 31.713 32.195 32.688 33.185 33.683 34.183 34.685 35.185 35.698 36.215 36.725 37.263 37.87 38.522 39.175 39.827 40.39 40.89 41.422 41.947 42.462 42.887 43.167 43.375 43.555 43.72 43.867 44.028 44.243 44.5 44.77 45.04 45.267 45.422 45.545 45.933 47.45 49.669 50.737 50.797 50.842 50.877 50.89 50.892 50.9 50.907 50.915 50.892 50.815 50.632 50.368 50.103 49.66 48.75 48.085 47.95 47.805 47.66 47.515 47.37 47.225 47.193 47.487 47.5 47.127 46.862 46.565 46.335 46.24 46.343 46.64 47.068 47.688 48.352 48.117 46.805 45.848 45.575 45.405 45.255 45.143 45.048 44.95 44.855 44.785 44.732 44.68 44.63 44.565 44.477 44.385 44.3 44.25 44.227 44.205 44.185 44.162 44.137 44.112 44.095 44.072 44.037 44.003 43.972 43.935 43.882 43.827 43.772 43.702 43.612 43.517 43.423 43.355 43.315 43.275 43.235 43.207 43.19 43.175 43.173 43.188 43.215 43.245 43.27 43.272 43.257 43.242 43.23 43.215 43.182 43.138 43.095 43.085 43.105 43.125 43.14 43.132 43.11 43.085 43.057 43.027 42.995 42.962 42.935 42.948 42.998 43.052 43.108 43.168 43.23 43.293 43.358 43.473 43.635 43.798 43.957 44.075 44.155 44.232 44.308 44.385 44.465 44.545 44.625 44.71 44.802 44.892 44.98 45.07 45.15 45.225 45.297 45.355 45.408 45.46 45.515 45.57 45.62 45.67 45.72 45.775 45.84 45.905 45.965 46.02 46.075 46.13 46.185 46.235 46.27 46.302 46.335 46.375 46.405
29.315 29.798 30.297 30.797 31.247 31.66 32.105 32.593 33.085 33.578 34.075 34.575 35.075 35.575 36.095 36.627 37.143 37.693 38.315 38.965 39.615 40.267 40.797 41.245 41.77 42.317 42.84 43.222 43.41 43.52 43.665 43.852 44.025 44.202 44.42 44.665 44.915 45.165 45.355 45.442 45.496 46.416 48.47 50.242 50.877 50.905 50.907 50.91 50.91 50.91 50.915 50.925 50.932 50.925 50.79 50.54 50.29 50.04 49.412 48.458 47.925 47.777 47.64 47.5 47.355 47.21 47.065 46.935 47.167 47.22 46.868 46.667 46.445 46.208 46.06 45.963 45.89 45.993 46.295 46.63 46.805 46.25 45.595 45.417 45.248 45.11 45.005 44.912 44.815 44.72 44.648 44.595 44.545 44.495 44.432 44.352 44.265 44.18 44.13 44.112 44.095 44.075 44.05 44.025 44.013 44.01 43.995 43.963 43.933 43.91 43.872 43.818 43.762 43.702 43.63 43.542 43.45 43.358 43.29 43.25 43.21 43.17 43.143 43.128 43.125 43.145 43.173 43.2 43.227 43.25 43.247 43.223 43.205 43.195 43.197 43.195 43.165 43.123 43.113 43.135 43.165 43.202 43.207 43.185 43.16 43.13 43.095 43.058 43.025 43.003 43.01 43.048 43.098 43.155 43.213 43.27 43.338 43.418 43.53 43.678 43.838 43.995 44.112 44.197 44.277 44.355 44.433 44.513 44.595 44.678 44.765 44.857 44.945 45.028 45.12 45.212 45.292 45.362 45.417 45.463 45.513 45.567 45.62 45.67 45.72 45.77 45.825 45.888 45.947 46 46.05 46.105 46.165 46.23 46.282 46.317 46.347 46.375 46.435 46.515
29.602 30.09 30.59 31.105 31.602 32.047 32.498 32.99 33.485 33.975 34.47 34.967 35.465 35.965 36.485 37.025 37.553 38.123 38.76 39.41 40.055 40.692 41.212 41.62 42.078 42.605 43.075 43.35 43.497 43.618 43.765 43.952 44.13 44.307 44.512 44.737 44.965 45.185 45.342 45.413 45.696 47.14 49.414 50.634 50.83 50.905 50.915 50.922 50.925 50.925 50.93 50.935 50.927 50.907 50.775 50.53 50.278 49.962 49.385 48.443 47.773 47.59 47.462 47.332 47.192 47.05 46.905 46.76 46.915 46.925 46.6 46.425 46.27 46.065 45.9 45.813 45.748 45.733 45.743 45.745 45.863 45.795 45.465 45.238 45.098 44.975 44.868 44.775 44.68 44.585 44.513 44.46 44.41 44.36 44.3 44.225 44.14 44.058 44.013 43.997 43.98 43.96 43.938 43.923 43.925 43.932 43.92 43.892 43.868 43.845 43.807 43.752 43.695 43.63 43.553 43.467 43.38 43.29 43.225 43.185 43.145 43.107 43.083 43.08 43.1 43.13 43.157 43.185 43.21 43.23 43.225 43.195 43.17 43.155 43.16 43.177 43.18 43.15 43.14 43.17 43.21 43.255 43.267 43.25 43.227 43.2 43.165 43.125 43.088 43.065 43.078 43.11 43.15 43.203 43.258 43.325 43.415 43.52 43.63 43.75 43.89 44.037 44.15 44.233 44.318 44.403 44.483 44.563 44.648 44.733 44.82 44.91 44.995 45.075 45.165 45.265 45.355 45.427 45.48 45.523 45.57 45.62 45.67 45.72 45.77 45.82 45.875 45.932 45.983 46.03 46.08 46.138 46.208 46.28 46.33 46.362 46.392 46.418 46.473 46.57
29.885 30.375 30.875 31.392 31.915 32.41 32.89 33.382 33.875 34.365 34.86 35.357 35.855 36.355 36.872 37.405 37.932 38.512 39.15 39.792 40.427 41.047 41.572 41.997 42.425 42.867 43.197 43.387 43.55 43.697 43.852 44.027 44.195 44.355 44.543 44.762 44.987 45.182 45.318 45.413 46.16 47.997 49.982 50.747 50.738 50.862 50.915 50.925 50.933 50.938 50.938 50.928 50.91 50.887 50.78 50.565 50.325 50.02 49.532 48.588 47.705 47.4 47.275 47.15 47.02 46.887 46.747 46.603 46.63 46.582 46.333 46.165 46.035 45.88 45.75 45.68 45.622 45.58 45.538 45.473 45.395 45.383 45.277 45.083 44.957 44.837 44.73 44.635 44.54 44.448 44.38 44.33 44.28 44.23 44.167 44.09 44.008 43.933 43.893 43.877 43.86 43.842 43.83 43.83 43.84 43.85 43.845 43.825 43.802 43.78 43.742 43.685 43.622 43.555 43.477 43.392 43.305 43.217 43.155 43.115 43.075 43.04 43.033 43.052 43.08 43.11 43.137 43.162 43.187 43.21 43.205 43.175 43.142 43.118 43.12 43.14 43.16 43.162 43.175 43.217 43.265 43.31 43.325 43.31 43.29 43.27 43.24 43.2 43.16 43.133 43.143 43.177 43.213 43.255 43.323 43.415 43.52 43.627 43.735 43.845 43.965 44.092 44.2 44.29 44.383 44.478 44.565 44.643 44.723 44.803 44.883 44.968 45.05 45.128 45.215 45.315 45.412 45.492 45.545 45.588 45.633 45.678 45.725 45.775 45.825 45.873 45.923 45.975 46.023 46.07 46.123 46.185 46.258 46.33 46.38 46.408 46.435 46.463 46.513 46.605
30.13 30.62 31.122 31.642 32.172 32.705 33.215 33.705 34.2 34.71 35.22 35.72 36.22 36.72 37.225 37.74 38.263 38.84 39.47 40.102 40.725 41.332 41.87 42.322 42.755 43.077 43.267 43.433 43.597 43.747 43.89 44.05 44.215 44.372 44.545 44.755 44.967 45.142 45.352 45.55 46.525 48.482 50.131 50.639 50.607 50.772 50.895 50.923 50.945 50.978 50.983 50.96 50.943 50.915 50.845 50.72 50.36 50.09 49.769 48.792 47.718 47.215 47.085 46.96 46.835 46.71 46.577 46.44 46.345 46.238 46.078 45.938 45.813 45.69 45.595 45.53 45.47 45.417 45.358 45.283 45.208 45.135 45.043 44.925 44.802 44.685 44.58 44.485 44.395 44.318 44.258 44.205 44.155 44.105 44.037 43.955 43.875 43.803 43.763 43.747 43.73 43.71 43.7 43.705 43.715 43.725 43.725 43.715 43.702 43.687 43.652 43.592 43.522 43.45 43.38 43.302 43.215 43.128 43.065 43.025 42.99 42.97 42.985 43.02 43.047 43.075 43.105 43.13 43.155 43.175 43.165 43.135 43.102 43.075 43.073 43.09 43.11 43.14 43.185 43.235 43.285 43.347 43.387 43.382 43.365 43.348 43.322 43.285 43.243 43.21 43.215 43.248 43.283 43.325 43.405 43.512 43.615 43.707 43.805 43.917 44.03 44.145 44.27 44.385 44.485 44.585 44.675 44.75 44.823 44.893 44.965 45.045 45.123 45.193 45.273 45.37 45.475 45.572 45.635 45.678 45.723 45.763 45.805 45.855 45.905 45.953 46 46.05 46.098 46.145 46.2 46.263 46.33 46.4 46.45 46.478 46.503 46.53 46.573 46.65
30.35 30.833 31.34 31.873 32.415 32.96 33.475 33.975 34.495 35.032 35.555 36.055 36.555 37.055 37.548 38.045 38.565 39.145 39.775 40.397 41.007 41.61 42.16 42.625 42.997 43.197 43.323 43.487 43.64 43.765 43.888 44.04 44.202 44.345 44.505 44.702 44.875 45.015 45.265 45.583 46.238 47.58 48.959 49.739 50.184 50.584 50.837 50.95 51.052 51.105 51.075 51.045 51.012 50.967 50.922 50.83 50.067 49.485 49.594 48.974 47.773 47.073 46.895 46.77 46.645 46.52 46.39 46.263 46.133 46 45.878 45.76 45.64 45.523 45.423 45.353 45.303 45.262 45.205 45.123 45.045 44.972 44.877 44.76 44.64 44.525 44.42 44.328 44.255 44.203 44.15 44.09 44.035 43.985 43.915 43.825 43.74 43.665 43.625 43.61 43.587 43.56 43.545 43.548 43.555 43.565 43.565 43.56 43.555 43.545 43.515 43.46 43.39 43.315 43.25 43.185 43.107 43.023 42.96 42.925 42.905 42.905 42.93 42.972 43.007 43.035 43.065 43.09 43.11 43.12 43.105 43.075 43.045 43.02 43.018 43.035 43.063 43.108 43.16 43.213 43.28 43.375 43.442 43.457 43.452 43.437 43.412 43.372 43.328 43.29 43.29 43.323 43.358 43.403 43.485 43.592 43.685 43.76 43.85 43.962 44.07 44.183 44.327 44.477 44.595 44.695 44.785 44.86 44.927 44.99 45.06 45.137 45.205 45.263 45.338 45.435 45.55 45.67 45.745 45.79 45.832 45.865 45.905 45.955 46.005 46.057 46.107 46.155 46.202 46.25 46.303 46.36 46.425 46.495 46.545 46.573 46.597 46.623 46.658 46.713
30.593 31.07 31.58 32.125 32.675 33.222 33.753 34.28 34.823 35.367 35.89 36.39 36.89 37.39 37.88 38.363 38.87 39.448 40.07 40.68 41.285 41.89 42.45 42.897 43.155 43.265 43.383 43.532 43.66 43.77 43.885 44.027 44.175 44.295 44.445 44.612 44.74 44.853 45.015 45.325 45.615 46.041 46.806 47.733 48.642 49.309 49.817 50.282 50.764 51.117 51.172 51.11 51.053 51.01 50.975 50.602 49.298 48.303 48.465 48.509 47.815 47.023 46.705 46.58 46.455 46.33 46.218 46.228 46.17 45.905 45.7 45.587 45.475 45.36 45.253 45.185 45.153 45.117 45.055 44.97 44.888 44.81 44.712 44.597 44.48 44.365 44.265 44.19 44.14 44.097 44.045 43.982 43.92 43.865 43.795 43.7 43.608 43.528 43.483 43.465 43.44 43.41 43.395 43.395 43.398 43.405 43.407 43.4 43.39 43.38 43.35 43.3 43.242 43.175 43.11 43.05 42.987 42.915 42.863 42.845 42.84 42.845 42.87 42.915 42.96 42.995 43.025 43.045 43.055 43.06 43.045 43.015 42.988 42.963 42.96 42.988 43.033 43.085 43.135 43.203 43.3 43.41 43.487 43.517 43.527 43.527 43.502 43.457 43.412 43.37 43.365 43.4 43.435 43.48 43.563 43.657 43.735 43.805 43.895 44.002 44.105 44.213 44.358 44.53 44.682 44.802 44.892 44.962 45.025 45.085 45.152 45.22 45.277 45.33 45.403 45.51 45.64 45.772 45.855 45.897 45.935 45.965 46.005 46.057 46.11 46.162 46.212 46.258 46.305 46.355 46.408 46.463 46.523 46.59 46.64 46.667 46.693 46.718 46.753 46.798
30.85 31.33 31.838 32.38 32.933 33.505 34.073 34.618 35.16 35.7 36.222 36.727 37.23 37.73 38.217 38.693 39.183 39.743 40.355 40.96 41.565 42.17 42.742 43.115 43.255 43.335 43.435 43.552 43.665 43.772 43.88 44.002 44.125 44.235 44.363 44.49 44.598 44.708 44.823 45.023 45.248 45.413 45.671 46.098 46.591 47.026 47.635 48.455 49.307 50.134 50.757 51.052 51.09 51.062 51.029 50.162 48.37 47.193 46.998 47.22 47.255 46.84 46.515 46.428 46.455 46.565 46.693 46.83 46.41 45.733 45.49 45.385 45.28 45.175 45.083 45.033 45.007 44.97 44.905 44.82 44.732 44.647 44.547 44.432 44.315 44.203 44.123 44.075 44.035 43.992 43.94 43.877 43.812 43.75 43.672 43.577 43.482 43.393 43.338 43.312 43.285 43.258 43.245 43.245 43.245 43.247 43.248 43.238 43.225 43.215 43.185 43.135 43.085 43.03 42.97 42.91 42.853 42.798 42.77 42.77 42.772 42.78 42.807 42.855 42.905 42.95 42.98 42.99 42.992 42.995 42.982 42.958 42.932 42.908 42.91 42.95 43.002 43.058 43.128 43.225 43.335 43.445 43.532 43.57 43.582 43.59 43.567 43.527 43.49 43.45 43.445 43.48 43.515 43.56 43.632 43.71 43.78 43.85 43.935 44.035 44.135 44.24 44.383 44.557 44.73 44.882 44.985 45.05 45.11 45.17 45.23 45.285 45.337 45.393 45.473 45.595 45.732 45.867 45.955 45.992 46.025 46.057 46.1 46.155 46.212 46.265 46.315 46.362 46.408 46.455 46.51 46.567 46.625 46.685 46.73 46.76 46.785 46.81 46.847 46.895
31.11 31.59 32.093 32.633 33.213 33.83 34.417 34.96 35.495 36.017 36.532 37.047 37.557 38.062 38.552 39.027 39.473 39.993 40.61 41.217 41.825 42.432 42.962 43.225 43.3 43.38 43.455 43.535 43.635 43.74 43.845 43.955 44.065 44.183 44.3 44.408 44.513 44.62 44.73 44.855 45.035 45.265 45.453 45.57 45.655 45.748 46.031 46.483 47.148 48.14 49.097 49.887 50.479 50.764 50.812 49.622 47.628 46.573 46.35 46.395 46.513 46.48 46.353 46.455 46.785 47.187 47.537 47.336 46.307 45.473 45.27 45.165 45.068 44.988 44.928 44.895 44.865 44.807 44.725 44.637 44.55 44.46 44.357 44.242 44.128 44.028 43.968 43.932 43.897 43.857 43.807 43.745 43.677 43.607 43.522 43.427 43.33 43.235 43.175 43.145 43.118 43.098 43.09 43.09 43.09 43.095 43.095 43.085 43.075 43.065 43.032 42.98 42.93 42.88 42.825 42.768 42.713 42.675 42.67 42.677 42.683 42.695 42.73 42.78 42.83 42.88 42.907 42.912 42.915 42.912 42.907 42.895 42.872 42.848 42.858 42.905 42.958 43.02 43.112 43.227 43.342 43.46 43.56 43.602 43.61 43.615 43.597 43.565 43.532 43.508 43.518 43.555 43.59 43.625 43.68 43.75 43.82 43.89 43.973 44.07 44.17 44.273 44.408 44.578 44.752 44.92 45.035 45.102 45.165 45.225 45.28 45.33 45.383 45.453 45.553 45.675 45.807 45.942 46.032 46.067 46.098 46.138 46.185 46.24 46.3 46.35 46.4 46.455 46.502 46.55 46.602 46.66 46.72 46.772 46.81 46.84 46.865 46.893 46.935 46.985
31.365 31.848 32.345 32.89 33.53 34.187 34.762 35.295 35.81 36.315 36.828 37.35 37.867 38.382 38.882 39.337 39.72 40.205 40.83 41.447 42.06 42.67 43.107 43.265 43.325 43.397 43.46 43.513 43.585 43.68 43.785 43.895 44.01 44.143 44.267 44.372 44.48 44.588 44.698 44.815 44.965 45.172 45.352 45.455 45.505 45.52 45.53 45.558 45.828 46.391 46.988 47.833 48.857 49.632 49.931 48.727 46.991 46.355 46.27 46.272 46.253 46.2 46.148 46.237 46.502 46.905 47.044 46.512 45.753 45.26 45.053 44.965 44.895 44.84 44.798 44.765 44.712 44.622 44.52 44.425 44.338 44.25 44.145 44.033 43.933 43.848 43.793 43.757 43.72 43.672 43.622 43.57 43.505 43.43 43.345 43.25 43.153 43.058 42.995 42.965 42.945 42.935 42.93 42.93 42.935 42.95 42.955 42.945 42.935 42.927 42.895 42.838 42.785 42.735 42.68 42.625 42.585 42.565 42.563 42.57 42.58 42.6 42.64 42.688 42.735 42.785 42.812 42.818 42.817 42.813 42.815 42.817 42.805 42.78 42.793 42.848 42.908 42.98 43.078 43.195 43.318 43.452 43.565 43.61 43.62 43.625 43.61 43.58 43.558 43.558 43.585 43.622 43.65 43.67 43.715 43.785 43.855 43.925 44.008 44.105 44.208 44.31 44.438 44.598 44.767 44.935 45.05 45.122 45.19 45.25 45.305 45.36 45.433 45.53 45.64 45.753 45.875 46.007 46.097 46.135 46.17 46.215 46.265 46.32 46.375 46.415 46.465 46.532 46.59 46.638 46.688 46.745 46.8 46.845 46.88 46.91 46.938 46.97 47.015 47.065
31.605 32.098 32.6 33.185 33.892 34.555 35.095 35.605 36.105 36.608 37.122 37.645 38.165 38.685 39.18 39.6 39.95 40.418 41.035 41.665 42.29 42.895 43.242 43.315 43.36 43.418 43.475 43.52 43.568 43.635 43.728 43.838 43.965 44.11 44.235 44.34 44.447 44.552 44.665 44.787 44.92 45.092 45.245 45.31 45.325 45.33 45.358 45.425 45.54 45.66 45.87 46.283 46.873 47.555 48.092 47.497 46.478 46.22 46.177 46.135 46.067 45.982 45.9 45.823 45.808 45.94 45.845 45.493 45.245 45.02 44.865 44.81 44.76 44.71 44.67 44.62 44.532 44.428 44.325 44.225 44.13 44.04 43.938 43.835 43.75 43.67 43.615 43.575 43.525 43.47 43.417 43.372 43.32 43.25 43.165 43.072 42.977 42.88 42.815 42.79 42.778 42.773 42.77 42.775 42.79 42.807 42.81 42.802 42.795 42.79 42.76 42.7 42.643 42.59 42.538 42.493 42.47 42.46 42.458 42.468 42.485 42.508 42.545 42.592 42.64 42.69 42.72 42.722 42.715 42.708 42.71 42.722 42.727 42.713 42.73 42.795 42.868 42.945 43.043 43.168 43.308 43.457 43.567 43.61 43.627 43.637 43.625 43.603 43.603 43.623 43.652 43.68 43.695 43.71 43.753 43.82 43.89 43.96 44.043 44.14 44.243 44.348 44.473 44.625 44.788 44.947 45.06 45.135 45.207 45.272 45.335 45.41 45.51 45.62 45.73 45.84 45.953 46.075 46.162 46.208 46.25 46.295 46.345 46.395 46.437 46.473 46.525 46.6 46.67 46.722 46.775 46.83 46.875 46.915 46.95 46.98 47.013 47.05 47.095 47.142
31.838 32.343 32.878 33.533 34.27 34.895 35.4 35.895 36.395 36.9 37.415 37.935 38.445 38.942 39.407 39.805 40.158 40.615 41.217 41.855 42.492 43.057 43.322 43.36 43.4 43.445 43.492 43.535 43.575 43.62 43.683 43.788 43.93 44.077 44.202 44.307 44.41 44.512 44.627 44.755 44.885 45.02 45.112 45.135 45.135 45.143 45.19 45.28 45.377 45.47 45.548 45.58 45.671 45.883 46.243 46.33 46.135 46.072 46.012 45.927 45.842 45.757 45.675 45.595 45.51 45.42 45.323 45.18 44.995 44.81 44.703 44.665 44.622 44.577 44.522 44.44 44.337 44.232 44.13 44.03 43.93 43.83 43.735 43.65 43.57 43.492 43.432 43.38 43.322 43.265 43.21 43.165 43.122 43.065 42.985 42.895 42.8 42.703 42.643 42.625 42.615 42.61 42.615 42.63 42.647 42.662 42.667 42.662 42.655 42.65 42.62 42.56 42.5 42.443 42.4 42.378 42.365 42.355 42.355 42.37 42.393 42.415 42.45 42.5 42.55 42.6 42.627 42.625 42.615 42.605 42.605 42.62 42.635 42.643 42.68 42.755 42.835 42.915 43.018 43.158 43.315 43.47 43.572 43.61 43.63 43.647 43.65 43.65 43.665 43.687 43.71 43.728 43.74 43.753 43.79 43.855 43.925 43.995 44.078 44.178 44.28 44.383 44.508 44.66 44.818 44.965 45.072 45.15 45.225 45.298 45.38 45.482 45.595 45.707 45.82 45.93 46.04 46.152 46.235 46.283 46.327 46.375 46.422 46.463 46.498 46.533 46.588 46.663 46.738 46.805 46.86 46.905 46.945 46.985 47.023 47.058 47.093 47.13 47.173 47.213
32.09 32.6 33.17 33.87 34.58 35.162 35.672 36.18 36.685 37.19 37.695 38.192 38.677 39.15 39.59 39.975 40.33 40.768 41.35 41.99 42.607 43.092 43.3 43.34 43.38 43.43 43.487 43.537 43.58 43.62 43.665 43.755 43.895 44.042 44.157 44.25 44.347 44.445 44.56 44.69 44.815 44.897 44.93 44.942 44.945 44.953 44.993 45.07 45.157 45.242 45.31 45.337 45.345 45.363 45.485 45.695 45.825 45.817 45.74 45.66 45.58 45.5 45.425 45.345 45.252 45.155 45.08 44.992 44.837 44.653 44.54 44.503 44.467 44.42 44.34 44.24 44.137 44.033 43.93 43.83 43.727 43.615 43.517 43.442 43.365 43.285 43.217 43.16 43.1 43.04 42.987 42.942 42.9 42.86 42.79 42.692 42.595 42.498 42.443 42.43 42.422 42.425 42.44 42.46 42.477 42.492 42.5 42.497 42.492 42.492 42.47 42.415 42.355 42.295 42.27 42.27 42.26 42.25 42.258 42.283 42.308 42.333 42.368 42.415 42.465 42.515 42.537 42.528 42.515 42.505 42.515 42.542 42.56 42.578 42.635 42.722 42.805 42.883 42.993 43.145 43.302 43.465 43.582 43.625 43.645 43.665 43.685 43.705 43.725 43.745 43.763 43.778 43.792 43.805 43.84 43.905 43.973 44.04 44.123 44.223 44.325 44.425 44.55 44.705 44.86 44.997 45.1 45.18 45.255 45.33 45.425 45.54 45.657 45.782 45.905 46.015 46.125 46.235 46.315 46.36 46.403 46.45 46.502 46.55 46.59 46.625 46.678 46.753 46.828 46.903 46.96 47 47.04 47.08 47.118 47.153 47.188 47.225 47.263 47.295
32.365 32.873 33.46 34.152 34.805 35.37 35.9 36.422 36.942 37.45 37.935 38.405 38.875 39.345 39.772 40.14 40.488 40.895 41.45 42.077 42.612 43.015 43.212 43.255 43.305 43.378 43.457 43.525 43.58 43.625 43.67 43.745 43.865 44.007 44.107 44.175 44.263 44.36 44.473 44.6 44.685 44.7 44.713 44.74 44.752 44.76 44.79 44.85 44.93 45.015 45.072 45.095 45.105 45.13 45.257 45.417 45.48 45.465 45.405 45.332 45.257 45.185 45.125 45.062 44.977 44.883 44.81 44.755 44.657 44.495 44.38 44.34 44.292 44.225 44.137 44.037 43.933 43.83 43.73 43.63 43.52 43.395 43.288 43.21 43.132 43.045 42.973 42.917 42.86 42.8 42.75 42.708 42.67 42.645 42.577 42.468 42.365 42.265 42.213 42.208 42.21 42.225 42.243 42.26 42.28 42.295 42.3 42.3 42.303 42.31 42.3 42.26 42.205 42.145 42.13 42.15 42.15 42.14 42.158 42.2 42.232 42.258 42.293 42.338 42.385 42.435 42.452 42.435 42.418 42.405 42.428 42.477 42.507 42.525 42.585 42.682 42.77 42.848 42.96 43.113 43.275 43.452 43.59 43.652 43.68 43.7 43.725 43.75 43.77 43.79 43.813 43.832 43.847 43.863 43.9 43.963 44.028 44.098 44.183 44.278 44.375 44.475 44.6 44.752 44.905 45.04 45.14 45.22 45.295 45.37 45.468 45.583 45.708 45.85 45.982 46.097 46.21 46.32 46.397 46.44 46.48 46.525 46.585 46.652 46.705 46.743 46.795 46.868 46.942 47.017 47.075 47.115 47.155 47.195 47.232 47.263 47.295 47.332 47.365 47.395
32.615 33.148 33.738 34.387 34.992 35.562 36.102 36.63 37.16 37.68 38.162 38.618 39.075 39.537 39.947 40.297 40.643 41.02 41.542 42.1 42.522 42.89 43.112 43.178 43.248 43.335 43.42 43.495 43.565 43.625 43.678 43.75 43.85 43.972 44.067 44.123 44.19 44.278 44.387 44.477 44.49 44.473 44.488 44.522 44.552 44.57 44.598 44.645 44.708 44.785 44.837 44.855 44.865 44.898 44.997 45.08 45.1 45.105 45.065 44.993 44.92 44.85 44.795 44.752 44.692 44.61 44.54 44.49 44.43 44.317 44.218 44.167 44.1 44.02 43.932 43.833 43.73 43.63 43.53 43.422 43.3 43.17 43.06 42.977 42.895 42.805 42.73 42.673 42.617 42.56 42.51 42.475 42.45 42.43 42.365 42.253 42.14 42.038 41.99 41.995 42.01 42.03 42.047 42.063 42.08 42.095 42.1 42.105 42.115 42.125 42.12 42.09 42.045 41.99 41.975 42.007 42.03 42.033 42.055 42.107 42.152 42.182 42.218 42.263 42.308 42.355 42.37 42.348 42.325 42.31 42.335 42.392 42.44 42.473 42.535 42.635 42.73 42.815 42.93 43.088 43.265 43.45 43.592 43.67 43.712 43.74 43.765 43.79 43.813 43.835 43.86 43.885 43.903 43.92 43.96 44.02 44.085 44.16 44.245 44.335 44.428 44.525 44.65 44.798 44.942 45.075 45.175 45.255 45.333 45.41 45.51 45.635 45.775 45.925 46.06 46.18 46.297 46.407 46.48 46.52 46.56 46.603 46.663 46.737 46.805 46.855 46.913 46.985 47.058 47.132 47.19 47.23 47.27 47.31 47.347 47.378 47.408 47.44 47.47 47.498
32.8 33.385 33.977 34.585 35.175 35.755 36.307 36.84 37.372 37.907 38.4 38.84 39.27 39.7 40.09 40.44 40.79 41.148 41.58 42.015 42.385 42.755 43.012 43.125 43.21 43.3 43.385 43.46 43.532 43.602 43.67 43.752 43.845 43.945 44.027 44.082 44.137 44.202 44.27 44.287 44.26 44.248 44.265 44.3 44.34 44.373 44.405 44.45 44.503 44.562 44.602 44.615 44.625 44.648 44.688 44.718 44.733 44.748 44.728 44.663 44.59 44.52 44.465 44.425 44.383 44.328 44.27 44.223 44.175 44.107 44.035 43.967 43.892 43.815 43.727 43.627 43.525 43.425 43.32 43.2 43.07 42.94 42.827 42.737 42.652 42.565 42.49 42.43 42.37 42.312 42.272 42.252 42.235 42.215 42.155 42.042 41.917 41.805 41.763 41.782 41.807 41.83 41.85 41.865 41.88 41.897 41.907 41.917 41.932 41.945 41.94 41.91 41.87 41.825 41.818 41.855 41.892 41.92 41.955 42.007 42.06 42.105 42.145 42.187 42.232 42.277 42.29 42.265 42.24 42.223 42.245 42.303 42.358 42.408 42.48 42.583 42.685 42.78 42.908 43.08 43.265 43.45 43.597 43.68 43.73 43.77 43.8 43.827 43.855 43.882 43.908 43.932 43.955 43.98 44.025 44.085 44.147 44.22 44.305 44.395 44.485 44.58 44.703 44.845 44.983 45.11 45.21 45.29 45.37 45.45 45.558 45.7 45.852 46.005 46.14 46.26 46.38 46.49 46.56 46.6 46.64 46.68 46.74 46.815 46.89 46.96 47.028 47.1 47.172 47.247 47.307 47.35 47.388 47.425 47.462 47.495 47.523 47.55 47.58 47.605
32.9 33.525 34.142 34.735 35.325 35.9 36.45 36.987 37.522 38.07 38.567 38.992 39.405 39.81 40.19 40.545 40.897 41.227 41.545 41.893 42.26 42.63 42.902 43.035 43.122 43.217 43.315 43.397 43.47 43.54 43.617 43.707 43.797 43.877 43.937 43.99 44.045 44.1 44.122 44.103 44.078 44.068 44.088 44.125 44.163 44.185 44.21 44.255 44.305 44.347 44.37 44.38 44.39 44.403 44.418 44.433 44.448 44.458 44.445 44.395 44.325 44.255 44.2 44.16 44.118 44.07 44.023 43.98 43.932 43.872 43.807 43.737 43.665 43.59 43.5 43.395 43.29 43.19 43.08 42.955 42.825 42.695 42.567 42.46 42.372 42.285 42.207 42.145 42.082 42.03 42.005 41.995 41.98 41.955 41.897 41.792 41.665 41.545 41.503 41.53 41.557 41.577 41.592 41.607 41.627 41.66 41.692 41.71 41.725 41.74 41.745 41.727 41.69 41.65 41.66 41.71 41.75 41.79 41.842 41.9 41.952 42.007 42.055 42.095 42.138 42.192 42.222 42.205 42.18 42.16 42.18 42.238 42.293 42.355 42.44 42.543 42.645 42.758 42.908 43.085 43.27 43.457 43.607 43.692 43.743 43.787 43.825 43.855 43.885 43.923 43.957 43.982 44.005 44.035 44.085 44.145 44.202 44.27 44.355 44.445 44.538 44.645 44.773 44.91 45.045 45.16 45.25 45.33 45.41 45.505 45.63 45.775 45.928 46.082 46.22 46.337 46.455 46.572 46.66 46.713 46.755 46.795 46.855 46.933 47.005 47.07 47.135 47.205 47.278 47.355 47.42 47.465 47.5 47.535 47.577 47.615 47.643 47.67 47.7 47.725
32.965 33.62 34.255 34.85 35.43 35.985 36.525 37.065 37.61 38.182 38.682 39.085 39.488 39.892 40.272 40.62 40.942 41.222 41.498 41.81 42.153 42.515 42.772 42.89 42.985 43.093 43.2 43.292 43.375 43.45 43.53 43.612 43.687 43.755 43.805 43.853 43.905 43.96 43.98 43.96 43.943 43.935 43.953 43.99 44.012 44.005 44.015 44.057 44.1 44.13 44.145 44.155 44.168 44.185 44.202 44.217 44.227 44.222 44.205 44.175 44.122 44.055 44 43.957 43.907 43.85 43.8 43.757 43.7 43.623 43.55 43.487 43.42 43.347 43.252 43.138 43.028 42.925 42.815 42.69 42.56 42.427 42.288 42.155 42.048 41.955 41.878 41.815 41.763 41.725 41.705 41.692 41.67 41.632 41.575 41.492 41.38 41.26 41.215 41.24 41.26 41.268 41.278 41.298 41.335 41.393 41.442 41.472 41.492 41.507 41.525 41.532 41.51 41.473 41.495 41.562 41.61 41.653 41.713 41.782 41.84 41.892 41.94 41.983 42.035 42.107 42.155 42.155 42.14 42.118 42.135 42.193 42.255 42.328 42.415 42.515 42.628 42.768 42.93 43.103 43.283 43.47 43.615 43.697 43.755 43.805 43.845 43.873 43.91 43.965 44.01 44.035 44.058 44.088 44.135 44.195 44.25 44.313 44.395 44.485 44.59 44.72 44.857 44.992 45.115 45.21 45.29 45.373 45.468 45.593 45.728 45.86 46.005 46.157 46.295 46.413 46.533 46.66 46.765 46.837 46.9 46.95 47.007 47.077 47.135 47.178 47.23 47.303 47.378 47.46 47.53 47.572 47.607 47.645 47.687 47.73 47.767 47.8 47.83 47.85
33.06 33.73 34.365 34.95 35.51 36.055 36.595 37.145 37.72 38.31 38.8 39.188 39.577 39.977 40.345 40.657 40.932 41.188 41.465 41.765 42.073 42.407 42.645 42.755 42.865 42.98 43.085 43.18 43.27 43.35 43.425 43.495 43.557 43.622 43.675 43.72 43.77 43.822 43.84 43.823 43.81 43.803 43.817 43.84 43.835 43.815 43.823 43.855 43.882 43.905 43.92 43.933 43.95 43.97 43.987 43.997 43.992 43.975 43.955 43.935 43.905 43.852 43.798 43.747 43.69 43.63 43.58 43.525 43.45 43.368 43.293 43.23 43.17 43.102 43.005 42.887 42.772 42.662 42.55 42.422 42.287 42.15 42.01 41.868 41.733 41.623 41.543 41.49 41.455 41.425 41.405 41.382 41.342 41.292 41.23 41.16 41.075 40.97 40.925 40.942 40.95 40.95 40.965 41.005 41.068 41.137 41.187 41.222 41.252 41.272 41.29 41.312 41.317 41.298 41.325 41.402 41.465 41.515 41.578 41.652 41.72 41.777 41.825 41.88 41.955 42.035 42.08 42.087 42.087 42.073 42.09 42.153 42.225 42.303 42.388 42.498 42.638 42.795 42.96 43.13 43.303 43.482 43.617 43.695 43.762 43.82 43.86 43.895 43.95 44.015 44.06 44.088 44.115 44.143 44.185 44.243 44.295 44.355 44.435 44.538 44.665 44.805 44.942 45.065 45.165 45.252 45.335 45.43 45.555 45.7 45.835 45.96 46.093 46.235 46.37 46.493 46.618 46.745 46.852 46.935 47.015 47.087 47.15 47.2 47.24 47.275 47.325 47.403 47.485 47.57 47.637 47.677 47.715 47.753 47.792 47.84 47.885 47.925 47.952 47.957
33.165 33.835 34.462 35.03 35.577 36.122 36.675 37.253 37.855 38.437 38.907 39.287 39.662 40.037 40.367 40.64 40.897 41.155 41.435 41.732 42.012 42.292 42.5 42.62 42.742 42.865 42.972 43.055 43.127 43.195 43.265 43.34 43.412 43.487 43.545 43.59 43.635 43.675 43.692 43.685 43.675 43.665 43.662 43.652 43.627 43.61 43.618 43.64 43.66 43.68 43.698 43.715 43.735 43.755 43.77 43.768 43.753 43.735 43.715 43.693 43.67 43.64 43.593 43.535 43.475 43.415 43.355 43.28 43.195 43.113 43.04 42.983 42.93 42.862 42.755 42.632 42.515 42.4 42.282 42.15 42.01 41.872 41.732 41.59 41.447 41.313 41.22 41.177 41.152 41.125 41.095 41.052 41 40.947 40.885 40.815 40.745 40.665 40.625 40.63 40.63 40.635 40.67 40.735 40.807 40.877 40.93 40.965 41 41.03 41.052 41.077 41.1 41.112 41.155 41.235 41.31 41.375 41.442 41.517 41.59 41.66 41.725 41.8 41.885 41.962 42.005 42.012 42.02 42.023 42.053 42.123 42.2 42.28 42.375 42.508 42.665 42.825 42.99 43.16 43.33 43.495 43.615 43.69 43.76 43.825 43.88 43.935 43.997 44.06 44.11 44.145 44.175 44.203 44.243 44.293 44.34 44.395 44.483 44.61 44.753 44.895 45.02 45.118 45.205 45.295 45.393 45.515 45.66 45.807 45.942 46.067 46.193 46.323 46.453 46.578 46.703 46.83 46.94 47.03 47.12 47.21 47.28 47.32 47.353 47.383 47.433 47.513 47.598 47.682 47.745 47.785 47.823 47.858 47.897 47.942 47.987 48.032 48.055 48.05
33.25 33.89 34.492 35.072 35.625 36.17 36.74 37.34 37.945 38.495 38.927 39.292 39.655 40.012 40.322 40.585 40.845 41.097 41.35 41.615 41.872 42.12 42.31 42.44 42.57 42.702 42.812 42.882 42.937 42.993 43.063 43.147 43.232 43.3 43.332 43.36 43.395 43.425 43.462 43.482 43.475 43.465 43.445 43.415 43.393 43.393 43.413 43.435 43.455 43.47 43.488 43.51 43.53 43.55 43.567 43.568 43.555 43.54 43.515 43.485 43.46 43.438 43.402 43.35 43.29 43.23 43.16 43.075 42.99 42.908 42.838 42.785 42.73 42.645 42.498 42.343 42.22 42.105 41.975 41.83 41.69 41.555 41.415 41.267 41.122 40.975 40.875 40.837 40.812 40.787 40.755 40.705 40.65 40.6 40.542 40.475 40.405 40.335 40.3 40.3 40.305 40.328 40.383 40.455 40.528 40.607 40.667 40.702 40.737 40.772 40.807 40.837 40.862 40.89 40.947 41.032 41.117 41.2 41.275 41.345 41.42 41.512 41.615 41.707 41.79 41.867 41.91 41.917 41.928 41.963 42.028 42.105 42.185 42.27 42.383 42.53 42.69 42.85 43.015 43.185 43.355 43.5 43.597 43.672 43.745 43.823 43.905 43.975 44.035 44.097 44.162 44.212 44.245 44.275 44.315 44.36 44.408 44.468 44.57 44.71 44.853 44.985 45.095 45.188 45.273 45.36 45.47 45.61 45.76 45.905 46.04 46.165 46.288 46.42 46.555 46.68 46.805 46.935 47.05 47.15 47.25 47.345 47.412 47.45 47.48 47.505 47.555 47.638 47.722 47.797 47.852 47.895 47.932 47.967 48 48.035 48.077 48.122 48.145 48.14
33.285 33.865 34.448 35.062 35.65 36.203 36.778 37.377 37.95 38.457 38.862 39.213 39.57 39.93 40.245 40.51 40.762 40.995 41.21 41.428 41.663 41.907 42.095 42.228 42.362 42.497 42.605 42.675 42.73 42.785 42.855 42.94 43.007 43.035 43.037 43.04 43.06 43.09 43.145 43.202 43.215 43.205 43.185 43.163 43.163 43.185 43.215 43.24 43.26 43.27 43.283 43.307 43.33 43.35 43.375 43.395 43.395 43.38 43.35 43.31 43.278 43.252 43.222 43.18 43.127 43.07 43 42.915 42.83 42.75 42.683 42.627 42.55 42.435 42.255 42.05 41.9 41.785 41.642 41.475 41.328 41.192 41.05 40.897 40.745 40.595 40.498 40.463 40.438 40.415 40.39 40.35 40.3 40.25 40.195 40.132 40.065 39.995 39.96 39.963 39.983 40.025 40.085 40.16 40.245 40.337 40.402 40.438 40.473 40.51 40.55 40.587 40.617 40.645 40.703 40.79 40.885 40.982 41.062 41.133 41.228 41.35 41.475 41.585 41.675 41.752 41.795 41.805 41.84 41.92 42.012 42.095 42.18 42.28 42.403 42.55 42.71 42.87 43.035 43.205 43.365 43.49 43.575 43.65 43.733 43.828 43.922 44 44.067 44.133 44.205 44.275 44.322 44.355 44.395 44.443 44.503 44.58 44.69 44.83 44.96 45.07 45.177 45.282 45.37 45.458 45.57 45.705 45.85 45.995 46.13 46.255 46.383 46.528 46.67 46.798 46.928 47.062 47.182 47.287 47.387 47.482 47.55 47.582 47.61 47.635 47.688 47.772 47.847 47.905 47.955 48.002 48.045 48.08 48.105 48.13 48.165 48.207 48.232 48.23
33.26 33.81 34.388 35.015 35.647 36.232 36.805 37.372 37.9 38.392 38.8 39.143 39.49 39.847 40.165 40.422 40.657 40.875 41.08 41.28 41.49 41.705 41.88 42.017 42.155 42.292 42.397 42.462 42.518 42.575 42.645 42.707 42.735 42.74 42.74 42.735 42.735 42.755 42.813 42.895 42.942 42.942 42.93 42.933 42.955 42.985 43.015 43.04 43.05 43.058 43.078 43.105 43.13 43.15 43.175 43.205 43.225 43.22 43.19 43.145 43.1 43.07 43.04 43 42.957 42.907 42.84 42.757 42.675 42.595 42.527 42.455 42.345 42.215 42.035 41.805 41.605 41.463 41.317 41.14 40.973 40.828 40.682 40.525 40.368 40.215 40.12 40.088 40.065 40.045 40.02 39.987 39.947 39.9 39.845 39.785 39.722 39.655 39.623 39.638 39.675 39.728 39.793 39.878 39.975 40.07 40.135 40.173 40.21 40.248 40.287 40.33 40.367 40.4 40.458 40.55 40.655 40.757 40.843 40.938 41.065 41.202 41.327 41.445 41.555 41.64 41.685 41.725 41.805 41.905 41.998 42.088 42.188 42.3 42.425 42.57 42.732 42.895 43.058 43.22 43.357 43.465 43.555 43.64 43.735 43.84 43.935 44.017 44.097 44.165 44.235 44.317 44.39 44.435 44.478 44.538 44.615 44.7 44.81 44.94 45.05 45.15 45.26 45.372 45.47 45.563 45.675 45.805 45.94 46.083 46.22 46.35 46.49 46.642 46.785 46.918 47.055 47.195 47.315 47.42 47.522 47.62 47.687 47.715 47.737 47.765 47.82 47.895 47.955 48.005 48.055 48.105 48.152 48.192 48.217 48.235 48.26 48.295 48.32 48.32
33.208 33.755 34.328 34.95 35.597 36.22 36.792 37.32 37.832 38.327 38.737 39.08 39.42 39.767 40.075 40.317 40.537 40.75 40.947 41.127 41.305 41.48 41.642 41.79 41.935 42.082 42.187 42.247 42.305 42.36 42.407 42.432 42.437 42.442 42.442 42.435 42.425 42.428 42.48 42.57 42.647 42.685 42.702 42.727 42.755 42.785 42.815 42.842 42.842 42.842 42.87 42.9 42.927 42.952 42.977 43.005 43.035 43.047 43.022 42.975 42.925 42.885 42.85 42.81 42.77 42.73 42.672 42.595 42.517 42.44 42.355 42.25 42.125 41.997 41.817 41.585 41.358 41.163 40.992 40.815 40.635 40.47 40.315 40.155 39.995 39.84 39.743 39.71 39.692 39.675 39.65 39.617 39.582 39.545 39.495 39.435 39.375 39.315 39.295 39.328 39.375 39.43 39.507 39.605 39.707 39.805 39.87 39.907 39.945 39.982 40.022 40.067 40.11 40.148 40.215 40.32 40.43 40.535 40.645 40.777 40.92 41.057 41.183 41.298 41.418 41.528 41.61 41.695 41.795 41.895 41.993 42.095 42.208 42.323 42.448 42.595 42.758 42.92 43.08 43.225 43.345 43.45 43.548 43.645 43.748 43.852 43.945 44.03 44.115 44.193 44.27 44.353 44.437 44.507 44.57 44.645 44.73 44.815 44.915 45.025 45.125 45.228 45.338 45.453 45.563 45.665 45.78 45.91 46.04 46.175 46.313 46.455 46.605 46.757 46.905 47.045 47.187 47.327 47.445 47.55 47.655 47.752 47.817 47.845 47.865 47.893 47.94 47.997 48.052 48.105 48.155 48.205 48.255 48.302 48.33 48.345 48.365 48.39 48.41 48.412
33.173 33.72 34.28 34.878 35.513 36.152 36.727 37.243 37.76 38.25 38.647 38.982 39.317 39.652 39.94 40.17 40.38 40.57 40.742 40.902 41.057 41.215 41.375 41.53 41.688 41.85 41.942 41.982 42.04 42.092 42.117 42.122 42.127 42.132 42.13 42.122 42.118 42.13 42.19 42.28 42.352 42.39 42.415 42.445 42.48 42.517 42.555 42.58 42.582 42.592 42.617 42.642 42.67 42.71 42.737 42.75 42.772 42.787 42.767 42.72 42.67 42.632 42.6 42.56 42.522 42.497 42.455 42.382 42.307 42.22 42.115 42.002 41.885 41.767 41.585 41.34 41.097 40.865 40.66 40.475 40.295 40.118 39.953 39.795 39.638 39.483 39.37 39.32 39.297 39.28 39.255 39.222 39.193 39.172 39.145 39.095 39.038 38.983 38.973 39.015 39.065 39.118 39.203 39.312 39.42 39.52 39.585 39.622 39.66 39.7 39.747 39.797 39.84 39.88 39.96 40.075 40.185 40.298 40.43 40.58 40.73 40.895 41.057 41.19 41.313 41.438 41.565 41.68 41.78 41.88 41.993 42.112 42.23 42.345 42.475 42.635 42.8 42.96 43.118 43.253 43.368 43.475 43.57 43.663 43.765 43.87 43.96 44.045 44.133 44.223 44.313 44.398 44.483 44.565 44.647 44.73 44.812 44.903 45.002 45.105 45.205 45.315 45.43 45.543 45.655 45.77 45.895 46.025 46.155 46.285 46.42 46.568 46.722 46.875 47.025 47.17 47.312 47.447 47.562 47.667 47.767 47.85 47.917 47.967 47.995 48.02 48.058 48.103 48.153 48.205 48.255 48.305 48.36 48.417 48.447 48.46 48.48 48.5 48.513 48.513
33.16 33.705 34.255 34.82 35.425 36.062 36.642 37.157 37.662 38.13 38.507 38.827 39.155 39.482 39.76 39.977 40.162 40.32 40.475 40.635 40.79 40.945 41.105 41.265 41.435 41.605 41.68 41.685 41.723 41.777 41.802 41.8 41.802 41.807 41.805 41.805 41.825 41.868 41.94 42.02 42.055 42.05 42.053 42.073 42.108 42.152 42.2 42.222 42.232 42.26 42.285 42.305 42.34 42.405 42.44 42.433 42.44 42.452 42.432 42.388 42.35 42.328 42.302 42.265 42.24 42.235 42.2 42.127 42.04 41.93 41.82 41.715 41.6 41.467 41.272 41.022 40.772 40.538 40.325 40.128 39.94 39.76 39.595 39.445 39.292 39.135 39.013 38.938 38.888 38.863 38.838 38.81 38.798 38.798 38.79 38.76 38.712 38.655 38.648 38.695 38.745 38.795 38.878 38.99 39.1 39.2 39.265 39.307 39.347 39.385 39.442 39.51 39.56 39.6 39.685 39.81 39.927 40.043 40.175 40.33 40.5 40.705 40.932 41.115 41.245 41.373 41.515 41.652 41.765 41.865 41.985 42.12 42.247 42.365 42.503 42.677 42.852 43.015 43.17 43.305 43.42 43.522 43.61 43.693 43.788 43.89 43.98 44.065 44.16 44.263 44.36 44.45 44.537 44.62 44.702 44.785 44.875 44.98 45.088 45.19 45.3 45.423 45.54 45.65 45.77 45.903 46.03 46.155 46.285 46.415 46.548 46.688 46.838 46.992 47.142 47.287 47.425 47.552 47.667 47.767 47.85 47.907 47.978 48.062 48.117 48.15 48.185 48.225 48.268 48.313 48.363 48.42 48.485 48.55 48.58 48.585 48.6 48.617 48.625 48.618
33.165 33.69 34.235 34.79 35.363 35.975 36.555 37.06 37.535 37.977 38.345 38.658 38.978 39.297 39.565 39.757 39.91 40.055 40.208 40.365 40.523 40.678 40.84 41.015 41.2 41.367 41.435 41.425 41.43 41.465 41.487 41.482 41.48 41.482 41.49 41.515 41.565 41.62 41.687 41.735 41.73 41.71 41.705 41.715 41.733 41.765 41.805 41.832 41.855 41.885 41.913 41.948 42.01 42.092 42.132 42.12 42.113 42.12 42.1 42.063 42.045 42.032 42.01 41.985 41.978 41.982 41.947 41.862 41.752 41.63 41.52 41.405 41.262 41.095 40.897 40.667 40.43 40.205 39.995 39.79 39.59 39.405 39.24 39.092 38.942 38.788 38.668 38.583 38.508 38.458 38.43 38.42 38.423 38.43 38.425 38.405 38.375 38.328 38.325 38.375 38.425 38.475 38.555 38.665 38.775 38.872 38.937 38.982 39.022 39.06 39.12 39.2 39.27 39.32 39.405 39.535 39.665 39.788 39.923 40.095 40.293 40.51 40.762 41.005 41.172 41.305 41.452 41.605 41.74 41.85 41.973 42.115 42.255 42.383 42.525 42.705 42.89 43.065 43.222 43.355 43.47 43.57 43.655 43.735 43.82 43.913 44.003 44.095 44.2 44.31 44.41 44.5 44.59 44.675 44.758 44.848 44.953 45.065 45.17 45.278 45.405 45.537 45.655 45.775 45.913 46.055 46.182 46.303 46.428 46.555 46.685 46.82 46.96 47.108 47.257 47.4 47.53 47.655 47.767 47.85 47.907 47.953 48.023 48.12 48.21 48.272 48.315 48.355 48.395 48.438 48.49 48.555 48.623 48.685 48.715 48.715 48.72 48.732 48.737 48.725
33.193 33.695 34.22 34.77 35.33 35.907 36.452 36.93 37.385 37.822 38.19 38.498 38.808 39.112 39.347 39.505 39.648 39.793 39.94 40.098 40.263 40.423 40.593 40.78 40.967 41.127 41.19 41.18 41.167 41.165 41.17 41.167 41.162 41.16 41.185 41.242 41.307 41.37 41.415 41.417 41.392 41.367 41.36 41.37 41.377 41.39 41.412 41.44 41.467 41.495 41.537 41.612 41.702 41.787 41.83 41.822 41.807 41.795 41.772 41.75 41.737 41.725 41.712 41.712 41.722 41.727 41.682 41.575 41.452 41.33 41.207 41.062 40.887 40.695 40.495 40.29 40.08 39.87 39.665 39.46 39.255 39.058 38.885 38.735 38.585 38.44 38.33 38.25 38.173 38.105 38.073 38.073 38.073 38.07 38.06 38.04 38.02 37.995 38.005 38.055 38.105 38.158 38.24 38.348 38.455 38.55 38.613 38.655 38.698 38.743 38.805 38.885 38.963 39.03 39.128 39.263 39.4 39.533 39.688 39.885 40.095 40.315 40.568 40.84 41.072 41.24 41.387 41.54 41.687 41.825 41.963 42.108 42.253 42.393 42.548 42.73 42.92 43.107 43.272 43.402 43.517 43.62 43.705 43.785 43.865 43.948 44.038 44.14 44.25 44.36 44.46 44.55 44.64 44.728 44.82 44.925 45.035 45.145 45.258 45.383 45.517 45.652 45.785 45.922 46.065 46.207 46.337 46.455 46.572 46.692 46.822 46.957 47.092 47.23 47.37 47.505 47.63 47.752 47.85 47.907 47.952 47.998 48.068 48.165 48.265 48.355 48.42 48.472 48.525 48.575 48.63 48.695 48.76 48.817 48.845 48.845 48.845 48.85 48.845 48.825
33.227 33.72 34.213 34.735 35.29 35.85 36.342 36.778 37.225 37.665 38.035 38.343 38.652 38.937 39.127 39.26 39.4 39.54 39.69 39.855 40.023 40.18 40.35 40.54 40.727 40.862 40.897 40.882 40.865 40.847 40.845 40.85 40.847 40.843 40.875 40.945 41.015 41.062 41.062 41.037 41.01 40.992 40.985 40.985 40.99 40.995 41.007 41.025 41.047 41.075 41.133 41.235 41.342 41.44 41.5 41.5 41.477 41.447 41.422 41.41 41.395 41.38 41.362 41.36 41.377 41.39 41.345 41.24 41.13 41 40.835 40.647 40.447 40.237 40.03 39.835 39.645 39.467 39.302 39.115 38.91 38.705 38.53 38.388 38.24 38.098 38.01 37.95 37.875 37.808 37.773 37.768 37.76 37.748 37.73 37.71 37.69 37.675 37.695 37.745 37.795 37.853 37.94 38.048 38.155 38.252 38.315 38.358 38.403 38.45 38.515 38.595 38.673 38.748 38.865 39.015 39.155 39.293 39.465 39.675 39.888 40.115 40.373 40.645 40.915 41.132 41.287 41.432 41.583 41.76 41.95 42.112 42.258 42.403 42.57 42.76 42.95 43.14 43.307 43.437 43.552 43.665 43.765 43.85 43.93 44.01 44.1 44.205 44.313 44.423 44.525 44.615 44.705 44.795 44.895 45.005 45.115 45.228 45.35 45.482 45.617 45.757 45.905 46.05 46.19 46.33 46.457 46.572 46.685 46.8 46.932 47.072 47.207 47.342 47.462 47.575 47.695 47.815 47.9 47.947 47.993 48.043 48.11 48.2 48.297 48.395 48.475 48.537 48.602 48.672 48.732 48.787 48.85 48.907 48.935 48.935 48.932 48.925 48.897 48.865
33.257 33.75 34.225 34.703 35.23 35.785 36.25 36.643 37.07 37.51 37.88 38.19 38.512 38.785 38.937 39.048 39.178 39.315 39.47 39.637 39.795 39.94 40.103 40.29 40.465 40.557 40.56 40.54 40.52 40.503 40.505 40.522 40.53 40.525 40.555 40.625 40.672 40.667 40.635 40.608 40.593 40.6 40.595 40.575 40.57 40.575 40.585 40.595 40.61 40.635 40.698 40.805 40.915 41.017 41.095 41.12 41.105 41.073 41.05 41.04 41.025 41.01 40.98 40.943 40.94 40.96 40.922 40.83 40.737 40.597 40.387 40.163 39.948 39.735 39.53 39.335 39.16 39.018 38.89 38.737 38.55 38.348 38.18 38.047 37.905 37.763 37.688 37.655 37.595 37.525 37.488 37.48 37.47 37.455 37.435 37.415 37.395 37.378 37.395 37.448 37.503 37.565 37.653 37.763 37.877 37.98 38.045 38.09 38.135 38.18 38.245 38.325 38.405 38.483 38.608 38.777 38.93 39.07 39.245 39.458 39.68 39.918 40.175 40.448 40.727 40.97 41.14 41.285 41.46 41.678 41.907 42.11 42.275 42.42 42.59 42.787 42.98 43.17 43.332 43.457 43.572 43.692 43.812 43.92 44.01 44.09 44.18 44.285 44.395 44.51 44.615 44.705 44.792 44.878 44.975 45.088 45.2 45.313 45.435 45.568 45.708 45.855 46.005 46.15 46.285 46.415 46.537 46.653 46.767 46.883 47.015 47.162 47.302 47.437 47.545 47.63 47.73 47.845 47.93 47.98 48.038 48.108 48.173 48.238 48.323 48.42 48.502 48.565 48.64 48.737 48.805 48.843 48.893 48.95 48.98 48.977 48.967 48.95 48.91 48.863
33.275 33.78 34.255 34.71 35.193 35.712 36.165 36.543 36.938 37.357 37.727 38.05 38.39 38.647 38.77 38.858 38.968 39.1 39.255 39.415 39.56 39.7 39.858 40.04 40.177 40.227 40.222 40.198 40.175 40.158 40.16 40.182 40.2 40.203 40.235 40.282 40.277 40.237 40.2 40.188 40.2 40.22 40.215 40.185 40.163 40.158 40.165 40.175 40.182 40.198 40.263 40.367 40.465 40.56 40.64 40.692 40.715 40.697 40.675 40.665 40.653 40.64 40.607 40.553 40.518 40.517 40.477 40.382 40.29 40.157 39.94 39.69 39.455 39.235 39.03 38.853 38.713 38.588 38.46 38.327 38.175 37.992 37.828 37.695 37.56 37.425 37.35 37.332 37.302 37.245 37.205 37.192 37.177 37.16 37.14 37.12 37.1 37.08 37.098 37.155 37.218 37.283 37.368 37.48 37.6 37.707 37.777 37.822 37.865 37.91 37.975 38.055 38.135 38.215 38.343 38.522 38.697 38.85 39.028 39.248 39.48 39.723 39.98 40.258 40.545 40.797 40.98 41.155 41.375 41.61 41.84 42.065 42.27 42.437 42.61 42.81 43.007 43.2 43.357 43.475 43.59 43.708 43.832 43.962 44.077 44.17 44.26 44.368 44.488 44.61 44.712 44.797 44.88 44.96 45.055 45.17 45.285 45.398 45.52 45.658 45.805 45.955 46.102 46.242 46.37 46.493 46.612 46.73 46.85 46.968 47.098 47.245 47.392 47.527 47.63 47.705 47.785 47.883 47.965 48.03 48.108 48.192 48.257 48.303 48.36 48.445 48.528 48.603 48.7 48.81 48.88 48.91 48.945 48.992 49.02 49.01 48.99 48.97 48.93 48.873
33.26 33.775 34.257 34.717 35.18 35.652 36.077 36.455 36.835 37.22 37.582 37.925 38.275 38.507 38.607 38.69 38.78 38.893 39.032 39.18 39.32 39.46 39.615 39.772 39.862 39.89 39.885 39.857 39.832 39.812 39.817 39.84 39.86 39.875 39.892 39.887 39.847 39.803 39.775 39.785 39.812 39.837 39.832 39.8 39.767 39.74 39.732 39.74 39.745 39.75 39.808 39.907 40 40.095 40.177 40.24 40.292 40.31 40.3 40.29 40.28 40.267 40.232 40.18 40.127 40.087 40.03 39.937 39.845 39.725 39.52 39.265 39.025 38.805 38.585 38.408 38.285 38.162 38.035 37.903 37.767 37.617 37.467 37.335 37.205 37.08 37.013 36.998 36.98 36.947 36.917 36.9 36.88 36.863 36.845 36.825 36.805 36.785 36.808 36.87 36.935 37.003 37.09 37.205 37.325 37.435 37.51 37.555 37.595 37.64 37.705 37.785 37.865 37.945 38.075 38.258 38.442 38.62 38.818 39.048 39.285 39.528 39.79 40.075 40.362 40.627 40.85 41.07 41.307 41.542 41.772 41.995 42.22 42.427 42.62 42.822 43.025 43.225 43.382 43.495 43.608 43.723 43.848 43.98 44.11 44.23 44.342 44.46 44.583 44.705 44.805 44.885 44.963 45.04 45.138 45.253 45.365 45.48 45.61 45.755 45.905 46.055 46.195 46.325 46.45 46.57 46.69 46.81 46.93 47.05 47.183 47.33 47.48 47.615 47.712 47.787 47.863 47.948 48.033 48.113 48.198 48.28 48.34 48.383 48.428 48.485 48.563 48.66 48.773 48.885 48.955 48.982 49.01 49.042 49.055 49.037 49.013 48.99 48.95 48.89
33.185 33.702 34.192 34.657 35.122 35.567 35.967 36.345 36.717 37.07 37.415 37.767 38.1 38.315 38.417 38.502 38.587 38.672 38.788 38.932 39.077 39.22 39.367 39.47 39.5 39.505 39.49 39.465 39.442 39.425 39.432 39.455 39.475 39.49 39.48 39.44 39.395 39.35 39.32 39.325 39.35 39.38 39.387 39.362 39.325 39.285 39.265 39.267 39.27 39.27 39.32 39.417 39.512 39.607 39.687 39.752 39.815 39.857 39.865 39.855 39.845 39.837 39.82 39.777 39.72 39.657 39.575 39.48 39.39 39.3 39.212 39.095 38.915 38.555 38.173 37.983 37.858 37.735 37.615 37.49 37.358 37.223 37.09 36.96 36.833 36.733 36.688 36.673 36.655 36.633 36.617 36.605 36.585 36.57 36.565 36.555 36.535 36.515 36.54 36.605 36.67 36.74 36.83 36.945 37.065 37.167 37.235 37.28 37.32 37.37 37.44 37.52 37.6 37.683 37.815 37.998 38.185 38.385 38.607 38.842 39.08 39.325 39.595 39.882 40.167 40.445 40.7 40.94 41.18 41.432 41.685 41.915 42.137 42.362 42.575 42.78 42.987 43.212 43.397 43.515 43.628 43.743 43.868 44.003 44.138 44.275 44.42 44.557 44.682 44.802 44.9 44.98 45.055 45.133 45.233 45.348 45.46 45.575 45.705 45.848 45.995 46.145 46.282 46.408 46.53 46.65 46.77 46.887 47.005 47.133 47.275 47.425 47.572 47.702 47.795 47.87 47.95 48.043 48.138 48.22 48.303 48.377 48.43 48.473 48.515 48.563 48.645 48.758 48.87 48.965 49.017 49.04 49.065 49.09 49.09 49.07 49.045 49.02 48.98 48.92
33.075 33.595 34.087 34.552 35.01 35.44 35.835 36.207 36.557 36.885 37.22 37.557 37.85 38.067 38.197 38.282 38.357 38.418 38.52 38.67 38.817 38.947 39.05 39.087 39.072 39.055 39.03 39.008 38.995 38.99 39 39.02 39.035 39.037 39.017 38.975 38.927 38.883 38.843 38.818 38.823 38.85 38.87 38.865 38.835 38.798 38.778 38.773 38.77 38.77 38.82 38.915 39.007 39.097 39.173 39.237 39.292 39.327 39.335 39.325 39.323 39.332 39.342 39.325 39.275 39.207 39.115 39.01 38.915 38.855 38.885 38.937 38.864 38.32 37.735 37.555 37.432 37.308 37.192 37.085 36.962 36.83 36.698 36.57 36.47 36.408 36.375 36.357 36.34 36.315 36.305 36.307 36.295 36.28 36.285 36.295 36.285 36.265 36.29 36.355 36.42 36.49 36.58 36.695 36.805 36.892 36.952 36.998 37.048 37.11 37.185 37.265 37.345 37.428 37.56 37.748 37.948 38.16 38.39 38.628 38.868 39.12 39.393 39.677 39.962 40.24 40.495 40.738 40.998 41.28 41.56 41.815 42.045 42.27 42.485 42.69 42.923 43.187 43.397 43.532 43.652 43.768 43.898 44.04 44.18 44.32 44.477 44.64 44.782 44.905 45 45.08 45.158 45.24 45.34 45.455 45.57 45.685 45.808 45.938 46.08 46.23 46.367 46.49 46.61 46.727 46.845 46.963 47.088 47.228 47.377 47.527 47.665 47.785 47.875 47.953 48.045 48.153 48.252 48.335 48.41 48.475 48.525 48.568 48.615 48.675 48.768 48.88 48.972 49.035 49.067 49.083 49.105 49.13 49.13 49.11 49.085 49.057 49.017 48.96
32.975 33.485 33.98 34.44 34.882 35.307 35.697 36.047 36.375 36.693 37.015 37.315 37.575 37.812 37.97 38.05 38.107 38.155 38.253 38.38 38.487 38.58 38.64 38.642 38.61 38.585 38.565 38.553 38.548 38.545 38.555 38.57 38.575 38.572 38.555 38.515 38.465 38.418 38.378 38.34 38.315 38.323 38.34 38.345 38.335 38.31 38.29 38.28 38.275 38.275 38.32 38.41 38.497 38.582 38.66 38.715 38.747 38.77 38.775 38.773 38.788 38.81 38.83 38.84 38.817 38.755 38.66 38.548 38.443 38.39 38.39 38.34 38.182 37.74 37.295 37.128 37.005 36.88 36.765 36.665 36.557 36.435 36.305 36.203 36.145 36.1 36.065 36.045 36.022 35.995 35.985 35.995 35.995 35.985 35.99 36.01 36.02 36.013 36.04 36.105 36.17 36.24 36.33 36.437 36.53 36.61 36.67 36.72 36.785 36.855 36.93 37.01 37.09 37.17 37.308 37.513 37.728 37.943 38.17 38.415 38.665 38.92 39.19 39.472 39.752 40.027 40.288 40.545 40.83 41.125 41.41 41.685 41.942 42.18 42.395 42.623 42.898 43.182 43.392 43.537 43.672 43.795 43.93 44.077 44.222 44.365 44.523 44.695 44.86 45 45.1 45.182 45.267 45.353 45.453 45.568 45.68 45.795 45.915 46.04 46.175 46.318 46.452 46.572 46.688 46.802 46.918 47.043 47.185 47.333 47.48 47.62 47.745 47.862 47.955 48.043 48.15 48.265 48.367 48.445 48.51 48.567 48.618 48.668 48.728 48.798 48.887 48.977 49.04 49.09 49.122 49.135 49.15 49.17 49.17 49.15 49.125 49.095 49.055 49
32.9 33.39 33.868 34.315 34.753 35.175 35.547 35.878 36.2 36.52 36.81 37.063 37.31 37.557 37.73 37.807 37.86 37.91 37.98 38.05 38.103 38.158 38.203 38.203 38.168 38.135 38.115 38.11 38.105 38.1 38.105 38.11 38.11 38.11 38.095 38.055 38.005 37.955 37.913 37.875 37.838 37.815 37.813 37.815 37.818 37.813 37.8 37.793 37.787 37.783 37.818 37.9 37.985 38.07 38.14 38.175 38.193 38.213 38.228 38.24 38.265 38.29 38.31 38.33 38.337 38.3 38.207 38.092 37.983 37.885 37.767 37.563 37.3 37.05 36.85 36.705 36.58 36.455 36.34 36.24 36.14 36.033 35.933 35.87 35.832 35.79 35.753 35.73 35.705 35.675 35.665 35.675 35.682 35.685 35.695 35.715 35.735 35.747 35.785 35.852 35.92 35.988 36.07 36.165 36.25 36.33 36.398 36.46 36.528 36.595 36.675 36.768 36.86 36.953 37.103 37.31 37.52 37.73 37.958 38.21 38.468 38.723 38.988 39.263 39.537 39.815 40.092 40.375 40.67 40.965 41.25 41.53 41.807 42.072 42.322 42.595 42.892 43.177 43.387 43.535 43.68 43.817 43.957 44.105 44.255 44.402 44.563 44.737 44.912 45.072 45.19 45.282 45.375 45.465 45.568 45.68 45.79 45.905 46.025 46.15 46.277 46.408 46.537 46.658 46.77 46.883 47.003 47.14 47.29 47.438 47.575 47.7 47.82 47.94 48.045 48.148 48.263 48.378 48.477 48.548 48.605 48.663 48.72 48.783 48.85 48.92 48.99 49.05 49.098 49.145 49.18 49.198 49.21 49.222 49.215 49.188 49.162 49.135 49.095 49.04
32.845 33.325 33.788 34.23 34.665 35.07 35.423 35.748 36.073 36.402 36.665 36.863 37.088 37.33 37.505 37.585 37.638 37.693 37.738 37.773 37.81 37.835 37.838 37.823 37.795 37.76 37.713 37.685 37.68 37.675 37.67 37.665 37.663 37.66 37.645 37.605 37.555 37.505 37.45 37.4 37.362 37.325 37.308 37.31 37.315 37.323 37.318 37.308 37.3 37.29 37.32 37.398 37.48 37.557 37.607 37.63 37.648 37.685 37.723 37.74 37.763 37.785 37.805 37.825 37.845 37.832 37.752 37.637 37.52 37.37 37.17 36.95 36.743 36.568 36.423 36.293 36.168 36.05 35.945 35.845 35.745 35.645 35.573 35.53 35.492 35.46 35.432 35.407 35.38 35.35 35.345 35.36 35.37 35.382 35.4 35.42 35.437 35.455 35.5 35.57 35.643 35.723 35.813 35.903 35.988 36.07 36.15 36.222 36.288 36.358 36.458 36.573 36.678 36.785 36.94 37.14 37.34 37.543 37.77 38.025 38.285 38.54 38.793 39.05 39.32 39.6 39.89 40.187 40.485 40.782 41.07 41.347 41.625 41.902 42.192 42.505 42.822 43.127 43.345 43.485 43.625 43.775 43.925 44.07 44.22 44.4 44.597 44.777 44.95 45.117 45.25 45.347 45.443 45.552 45.67 45.78 45.89 46.005 46.125 46.25 46.375 46.495 46.623 46.757 46.88 46.99 47.118 47.263 47.41 47.555 47.685 47.803 47.92 48.043 48.16 48.273 48.388 48.497 48.592 48.662 48.72 48.78 48.845 48.915 48.985 49.05 49.098 49.14 49.188 49.235 49.265 49.275 49.285 49.295 49.275 49.228 49.195 49.17 49.13 49.075
32.798 33.275 33.74 34.182 34.6 34.982 35.327 35.653 35.983 36.32 36.567 36.725 36.91 37.135 37.31 37.387 37.435 37.49 37.535 37.57 37.592 37.575 37.533 37.5 37.475 37.437 37.365 37.295 37.27 37.263 37.253 37.24 37.23 37.225 37.21 37.17 37.12 37.07 37.003 36.928 36.878 36.84 36.823 36.828 36.838 36.85 36.845 36.828 36.813 36.803 36.83 36.9 36.975 37.037 37.075 37.098 37.138 37.21 37.26 37.268 37.28 37.3 37.32 37.34 37.357 37.357 37.295 37.18 37.05 36.892 36.695 36.485 36.305 36.155 36.018 35.888 35.77 35.673 35.58 35.48 35.38 35.28 35.21 35.17 35.138 35.118 35.1 35.077 35.05 35.023 35.025 35.047 35.06 35.075 35.095 35.115 35.132 35.15 35.195 35.268 35.355 35.463 35.567 35.657 35.745 35.83 35.912 35.992 36.063 36.135 36.255 36.397 36.512 36.623 36.78 36.98 37.177 37.375 37.603 37.858 38.112 38.365 38.61 38.85 39.105 39.38 39.67 39.97 40.27 40.572 40.862 41.135 41.41 41.685 41.98 42.307 42.65 42.995 43.232 43.365 43.51 43.675 43.832 43.98 44.158 44.398 44.627 44.81 44.985 45.155 45.287 45.383 45.493 45.628 45.757 45.87 45.98 46.095 46.215 46.34 46.46 46.57 46.7 46.852 46.997 47.122 47.252 47.395 47.54 47.685 47.812 47.928 48.048 48.175 48.295 48.41 48.52 48.617 48.71 48.792 48.86 48.92 48.985 49.055 49.125 49.19 49.232 49.263 49.303 49.35 49.372 49.368 49.37 49.38 49.352 49.285 49.233 49.2 49.16 49.105
32.77 33.23 33.692 34.117 34.51 34.885 35.232 35.563 35.9 36.232 36.467 36.613 36.768 36.958 37.12 37.195 37.238 37.287 37.332 37.347 37.322 37.27 37.218 37.183 37.157 37.117 37.04 36.943 36.875 36.85 36.838 36.823 36.808 36.798 36.78 36.74 36.69 36.64 36.572 36.485 36.408 36.358 36.343 36.35 36.363 36.377 36.375 36.355 36.335 36.32 36.338 36.395 36.458 36.51 36.548 36.59 36.665 36.755 36.805 36.805 36.803 36.815 36.835 36.855 36.872 36.882 36.832 36.715 36.572 36.412 36.23 36.048 35.893 35.748 35.61 35.49 35.393 35.31 35.217 35.115 35.015 34.918 34.853 34.82 34.798 34.783 34.765 34.745 34.72 34.695 34.7 34.727 34.747 34.763 34.783 34.805 34.825 34.845 34.898 34.99 35.098 35.215 35.32 35.41 35.502 35.59 35.67 35.755 35.835 35.908 36.03 36.195 36.337 36.46 36.62 36.817 37.013 37.208 37.435 37.69 37.94 38.19 38.432 38.665 38.903 39.163 39.45 39.75 40.053 40.357 40.647 40.92 41.193 41.468 41.765 42.098 42.453 42.817 43.082 43.24 43.403 43.577 43.74 43.918 44.155 44.427 44.655 44.837 45.017 45.19 45.322 45.433 45.57 45.715 45.845 45.96 46.07 46.185 46.305 46.425 46.537 46.643 46.773 46.93 47.09 47.24 47.382 47.525 47.67 47.812 47.94 48.06 48.185 48.315 48.435 48.542 48.642 48.735 48.823 48.91 48.992 49.06 49.125 49.195 49.265 49.33 49.375 49.4 49.425 49.462 49.48 49.47 49.463 49.465 49.435 49.362 49.293 49.238 49.188 49.13
32.78 33.207 33.635 34.03 34.407 34.782 35.137 35.477 35.82 36.14 36.362 36.507 36.655 36.812 36.937 37.002 37.045 37.085 37.1 37.067 37.01 36.95 36.9 36.865 36.84 36.8 36.72 36.615 36.515 36.453 36.425 36.408 36.393 36.377 36.352 36.31 36.26 36.21 36.15 36.068 35.97 35.895 35.875 35.885 35.895 35.908 35.908 35.89 35.873 35.855 35.858 35.895 35.945 35.993 36.045 36.12 36.21 36.3 36.347 36.345 36.338 36.338 36.35 36.368 36.385 36.402 36.362 36.24 36.093 35.948 35.793 35.638 35.493 35.345 35.213 35.113 35.03 34.948 34.855 34.758 34.66 34.568 34.51 34.485 34.465 34.448 34.43 34.41 34.388 34.368 34.375 34.403 34.428 34.448 34.47 34.498 34.523 34.548 34.618 34.735 34.852 34.967 35.07 35.16 35.255 35.347 35.43 35.513 35.597 35.678 35.8 35.972 36.14 36.29 36.458 36.653 36.847 37.04 37.263 37.515 37.765 38.015 38.255 38.488 38.72 38.963 39.24 39.54 39.843 40.145 40.44 40.73 41.018 41.308 41.61 41.94 42.293 42.647 42.937 43.138 43.313 43.488 43.675 43.91 44.185 44.46 44.685 44.865 45.045 45.222 45.37 45.505 45.657 45.805 45.935 46.05 46.16 46.275 46.392 46.503 46.61 46.715 46.848 47.01 47.173 47.337 47.495 47.642 47.79 47.935 48.07 48.197 48.325 48.452 48.567 48.665 48.757 48.85 48.938 49.025 49.115 49.195 49.265 49.335 49.405 49.47 49.512 49.535 49.557 49.582 49.59 49.578 49.563 49.555 49.517 49.445 49.37 49.295 49.23 49.168
32.73 33.14 33.527 33.9 34.277 34.655 35.005 35.342 35.695 36.015 36.23 36.37 36.51 36.647 36.737 36.78 36.82 36.855 36.84 36.78 36.72 36.66 36.608 36.57 36.545 36.492 36.382 36.258 36.145 36.055 36.013 35.995 35.978 35.962 35.935 35.89 35.838 35.785 35.735 35.665 35.573 35.488 35.455 35.465 35.475 35.475 35.465 35.453 35.438 35.423 35.418 35.438 35.48 35.525 35.59 35.678 35.765 35.847 35.89 35.89 35.882 35.875 35.88 35.895 35.91 35.927 35.91 35.815 35.68 35.55 35.408 35.258 35.113 34.965 34.84 34.75 34.673 34.603 34.533 34.448 34.353 34.263 34.208 34.183 34.16 34.138 34.115 34.095 34.075 34.065 34.08 34.108 34.135 34.163 34.188 34.213 34.24 34.273 34.353 34.475 34.595 34.71 34.812 34.905 34.997 35.09 35.182 35.27 35.353 35.438 35.565 35.737 35.912 36.09 36.282 36.482 36.675 36.868 37.088 37.335 37.585 37.835 38.082 38.322 38.558 38.793 39.06 39.36 39.66 39.96 40.29 40.625 40.93 41.235 41.538 41.85 42.188 42.533 42.842 43.077 43.263 43.438 43.65 43.915 44.197 44.475 44.712 44.905 45.085 45.265 45.427 45.575 45.727 45.877 46.007 46.122 46.235 46.352 46.48 46.597 46.705 46.81 46.94 47.1 47.265 47.435 47.595 47.743 47.895 48.055 48.2 48.327 48.455 48.577 48.685 48.78 48.87 48.963 49.063 49.16 49.25 49.335 49.41 49.48 49.547 49.605 49.64 49.66 49.682 49.702 49.705 49.69 49.675 49.652 49.597 49.522 49.445 49.368 49.298 49.232
32.595 33.005 33.385 33.745 34.12 34.497 34.835 35.148 35.49 35.82 36.042 36.182 36.315 36.445 36.522 36.54 36.563 36.597 36.585 36.525 36.465 36.405 36.348 36.305 36.272 36.2 36.058 35.893 35.755 35.65 35.6 35.585 35.568 35.555 35.527 35.477 35.423 35.37 35.322 35.267 35.195 35.113 35.075 35.085 35.085 35.065 35.045 35.037 35.025 35.01 35.005 35.018 35.05 35.093 35.16 35.245 35.32 35.38 35.417 35.43 35.427 35.42 35.423 35.438 35.452 35.467 35.467 35.422 35.322 35.195 35.052 34.898 34.75 34.605 34.483 34.398 34.335 34.29 34.24 34.167 34.08 33.99 33.933 33.908 33.882 33.855 33.83 33.813 33.8 33.8 33.82 33.85 33.88 33.91 33.932 33.95 33.973 34.005 34.085 34.205 34.325 34.44 34.545 34.64 34.725 34.808 34.91 35.02 35.11 35.193 35.32 35.493 35.675 35.87 36.082 36.3 36.5 36.693 36.913 37.16 37.41 37.66 37.912 38.16 38.4 38.635 38.9 39.2 39.5 39.8 40.16 40.555 40.892 41.198 41.495 41.795 42.118 42.457 42.775 43.04 43.247 43.425 43.643 43.908 44.19 44.47 44.722 44.942 45.135 45.315 45.48 45.63 45.78 45.93 46.062 46.177 46.295 46.418 46.557 46.702 46.825 46.933 47.058 47.205 47.365 47.532 47.69 47.843 48.005 48.175 48.325 48.452 48.575 48.692 48.797 48.89 48.983 49.078 49.185 49.3 49.4 49.487 49.562 49.627 49.685 49.727 49.757 49.78 49.8 49.82 49.825 49.81 49.78 49.73 49.665 49.592 49.518 49.443 49.372 49.302
32.46 32.865 33.242 33.598 33.963 34.332 34.662 34.955 35.268 35.59 35.82 35.967 36.11 36.245 36.315 36.317 36.32 36.342 36.33 36.272 36.215 36.155 36.095 36.047 35.997 35.91 35.765 35.58 35.408 35.263 35.19 35.178 35.163 35.15 35.12 35.065 35.01 34.96 34.91 34.86 34.805 34.733 34.695 34.695 34.675 34.648 34.63 34.623 34.612 34.6 34.598 34.608 34.628 34.663 34.728 34.8 34.853 34.898 34.932 34.953 34.965 34.965 34.968 34.983 34.998 35.015 35.012 34.985 34.932 34.832 34.695 34.542 34.39 34.243 34.128 34.06 34.02 33.987 33.937 33.872 33.802 33.72 33.66 33.633 33.607 33.58 33.555 33.545 33.548 33.553 33.57 33.6 33.628 33.655 33.678 33.693 33.71 33.738 33.815 33.935 34.055 34.172 34.277 34.365 34.437 34.51 34.615 34.742 34.855 34.948 35.075 35.255 35.45 35.65 35.865 36.097 36.317 36.518 36.738 36.987 37.24 37.49 37.74 37.99 38.237 38.478 38.743 39.04 39.34 39.64 40 40.425 40.825 41.16 41.457 41.753 42.058 42.382 42.692 42.972 43.217 43.415 43.635 43.903 44.183 44.46 44.715 44.95 45.167 45.362 45.53 45.683 45.835 45.985 46.117 46.235 46.357 46.483 46.625 46.785 46.932 47.055 47.183 47.325 47.473 47.63 47.79 47.955 48.128 48.3 48.447 48.572 48.69 48.805 48.91 49.003 49.097 49.193 49.3 49.422 49.537 49.637 49.712 49.765 49.807 49.842 49.875 49.9 49.92 49.94 49.942 49.912 49.855 49.79 49.725 49.655 49.587 49.517 49.44 49.35
32.327 32.725 33.097 33.452 33.81 34.167 34.49 34.78 35.075 35.37 35.59 35.74 35.89 36.032 36.1 36.097 36.092 36.097 36.072 36.012 35.955 35.895 35.835 35.777 35.71 35.617 35.475 35.295 35.12 34.95 34.853 34.825 34.795 34.763 34.718 34.663 34.608 34.555 34.503 34.45 34.4 34.343 34.308 34.29 34.263 34.238 34.22 34.21 34.198 34.185 34.188 34.203 34.223 34.255 34.305 34.355 34.395 34.435 34.465 34.483 34.498 34.508 34.518 34.53 34.545 34.563 34.558 34.53 34.5 34.447 34.335 34.188 34.038 33.888 33.788 33.745 33.715 33.682 33.633 33.57 33.51 33.443 33.39 33.36 33.333 33.305 33.288 33.29 33.3 33.308 33.323 33.35 33.375 33.4 33.428 33.448 33.465 33.49 33.563 33.678 33.793 33.908 34.005 34.078 34.143 34.213 34.315 34.445 34.575 34.695 34.843 35.033 35.23 35.43 35.648 35.882 36.112 36.332 36.563 36.812 37.065 37.315 37.565 37.815 38.065 38.315 38.585 38.88 39.18 39.48 39.84 40.265 40.695 41.09 41.42 41.715 42.008 42.31 42.605 42.885 43.157 43.392 43.628 43.9 44.178 44.45 44.705 44.94 45.173 45.397 45.58 45.732 45.887 46.04 46.175 46.297 46.422 46.55 46.693 46.853 47.015 47.165 47.31 47.455 47.595 47.743 47.908 48.08 48.252 48.425 48.567 48.685 48.802 48.917 49.022 49.118 49.213 49.308 49.415 49.535 49.655 49.765 49.837 49.88 49.917 49.955 49.987 50.01 50.03 50.05 50.037 49.982 49.915 49.847 49.775 49.7 49.63 49.557 49.47 49.37
32.17 32.55 32.915 33.277 33.637 33.977 34.282 34.565 34.847 35.117 35.322 35.475 35.625 35.775 35.852 35.852 35.85 35.85 35.797 35.713 35.65 35.59 35.532 35.48 35.417 35.332 35.202 35.038 34.873 34.708 34.603 34.558 34.508 34.44 34.37 34.315 34.26 34.2 34.13 34.06 34.005 33.955 33.92 33.895 33.87 33.85 33.833 33.82 33.808 33.815 33.828 33.835 33.86 33.893 33.938 33.985 34.025 34.06 34.085 34.103 34.115 34.128 34.135 34.14 34.153 34.165 34.158 34.13 34.1 34.07 33.995 33.863 33.718 33.57 33.478 33.445 33.415 33.382 33.347 33.3 33.24 33.18 33.138 33.11 33.08 33.05 33.038 33.045 33.055 33.063 33.08 33.11 33.138 33.165 33.198 33.228 33.25 33.273 33.34 33.45 33.56 33.668 33.755 33.82 33.885 33.96 34.068 34.2 34.335 34.473 34.633 34.823 35.02 35.22 35.438 35.67 35.9 36.13 36.37 36.62 36.87 37.133 37.395 37.645 37.895 38.158 38.443 38.74 39.04 39.34 39.698 40.12 40.55 40.975 41.365 41.69 41.98 42.268 42.55 42.828 43.103 43.365 43.628 43.903 44.178 44.447 44.705 44.948 45.185 45.425 45.62 45.77 45.925 46.08 46.22 46.347 46.475 46.613 46.768 46.935 47.1 47.265 47.432 47.587 47.73 47.875 48.038 48.212 48.382 48.54 48.67 48.785 48.905 49.025 49.135 49.23 49.325 49.422 49.515 49.618 49.735 49.845 49.915 49.955 49.995 50.032 50.062 50.085 50.105 50.122 50.095 50.03 49.965 49.897 49.812 49.72 49.64 49.56 49.47 49.375
31.975 32.332 32.692 33.057 33.405 33.72 34.007 34.282 34.557 34.817 35.017 35.17 35.328 35.487 35.572 35.585 35.59 35.587 35.52 35.398 35.308 35.248 35.2 35.165 35.125 35.057 34.945 34.797 34.637 34.473 34.368 34.32 34.25 34.153 34.07 34.015 33.957 33.887 33.8 33.705 33.63 33.575 33.538 33.515 33.495 33.48 33.467 33.453 33.463 33.525 33.555 33.53 33.533 33.56 33.61 33.67 33.715 33.75 33.775 33.795 33.812 33.822 33.82 33.815 33.82 33.83 33.82 33.788 33.755 33.725 33.662 33.555 33.422 33.278 33.185 33.15 33.118 33.083 33.065 33.047 33 32.943 32.903 32.877 32.85 32.82 32.805 32.808 32.813 32.818 32.843 32.882 32.915 32.945 32.98 33.017 33.047 33.07 33.135 33.245 33.352 33.452 33.535 33.6 33.673 33.76 33.875 34.013 34.147 34.285 34.443 34.625 34.818 35.015 35.23 35.46 35.693 35.925 36.163 36.413 36.673 36.955 37.23 37.48 37.743 38.025 38.32 38.62 38.92 39.22 39.573 39.99 40.417 40.842 41.27 41.657 41.975 42.26 42.54 42.815 43.088 43.363 43.64 43.915 44.185 44.452 44.715 44.967 45.212 45.455 45.65 45.803 45.957 46.11 46.25 46.385 46.528 46.683 46.855 47.03 47.197 47.365 47.54 47.712 47.867 48.015 48.175 48.345 48.502 48.637 48.757 48.875 48.998 49.125 49.242 49.34 49.435 49.535 49.615 49.685 49.785 49.897 49.967 50.005 50.045 50.08 50.107 50.13 50.152 50.17 50.14 50.073 50.005 49.94 49.85 49.738 49.643 49.56 49.47 49.375
31.757 32.107 32.462 32.802 33.115 33.415 33.702 33.978 34.25 34.51 34.712 34.87 35.04 35.205 35.287 35.305 35.32 35.322 35.262 35.125 34.988 34.91 34.875 34.845 34.815 34.77 34.677 34.542 34.395 34.238 34.13 34.062 33.967 33.86 33.773 33.71 33.645 33.57 33.48 33.375 33.275 33.2 33.158 33.14 33.128 33.115 33.103 33.11 33.173 33.275 33.317 33.273 33.23 33.233 33.278 33.342 33.4 33.44 33.465 33.485 33.505 33.517 33.515 33.503 33.495 33.5 33.49 33.455 33.418 33.382 33.317 33.222 33.112 32.98 32.89 32.855 32.82 32.78 32.765 32.767 32.747 32.705 32.665 32.64 32.615 32.588 32.575 32.575 32.575 32.578 32.605 32.65 32.69 32.725 32.76 32.8 32.837 32.868 32.933 33.037 33.14 33.235 33.315 33.388 33.475 33.57 33.685 33.822 33.957 34.095 34.255 34.435 34.618 34.808 35.023 35.255 35.488 35.72 35.958 36.215 36.495 36.787 37.063 37.325 37.608 37.903 38.198 38.498 38.8 39.1 39.448 39.858 40.283 40.708 41.14 41.572 41.952 42.262 42.542 42.818 43.098 43.38 43.657 43.927 44.193 44.458 44.72 44.977 45.232 45.48 45.68 45.837 45.99 46.14 46.288 46.44 46.6 46.765 46.94 47.117 47.292 47.465 47.64 47.82 47.992 48.15 48.307 48.462 48.597 48.722 48.845 48.967 49.095 49.227 49.35 49.452 49.55 49.65 49.727 49.78 49.85 49.95 50.022 50.057 50.095 50.13 50.155 50.175 50.197 50.215 50.185 50.117 50.05 49.982 49.89 49.77 49.658 49.563 49.472 49.38
31.543 31.88 32.205 32.51 32.805 33.105 33.395 33.67 33.943 34.21 34.42 34.585 34.758 34.92 35.002 35.02 35.04 35.052 35.01 34.893 34.75 34.64 34.578 34.538 34.505 34.47 34.395 34.272 34.135 33.995 33.885 33.793 33.69 33.588 33.49 33.408 33.33 33.25 33.163 33.068 32.97 32.883 32.833 32.81 32.79 32.77 32.77 32.828 32.928 33.035 33.08 33.037 32.973 32.93 32.953 33.018 33.083 33.13 33.155 33.175 33.195 33.21 33.21 33.197 33.185 33.177 33.16 33.125 33.085 33.045 32.98 32.885 32.785 32.675 32.593 32.555 32.523 32.485 32.468 32.473 32.472 32.455 32.427 32.403 32.377 32.355 32.345 32.345 32.348 32.353 32.378 32.42 32.463 32.505 32.545 32.585 32.625 32.663 32.728 32.825 32.923 33.018 33.105 33.193 33.288 33.38 33.493 33.628 33.765 33.908 34.068 34.248 34.43 34.613 34.825 35.063 35.298 35.53 35.773 36.045 36.338 36.63 36.915 37.2 37.49 37.783 38.078 38.378 38.68 38.98 39.32 39.723 40.148 40.573 41.005 41.448 41.877 42.247 42.55 42.83 43.112 43.395 43.668 43.933 44.198 44.46 44.72 44.98 45.243 45.5 45.71 45.873 46.028 46.183 46.343 46.51 46.677 46.845 47.02 47.197 47.375 47.552 47.73 47.91 48.09 48.262 48.417 48.555 48.68 48.805 48.932 49.06 49.19 49.325 49.452 49.56 49.662 49.765 49.842 49.895 49.947 50.015 50.075 50.11 50.145 50.18 50.205 50.225 50.242 50.255 50.225 50.157 50.092 50.022 49.925 49.802 49.68 49.572 49.48 49.39
31.385 31.708 31.99 32.265 32.558 32.853 33.14 33.415 33.69 33.965 34.18 34.343 34.508 34.667 34.755 34.775 34.798 34.818 34.797 34.71 34.59 34.468 34.353 34.268 34.22 34.185 34.112 33.993 33.87 33.775 33.685 33.585 33.485 33.38 33.268 33.16 33.068 32.985 32.9 32.813 32.728 32.645 32.59 32.56 32.53 32.505 32.53 32.618 32.722 32.812 32.835 32.787 32.722 32.66 32.663 32.728 32.782 32.815 32.835 32.857 32.88 32.892 32.89 32.88 32.87 32.86 32.837 32.8 32.76 32.722 32.667 32.58 32.48 32.38 32.318 32.288 32.255 32.223 32.205 32.208 32.21 32.205 32.19 32.165 32.14 32.128 32.125 32.125 32.13 32.14 32.165 32.208 32.25 32.293 32.343 32.39 32.433 32.475 32.54 32.635 32.73 32.828 32.925 33.018 33.113 33.205 33.318 33.455 33.593 33.735 33.898 34.078 34.263 34.453 34.678 34.925 35.165 35.403 35.65 35.928 36.22 36.51 36.808 37.105 37.395 37.688 37.983 38.28 38.58 38.88 39.208 39.598 40.023 40.463 40.913 41.36 41.815 42.227 42.552 42.837 43.12 43.41 43.702 43.978 44.24 44.5 44.753 45 45.258 45.52 45.745 45.92 46.08 46.24 46.405 46.575 46.745 46.92 47.09 47.257 47.432 47.61 47.79 47.97 48.15 48.335 48.495 48.625 48.752 48.88 49.005 49.127 49.257 49.392 49.52 49.632 49.737 49.84 49.92 49.975 50.025 50.07 50.11 50.145 50.18 50.215 50.23 50.237 50.25 50.26 50.232 50.165 50.097 50.02 49.915 49.792 49.67 49.565 49.48 49.395
31.28 31.597 31.86 32.105 32.378 32.665 32.95 33.223 33.493 33.765 33.98 34.143 34.315 34.477 34.56 34.58 34.605 34.63 34.615 34.545 34.445 34.33 34.198 34.068 33.97 33.913 33.835 33.728 33.653 33.605 33.535 33.435 33.33 33.215 33.092 32.97 32.863 32.773 32.687 32.6 32.515 32.435 32.38 32.35 32.325 32.313 32.353 32.445 32.532 32.582 32.575 32.522 32.46 32.398 32.395 32.452 32.485 32.495 32.51 32.533 32.555 32.565 32.56 32.55 32.543 32.54 32.52 32.48 32.443 32.407 32.362 32.292 32.202 32.105 32.055 32.045 32.017 31.985 31.973 31.975 31.972 31.965 31.95 31.925 31.908 31.91 31.915 31.915 31.92 31.933 31.96 32.003 32.045 32.088 32.145 32.207 32.257 32.303 32.37 32.465 32.565 32.67 32.767 32.855 32.948 33.043 33.16 33.3 33.438 33.578 33.74 33.923 34.118 34.325 34.565 34.83 35.077 35.315 35.568 35.843 36.13 36.42 36.72 37.025 37.32 37.612 37.908 38.205 38.505 38.805 39.115 39.485 39.91 40.41 40.91 41.345 41.8 42.222 42.55 42.835 43.13 43.438 43.75 44.047 44.32 44.582 44.825 45.048 45.285 45.54 45.777 45.972 46.14 46.3 46.465 46.635 46.81 46.992 47.155 47.308 47.475 47.65 47.83 48.01 48.195 48.39 48.555 48.688 48.82 48.95 49.067 49.178 49.303 49.435 49.56 49.675 49.78 49.88 49.96 50.015 50.06 50.092 50.125 50.162 50.2 50.235 50.24 50.225 50.223 50.232 50.207 50.142 50.067 49.977 49.867 49.748 49.635 49.538 49.462 49.392
31.185 31.492 31.75 31.98 32.223 32.49 32.77 33.04 33.303 33.57 33.787 33.963 34.152 34.312 34.385 34.403 34.425 34.45 34.427 34.36 34.282 34.185 34.062 33.925 33.785 33.673 33.588 33.525 33.488 33.45 33.38 33.275 33.16 33.042 32.92 32.793 32.673 32.565 32.473 32.388 32.305 32.228 32.173 32.145 32.133 32.128 32.175 32.26 32.305 32.32 32.302 32.252 32.195 32.133 32.125 32.16 32.17 32.173 32.188 32.207 32.223 32.233 32.23 32.223 32.22 32.22 32.2 32.163 32.127 32.092 32.05 31.99 31.917 31.833 31.785 31.785 31.775 31.75 31.738 31.74 31.735 31.725 31.71 31.693 31.69 31.697 31.702 31.708 31.715 31.73 31.76 31.8 31.84 31.883 31.94 32.01 32.072 32.125 32.198 32.298 32.405 32.515 32.612 32.698 32.785 32.878 32.998 33.14 33.28 33.42 33.585 33.78 33.988 34.203 34.445 34.72 34.982 35.228 35.488 35.763 36.043 36.333 36.632 36.94 37.245 37.54 37.835 38.135 38.435 38.735 39.035 39.385 39.853 40.437 40.96 41.37 41.8 42.215 42.55 42.845 43.155 43.47 43.78 44.092 44.39 44.665 44.905 45.115 45.333 45.57 45.802 46.007 46.192 46.36 46.525 46.7 46.885 47.07 47.23 47.373 47.523 47.69 47.87 48.055 48.25 48.447 48.612 48.75 48.887 49.017 49.132 49.24 49.355 49.478 49.6 49.712 49.817 49.92 50 50.05 50.082 50.108 50.14 50.18 50.22 50.255 50.26 50.235 50.213 50.21 50.182 50.112 50.025 49.93 49.825 49.713 49.61 49.515 49.44 49.38
31.097 31.385 31.635 31.865 32.097 32.34 32.598 32.863 33.125 33.387 33.612 33.803 33.997 34.15 34.215 34.23 34.247 34.265 34.235 34.165 34.097 34.022 33.922 33.792 33.648 33.505 33.413 33.373 33.335 33.295 33.22 33.105 32.985 32.868 32.747 32.62 32.493 32.373 32.268 32.18 32.1 32.023 31.97 31.953 31.948 31.945 31.982 32.032 32.045 32.05 32.03 31.98 31.925 31.87 31.853 31.86 31.86 31.858 31.868 31.885 31.898 31.91 31.913 31.91 31.91 31.905 31.882 31.847 31.813 31.78 31.74 31.68 31.615 31.553 31.518 31.515 31.518 31.513 31.503 31.498 31.493 31.485 31.475 31.473 31.48 31.485 31.49 31.5 31.513 31.528 31.555 31.595 31.635 31.675 31.733 31.808 31.883 31.953 32.035 32.14 32.25 32.36 32.458 32.543 32.628 32.715 32.838 32.988 33.135 33.283 33.46 33.668 33.873 34.083 34.325 34.6 34.873 35.138 35.41 35.685 35.96 36.248 36.545 36.85 37.16 37.463 37.763 38.065 38.365 38.665 38.968 39.33 39.88 40.512 41.01 41.415 41.825 42.222 42.565 42.878 43.195 43.513 43.823 44.133 44.443 44.737 44.985 45.195 45.405 45.625 45.84 46.038 46.23 46.413 46.59 46.773 46.96 47.145 47.305 47.445 47.585 47.738 47.915 48.11 48.31 48.505 48.67 48.81 48.948 49.08 49.2 49.31 49.42 49.533 49.645 49.75 49.855 49.96 50.032 50.07 50.098 50.123 50.155 50.195 50.238 50.275 50.28 50.255 50.225 50.203 50.16 50.08 49.988 49.895 49.798 49.693 49.59 49.495 49.42 49.36
30.957 31.227 31.47 31.702 31.937 32.183 32.44 32.703 32.965 33.222 33.45 33.645 33.84 33.987 34.042 34.057 34.072 34.08 34.047 33.983 33.918 33.853 33.775 33.657 33.515 33.375 33.278 33.23 33.19 33.14 33.052 32.935 32.815 32.698 32.577 32.452 32.325 32.198 32.08 31.983 31.9 31.823 31.778 31.77 31.765 31.752 31.755 31.77 31.775 31.78 31.762 31.72 31.675 31.63 31.608 31.603 31.603 31.603 31.595 31.595 31.61 31.625 31.63 31.63 31.625 31.602 31.57 31.535 31.5 31.47 31.438 31.395 31.348 31.308 31.285 31.28 31.283 31.283 31.275 31.268 31.263 31.263 31.268 31.275 31.285 31.29 31.298 31.31 31.323 31.335 31.36 31.4 31.44 31.493 31.565 31.645 31.723 31.803 31.893 31.993 32.1 32.21 32.315 32.41 32.495 32.583 32.71 32.868 33.023 33.178 33.365 33.58 33.785 33.99 34.228 34.498 34.773 35.048 35.325 35.602 35.88 36.17 36.475 36.785 37.095 37.403 37.71 38.015 38.315 38.618 38.96 39.38 39.953 40.582 41.075 41.48 41.882 42.272 42.632 42.965 43.288 43.605 43.903 44.2 44.51 44.815 45.08 45.303 45.515 45.728 45.928 46.113 46.3 46.488 46.668 46.848 47.033 47.217 47.38 47.52 47.66 47.808 47.983 48.18 48.38 48.572 48.735 48.875 49.013 49.15 49.277 49.388 49.495 49.605 49.708 49.805 49.91 50.015 50.077 50.105 50.135 50.163 50.195 50.235 50.278 50.302 50.297 50.275 50.248 50.22 50.162 50.075 49.988 49.903 49.808 49.703 49.598 49.5 49.418 49.35
