ncols         200
nrows         71
xllcorner     549000
yllcorner     256280
cellsize      5
NODATA_value  -9999.0
14.048 14.123 14.213 14.305 14.357 14.332 14.272 14.22 14.17 14.127 14.082 14.022 13.957 13.905 13.893 13.915 13.943 13.968 13.995 14 13.983 13.967 13.915 13.815 13.705 13.595 13.48 13.368 13.278 13.208 13.228 13.333 13.438 13.54 13.58 13.558 13.53 13.5 13.477 13.447 13.403 13.358 13.31 13.263 13.225 13.195 13.163 13.13 13.1 13.078 13.093 13.137 13.18 13.223 13.268 13.315 13.365 13.4 13.417 13.437 13.46 13.48 13.505 13.52 13.5 13.478 13.503 13.56 13.62 13.675 13.72 13.755 13.783 13.805 13.83 13.858 13.89 13.923 13.955 14 14.05 14.1 14.145 14.185 14.225 14.263 14.3 14.34 14.38 14.41 14.43 14.45 14.47 14.49 14.52 14.56 14.603 14.685 14.835 15.017 15.195 15.315 15.37 15.4 15.417 15.38 15.28 15.19 15.145 15.117 15.075 15.022 14.945 14.855 14.81 14.792 14.767 14.735 14.71 14.7 14.687 14.665 14.622 14.562 14.502 14.45 14.425 14.432 14.447 14.465 14.482 14.495 14.51 14.527 14.442 14.297 14.157 13.928 13.668 13.488 13.383 13.323 13.3 13.29 13.283 13.275 13.265 13.258 13.285 13.518 13.697 13.712 13.907 13.952 13.735 13.585 13.435 13.285 13.223 13.19 13.16 13.13 13.138 13.19 13.243 13.278 13.305 13.338 13.375 13.415 13.453 13.485 13.505 13.54 13.628 13.745 13.865 13.975 14.055 14.1 14.133 14.17 14.213 14.258 14.305 14.353 14.37 14.36 14.35 14.345 14.34 14.33 14.32 14.308 14.293 14.28 14.27 14.257 14.247 14.242
13.925 13.978 14.043 14.133 14.225 14.252 14.21 14.157 14.102 14.05 13.995 13.932 13.867 13.805 13.783 13.808 13.838 13.865 13.897 13.912 13.905 13.892 13.842 13.745 13.633 13.52 13.41 13.328 13.27 13.213 13.235 13.335 13.435 13.522 13.55 13.528 13.5 13.462 13.415 13.368 13.32 13.275 13.24 13.215 13.19 13.16 13.13 13.1 13.07 13.053 13.068 13.108 13.15 13.192 13.24 13.295 13.35 13.392 13.42 13.44 13.46 13.477 13.507 13.532 13.515 13.498 13.538 13.603 13.658 13.713 13.76 13.793 13.823 13.853 13.88 13.913 13.943 13.973 14.015 14.063 14.113 14.173 14.223 14.26 14.3 14.34 14.38 14.42 14.447 14.448 14.443 14.453 14.47 14.49 14.518 14.553 14.595 14.68 14.825 15 15.162 15.28 15.362 15.427 15.445 15.38 15.27 15.165 15.1 15.075 15.052 15.012 14.912 14.8 14.747 14.715 14.67 14.625 14.6 14.59 14.572 14.54 14.492 14.435 14.37 14.295 14.255 14.265 14.285 14.305 14.322 14.337 14.355 14.377 14.422 14.485 14.48 14.357 14.18 14.055 13.982 13.93 13.845 13.67 13.463 13.293 13.223 13.22 13.22 13.22 13.22 13.28 13.52 13.677 13.77 13.937 13.862 13.693 13.565 13.375 13.25 13.215 13.22 13.265 13.38 13.493 13.533 13.573 13.615 13.658 13.7 13.727 13.717 13.703 13.745 13.84 13.955 14.075 14.157 14.195 14.225 14.255 14.31 14.382 14.44 14.485 14.498 14.48 14.465 14.455 14.45 14.442 14.43 14.415 14.4 14.39 14.377 14.35 14.325 14.32
13.81 13.842 13.888 13.967 14.047 14.085 14.065 14.01 13.952 13.902 13.85 13.79 13.733 13.688 13.683 13.715 13.752 13.785 13.812 13.832 13.84 13.83 13.78 13.685 13.577 13.467 13.358 13.298 13.275 13.238 13.265 13.36 13.442 13.512 13.537 13.515 13.472 13.412 13.353 13.3 13.253 13.208 13.18 13.177 13.17 13.145 13.115 13.085 13.058 13.04 13.05 13.08 13.115 13.158 13.208 13.262 13.315 13.355 13.38 13.4 13.42 13.45 13.497 13.535 13.535 13.53 13.588 13.677 13.74 13.79 13.835 13.873 13.908 13.94 13.973 14.007 14.027 14.048 14.09 14.14 14.2 14.272 14.327 14.363 14.4 14.44 14.48 14.507 14.507 14.49 14.475 14.47 14.475 14.49 14.515 14.555 14.615 14.703 14.825 14.983 15.13 15.232 15.318 15.407 15.475 15.415 15.27 15.15 15.068 15.03 15.002 14.947 14.842 14.725 14.65 14.603 14.558 14.515 14.49 14.475 14.442 14.397 14.345 14.285 14.195 14.088 14.038 14.04 14.053 14.07 14.088 14.105 14.128 14.158 14.21 14.29 14.375 14.44 14.46 14.45 14.455 14.477 14.427 14.265 14.065 13.902 13.845 13.852 13.857 13.792 13.638 13.463 13.298 13.221 13.466 13.947 14.15 14.107 14.04 13.867 13.695 13.558 13.45 13.515 13.7 13.812 13.835 13.86 13.905 13.945 13.97 13.957 13.907 13.873 13.898 13.965 14.058 14.17 14.257 14.3 14.325 14.343 14.393 14.485 14.575 14.647 14.662 14.627 14.595 14.577 14.57 14.555 14.538 14.523 14.51 14.495 14.465 14.415 14.383 14.403
13.675 13.695 13.733 13.795 13.855 13.897 13.887 13.833 13.783 13.74 13.693 13.64 13.6 13.578 13.588 13.625 13.665 13.702 13.73 13.748 13.76 13.762 13.72 13.627 13.522 13.413 13.313 13.268 13.263 13.25 13.283 13.362 13.43 13.495 13.525 13.49 13.425 13.355 13.293 13.238 13.188 13.14 13.118 13.127 13.135 13.125 13.1 13.07 13.045 13.03 13.038 13.063 13.09 13.125 13.173 13.225 13.275 13.317 13.342 13.36 13.39 13.44 13.492 13.527 13.545 13.555 13.615 13.722 13.815 13.88 13.925 13.965 14 14.033 14.067 14.095 14.105 14.12 14.165 14.23 14.302 14.375 14.43 14.465 14.498 14.535 14.565 14.567 14.55 14.53 14.515 14.505 14.498 14.498 14.518 14.57 14.645 14.735 14.845 14.978 15.1 15.195 15.285 15.38 15.485 15.53 15.42 15.2 15.038 14.98 14.927 14.843 14.743 14.635 14.553 14.498 14.448 14.403 14.373 14.345 14.3 14.25 14.197 14.122 14 13.875 13.825 13.823 13.823 13.835 13.855 13.88 13.91 13.945 14 14.07 14.125 14.155 14.178 14.2 14.237 14.197 14.082 14.045 14.112 14.267 14.379 14.402 14.415 14.355 14.207 14.04 13.89 13.828 13.94 14.19 14.33 14.3 14.292 14.325 14.302 14.13 13.888 13.897 14.06 14.137 14.155 14.158 14.192 14.217 14.197 14.145 14.083 14.043 14.065 14.123 14.188 14.278 14.36 14.402 14.42 14.435 14.468 14.545 14.65 14.737 14.767 14.742 14.702 14.677 14.67 14.66 14.645 14.627 14.612 14.582 14.53 14.473 14.475 14.553
13.52 13.54 13.57 13.613 13.658 13.702 13.705 13.663 13.623 13.585 13.545 13.51 13.488 13.478 13.495 13.535 13.578 13.623 13.655 13.67 13.68 13.69 13.66 13.572 13.465 13.355 13.28 13.26 13.265 13.27 13.293 13.35 13.415 13.48 13.502 13.45 13.373 13.298 13.235 13.18 13.125 13.08 13.063 13.073 13.088 13.095 13.085 13.06 13.035 13.02 13.025 13.048 13.073 13.105 13.143 13.185 13.235 13.28 13.308 13.333 13.38 13.44 13.49 13.522 13.545 13.568 13.638 13.75 13.86 13.955 14.012 14.05 14.087 14.125 14.16 14.175 14.17 14.19 14.252 14.33 14.405 14.477 14.532 14.565 14.595 14.622 14.63 14.612 14.59 14.57 14.558 14.55 14.543 14.535 14.548 14.6 14.678 14.77 14.877 14.993 15.108 15.2 15.273 15.36 15.458 15.587 15.65 15.462 15.138 14.94 14.85 14.753 14.653 14.55 14.473 14.418 14.365 14.313 14.265 14.22 14.17 14.118 14.06 13.96 13.815 13.688 13.633 13.625 13.618 13.62 13.638 13.665 13.698 13.733 13.78 13.835 13.875 13.908 13.95 14 14.015 13.775 13.45 13.338 13.38 13.543 13.717 13.892 14.135 14.297 14.337 14.372 14.412 14.432 14.425 14.427 14.445 14.44 14.44 14.482 14.53 14.415 14.17 14.123 14.26 14.375 14.417 14.43 14.45 14.437 14.382 14.32 14.26 14.218 14.235 14.29 14.345 14.413 14.47 14.497 14.513 14.528 14.548 14.595 14.667 14.735 14.782 14.782 14.747 14.725 14.72 14.722 14.72 14.707 14.677 14.622 14.555 14.525 14.593 14.715
13.36 13.38 13.405 13.443 13.485 13.525 13.545 13.528 13.493 13.455 13.423 13.4 13.385 13.39 13.418 13.458 13.505 13.555 13.587 13.603 13.615 13.625 13.602 13.52 13.41 13.31 13.283 13.308 13.323 13.328 13.325 13.348 13.403 13.467 13.477 13.415 13.335 13.258 13.193 13.14 13.09 13.065 13.07 13.075 13.078 13.083 13.08 13.068 13.053 13.04 13.048 13.073 13.103 13.14 13.165 13.178 13.203 13.24 13.278 13.323 13.38 13.44 13.487 13.515 13.54 13.583 13.668 13.78 13.89 14.01 14.08 14.1 14.135 14.175 14.21 14.217 14.21 14.243 14.315 14.395 14.475 14.557 14.612 14.637 14.665 14.682 14.675 14.652 14.628 14.608 14.61 14.615 14.608 14.6 14.618 14.668 14.733 14.81 14.903 15.013 15.147 15.26 15.32 15.38 15.45 15.56 15.722 15.655 15.235 14.923 14.835 14.745 14.643 14.543 14.468 14.413 14.355 14.29 14.225 14.17 14.118 14.053 13.978 13.885 13.755 13.618 13.55 13.54 13.528 13.515 13.525 13.553 13.58 13.605 13.643 13.69 13.73 13.768 13.803 13.84 13.8 13.525 13.23 13.1 13.03 12.993 13 13.228 13.725 14.095 14.237 14.357 14.422 14.412 14.4 14.42 14.44 14.467 14.502 14.525 14.54 14.435 14.248 14.245 14.382 14.475 14.517 14.55 14.57 14.58 14.557 14.5 14.44 14.393 14.403 14.458 14.515 14.577 14.602 14.6 14.615 14.63 14.64 14.648 14.663 14.705 14.765 14.787 14.765 14.745 14.743 14.747 14.745 14.727 14.682 14.615 14.553 14.575 14.693 14.827
13.195 13.215 13.243 13.285 13.33 13.37 13.402 13.41 13.385 13.345 13.315 13.298 13.305 13.34 13.365 13.395 13.445 13.492 13.522 13.54 13.555 13.565 13.545 13.465 13.365 13.29 13.303 13.372 13.405 13.402 13.385 13.375 13.398 13.452 13.457 13.39 13.313 13.24 13.175 13.123 13.09 13.098 13.13 13.14 13.127 13.11 13.103 13.118 13.128 13.12 13.128 13.155 13.188 13.222 13.245 13.24 13.23 13.233 13.263 13.32 13.38 13.44 13.485 13.513 13.55 13.61 13.7 13.81 13.93 14.07 14.14 14.138 14.155 14.19 14.222 14.23 14.24 14.283 14.348 14.425 14.51 14.6 14.657 14.68 14.702 14.715 14.705 14.685 14.663 14.643 14.657 14.685 14.685 14.678 14.705 14.76 14.807 14.853 14.923 15.03 15.175 15.327 15.42 15.465 15.508 15.57 15.7 15.625 15.203 14.913 14.85 14.78 14.692 14.595 14.52 14.46 14.385 14.303 14.233 14.177 14.11 14.022 13.935 13.86 13.77 13.645 13.568 13.55 13.527 13.503 13.505 13.535 13.555 13.565 13.603 13.657 13.695 13.725 13.75 13.775 13.75 13.58 13.383 13.265 13.162 13.035 12.873 12.903 13.32 13.742 13.972 14.162 14.267 14.255 14.26 14.34 14.41 14.455 14.485 14.505 14.517 14.445 14.335 14.37 14.467 14.502 14.523 14.547 14.568 14.617 14.662 14.66 14.62 14.565 14.568 14.625 14.688 14.755 14.755 14.718 14.725 14.74 14.742 14.73 14.71 14.71 14.743 14.782 14.782 14.765 14.767 14.76 14.735 14.7 14.655 14.593 14.57 14.653 14.788 14.93
13.048 13.048 13.078 13.125 13.17 13.212 13.247 13.267 13.265 13.235 13.208 13.215 13.265 13.322 13.33 13.338 13.385 13.43 13.46 13.477 13.492 13.505 13.487 13.418 13.34 13.283 13.303 13.412 13.482 13.477 13.455 13.435 13.425 13.45 13.442 13.373 13.3 13.23 13.165 13.115 13.11 13.147 13.19 13.197 13.172 13.143 13.14 13.18 13.217 13.227 13.235 13.257 13.285 13.315 13.34 13.327 13.28 13.24 13.255 13.317 13.38 13.44 13.485 13.523 13.575 13.64 13.73 13.85 13.99 14.137 14.205 14.198 14.198 14.213 14.235 14.253 14.283 14.328 14.383 14.455 14.543 14.632 14.69 14.715 14.737 14.747 14.735 14.715 14.695 14.678 14.693 14.732 14.755 14.765 14.795 14.84 14.875 14.905 14.953 15.048 15.195 15.365 15.502 15.575 15.607 15.63 15.705 15.59 15.173 14.905 14.845 14.785 14.717 14.64 14.565 14.487 14.4 14.31 14.232 14.162 14.075 13.975 13.885 13.81 13.74 13.653 13.583 13.55 13.518 13.488 13.488 13.51 13.52 13.528 13.568 13.632 13.687 13.725 13.75 13.772 13.79 13.692 13.535 13.412 13.27 13.095 12.893 12.75 12.953 13.343 13.585 13.765 13.91 13.958 14.003 14.15 14.315 14.422 14.465 14.482 14.495 14.455 14.42 14.46 14.495 14.505 14.522 14.54 14.555 14.593 14.66 14.725 14.757 14.735 14.735 14.797 14.865 14.927 14.91 14.845 14.833 14.845 14.842 14.825 14.802 14.78 14.773 14.785 14.79 14.783 14.77 14.74 14.703 14.665 14.625 14.585 14.623 14.748 14.89 15.095
12.945 12.9 12.915 12.965 13.01 13.055 13.093 13.115 13.13 13.123 13.125 13.175 13.247 13.307 13.305 13.29 13.323 13.367 13.4 13.415 13.43 13.445 13.44 13.395 13.335 13.28 13.303 13.432 13.535 13.547 13.522 13.5 13.48 13.47 13.437 13.37 13.298 13.225 13.158 13.123 13.143 13.187 13.227 13.227 13.193 13.168 13.183 13.23 13.28 13.317 13.34 13.355 13.365 13.375 13.39 13.377 13.313 13.245 13.25 13.313 13.375 13.438 13.493 13.545 13.605 13.67 13.77 13.91 14.06 14.205 14.27 14.263 14.255 14.25 14.26 14.29 14.333 14.378 14.425 14.49 14.58 14.67 14.722 14.748 14.772 14.78 14.765 14.745 14.728 14.713 14.728 14.77 14.807 14.84 14.872 14.905 14.935 14.965 14.995 15.07 15.215 15.398 15.59 15.677 15.677 15.695 15.727 15.55 15.14 14.9 14.84 14.777 14.715 14.655 14.58 14.49 14.4 14.305 14.21 14.117 14.022 13.925 13.84 13.783 13.735 13.685 13.645 13.597 13.532 13.483 13.47 13.478 13.48 13.49 13.533 13.598 13.663 13.717 13.75 13.77 13.792 13.767 13.655 13.49 13.305 13.108 12.91 12.77 12.885 13.153 13.328 13.458 13.585 13.678 13.783 13.963 14.17 14.352 14.44 14.457 14.472 14.467 14.472 14.492 14.498 14.505 14.518 14.533 14.548 14.57 14.628 14.71 14.795 14.845 14.885 14.955 15.025 15.08 15.057 14.98 14.945 14.947 14.938 14.915 14.895 14.875 14.86 14.855 14.88 14.923 14.918 14.873 14.83 14.79 14.748 14.718 14.743 14.85 15.053 15.353
12.955 12.888 12.858 12.875 12.915 12.96 12.998 13.018 13.033 13.048 13.09 13.16 13.232 13.292 13.29 13.253 13.26 13.305 13.337 13.352 13.368 13.383 13.395 13.38 13.332 13.278 13.31 13.445 13.562 13.595 13.57 13.545 13.522 13.495 13.457 13.402 13.333 13.258 13.185 13.15 13.17 13.21 13.245 13.242 13.208 13.195 13.225 13.275 13.322 13.365 13.385 13.382 13.372 13.36 13.375 13.407 13.375 13.3 13.28 13.32 13.38 13.445 13.51 13.57 13.63 13.708 13.823 13.965 14.117 14.267 14.342 14.343 14.338 14.333 14.34 14.373 14.418 14.463 14.51 14.568 14.645 14.723 14.765 14.788 14.812 14.82 14.805 14.785 14.768 14.753 14.77 14.818 14.863 14.902 14.935 14.965 14.995 15.025 15.05 15.113 15.31 15.595 15.73 15.697 15.675 15.69 15.68 15.45 15.078 14.89 14.832 14.767 14.705 14.645 14.57 14.48 14.385 14.275 14.165 14.065 13.97 13.89 13.84 13.818 13.802 13.767 13.707 13.617 13.53 13.483 13.463 13.46 13.473 13.5 13.545 13.603 13.66 13.718 13.767 13.802 13.752 13.695 13.65 13.51 13.323 13.18 13.085 13.033 13.098 13.22 13.325 13.42 13.515 13.605 13.71 13.873 14.073 14.28 14.4 14.422 14.437 14.442 14.465 14.495 14.502 14.51 14.52 14.533 14.542 14.55 14.615 14.715 14.8 14.885 14.967 15.047 15.12 15.18 15.175 15.112 15.068 15.05 15.043 15.038 15.035 15.035 15.04 15.058 15.108 15.225 15.352 15.387 15.35 15.303 15.258 15.223 15.188 15.165 15.33 15.662
13.065 13.005 12.943 12.903 12.9 12.93 12.965 12.98 12.998 13.03 13.083 13.148 13.215 13.275 13.275 13.225 13.21 13.242 13.272 13.29 13.308 13.325 13.345 13.352 13.325 13.278 13.328 13.465 13.58 13.622 13.6 13.575 13.547 13.515 13.482 13.442 13.39 13.32 13.248 13.205 13.203 13.228 13.26 13.257 13.23 13.228 13.26 13.31 13.347 13.362 13.357 13.342 13.328 13.315 13.348 13.422 13.435 13.388 13.355 13.358 13.4 13.463 13.528 13.593 13.668 13.768 13.88 14.005 14.153 14.305 14.4 14.435 14.45 14.448 14.455 14.488 14.535 14.583 14.633 14.685 14.748 14.812 14.838 14.843 14.865 14.875 14.86 14.84 14.82 14.803 14.823 14.875 14.925 14.967 15 15.03 15.057 15.082 15.105 15.17 15.368 15.7 15.785 15.66 15.63 15.63 15.57 15.315 15.015 14.868 14.807 14.752 14.695 14.632 14.557 14.467 14.36 14.233 14.115 14.018 13.94 13.893 13.873 13.867 13.842 13.767 13.653 13.56 13.523 13.505 13.485 13.47 13.488 13.535 13.585 13.635 13.685 13.735 13.792 13.842 13.7 13.545 13.55 13.507 13.42 13.373 13.352 13.317 13.3 13.343 13.435 13.53 13.617 13.695 13.773 13.88 14.038 14.235 14.352 14.372 14.38 14.373 14.4 14.467 14.505 14.515 14.525 14.535 14.522 14.513 14.6 14.735 14.832 14.917 15.002 15.087 15.167 15.237 15.252 15.212 15.168 15.175 15.222 15.247 15.265 15.285 15.305 15.338 15.395 15.533 15.755 15.937 16.037 16.05 16.005 15.955 15.832 15.63 15.683 15.955
13.165 13.13 13.07 13.005 12.953 12.928 12.938 12.96 12.988 13.028 13.078 13.135 13.2 13.257 13.257 13.21 13.173 13.18 13.21 13.23 13.25 13.27 13.29 13.307 13.307 13.288 13.348 13.475 13.585 13.642 13.63 13.602 13.57 13.533 13.498 13.465 13.43 13.375 13.31 13.273 13.258 13.255 13.275 13.277 13.263 13.263 13.29 13.327 13.34 13.33 13.313 13.298 13.283 13.278 13.325 13.412 13.472 13.475 13.45 13.433 13.438 13.48 13.548 13.633 13.735 13.845 13.95 14.058 14.185 14.325 14.427 14.492 14.54 14.557 14.57 14.605 14.655 14.705 14.757 14.81 14.865 14.925 14.942 14.925 14.928 14.93 14.915 14.895 14.875 14.858 14.878 14.932 14.985 15.03 15.065 15.092 15.115 15.135 15.155 15.233 15.378 15.605 15.707 15.64 15.598 15.577 15.472 15.233 15 14.845 14.77 14.727 14.677 14.617 14.542 14.442 14.32 14.188 14.073 13.993 13.945 13.915 13.897 13.867 13.787 13.67 13.58 13.563 13.565 13.547 13.512 13.475 13.48 13.527 13.58 13.63 13.68 13.73 13.785 13.837 13.69 13.518 13.523 13.53 13.547 13.577 13.57 13.532 13.503 13.498 13.55 13.635 13.71 13.78 13.858 13.943 14.048 14.202 14.305 14.312 14.305 14.295 14.308 14.385 14.477 14.515 14.527 14.52 14.47 14.458 14.565 14.73 14.857 14.95 15.035 15.12 15.207 15.287 15.315 15.282 15.238 15.24 15.332 15.457 15.53 15.552 15.58 15.63 15.695 15.808 16.005 16.25 16.487 16.647 16.69 16.587 16.345 16.06 16 16.122
13.235 13.225 13.182 13.125 13.06 12.993 12.968 12.99 13.02 13.053 13.095 13.148 13.205 13.25 13.242 13.195 13.148 13.133 13.15 13.17 13.19 13.213 13.233 13.25 13.268 13.285 13.355 13.47 13.582 13.657 13.657 13.625 13.59 13.55 13.515 13.485 13.455 13.417 13.37 13.338 13.322 13.308 13.305 13.305 13.3 13.3 13.31 13.315 13.303 13.288 13.27 13.253 13.238 13.25 13.32 13.42 13.5 13.525 13.515 13.502 13.492 13.515 13.59 13.698 13.812 13.925 14.03 14.13 14.238 14.353 14.445 14.515 14.58 14.635 14.677 14.72 14.772 14.825 14.88 14.935 14.987 15.042 15.055 15.022 14.995 14.983 14.97 14.95 14.93 14.913 14.933 14.987 15.04 15.085 15.117 15.14 15.162 15.185 15.213 15.3 15.442 15.59 15.652 15.62 15.575 15.537 15.418 15.208 15.003 14.823 14.725 14.685 14.643 14.595 14.522 14.415 14.295 14.175 14.063 13.99 13.957 13.932 13.892 13.805 13.685 13.603 13.598 13.617 13.607 13.57 13.515 13.465 13.465 13.508 13.553 13.6 13.65 13.7 13.755 13.81 13.755 13.613 13.563 13.582 13.603 13.66 13.72 13.732 13.712 13.675 13.675 13.73 13.8 13.87 13.945 14.027 14.11 14.21 14.267 14.253 14.23 14.215 14.213 14.275 14.395 14.487 14.512 14.47 14.4 14.403 14.528 14.703 14.863 14.98 15.068 15.155 15.245 15.332 15.375 15.35 15.305 15.263 15.305 15.477 15.65 15.775 15.867 15.932 15.998 16.083 16.255 16.487 16.7 16.897 17.045 16.99 16.742 16.455 16.295 16.298
13.295 13.267 13.232 13.205 13.155 13.085 13.05 13.068 13.092 13.108 13.14 13.19 13.237 13.27 13.252 13.198 13.148 13.115 13.118 13.143 13.165 13.19 13.215 13.235 13.258 13.29 13.365 13.475 13.587 13.657 13.652 13.62 13.587 13.56 13.54 13.518 13.493 13.465 13.433 13.403 13.383 13.367 13.345 13.323 13.315 13.315 13.31 13.298 13.28 13.263 13.248 13.23 13.225 13.268 13.36 13.462 13.517 13.525 13.522 13.517 13.518 13.55 13.648 13.772 13.89 14.005 14.11 14.21 14.31 14.413 14.503 14.575 14.643 14.7 14.742 14.787 14.845 14.9 14.955 15.01 15.062 15.107 15.107 15.07 15.045 15.045 15.04 15.018 14.995 14.97 14.98 15.03 15.08 15.125 15.152 15.17 15.192 15.215 15.253 15.343 15.475 15.597 15.635 15.6 15.558 15.54 15.445 15.243 15.033 14.818 14.693 14.658 14.62 14.58 14.522 14.43 14.32 14.21 14.093 13.995 13.95 13.93 13.867 13.778 13.673 13.625 13.66 13.662 13.627 13.572 13.51 13.455 13.45 13.49 13.53 13.573 13.62 13.67 13.725 13.78 13.815 13.705 13.593 13.617 13.64 13.678 13.76 13.827 13.822 13.775 13.758 13.803 13.875 13.945 14.02 14.1 14.18 14.255 14.285 14.263 14.23 14.203 14.183 14.215 14.318 14.44 14.47 14.405 14.34 14.39 14.568 14.763 14.958 15.083 15.14 15.21 15.295 15.387 15.437 15.417 15.373 15.328 15.303 15.388 15.7 16.025 16.157 16.225 16.29 16.358 16.46 16.598 16.745 16.897 17.065 17.17 17.06 16.79 16.618 16.595
13.325 13.265 13.223 13.22 13.212 13.167 13.135 13.147 13.16 13.163 13.19 13.24 13.28 13.305 13.287 13.23 13.178 13.143 13.143 13.17 13.198 13.225 13.253 13.275 13.298 13.325 13.39 13.495 13.58 13.602 13.582 13.56 13.545 13.545 13.562 13.572 13.56 13.538 13.508 13.473 13.443 13.422 13.387 13.335 13.308 13.305 13.3 13.29 13.275 13.258 13.243 13.24 13.268 13.33 13.425 13.502 13.52 13.513 13.508 13.505 13.523 13.58 13.693 13.83 13.96 14.08 14.188 14.293 14.398 14.505 14.602 14.68 14.74 14.762 14.77 14.813 14.875 14.93 14.983 15.037 15.082 15.11 15.107 15.075 15.078 15.115 15.12 15.095 15.062 15.02 15.015 15.06 15.107 15.152 15.18 15.19 15.205 15.225 15.27 15.363 15.487 15.59 15.612 15.583 15.57 15.6 15.52 15.31 15.075 14.818 14.678 14.652 14.62 14.58 14.535 14.465 14.367 14.26 14.14 14.018 13.938 13.902 13.842 13.765 13.725 13.715 13.712 13.685 13.63 13.568 13.505 13.445 13.433 13.473 13.515 13.555 13.598 13.643 13.695 13.75 13.8 13.747 13.648 13.643 13.675 13.705 13.765 13.827 13.832 13.798 13.798 13.858 13.932 14.005 14.08 14.16 14.237 14.305 14.337 14.327 14.3 14.268 14.24 14.235 14.29 14.397 14.42 14.363 14.355 14.455 14.685 14.96 15.185 15.29 15.313 15.35 15.403 15.465 15.503 15.483 15.453 15.488 15.57 15.685 16.06 16.395 16.448 16.5 16.567 16.635 16.68 16.715 16.78 16.875 17.02 17.202 17.28 17.122 16.945 16.907
13.32 13.25 13.2 13.195 13.215 13.215 13.207 13.212 13.217 13.22 13.243 13.285 13.312 13.33 13.317 13.27 13.225 13.198 13.2 13.223 13.25 13.28 13.305 13.325 13.345 13.37 13.42 13.487 13.517 13.51 13.503 13.5 13.505 13.52 13.56 13.607 13.627 13.62 13.59 13.547 13.508 13.48 13.437 13.368 13.313 13.295 13.29 13.28 13.267 13.253 13.253 13.285 13.338 13.4 13.475 13.515 13.51 13.5 13.495 13.508 13.55 13.618 13.725 13.868 14.015 14.152 14.272 14.385 14.497 14.61 14.71 14.78 14.805 14.79 14.788 14.835 14.9 14.957 15.01 15.055 15.085 15.105 15.107 15.098 15.128 15.187 15.202 15.167 15.112 15.055 15.05 15.093 15.135 15.18 15.21 15.215 15.223 15.24 15.295 15.393 15.505 15.582 15.593 15.593 15.63 15.677 15.587 15.352 15.077 14.8 14.66 14.64 14.615 14.58 14.535 14.475 14.4 14.307 14.19 14.058 13.94 13.873 13.808 13.72 13.723 13.765 13.742 13.69 13.627 13.563 13.5 13.438 13.42 13.458 13.5 13.54 13.58 13.62 13.668 13.72 13.77 13.79 13.72 13.67 13.702 13.735 13.783 13.825 13.835 13.823 13.843 13.913 13.99 14.065 14.14 14.217 14.29 14.355 14.385 14.382 14.367 14.343 14.32 14.3 14.305 14.363 14.388 14.393 14.473 14.585 14.79 15.117 15.502 15.735 15.782 15.832 15.882 15.935 15.985 16.01 16.02 16.075 16.195 16.322 16.51 16.695 16.745 16.775 16.845 16.915 16.962 16.978 16.995 17.035 17.115 17.225 17.35 17.367 17.27 17.208
13.305 13.238 13.183 13.17 13.19 13.215 13.242 13.26 13.27 13.277 13.292 13.317 13.337 13.355 13.35 13.315 13.278 13.255 13.26 13.28 13.303 13.33 13.355 13.375 13.397 13.42 13.442 13.463 13.465 13.465 13.475 13.485 13.493 13.5 13.535 13.597 13.652 13.682 13.667 13.62 13.572 13.535 13.482 13.407 13.335 13.29 13.275 13.265 13.255 13.253 13.283 13.342 13.402 13.462 13.505 13.51 13.5 13.49 13.495 13.533 13.587 13.648 13.763 13.923 14.08 14.23 14.36 14.475 14.59 14.707 14.81 14.852 14.835 14.805 14.805 14.853 14.918 14.983 15.03 15.055 15.078 15.1 15.11 15.135 15.193 15.257 15.27 15.217 15.145 15.088 15.088 15.125 15.165 15.208 15.237 15.245 15.25 15.268 15.333 15.435 15.532 15.582 15.585 15.623 15.695 15.742 15.627 15.35 15.055 14.78 14.64 14.62 14.6 14.575 14.535 14.475 14.41 14.34 14.237 14.105 13.968 13.868 13.795 13.725 13.723 13.765 13.747 13.685 13.622 13.56 13.497 13.433 13.41 13.44 13.48 13.523 13.565 13.605 13.648 13.693 13.74 13.79 13.75 13.698 13.728 13.763 13.805 13.835 13.843 13.848 13.885 13.96 14.037 14.112 14.19 14.265 14.337 14.405 14.435 14.435 14.43 14.418 14.403 14.385 14.37 14.378 14.418 14.5 14.612 14.723 14.873 15.153 15.605 15.982 16.132 16.22 16.305 16.37 16.412 16.447 16.47 16.477 16.51 16.572 16.617 16.73 16.89 17.017 17.122 17.195 17.245 17.272 17.307 17.35 17.39 17.43 17.49 17.553 17.55 17.5
13.29 13.223 13.163 13.15 13.18 13.215 13.255 13.29 13.31 13.32 13.33 13.345 13.363 13.38 13.382 13.357 13.322 13.303 13.312 13.335 13.357 13.382 13.402 13.417 13.437 13.455 13.46 13.46 13.463 13.468 13.475 13.485 13.49 13.475 13.488 13.55 13.615 13.67 13.672 13.625 13.575 13.54 13.492 13.42 13.353 13.303 13.265 13.24 13.23 13.243 13.29 13.355 13.42 13.48 13.507 13.5 13.493 13.485 13.503 13.552 13.607 13.665 13.795 13.987 14.16 14.31 14.437 14.552 14.67 14.78 14.87 14.902 14.878 14.843 14.858 14.925 15 15.073 15.093 15.088 15.105 15.125 15.148 15.195 15.265 15.332 15.337 15.275 15.205 15.158 15.16 15.193 15.225 15.255 15.272 15.275 15.283 15.318 15.395 15.497 15.577 15.592 15.583 15.628 15.71 15.762 15.637 15.35 15.055 14.78 14.633 14.605 14.588 14.57 14.532 14.472 14.41 14.35 14.262 14.137 14 13.883 13.81 13.755 13.748 13.78 13.75 13.68 13.618 13.555 13.493 13.43 13.403 13.425 13.465 13.507 13.55 13.59 13.63 13.67 13.713 13.76 13.772 13.748 13.755 13.79 13.838 13.875 13.883 13.893 13.92 13.98 14.055 14.13 14.212 14.292 14.37 14.44 14.47 14.468 14.483 14.502 14.5 14.485 14.465 14.445 14.49 14.6 14.71 14.835 14.988 15.2 15.52 15.882 16.1 16.19 16.28 16.347 16.367 16.365 16.388 16.425 16.455 16.493 16.533 16.61 16.845 17.155 17.335 17.42 17.482 17.53 17.582 17.635 17.675 17.707 17.74 17.795 17.832 17.802
13.28 13.21 13.15 13.138 13.172 13.217 13.262 13.302 13.332 13.35 13.36 13.373 13.387 13.402 13.405 13.385 13.353 13.338 13.352 13.377 13.402 13.425 13.44 13.448 13.458 13.47 13.475 13.47 13.468 13.47 13.475 13.485 13.48 13.433 13.423 13.482 13.54 13.59 13.6 13.56 13.525 13.515 13.48 13.415 13.368 13.34 13.275 13.213 13.2 13.22 13.275 13.338 13.4 13.46 13.492 13.492 13.487 13.485 13.51 13.56 13.613 13.67 13.79 14.007 14.225 14.387 14.515 14.627 14.735 14.825 14.9 14.94 14.935 14.905 14.938 15.05 15.152 15.222 15.22 15.178 15.17 15.183 15.215 15.275 15.345 15.415 15.42 15.358 15.303 15.268 15.27 15.3 15.322 15.322 15.31 15.308 15.333 15.395 15.478 15.575 15.63 15.61 15.585 15.615 15.695 15.75 15.63 15.36 15.073 14.798 14.645 14.605 14.583 14.565 14.527 14.47 14.41 14.35 14.265 14.147 14.018 13.9 13.828 13.78 13.773 13.8 13.762 13.68 13.613 13.55 13.488 13.425 13.393 13.41 13.45 13.49 13.53 13.57 13.613 13.655 13.695 13.738 13.782 13.785 13.783 13.825 13.89 13.937 13.948 13.958 13.968 13.993 14.053 14.13 14.215 14.305 14.39 14.46 14.49 14.5 14.545 14.597 14.61 14.595 14.56 14.52 14.56 14.678 14.81 14.968 15.14 15.318 15.56 15.88 16.082 16.138 16.198 16.272 16.315 16.32 16.365 16.435 16.465 16.48 16.498 16.55 16.81 17.202 17.455 17.575 17.647 17.707 17.777 17.85 17.902 17.935 17.968 18.088 18.172 18.125
13.27 13.205 13.155 13.133 13.155 13.205 13.255 13.3 13.342 13.375 13.39 13.4 13.412 13.427 13.427 13.405 13.377 13.37 13.385 13.407 13.432 13.455 13.47 13.475 13.48 13.487 13.487 13.482 13.477 13.473 13.475 13.48 13.45 13.375 13.358 13.41 13.455 13.5 13.522 13.503 13.493 13.502 13.475 13.428 13.403 13.387 13.33 13.228 13.175 13.205 13.265 13.323 13.38 13.44 13.475 13.48 13.478 13.488 13.525 13.575 13.625 13.678 13.76 13.968 14.245 14.452 14.587 14.687 14.775 14.855 14.927 14.965 14.975 14.968 15.015 15.152 15.29 15.372 15.365 15.305 15.263 15.253 15.288 15.358 15.43 15.5 15.505 15.453 15.413 15.38 15.38 15.402 15.402 15.372 15.343 15.353 15.408 15.483 15.56 15.645 15.672 15.633 15.595 15.608 15.695 15.75 15.615 15.355 15.082 14.815 14.668 14.623 14.585 14.56 14.525 14.47 14.41 14.35 14.265 14.15 14.028 13.915 13.843 13.805 13.798 13.815 13.777 13.685 13.608 13.545 13.483 13.42 13.38 13.39 13.433 13.475 13.515 13.555 13.597 13.64 13.68 13.72 13.76 13.79 13.818 13.873 13.95 14 14.013 14.023 14.033 14.04 14.068 14.13 14.215 14.31 14.405 14.48 14.52 14.56 14.623 14.685 14.712 14.692 14.64 14.59 14.643 14.788 14.953 15.125 15.295 15.465 15.655 15.927 16.115 16.14 16.163 16.205 16.253 16.29 16.358 16.445 16.485 16.508 16.553 16.653 16.888 17.228 17.54 17.715 17.788 17.86 17.94 18.02 18.092 18.148 18.24 18.425 18.51 18.458
13.275 13.208 13.168 13.135 13.138 13.18 13.23 13.28 13.33 13.372 13.39 13.395 13.407 13.422 13.42 13.397 13.375 13.37 13.38 13.392 13.41 13.43 13.445 13.452 13.457 13.472 13.487 13.49 13.487 13.48 13.477 13.46 13.397 13.313 13.288 13.328 13.37 13.415 13.453 13.463 13.472 13.49 13.48 13.457 13.445 13.432 13.407 13.3 13.19 13.198 13.255 13.313 13.368 13.425 13.46 13.47 13.473 13.488 13.532 13.585 13.637 13.69 13.745 13.918 14.217 14.487 14.65 14.735 14.805 14.88 14.95 14.988 15.008 15.03 15.108 15.25 15.405 15.51 15.505 15.445 15.385 15.343 15.368 15.442 15.515 15.585 15.6 15.562 15.527 15.495 15.485 15.48 15.45 15.407 15.38 15.412 15.492 15.57 15.645 15.705 15.702 15.658 15.613 15.605 15.7 15.755 15.6 15.34 15.08 14.83 14.69 14.647 14.603 14.565 14.522 14.468 14.41 14.35 14.267 14.158 14.04 13.933 13.87 13.845 13.828 13.83 13.792 13.698 13.61 13.54 13.477 13.415 13.37 13.375 13.417 13.46 13.5 13.54 13.58 13.62 13.663 13.705 13.745 13.803 13.878 13.953 14.028 14.075 14.09 14.098 14.105 14.115 14.125 14.163 14.24 14.333 14.43 14.515 14.578 14.638 14.703 14.767 14.81 14.798 14.745 14.708 14.775 14.935 15.108 15.282 15.452 15.62 15.788 16.005 16.15 16.168 16.18 16.198 16.23 16.283 16.363 16.455 16.543 16.648 16.782 16.95 17.16 17.418 17.7 17.877 17.958 18.043 18.128 18.21 18.293 18.395 18.58 18.785 18.855 18.855
13.303 13.218 13.18 13.145 13.128 13.155 13.205 13.255 13.3 13.335 13.337 13.327 13.337 13.35 13.345 13.325 13.307 13.305 13.31 13.315 13.328 13.347 13.365 13.375 13.383 13.418 13.467 13.485 13.485 13.482 13.47 13.427 13.35 13.263 13.235 13.273 13.318 13.365 13.415 13.438 13.445 13.462 13.465 13.455 13.445 13.437 13.432 13.337 13.218 13.215 13.268 13.325 13.38 13.435 13.47 13.482 13.475 13.47 13.51 13.567 13.622 13.678 13.743 13.908 14.2 14.502 14.705 14.82 14.898 14.96 15.023 15.068 15.103 15.143 15.233 15.375 15.527 15.632 15.63 15.57 15.507 15.443 15.448 15.522 15.595 15.655 15.67 15.642 15.612 15.577 15.537 15.497 15.45 15.4 15.368 15.392 15.47 15.555 15.637 15.72 15.735 15.688 15.643 15.608 15.675 15.735 15.587 15.33 15.073 14.845 14.715 14.663 14.617 14.575 14.525 14.468 14.41 14.347 14.277 14.192 14.088 13.983 13.92 13.893 13.868 13.857 13.81 13.713 13.62 13.54 13.473 13.41 13.36 13.36 13.4 13.44 13.483 13.525 13.565 13.605 13.648 13.69 13.753 13.855 13.975 14.075 14.15 14.198 14.213 14.203 14.195 14.205 14.22 14.263 14.333 14.418 14.513 14.603 14.678 14.74 14.805 14.87 14.93 14.957 14.93 14.903 14.97 15.118 15.275 15.44 15.608 15.772 15.935 16.107 16.215 16.243 16.263 16.285 16.29 16.318 16.4 16.483 16.605 16.785 16.977 17.185 17.502 17.822 17.997 18.095 18.185 18.285 18.375 18.463 18.558 18.723 18.965 19.16 19.262 19.337
13.343 13.23 13.183 13.155 13.128 13.135 13.18 13.225 13.257 13.277 13.267 13.24 13.233 13.242 13.24 13.22 13.205 13.203 13.208 13.218 13.238 13.262 13.282 13.295 13.315 13.368 13.432 13.467 13.475 13.472 13.445 13.387 13.315 13.23 13.205 13.248 13.298 13.358 13.415 13.43 13.418 13.423 13.425 13.418 13.415 13.418 13.425 13.325 13.225 13.255 13.305 13.358 13.413 13.467 13.5 13.5 13.47 13.445 13.475 13.533 13.59 13.663 13.755 13.928 14.215 14.52 14.74 14.892 15.017 15.105 15.165 15.215 15.26 15.3 15.38 15.518 15.665 15.757 15.75 15.687 15.615 15.533 15.525 15.6 15.665 15.702 15.705 15.682 15.647 15.587 15.52 15.46 15.403 15.35 15.31 15.305 15.35 15.43 15.53 15.682 15.767 15.73 15.683 15.63 15.635 15.68 15.572 15.325 15.078 14.88 14.758 14.68 14.625 14.582 14.532 14.475 14.41 14.34 14.28 14.222 14.15 14.055 13.98 13.945 13.915 13.89 13.83 13.73 13.635 13.545 13.47 13.408 13.35 13.345 13.385 13.425 13.467 13.51 13.55 13.59 13.635 13.705 13.818 13.955 14.09 14.21 14.3 14.35 14.357 14.32 14.295 14.305 14.338 14.405 14.478 14.55 14.635 14.727 14.802 14.86 14.925 14.99 15.06 15.13 15.15 15.13 15.19 15.333 15.478 15.63 15.77 15.905 16.055 16.21 16.325 16.375 16.4 16.407 16.373 16.38 16.455 16.513 16.625 16.818 17.035 17.28 17.787 18.267 18.337 18.323 18.417 18.555 18.657 18.745 18.885 19.09 19.295 19.455 19.585 19.702
13.39 13.245 13.18 13.158 13.13 13.123 13.148 13.177 13.2 13.212 13.2 13.165 13.138 13.138 13.135 13.118 13.105 13.1 13.108 13.128 13.153 13.178 13.202 13.22 13.258 13.325 13.387 13.437 13.462 13.452 13.407 13.342 13.275 13.2 13.18 13.23 13.295 13.367 13.422 13.43 13.41 13.4 13.398 13.398 13.405 13.415 13.425 13.33 13.253 13.3 13.348 13.395 13.448 13.5 13.522 13.5 13.458 13.425 13.443 13.505 13.585 13.683 13.788 13.953 14.23 14.537 14.757 14.912 15.07 15.21 15.31 15.375 15.42 15.46 15.53 15.655 15.797 15.882 15.865 15.792 15.71 15.62 15.608 15.67 15.712 15.735 15.735 15.702 15.64 15.555 15.478 15.413 15.353 15.298 15.258 15.245 15.258 15.308 15.42 15.617 15.77 15.777 15.73 15.673 15.625 15.622 15.54 15.323 15.108 14.938 14.813 14.723 14.648 14.59 14.537 14.477 14.405 14.33 14.27 14.218 14.165 14.1 14.04 14.002 13.967 13.925 13.85 13.75 13.653 13.558 13.473 13.403 13.343 13.333 13.37 13.41 13.45 13.49 13.533 13.588 13.67 13.788 13.925 14.065 14.2 14.33 14.442 14.497 14.482 14.425 14.393 14.413 14.473 14.555 14.63 14.695 14.765 14.852 14.927 14.985 15.048 15.113 15.185 15.267 15.332 15.348 15.413 15.56 15.713 15.87 15.985 16.073 16.178 16.31 16.44 16.51 16.527 16.497 16.435 16.43 16.483 16.528 16.66 16.893 17.145 17.405 17.982 18.562 18.615 18.528 18.613 18.787 18.927 19.047 19.21 19.385 19.525 19.655 19.785 19.915
13.432 13.27 13.193 13.173 13.153 13.14 13.133 13.13 13.14 13.148 13.13 13.095 13.06 13.04 13.028 13.015 13.005 13.003 13.018 13.043 13.068 13.095 13.125 13.155 13.21 13.285 13.345 13.397 13.435 13.42 13.36 13.295 13.232 13.168 13.163 13.228 13.305 13.382 13.43 13.43 13.41 13.4 13.395 13.395 13.405 13.415 13.42 13.348 13.3 13.347 13.393 13.44 13.487 13.527 13.537 13.505 13.458 13.415 13.433 13.518 13.62 13.728 13.833 13.983 14.248 14.555 14.77 14.922 15.08 15.237 15.37 15.457 15.52 15.58 15.66 15.78 15.917 15.997 15.967 15.885 15.8 15.71 15.685 15.722 15.75 15.77 15.752 15.685 15.6 15.513 15.438 15.378 15.323 15.268 15.235 15.225 15.215 15.22 15.32 15.532 15.747 15.82 15.775 15.718 15.653 15.613 15.525 15.342 15.16 15.002 14.872 14.777 14.69 14.605 14.535 14.47 14.395 14.32 14.263 14.218 14.173 14.13 14.092 14.055 14.015 13.965 13.882 13.775 13.67 13.573 13.48 13.4 13.335 13.318 13.353 13.395 13.435 13.475 13.538 13.638 13.765 13.902 14.04 14.177 14.307 14.432 14.555 14.617 14.59 14.525 14.495 14.538 14.62 14.707 14.782 14.847 14.913 14.985 15.055 15.113 15.17 15.235 15.31 15.393 15.475 15.535 15.64 15.805 15.967 16.13 16.242 16.31 16.378 16.47 16.57 16.635 16.64 16.59 16.53 16.503 16.525 16.57 16.715 16.967 17.232 17.498 17.912 18.36 18.64 18.727 18.795 18.975 19.132 19.275 19.427 19.585 19.725 19.855 19.985 20.115
13.457 13.3 13.238 13.233 13.218 13.203 13.18 13.153 13.135 13.12 13.098 13.068 13.038 13.01 12.99 12.98 12.968 12.958 12.968 12.99 13.013 13.038 13.065 13.105 13.17 13.245 13.3 13.34 13.377 13.367 13.307 13.245 13.183 13.13 13.155 13.24 13.32 13.397 13.437 13.43 13.418 13.417 13.413 13.403 13.405 13.415 13.407 13.36 13.348 13.393 13.44 13.482 13.502 13.51 13.542 13.555 13.515 13.465 13.503 13.618 13.725 13.833 13.938 14.075 14.318 14.602 14.787 14.923 15.077 15.23 15.36 15.455 15.535 15.622 15.727 15.852 15.987 16.067 16.037 15.955 15.872 15.79 15.753 15.768 15.793 15.815 15.78 15.69 15.6 15.525 15.468 15.415 15.365 15.313 15.288 15.3 15.3 15.275 15.265 15.405 15.677 15.83 15.818 15.858 15.877 15.765 15.562 15.345 15.19 15.037 14.892 14.775 14.672 14.57 14.505 14.457 14.385 14.31 14.265 14.242 14.21 14.173 14.137 14.1 14.052 14 13.927 13.82 13.703 13.593 13.493 13.403 13.33 13.308 13.338 13.38 13.423 13.49 13.6 13.735 13.862 13.995 14.145 14.275 14.375 14.48 14.6 14.667 14.652 14.605 14.613 14.69 14.778 14.863 14.932 14.992 15.055 15.117 15.187 15.252 15.31 15.373 15.448 15.535 15.612 15.685 15.82 16.007 16.19 16.385 16.527 16.605 16.68 16.72 16.748 16.782 16.772 16.725 16.675 16.628 16.613 16.643 16.765 17 17.27 17.53 17.78 18.068 18.468 18.78 18.942 19.11 19.25 19.352 19.475 19.645 19.815 19.977 20.165 20.335
13.46 13.333 13.295 13.305 13.3 13.287 13.265 13.232 13.185 13.14 13.115 13.095 13.075 13.053 13.03 13.015 12.997 12.968 12.96 12.983 13.005 13.025 13.05 13.093 13.153 13.202 13.235 13.265 13.297 13.3 13.252 13.19 13.133 13.095 13.143 13.247 13.335 13.412 13.447 13.438 13.435 13.44 13.437 13.423 13.41 13.415 13.39 13.365 13.393 13.44 13.47 13.472 13.455 13.445 13.51 13.597 13.61 13.568 13.618 13.762 13.885 13.99 14.103 14.245 14.448 14.682 14.835 14.935 15.07 15.22 15.35 15.445 15.533 15.638 15.758 15.883 16.012 16.102 16.085 16.005 15.928 15.86 15.823 15.82 15.838 15.862 15.83 15.74 15.663 15.61 15.565 15.515 15.465 15.408 15.375 15.407 15.452 15.435 15.305 15.29 15.55 15.815 16.08 16.292 16.202 15.895 15.555 15.325 15.175 15.007 14.835 14.693 14.58 14.483 14.44 14.427 14.375 14.303 14.27 14.267 14.247 14.215 14.18 14.137 14.085 14.03 13.97 13.877 13.758 13.635 13.518 13.415 13.333 13.298 13.32 13.373 13.453 13.56 13.675 13.805 13.943 14.088 14.25 14.365 14.425 14.498 14.605 14.675 14.668 14.68 14.77 14.877 14.965 15.042 15.09 15.125 15.18 15.24 15.315 15.397 15.47 15.535 15.607 15.685 15.732 15.8 15.95 16.145 16.365 16.625 16.842 16.95 16.982 16.957 16.95 16.96 16.93 16.885 16.835 16.78 16.733 16.725 16.813 17.028 17.292 17.53 17.76 18.045 18.388 18.76 19.042 19.2 19.32 19.398 19.465 19.59 19.77 20.018 20.347 20.592
13.452 13.368 13.345 13.36 13.37 13.367 13.34 13.292 13.227 13.17 13.143 13.13 13.117 13.102 13.08 13.06 13.032 12.983 12.965 12.988 13.01 13.033 13.063 13.105 13.15 13.17 13.175 13.19 13.215 13.23 13.197 13.138 13.093 13.065 13.115 13.232 13.337 13.425 13.46 13.455 13.458 13.462 13.462 13.447 13.425 13.417 13.393 13.39 13.427 13.445 13.435 13.407 13.38 13.378 13.45 13.567 13.652 13.663 13.725 13.887 14.035 14.15 14.278 14.435 14.605 14.782 14.91 14.988 15.083 15.213 15.34 15.443 15.548 15.668 15.792 15.915 16.037 16.137 16.132 16.055 15.99 15.935 15.9 15.89 15.895 15.912 15.88 15.803 15.75 15.71 15.665 15.615 15.562 15.5 15.455 15.48 15.552 15.562 15.44 15.35 15.503 15.778 16.165 16.432 16.25 15.82 15.483 15.3 15.122 14.932 14.743 14.593 14.49 14.405 14.363 14.367 14.35 14.295 14.268 14.275 14.272 14.252 14.22 14.172 14.115 14.06 14.005 13.93 13.822 13.697 13.57 13.45 13.345 13.29 13.323 13.38 13.475 13.615 13.74 13.88 14.04 14.202 14.357 14.452 14.498 14.548 14.625 14.683 14.713 14.81 14.95 15.072 15.172 15.245 15.27 15.275 15.308 15.36 15.435 15.527 15.617 15.695 15.757 15.8 15.815 15.9 16.08 16.3 16.57 16.862 17.12 17.232 17.207 17.155 17.137 17.127 17.09 17.045 16.995 16.94 16.88 16.835 16.868 17.048 17.295 17.515 17.74 18.035 18.408 18.812 19.117 19.272 19.38 19.462 19.51 19.573 19.708 20.048 20.507 20.825
13.443 13.398 13.393 13.407 13.422 13.422 13.39 13.33 13.26 13.2 13.17 13.16 13.15 13.14 13.125 13.107 13.062 12.995 12.975 12.995 13.015 13.038 13.07 13.105 13.135 13.15 13.145 13.14 13.145 13.16 13.14 13.093 13.063 13.04 13.085 13.2 13.317 13.425 13.472 13.475 13.483 13.488 13.487 13.472 13.448 13.43 13.415 13.41 13.407 13.385 13.358 13.333 13.305 13.31 13.388 13.503 13.623 13.712 13.82 13.987 14.155 14.297 14.432 14.577 14.72 14.85 14.955 15.04 15.125 15.228 15.343 15.458 15.578 15.705 15.83 15.95 16.07 16.175 16.18 16.115 16.065 16.015 15.98 15.97 15.967 15.967 15.937 15.885 15.845 15.805 15.762 15.712 15.652 15.587 15.533 15.54 15.6 15.627 15.547 15.515 15.645 15.83 16.035 16.197 16.07 15.695 15.423 15.242 15.05 14.858 14.665 14.515 14.415 14.33 14.285 14.288 14.295 14.278 14.265 14.275 14.28 14.277 14.255 14.207 14.15 14.095 14.04 13.98 13.885 13.755 13.627 13.5 13.35 13.255 13.305 13.403 13.52 13.68 13.84 14 14.16 14.32 14.452 14.527 14.572 14.615 14.668 14.73 14.83 14.977 15.12 15.25 15.37 15.445 15.462 15.457 15.463 15.493 15.56 15.65 15.732 15.805 15.857 15.88 15.9 16.018 16.243 16.51 16.792 17.065 17.305 17.4 17.372 17.337 17.31 17.285 17.25 17.21 17.165 17.113 17.055 16.998 16.975 17.09 17.303 17.508 17.733 18.058 18.473 18.897 19.202 19.345 19.445 19.512 19.542 19.567 19.678 20.105 20.63 21.002
13.435 13.42 13.427 13.442 13.455 13.44 13.405 13.357 13.29 13.23 13.2 13.19 13.18 13.17 13.157 13.132 13.067 12.995 12.98 13 13.023 13.058 13.093 13.113 13.128 13.135 13.133 13.125 13.115 13.118 13.115 13.108 13.09 13.05 13.068 13.165 13.285 13.402 13.48 13.505 13.513 13.517 13.517 13.502 13.478 13.455 13.42 13.38 13.35 13.32 13.293 13.268 13.25 13.28 13.373 13.493 13.62 13.738 13.86 14.017 14.19 14.352 14.49 14.615 14.737 14.845 14.942 15.037 15.135 15.24 15.36 15.488 15.615 15.745 15.87 15.987 16.105 16.207 16.22 16.167 16.12 16.07 16.032 16.015 16.002 15.985 15.96 15.925 15.885 15.845 15.81 15.775 15.72 15.655 15.598 15.583 15.615 15.652 15.593 15.663 15.89 16.045 16.182 16.185 15.937 15.603 15.368 15.185 14.995 14.805 14.618 14.473 14.373 14.28 14.24 14.253 14.27 14.278 14.27 14.27 14.277 14.282 14.267 14.227 14.18 14.132 14.08 14.025 13.942 13.815 13.678 13.565 13.45 13.37 13.405 13.505 13.64 13.8 13.96 14.12 14.28 14.437 14.547 14.602 14.645 14.693 14.748 14.81 14.922 15.075 15.217 15.35 15.455 15.547 15.6 15.6 15.602 15.615 15.66 15.73 15.795 15.855 15.907 15.943 16.005 16.175 16.432 16.705 16.965 17.215 17.432 17.515 17.495 17.488 17.497 17.488 17.453 17.425 17.405 17.375 17.328 17.273 17.238 17.328 17.52 17.723 17.94 18.22 18.61 19.042 19.322 19.437 19.485 19.422 19.37 19.463 19.688 20.263 20.85 21.173
13.448 13.445 13.453 13.465 13.465 13.43 13.392 13.37 13.32 13.26 13.23 13.22 13.21 13.192 13.165 13.122 13.05 12.988 12.983 13.01 13.053 13.12 13.17 13.18 13.18 13.18 13.183 13.183 13.18 13.18 13.18 13.172 13.132 13.073 13.07 13.145 13.255 13.37 13.462 13.522 13.547 13.552 13.55 13.535 13.51 13.485 13.427 13.348 13.303 13.275 13.245 13.235 13.255 13.313 13.418 13.542 13.665 13.767 13.87 14.005 14.165 14.33 14.472 14.595 14.707 14.81 14.908 15.005 15.113 15.24 15.383 15.525 15.66 15.787 15.905 16.013 16.122 16.21 16.217 16.17 16.12 16.07 16.03 16.007 15.987 15.962 15.937 15.91 15.875 15.838 15.81 15.792 15.76 15.705 15.65 15.625 15.635 15.67 15.63 15.795 16.127 16.305 16.36 16.207 15.857 15.505 15.295 15.135 14.957 14.77 14.588 14.453 14.358 14.278 14.26 14.288 14.31 14.322 14.308 14.283 14.275 14.275 14.258 14.22 14.18 14.14 14.095 14.048 14 13.925 13.825 13.755 13.71 13.67 13.683 13.738 13.815 13.933 14.08 14.24 14.4 14.545 14.632 14.675 14.73 14.808 14.867 14.895 14.97 15.105 15.23 15.282 15.36 15.55 15.662 15.67 15.68 15.692 15.718 15.765 15.825 15.882 15.935 15.99 16.11 16.335 16.595 16.85 17.105 17.355 17.557 17.627 17.623 17.64 17.69 17.72 17.698 17.68 17.685 17.685 17.667 17.627 17.618 17.735 17.945 18.175 18.397 18.538 18.793 19.2 19.44 19.487 19.405 19.26 19.228 19.42 19.745 20.48 21.195 21.458
13.475 13.475 13.478 13.485 13.465 13.41 13.368 13.355 13.337 13.292 13.26 13.245 13.222 13.192 13.15 13.095 13.028 12.983 13.003 13.06 13.13 13.212 13.275 13.29 13.277 13.267 13.267 13.27 13.272 13.27 13.247 13.2 13.138 13.08 13.083 13.143 13.23 13.337 13.427 13.502 13.562 13.587 13.582 13.562 13.538 13.515 13.455 13.338 13.258 13.238 13.235 13.26 13.303 13.365 13.47 13.592 13.7 13.793 13.895 14.018 14.155 14.31 14.455 14.572 14.675 14.775 14.873 14.98 15.113 15.26 15.41 15.557 15.7 15.832 15.942 16.038 16.137 16.195 16.177 16.133 16.085 16.035 15.998 15.977 15.96 15.937 15.913 15.887 15.86 15.832 15.812 15.8 15.785 15.75 15.703 15.678 15.675 15.688 15.688 15.948 16.357 16.497 16.397 16.157 15.75 15.375 15.2 15.057 14.907 14.735 14.56 14.435 14.343 14.295 14.31 14.34 14.367 14.385 14.37 14.33 14.298 14.283 14.273 14.255 14.235 14.215 14.195 14.173 14.16 14.133 14.083 14.047 14.012 13.97 13.98 14.035 14.083 14.143 14.23 14.36 14.52 14.642 14.715 14.78 14.865 14.947 14.985 14.995 15.032 15.095 15.112 15.1 15.253 15.547 15.7 15.715 15.728 15.745 15.765 15.8 15.855 15.91 15.968 16.05 16.205 16.445 16.71 16.972 17.235 17.492 17.687 17.76 17.78 17.81 17.868 17.935 17.945 17.935 17.945 17.955 17.962 17.955 18.003 18.17 18.405 18.655 18.897 18.965 19.055 19.345 19.487 19.432 19.323 19.28 19.35 19.543 19.845 20.698 21.572 21.86
13.505 13.505 13.505 13.502 13.473 13.42 13.375 13.348 13.335 13.31 13.278 13.25 13.215 13.178 13.128 13.065 13.01 13.003 13.063 13.145 13.225 13.307 13.372 13.38 13.345 13.32 13.315 13.315 13.31 13.29 13.25 13.197 13.14 13.088 13.095 13.153 13.218 13.303 13.39 13.467 13.542 13.602 13.615 13.593 13.57 13.547 13.485 13.35 13.245 13.238 13.273 13.315 13.355 13.415 13.518 13.63 13.725 13.815 13.92 14.04 14.163 14.298 14.43 14.54 14.64 14.74 14.85 14.983 15.135 15.287 15.435 15.582 15.73 15.872 15.985 16.075 16.155 16.185 16.152 16.1 16.048 15.995 15.96 15.943 15.927 15.91 15.887 15.86 15.835 15.815 15.802 15.797 15.792 15.777 15.752 15.735 15.727 15.725 15.788 16.13 16.532 16.565 16.365 16.082 15.618 15.248 15.1 14.96 14.825 14.677 14.528 14.415 14.343 14.33 14.36 14.39 14.42 14.442 14.427 14.372 14.31 14.288 14.31 14.34 14.372 14.405 14.425 14.427 14.425 14.402 14.363 14.335 14.307 14.27 14.278 14.332 14.385 14.432 14.475 14.543 14.65 14.75 14.835 14.93 15.022 15.075 15.087 15.055 14.98 14.915 14.858 14.938 15.21 15.527 15.72 15.762 15.78 15.8 15.82 15.845 15.888 15.948 16.03 16.14 16.295 16.525 16.793 17.068 17.353 17.622 17.802 17.882 17.937 17.98 18.04 18.127 18.175 18.182 18.19 18.197 18.203 18.233 18.348 18.547 18.797 19.072 19.35 19.452 19.423 19.485 19.495 19.418 19.4 19.46 19.548 19.69 19.95 20.895 21.925 22.272
13.53 13.53 13.53 13.525 13.502 13.465 13.42 13.373 13.353 13.36 13.338 13.285 13.233 13.175 13.118 13.065 13.038 13.068 13.14 13.222 13.305 13.387 13.442 13.427 13.375 13.345 13.34 13.337 13.32 13.285 13.24 13.19 13.137 13.093 13.103 13.157 13.207 13.27 13.347 13.422 13.498 13.575 13.625 13.625 13.605 13.582 13.512 13.373 13.258 13.255 13.31 13.36 13.407 13.467 13.557 13.655 13.745 13.835 13.94 14.06 14.18 14.295 14.415 14.533 14.638 14.74 14.865 15.015 15.162 15.305 15.45 15.6 15.747 15.897 16.02 16.102 16.147 16.155 16.14 16.095 16.035 15.978 15.933 15.908 15.893 15.877 15.857 15.83 15.805 15.785 15.775 15.772 15.77 15.777 15.75 15.695 15.67 15.66 15.788 16.245 16.627 16.582 16.372 16.02 15.488 15.135 15.005 14.873 14.743 14.613 14.49 14.393 14.34 14.332 14.342 14.367 14.402 14.435 14.42 14.342 14.28 14.285 14.327 14.38 14.442 14.505 14.557 14.595 14.627 14.642 14.632 14.617 14.597 14.567 14.575 14.627 14.677 14.725 14.767 14.8 14.833 14.898 14.993 15.09 15.16 15.12 14.997 14.847 14.675 14.57 14.63 14.875 15.208 15.543 15.757 15.815 15.835 15.855 15.875 15.895 15.943 16.03 16.143 16.265 16.415 16.648 16.93 17.218 17.51 17.737 17.86 17.94 18.02 18.112 18.215 18.31 18.377 18.4 18.402 18.405 18.433 18.523 18.675 18.865 19.09 19.355 19.647 19.81 19.72 19.598 19.548 19.525 19.575 19.665 19.753 19.855 20.065 21.063 22.23 22.67
13.555 13.55 13.55 13.552 13.545 13.512 13.465 13.425 13.43 13.472 13.457 13.382 13.3 13.21 13.143 13.11 13.113 13.155 13.218 13.29 13.37 13.452 13.492 13.457 13.398 13.368 13.36 13.342 13.31 13.27 13.225 13.175 13.125 13.088 13.093 13.13 13.173 13.227 13.295 13.37 13.45 13.53 13.602 13.642 13.64 13.62 13.537 13.393 13.268 13.248 13.312 13.375 13.432 13.482 13.567 13.675 13.765 13.855 13.96 14.077 14.18 14.275 14.4 14.54 14.667 14.785 14.912 15.052 15.182 15.313 15.455 15.605 15.76 15.922 16.047 16.105 16.115 16.11 16.11 16.092 16.045 15.985 15.928 15.883 15.86 15.845 15.825 15.8 15.775 15.753 15.74 15.738 15.748 15.785 15.742 15.603 15.508 15.478 15.693 16.255 16.62 16.585 16.402 15.977 15.438 15.1 14.94 14.815 14.69 14.568 14.455 14.375 14.338 14.318 14.3 14.3 14.315 14.345 14.335 14.278 14.265 14.298 14.335 14.383 14.438 14.498 14.562 14.627 14.71 14.775 14.787 14.782 14.772 14.772 14.817 14.89 14.945 14.99 15.03 15.052 15.055 15.088 15.17 15.175 15.057 14.855 14.61 14.428 14.383 14.47 14.695 15.023 15.37 15.72 15.91 15.91 15.893 15.9 15.92 15.96 16.063 16.2 16.328 16.46 16.615 16.843 17.135 17.432 17.667 17.795 17.875 17.955 18.063 18.233 18.397 18.505 18.572 18.595 18.595 18.625 18.72 18.863 19.028 19.21 19.405 19.618 19.855 20.05 19.88 19.65 19.658 19.695 19.78 19.868 19.955 20.045 20.205 21.225 22.51 23.047
13.59 13.575 13.57 13.575 13.577 13.555 13.515 13.508 13.545 13.595 13.575 13.48 13.375 13.268 13.193 13.178 13.2 13.245 13.305 13.368 13.438 13.517 13.542 13.49 13.425 13.39 13.37 13.335 13.295 13.255 13.21 13.16 13.113 13.078 13.075 13.098 13.128 13.173 13.24 13.323 13.408 13.488 13.56 13.625 13.662 13.655 13.562 13.42 13.29 13.245 13.3 13.36 13.405 13.438 13.505 13.625 13.757 13.872 13.972 14.067 14.14 14.233 14.37 14.52 14.667 14.81 14.947 15.075 15.198 15.323 15.46 15.618 15.79 15.955 16.055 16.08 16.075 16.07 16.07 16.067 16.045 15.995 15.935 15.88 15.84 15.815 15.795 15.77 15.745 15.72 15.705 15.718 15.758 15.815 15.775 15.595 15.41 15.328 15.725 16.315 16.525 16.55 16.392 15.97 15.515 15.193 14.963 14.79 14.653 14.53 14.425 14.368 14.35 14.332 14.308 14.285 14.27 14.268 14.258 14.253 14.278 14.31 14.345 14.39 14.438 14.493 14.558 14.64 14.757 14.835 14.842 14.84 14.853 14.895 14.975 15.075 15.16 15.23 15.272 15.277 15.272 15.295 15.292 15.105 14.77 14.453 14.305 14.343 14.495 14.738 15.02 15.335 15.665 16 16.142 16.073 16.003 15.96 15.975 16.075 16.24 16.415 16.56 16.708 16.87 17.073 17.345 17.595 17.732 17.808 17.885 17.993 18.168 18.387 18.572 18.695 18.765 18.785 18.815 18.915 19.06 19.215 19.378 19.558 19.753 19.948 20.143 20.345 20.05 19.713 19.81 19.892 19.985 20.072 20.16 20.248 20.358 21.388 22.79 23.422
13.632 13.613 13.595 13.595 13.6 13.592 13.585 13.6 13.63 13.657 13.62 13.517 13.412 13.307 13.245 13.255 13.29 13.335 13.395 13.455 13.517 13.582 13.585 13.52 13.455 13.405 13.365 13.325 13.282 13.24 13.195 13.148 13.108 13.075 13.068 13.085 13.105 13.143 13.213 13.295 13.378 13.455 13.523 13.59 13.652 13.67 13.59 13.455 13.325 13.258 13.28 13.32 13.348 13.373 13.408 13.503 13.67 13.842 13.957 14.022 14.088 14.2 14.353 14.508 14.663 14.82 14.965 15.09 15.212 15.335 15.468 15.632 15.817 15.97 16.035 16.037 16.033 16.03 16.03 16.03 16.025 15.997 15.947 15.893 15.838 15.793 15.765 15.74 15.715 15.69 15.685 15.722 15.777 15.835 15.795 15.612 15.385 15.37 15.893 16.362 16.445 16.512 16.385 16.007 15.615 15.315 15.065 14.835 14.643 14.495 14.408 14.373 14.36 14.345 14.323 14.3 14.28 14.26 14.25 14.263 14.29 14.32 14.355 14.4 14.445 14.493 14.57 14.688 14.825 14.897 14.903 14.92 14.965 15.025 15.103 15.205 15.312 15.397 15.435 15.445 15.455 15.447 15.302 14.995 14.645 14.398 14.42 14.633 14.86 15.09 15.36 15.668 15.982 16.267 16.362 16.288 16.205 16.125 16.14 16.285 16.468 16.65 16.815 16.973 17.135 17.31 17.512 17.662 17.745 17.82 17.92 18.095 18.325 18.555 18.737 18.872 18.955 19.008 19.108 19.255 19.41 19.565 19.725 19.905 20.1 20.295 20.563 20.892 20.415 19.843 19.958 20.056 20.153 20.246 20.408 20.641 20.873 21.783 23.072 23.79
13.677 13.655 13.628 13.615 13.618 13.62 13.622 13.63 13.642 13.645 13.59 13.495 13.4 13.305 13.255 13.272 13.32 13.382 13.45 13.51 13.57 13.62 13.612 13.55 13.485 13.423 13.365 13.315 13.268 13.225 13.183 13.14 13.105 13.073 13.06 13.075 13.103 13.153 13.225 13.305 13.385 13.463 13.53 13.595 13.655 13.675 13.615 13.495 13.365 13.278 13.27 13.298 13.325 13.353 13.378 13.44 13.588 13.787 13.92 13.975 14.058 14.198 14.36 14.52 14.68 14.84 14.982 15.105 15.225 15.347 15.465 15.615 15.805 15.937 15.982 15.99 15.99 15.99 15.99 15.99 15.995 15.987 15.955 15.907 15.85 15.795 15.758 15.733 15.705 15.67 15.655 15.68 15.725 15.78 15.755 15.582 15.403 15.623 16.107 16.357 16.45 16.535 16.415 16.043 15.673 15.395 15.16 14.922 14.688 14.49 14.4 14.387 14.372 14.357 14.34 14.323 14.31 14.3 14.295 14.3 14.313 14.335 14.37 14.413 14.458 14.508 14.6 14.745 14.892 14.967 14.993 15.04 15.1 15.16 15.233 15.33 15.435 15.485 15.495 15.517 15.537 15.502 15.297 14.973 14.703 14.643 14.775 14.968 15.197 15.44 15.705 15.997 16.262 16.462 16.567 16.55 16.47 16.398 16.43 16.58 16.755 16.933 17.1 17.26 17.407 17.53 17.635 17.72 17.793 17.87 18.008 18.225 18.465 18.695 18.88 19.027 19.157 19.295 19.452 19.607 19.762 19.917 20.075 20.253 20.46 20.753 21.19 21.675 21.305 20.828 21.07 21.31 21.55 21.735 21.92 22.162 22.405 22.858 23.545 24.067
13.717 13.69 13.66 13.638 13.635 13.635 13.62 13.61 13.617 13.612 13.552 13.458 13.365 13.278 13.22 13.225 13.29 13.387 13.47 13.53 13.585 13.62 13.622 13.58 13.513 13.448 13.383 13.32 13.265 13.218 13.175 13.138 13.105 13.07 13.053 13.07 13.115 13.18 13.255 13.335 13.418 13.5 13.57 13.627 13.667 13.672 13.62 13.52 13.403 13.31 13.295 13.323 13.347 13.372 13.395 13.45 13.573 13.75 13.877 13.948 14.058 14.21 14.375 14.537 14.7 14.857 14.995 15.118 15.24 15.365 15.47 15.593 15.762 15.87 15.902 15.922 15.935 15.942 15.948 15.958 15.972 15.967 15.942 15.91 15.865 15.812 15.772 15.742 15.702 15.655 15.618 15.605 15.618 15.66 15.662 15.518 15.533 15.892 16.215 16.382 16.51 16.607 16.462 16.083 15.738 15.468 15.233 14.997 14.752 14.498 14.353 14.337 14.337 14.355 14.367 14.358 14.353 14.348 14.345 14.35 14.355 14.365 14.39 14.43 14.48 14.535 14.623 14.77 14.935 15.047 15.115 15.175 15.235 15.295 15.365 15.46 15.535 15.535 15.523 15.54 15.542 15.505 15.317 15.015 14.883 14.973 15.135 15.313 15.518 15.76 16.015 16.247 16.43 16.582 16.73 16.795 16.75 16.698 16.758 16.905 17.065 17.235 17.392 17.52 17.617 17.69 17.753 17.82 17.898 17.99 18.135 18.34 18.57 18.802 18.995 19.158 19.332 19.507 19.687 19.88 20.072 20.257 20.425 20.638 20.968 21.412 21.907 22.357 22.4 22.362 22.605 22.844 23.084 23.272 23.389 23.492 23.62 23.8 24.027 24.23
13.755 13.725 13.695 13.668 13.655 13.645 13.625 13.608 13.6 13.58 13.515 13.425 13.338 13.25 13.18 13.185 13.273 13.387 13.48 13.545 13.587 13.607 13.62 13.6 13.54 13.475 13.41 13.345 13.285 13.245 13.208 13.155 13.108 13.068 13.048 13.075 13.14 13.21 13.285 13.368 13.455 13.54 13.605 13.64 13.655 13.655 13.605 13.515 13.418 13.34 13.328 13.35 13.37 13.39 13.41 13.473 13.58 13.72 13.843 13.943 14.07 14.22 14.385 14.55 14.715 14.87 15.007 15.133 15.258 15.385 15.487 15.583 15.707 15.79 15.815 15.838 15.865 15.895 15.918 15.938 15.955 15.945 15.918 15.89 15.857 15.817 15.777 15.735 15.685 15.633 15.593 15.57 15.555 15.56 15.57 15.548 15.71 15.995 16.192 16.375 16.535 16.66 16.515 16.135 15.805 15.543 15.305 15.057 14.785 14.495 14.278 14.213 14.25 14.34 14.402 14.405 14.4 14.395 14.395 14.4 14.405 14.41 14.43 14.468 14.513 14.565 14.64 14.773 14.945 15.095 15.202 15.287 15.362 15.425 15.495 15.57 15.595 15.565 15.55 15.55 15.525 15.485 15.323 15.143 15.183 15.335 15.498 15.677 15.86 16.062 16.26 16.405 16.54 16.695 16.85 16.977 17.01 17.005 17.093 17.235 17.377 17.507 17.612 17.69 17.747 17.805 17.868 17.943 18.035 18.143 18.285 18.465 18.675 18.907 19.105 19.29 19.487 19.643 19.795 20 20.23 20.452 20.688 21.02 21.48 21.965 22.405 22.727 22.91 23.042 23.167 23.285 23.39 23.49 23.59 23.727 23.89 24.06 24.212 24.327
13.79 13.76 13.73 13.7 13.675 13.655 13.635 13.615 13.598 13.563 13.49 13.403 13.315 13.223 13.143 13.158 13.265 13.382 13.485 13.55 13.577 13.592 13.607 13.61 13.57 13.505 13.44 13.375 13.325 13.325 13.31 13.24 13.17 13.11 13.068 13.09 13.167 13.24 13.317 13.402 13.49 13.572 13.622 13.638 13.645 13.647 13.602 13.518 13.433 13.37 13.355 13.368 13.388 13.41 13.433 13.5 13.605 13.72 13.843 13.963 14.085 14.23 14.398 14.563 14.728 14.885 15.025 15.15 15.275 15.402 15.502 15.58 15.658 15.715 15.75 15.785 15.825 15.868 15.902 15.925 15.935 15.922 15.898 15.873 15.845 15.807 15.76 15.71 15.66 15.608 15.57 15.55 15.53 15.51 15.503 15.552 15.707 15.92 16.145 16.355 16.53 16.66 16.542 16.195 15.873 15.615 15.36 15.082 14.79 14.495 14.223 14.118 14.208 14.353 14.445 14.458 14.45 14.443 14.443 14.45 14.458 14.468 14.495 14.533 14.57 14.615 14.67 14.783 14.95 15.115 15.247 15.352 15.447 15.53 15.61 15.647 15.628 15.59 15.565 15.54 15.5 15.46 15.393 15.408 15.545 15.695 15.86 16.04 16.205 16.342 16.46 16.565 16.678 16.813 16.96 17.11 17.222 17.297 17.392 17.505 17.612 17.695 17.755 17.813 17.865 17.92 17.993 18.085 18.183 18.293 18.443 18.615 18.798 19.013 19.218 19.435 19.66 19.81 19.928 20.078 20.285 20.558 20.898 21.325 21.805 22.26 22.632 22.86 23.005 23.15 23.292 23.432 23.56 23.68 23.79 23.93 24.07 24.17 24.278 24.395
13.8 13.77 13.74 13.71 13.687 13.67 13.65 13.63 13.612 13.577 13.503 13.41 13.32 13.228 13.15 13.16 13.258 13.375 13.485 13.545 13.562 13.578 13.592 13.607 13.59 13.535 13.47 13.405 13.385 13.432 13.435 13.365 13.292 13.205 13.12 13.11 13.175 13.252 13.33 13.412 13.497 13.577 13.627 13.645 13.655 13.66 13.627 13.555 13.475 13.415 13.395 13.4 13.413 13.428 13.455 13.533 13.648 13.765 13.893 14.02 14.135 14.26 14.415 14.583 14.747 14.905 15.05 15.182 15.308 15.43 15.53 15.597 15.635 15.673 15.722 15.767 15.812 15.855 15.89 15.915 15.925 15.913 15.89 15.87 15.837 15.787 15.735 15.685 15.635 15.585 15.55 15.53 15.51 15.493 15.48 15.455 15.455 15.503 15.795 16.25 16.525 16.625 16.517 16.232 15.935 15.665 15.385 15.105 14.83 14.555 14.29 14.175 14.27 14.43 14.522 14.53 14.52 14.515 14.52 14.53 14.54 14.553 14.58 14.62 14.66 14.7 14.75 14.853 15.003 15.168 15.315 15.425 15.525 15.62 15.707 15.745 15.72 15.68 15.653 15.625 15.585 15.548 15.578 15.71 15.882 16.05 16.207 16.35 16.462 16.545 16.628 16.73 16.837 16.948 17.083 17.24 17.39 17.505 17.595 17.68 17.757 17.825 17.885 17.94 17.993 18.048 18.125 18.227 18.328 18.443 18.598 18.773 18.945 19.133 19.345 19.592 19.825 19.977 20.092 20.21 20.418 20.755 21.15 21.595 22.032 22.4 22.692 22.895 23.052 23.207 23.37 23.53 23.675 23.827 23.952 24.043 24.135 24.23 24.34 24.46
13.795 13.76 13.73 13.705 13.693 13.682 13.665 13.648 13.637 13.615 13.545 13.448 13.353 13.26 13.2 13.21 13.273 13.368 13.475 13.532 13.548 13.563 13.578 13.592 13.597 13.562 13.498 13.448 13.468 13.545 13.555 13.49 13.41 13.292 13.183 13.14 13.17 13.245 13.323 13.4 13.483 13.562 13.622 13.657 13.677 13.682 13.655 13.597 13.525 13.463 13.443 13.447 13.452 13.45 13.48 13.58 13.71 13.835 13.965 14.097 14.212 14.318 14.445 14.605 14.77 14.925 15.075 15.22 15.35 15.472 15.575 15.617 15.618 15.643 15.695 15.745 15.795 15.842 15.88 15.905 15.92 15.912 15.89 15.865 15.817 15.76 15.71 15.66 15.61 15.56 15.525 15.505 15.49 15.485 15.485 15.42 15.28 15.215 15.48 16.065 16.505 16.585 16.445 16.205 15.952 15.702 15.452 15.212 14.967 14.715 14.498 14.383 14.415 14.547 14.625 14.62 14.615 14.62 14.63 14.642 14.652 14.658 14.68 14.72 14.763 14.81 14.88 14.99 15.123 15.265 15.413 15.535 15.627 15.707 15.792 15.872 15.885 15.845 15.828 15.817 15.785 15.748 15.795 15.958 16.152 16.342 16.482 16.562 16.63 16.703 16.785 16.883 16.99 17.105 17.245 17.405 17.542 17.645 17.735 17.817 17.89 17.955 18.012 18.068 18.125 18.18 18.253 18.355 18.465 18.603 18.773 18.95 19.125 19.293 19.49 19.737 19.975 20.137 20.253 20.39 20.633 20.992 21.385 21.775 22.122 22.407 22.667 22.89 23.06 23.228 23.422 23.61 23.765 23.937 24.082 24.163 24.24 24.328 24.418 24.52
13.81 13.755 13.723 13.708 13.7 13.693 13.68 13.668 13.665 13.652 13.59 13.49 13.39 13.295 13.253 13.28 13.325 13.385 13.467 13.517 13.533 13.548 13.563 13.578 13.592 13.577 13.525 13.51 13.568 13.652 13.675 13.612 13.502 13.355 13.245 13.195 13.188 13.24 13.317 13.393 13.47 13.547 13.607 13.652 13.692 13.705 13.675 13.625 13.567 13.51 13.49 13.487 13.47 13.438 13.475 13.617 13.772 13.905 14.035 14.17 14.287 14.387 14.493 14.63 14.79 14.945 15.092 15.24 15.382 15.515 15.612 15.622 15.59 15.608 15.66 15.713 15.767 15.82 15.86 15.887 15.907 15.91 15.89 15.85 15.792 15.733 15.68 15.633 15.585 15.535 15.5 15.485 15.483 15.488 15.492 15.43 15.37 15.458 15.655 16.028 16.452 16.537 16.34 16.102 15.865 15.645 15.435 15.222 15.002 14.805 14.677 14.62 14.6 14.658 14.717 14.715 14.72 14.733 14.745 14.755 14.762 14.765 14.783 14.823 14.875 14.935 15.018 15.138 15.27 15.408 15.535 15.63 15.705 15.775 15.863 15.972 16.032 16.015 16 16.005 15.99 15.955 16.01 16.183 16.378 16.577 16.705 16.748 16.793 16.858 16.94 17.038 17.15 17.28 17.43 17.572 17.687 17.785 17.872 17.95 18.017 18.08 18.138 18.195 18.255 18.313 18.38 18.48 18.623 18.803 18.987 19.157 19.32 19.473 19.64 19.863 20.107 20.287 20.42 20.598 20.855 21.197 21.545 21.835 22.11 22.378 22.633 22.875 23.073 23.258 23.463 23.665 23.845 24.043 24.218 24.315 24.395 24.48 24.553 24.62
13.847 13.77 13.728 13.718 13.713 13.71 13.7 13.69 13.692 13.69 13.635 13.535 13.435 13.338 13.305 13.342 13.387 13.433 13.478 13.508 13.52 13.533 13.548 13.563 13.578 13.582 13.568 13.593 13.672 13.757 13.787 13.71 13.565 13.403 13.3 13.262 13.233 13.248 13.31 13.385 13.46 13.532 13.592 13.637 13.685 13.712 13.69 13.64 13.592 13.545 13.507 13.475 13.43 13.378 13.435 13.618 13.802 13.962 14.102 14.22 14.32 14.425 14.537 14.662 14.807 14.96 15.107 15.255 15.402 15.545 15.627 15.607 15.56 15.575 15.63 15.683 15.737 15.785 15.82 15.85 15.88 15.902 15.885 15.828 15.765 15.705 15.653 15.608 15.56 15.513 15.488 15.485 15.49 15.495 15.5 15.495 15.57 15.745 15.93 16.132 16.422 16.482 16.223 15.963 15.718 15.488 15.275 15.098 14.955 14.835 14.775 14.772 14.765 14.782 14.817 14.825 14.835 14.848 14.863 14.873 14.878 14.883 14.905 14.948 15.003 15.065 15.163 15.31 15.465 15.597 15.667 15.708 15.768 15.838 15.933 16.047 16.147 16.177 16.17 16.18 16.182 16.163 16.228 16.41 16.61 16.812 16.93 16.958 16.988 17.03 17.095 17.198 17.327 17.465 17.602 17.72 17.823 17.922 18.01 18.082 18.145 18.205 18.265 18.325 18.385 18.443 18.513 18.64 18.828 19.022 19.195 19.35 19.5 19.647 19.8 19.995 20.23 20.432 20.613 20.828 21.078 21.373 21.668 21.918 22.165 22.453 22.765 23.038 23.253 23.458 23.67 23.88 24.085 24.292 24.445 24.525 24.592 24.66 24.722 24.773
13.87 13.785 13.748 13.753 13.748 13.742 13.72 13.693 13.69 13.697 13.667 13.585 13.488 13.39 13.358 13.395 13.44 13.485 13.51 13.515 13.52 13.533 13.548 13.56 13.572 13.577 13.582 13.63 13.712 13.797 13.835 13.752 13.592 13.428 13.325 13.29 13.26 13.255 13.298 13.368 13.44 13.51 13.572 13.62 13.665 13.702 13.69 13.64 13.595 13.555 13.505 13.448 13.395 13.358 13.44 13.633 13.825 14.002 14.14 14.23 14.305 14.41 14.54 14.665 14.79 14.922 15.062 15.21 15.355 15.497 15.582 15.56 15.523 15.548 15.603 15.657 15.707 15.745 15.775 15.805 15.837 15.87 15.882 15.845 15.78 15.718 15.658 15.605 15.558 15.513 15.488 15.485 15.49 15.495 15.49 15.482 15.535 15.677 15.845 16.045 16.352 16.455 16.213 15.918 15.638 15.388 15.208 15.095 15.01 14.91 14.845 14.845 14.862 14.872 14.907 14.945 14.955 14.965 14.998 15.035 15.048 15.055 15.093 15.16 15.228 15.288 15.388 15.55 15.695 15.76 15.765 15.783 15.833 15.905 16.008 16.123 16.237 16.317 16.345 16.352 16.36 16.36 16.448 16.642 16.847 17.042 17.147 17.175 17.202 17.23 17.273 17.36 17.487 17.625 17.75 17.857 17.96 18.057 18.142 18.21 18.272 18.335 18.395 18.452 18.51 18.573 18.66 18.823 19.03 19.212 19.367 19.515 19.665 19.815 19.965 20.143 20.363 20.593 20.835 21.098 21.375 21.82 22.34 22.622 22.755 22.96 23.225 23.447 23.632 23.817 24.002 24.185 24.37 24.547 24.67 24.735 24.782 24.83 24.88 24.93
13.87 13.785 13.768 13.8 13.802 13.787 13.745 13.693 13.668 13.67 13.662 13.62 13.542 13.445 13.413 13.448 13.488 13.532 13.552 13.54 13.533 13.545 13.56 13.57 13.57 13.535 13.518 13.57 13.65 13.732 13.772 13.722 13.595 13.435 13.328 13.285 13.263 13.26 13.293 13.35 13.413 13.483 13.55 13.6 13.645 13.687 13.68 13.63 13.59 13.562 13.52 13.46 13.415 13.41 13.51 13.695 13.87 14.01 14.115 14.205 14.29 14.388 14.507 14.627 14.74 14.85 14.968 15.1 15.24 15.38 15.485 15.488 15.475 15.523 15.577 15.627 15.667 15.7 15.73 15.76 15.79 15.82 15.865 15.885 15.842 15.775 15.705 15.64 15.588 15.54 15.503 15.485 15.483 15.487 15.46 15.383 15.325 15.355 15.523 15.838 16.232 16.455 16.31 15.995 15.693 15.425 15.265 15.182 15.087 14.98 14.915 14.915 14.915 14.888 14.935 15.035 15.075 15.085 15.14 15.225 15.265 15.275 15.325 15.42 15.512 15.592 15.685 15.795 15.857 15.85 15.838 15.86 15.908 15.99 16.105 16.228 16.345 16.445 16.495 16.502 16.51 16.52 16.63 16.837 17.047 17.237 17.345 17.385 17.41 17.433 17.47 17.538 17.633 17.755 17.882 17.992 18.095 18.19 18.27 18.335 18.397 18.46 18.52 18.578 18.64 18.72 18.82 18.99 19.207 19.387 19.535 19.678 19.825 19.975 20.125 20.298 20.52 20.768 21.035 21.545 22.195 22.685 23.027 23.197 23.262 23.372 23.537 23.7 23.855 24.01 24.16 24.31 24.465 24.622 24.767 24.875 24.937 24.985 25.035 25.085
13.878 13.79 13.785 13.837 13.855 13.83 13.775 13.715 13.665 13.645 13.635 13.615 13.575 13.498 13.468 13.503 13.538 13.577 13.592 13.57 13.553 13.558 13.57 13.565 13.525 13.445 13.413 13.47 13.55 13.63 13.662 13.632 13.562 13.437 13.33 13.288 13.27 13.27 13.3 13.35 13.403 13.463 13.527 13.58 13.623 13.667 13.667 13.625 13.595 13.572 13.532 13.485 13.473 13.5 13.6 13.752 13.877 13.97 14.055 14.155 14.257 14.357 14.467 14.58 14.69 14.795 14.9 15.015 15.135 15.265 15.39 15.427 15.44 15.497 15.547 15.587 15.62 15.65 15.68 15.71 15.74 15.77 15.82 15.882 15.892 15.84 15.767 15.695 15.63 15.573 15.53 15.5 15.48 15.467 15.415 15.328 15.24 15.223 15.47 15.855 16.183 16.455 16.415 16.118 15.833 15.56 15.368 15.262 15.16 15.048 14.985 14.98 14.95 14.888 14.925 15.06 15.16 15.205 15.275 15.392 15.47 15.5 15.56 15.66 15.76 15.847 15.92 15.955 15.945 15.92 15.913 15.948 16.02 16.125 16.248 16.368 16.477 16.572 16.62 16.63 16.64 16.65 16.763 16.97 17.167 17.345 17.467 17.545 17.597 17.63 17.677 17.742 17.813 17.903 18.015 18.125 18.215 18.29 18.365 18.445 18.52 18.585 18.645 18.713 18.793 18.885 18.983 19.153 19.38 19.557 19.702 19.845 19.99 20.138 20.285 20.453 20.692 20.945 21.575 22.45 22.974 23.102 23.04 23.083 23.203 23.345 23.518 23.703 23.88 24.04 24.19 24.343 24.5 24.66 24.817 24.962 25.075 25.145 25.195 25.225
13.903 13.81 13.808 13.87 13.897 13.865 13.805 13.745 13.685 13.64 13.615 13.595 13.573 13.533 13.523 13.557 13.59 13.622 13.63 13.605 13.58 13.573 13.562 13.512 13.428 13.338 13.318 13.378 13.453 13.53 13.555 13.515 13.47 13.4 13.325 13.293 13.28 13.28 13.31 13.36 13.41 13.458 13.51 13.56 13.6 13.645 13.655 13.628 13.602 13.577 13.548 13.535 13.557 13.59 13.66 13.76 13.843 13.92 13.998 14.09 14.197 14.305 14.417 14.53 14.64 14.745 14.85 14.96 15.065 15.178 15.3 15.372 15.415 15.47 15.512 15.545 15.575 15.605 15.635 15.665 15.695 15.723 15.768 15.842 15.905 15.897 15.827 15.747 15.672 15.6 15.547 15.512 15.485 15.455 15.393 15.308 15.22 15.283 15.735 16.167 16.343 16.53 16.497 16.232 15.97 15.707 15.485 15.34 15.23 15.115 15.053 15.027 14.97 14.898 14.92 15.048 15.188 15.313 15.425 15.543 15.647 15.722 15.79 15.865 15.935 15.992 16.04 16.065 16.043 15.998 16 16.075 16.188 16.308 16.418 16.52 16.617 16.7 16.742 16.755 16.765 16.775 16.875 17.06 17.235 17.403 17.535 17.64 17.735 17.802 17.865 17.932 18 18.07 18.152 18.237 18.302 18.355 18.423 18.515 18.613 18.7 18.775 18.862 18.96 19.052 19.148 19.315 19.547 19.73 19.873 20.018 20.163 20.308 20.453 20.6 20.83 21.555 22.585 23.074 23.052 22.95 22.93 23.035 23.193 23.363 23.535 23.718 23.903 24.073 24.238 24.405 24.578 24.735 24.878 25.025 25.165 25.277 25.332 25.325
13.948 13.865 13.863 13.92 13.932 13.882 13.82 13.757 13.698 13.65 13.628 13.615 13.59 13.565 13.57 13.6 13.632 13.66 13.657 13.632 13.605 13.59 13.56 13.488 13.405 13.33 13.323 13.385 13.455 13.51 13.51 13.465 13.418 13.375 13.333 13.303 13.29 13.29 13.32 13.37 13.417 13.463 13.51 13.558 13.6 13.64 13.65 13.627 13.603 13.583 13.57 13.58 13.61 13.635 13.683 13.763 13.84 13.915 13.983 14.045 14.135 14.245 14.36 14.477 14.59 14.695 14.8 14.91 15.015 15.117 15.217 15.31 15.387 15.442 15.475 15.5 15.53 15.56 15.59 15.62 15.65 15.678 15.718 15.788 15.875 15.897 15.835 15.755 15.675 15.592 15.533 15.505 15.495 15.492 15.45 15.365 15.278 15.413 15.957 16.387 16.502 16.605 16.53 16.28 16.032 15.782 15.565 15.43 15.318 15.188 15.108 15.058 14.998 14.948 14.983 15.12 15.288 15.463 15.605 15.715 15.817 15.89 15.937 15.98 16.02 16.06 16.108 16.165 16.17 16.115 16.143 16.265 16.392 16.507 16.605 16.687 16.755 16.805 16.835 16.85 16.86 16.87 16.973 17.155 17.328 17.497 17.632 17.738 17.84 17.925 17.995 18.065 18.132 18.2 18.272 18.34 18.395 18.443 18.513 18.61 18.715 18.82 18.897 18.965 19.057 19.162 19.27 19.463 19.725 19.92 20.063 20.208 20.35 20.492 20.627 20.748 21.001 22.167 23.117 23.04 22.93 22.86 22.92 23.085 23.27 23.45 23.618 23.793 24 24.193 24.363 24.545 24.715 24.858 24.988 25.125 25.263 25.385 25.432 25.41
14.013 13.943 13.945 13.972 13.945 13.88 13.815 13.755 13.703 13.665 13.662 13.665 13.64 13.615 13.61 13.63 13.662 13.682 13.672 13.648 13.638 13.645 13.618 13.553 13.488 13.423 13.418 13.48 13.535 13.555 13.535 13.49 13.445 13.413 13.378 13.333 13.303 13.3 13.33 13.38 13.425 13.47 13.52 13.57 13.615 13.645 13.645 13.625 13.608 13.595 13.588 13.595 13.618 13.643 13.695 13.782 13.867 13.945 14.005 14.04 14.09 14.18 14.298 14.42 14.537 14.645 14.75 14.857 14.957 15.047 15.135 15.242 15.35 15.417 15.445 15.463 15.485 15.51 15.54 15.57 15.6 15.63 15.668 15.733 15.83 15.855 15.79 15.717 15.642 15.56 15.508 15.503 15.518 15.545 15.535 15.468 15.41 15.595 16.04 16.357 16.49 16.605 16.537 16.29 16.035 15.775 15.585 15.515 15.447 15.318 15.215 15.16 15.123 15.105 15.163 15.313 15.49 15.667 15.802 15.892 15.965 16.002 16.018 16.045 16.085 16.125 16.175 16.245 16.287 16.26 16.315 16.472 16.602 16.697 16.765 16.812 16.842 16.872 16.902 16.92 16.93 16.945 17.065 17.27 17.452 17.622 17.757 17.86 17.947 18.02 18.09 18.16 18.227 18.295 18.368 18.442 18.507 18.558 18.635 18.745 18.855 18.955 19.015 19.048 19.103 19.2 19.32 19.573 19.907 20.12 20.265 20.41 20.542 20.667 20.785 20.898 21.613 22.695 23.052 22.928 22.833 22.85 22.995 23.175 23.357 23.543 23.745 23.975 24.237 24.422 24.553 24.725 24.87 24.993 25.123 25.26 25.382 25.47 25.507 25.497
14.088 14.023 14.01 13.99 13.935 13.87 13.81 13.763 13.72 13.685 13.69 13.707 13.69 13.665 13.653 13.665 13.69 13.7 13.688 13.678 13.7 13.735 13.715 13.648 13.582 13.518 13.513 13.557 13.577 13.582 13.565 13.525 13.493 13.47 13.442 13.39 13.333 13.313 13.34 13.387 13.433 13.48 13.53 13.58 13.625 13.648 13.643 13.633 13.625 13.615 13.605 13.608 13.625 13.648 13.703 13.795 13.89 13.972 14.022 14.05 14.08 14.133 14.233 14.358 14.48 14.592 14.7 14.797 14.88 14.958 15.048 15.165 15.29 15.385 15.427 15.442 15.455 15.47 15.495 15.523 15.55 15.58 15.613 15.683 15.79 15.81 15.743 15.675 15.605 15.535 15.508 15.528 15.555 15.582 15.597 15.565 15.59 15.812 16.11 16.317 16.463 16.595 16.537 16.29 16.022 15.75 15.585 15.565 15.562 15.49 15.4 15.358 15.345 15.345 15.403 15.545 15.715 15.857 15.955 16.025 16.08 16.107 16.11 16.12 16.15 16.19 16.243 16.315 16.387 16.398 16.473 16.655 16.772 16.822 16.852 16.877 16.9 16.928 16.965 16.99 17 17.025 17.155 17.37 17.57 17.747 17.88 17.972 18.047 18.113 18.18 18.25 18.32 18.392 18.465 18.538 18.61 18.673 18.758 18.875 18.992 19.085 19.135 19.165 19.195 19.248 19.34 19.623 20.045 20.317 20.462 20.592 20.71 20.82 20.93 21.04 22.155 23.142 22.985 22.825 22.783 22.918 23.13 23.275 23.438 23.702 23.98 24.262 24.545 24.682 24.75 24.89 25.015 25.13 25.26 25.382 25.47 25.532 25.57 25.577
14.15 14.087 14.04 13.985 13.923 13.863 13.818 13.78 13.74 13.705 13.71 13.742 13.74 13.718 13.703 13.703 13.712 13.715 13.715 13.735 13.775 13.815 13.805 13.74 13.672 13.605 13.587 13.605 13.605 13.607 13.597 13.572 13.55 13.532 13.51 13.46 13.388 13.338 13.348 13.392 13.44 13.487 13.535 13.585 13.643 13.68 13.673 13.653 13.643 13.635 13.625 13.625 13.638 13.655 13.708 13.8 13.9 13.985 14.03 14.055 14.082 14.113 14.19 14.31 14.43 14.543 14.64 14.723 14.795 14.87 14.965 15.085 15.215 15.335 15.4 15.415 15.422 15.43 15.452 15.485 15.515 15.543 15.575 15.66 15.77 15.782 15.718 15.65 15.58 15.525 15.53 15.567 15.595 15.62 15.642 15.65 15.732 15.93 16.147 16.323 16.46 16.597 16.54 16.275 15.995 15.725 15.59 15.595 15.615 15.612 15.595 15.588 15.59 15.595 15.645 15.78 15.915 15.982 16.04 16.115 16.182 16.212 16.21 16.208 16.218 16.25 16.308 16.385 16.47 16.525 16.625 16.795 16.88 16.893 16.91 16.933 16.958 16.985 17.025 17.06 17.075 17.108 17.245 17.46 17.672 17.865 17.992 18.07 18.14 18.208 18.273 18.34 18.413 18.488 18.563 18.635 18.71 18.778 18.87 18.997 19.122 19.215 19.255 19.277 19.3 19.32 19.36 19.61 20.097 20.47 20.627 20.733 20.838 20.945 21.052 21.165 22.24 23.222 23.16 23.067 22.942 22.955 23.125 23.273 23.498 23.848 24.185 24.525 24.837 24.935 24.94 25.037 25.152 25.267 25.377 25.462 25.53 25.587 25.62 25.635
14.19 14.122 14.055 13.99 13.93 13.878 13.838 13.8 13.76 13.728 13.733 13.77 13.785 13.772 13.755 13.738 13.73 13.73 13.725 13.74 13.78 13.817 13.822 13.777 13.71 13.642 13.623 13.635 13.635 13.635 13.625 13.605 13.585 13.567 13.545 13.497 13.425 13.355 13.348 13.395 13.445 13.49 13.54 13.605 13.682 13.745 13.745 13.708 13.68 13.66 13.645 13.643 13.65 13.665 13.713 13.795 13.887 13.967 14.012 14.04 14.068 14.118 14.215 14.33 14.438 14.53 14.608 14.683 14.758 14.833 14.908 15.01 15.14 15.262 15.335 15.357 15.365 15.37 15.398 15.45 15.495 15.523 15.565 15.658 15.757 15.77 15.71 15.643 15.575 15.528 15.55 15.605 15.637 15.66 15.683 15.708 15.765 15.91 16.153 16.367 16.51 16.652 16.582 16.293 16.003 15.743 15.633 15.655 15.683 15.723 15.777 15.81 15.825 15.84 15.885 15.972 16.032 16.055 16.103 16.18 16.272 16.325 16.323 16.313 16.305 16.32 16.375 16.458 16.548 16.638 16.753 16.895 16.975 16.97 16.968 16.99 17.013 17.043 17.083 17.125 17.15 17.19 17.335 17.55 17.765 17.977 18.112 18.178 18.243 18.31 18.375 18.44 18.515 18.595 18.675 18.755 18.835 18.905 18.948 19.025 19.155 19.247 19.27 19.262 19.255 19.252 19.265 19.523 20.117 20.575 20.755 20.872 20.97 21.07 21.168 21.3 22.322 23.212 23.027 22.907 22.9 22.945 23.108 23.42 23.873 24.345 24.712 24.967 25.167 25.14 25.05 25.117 25.232 25.337 25.422 25.492 25.557 25.617 25.652 25.667
14.218 14.145 14.078 14.015 13.963 13.915 13.868 13.823 13.78 13.75 13.755 13.79 13.822 13.825 13.802 13.773 13.755 13.755 13.73 13.703 13.718 13.752 13.77 13.752 13.7 13.638 13.633 13.66 13.665 13.662 13.645 13.618 13.595 13.572 13.54 13.492 13.43 13.36 13.348 13.395 13.443 13.495 13.565 13.65 13.735 13.812 13.832 13.795 13.755 13.718 13.688 13.665 13.66 13.67 13.708 13.778 13.857 13.932 13.98 14.013 14.068 14.165 14.282 14.395 14.48 14.538 14.608 14.687 14.765 14.84 14.885 14.95 15.07 15.177 15.24 15.275 15.295 15.303 15.333 15.407 15.472 15.505 15.563 15.652 15.732 15.75 15.702 15.637 15.57 15.53 15.56 15.625 15.672 15.702 15.727 15.743 15.763 15.913 16.223 16.457 16.59 16.735 16.655 16.355 16.083 15.863 15.75 15.753 15.788 15.863 15.955 16 16.025 16.045 16.065 16.085 16.1 16.12 16.165 16.25 16.365 16.445 16.452 16.438 16.423 16.425 16.473 16.558 16.655 16.755 16.863 16.987 17.085 17.082 17.043 17.045 17.068 17.1 17.14 17.185 17.218 17.27 17.425 17.64 17.873 18.112 18.257 18.32 18.377 18.43 18.48 18.545 18.635 18.73 18.815 18.9 18.995 19.077 19.053 19.013 19.095 19.19 19.205 19.175 19.145 19.125 19.12 19.5 20.215 20.647 20.84 21.005 21.13 21.23 21.32 21.49 22.145 22.672 22.545 22.485 22.683 23.313 24.022 24.39 24.685 24.975 25.167 25.24 25.29 25.185 25.073 25.143 25.247 25.335 25.412 25.487 25.557 25.625 25.67 25.69
14.245 14.168 14.1 14.045 14 13.955 13.903 13.85 13.805 13.773 13.778 13.812 13.85 13.862 13.84 13.808 13.785 13.78 13.755 13.705 13.675 13.69 13.71 13.705 13.677 13.633 13.635 13.675 13.692 13.69 13.667 13.635 13.608 13.575 13.53 13.48 13.427 13.365 13.35 13.395 13.453 13.528 13.613 13.7 13.788 13.872 13.912 13.89 13.85 13.813 13.778 13.733 13.69 13.673 13.7 13.76 13.828 13.9 13.955 14.015 14.115 14.235 14.35 14.442 14.495 14.535 14.605 14.69 14.772 14.85 14.885 14.91 14.998 15.087 15.135 15.177 15.215 15.233 15.268 15.355 15.442 15.488 15.55 15.637 15.705 15.73 15.695 15.63 15.563 15.533 15.57 15.635 15.695 15.742 15.772 15.782 15.78 15.96 16.36 16.61 16.698 16.812 16.72 16.45 16.238 16.06 15.913 15.863 15.908 16.02 16.135 16.182 16.195 16.19 16.175 16.168 16.175 16.185 16.233 16.338 16.467 16.565 16.587 16.578 16.578 16.593 16.635 16.705 16.79 16.885 16.985 17.093 17.197 17.215 17.153 17.115 17.125 17.16 17.2 17.245 17.283 17.35 17.518 17.755 18.025 18.272 18.402 18.455 18.503 18.54 18.575 18.645 18.755 18.865 18.96 19.05 19.175 19.272 19.22 19.098 19.073 19.137 19.165 19.14 19.11 19.088 19.075 19.308 20.067 20.69 20.885 21.075 21.25 21.387 21.51 21.73 22.055 22.313 22.46 22.758 23.45 24.367 24.979 25.125 25.115 25.11 25.115 25.13 25.155 25.105 25.075 25.157 25.245 25.323 25.398 25.475 25.55 25.622 25.682 25.715
14.275 14.195 14.128 14.08 14.04 13.995 13.94 13.885 13.838 13.798 13.798 13.827 13.855 13.872 13.865 13.84 13.813 13.8 13.775 13.725 13.675 13.65 13.65 13.645 13.633 13.62 13.638 13.68 13.715 13.72 13.693 13.66 13.633 13.593 13.538 13.48 13.423 13.365 13.358 13.413 13.49 13.58 13.668 13.755 13.845 13.932 13.987 13.987 13.957 13.925 13.887 13.83 13.752 13.69 13.7 13.755 13.813 13.88 13.958 14.063 14.182 14.3 14.4 14.46 14.495 14.535 14.602 14.685 14.765 14.842 14.882 14.89 14.933 14.99 15.03 15.073 15.115 15.148 15.2 15.295 15.397 15.47 15.535 15.61 15.675 15.71 15.685 15.622 15.558 15.535 15.58 15.645 15.71 15.772 15.815 15.822 15.808 16.013 16.48 16.767 16.84 16.907 16.817 16.613 16.44 16.27 16.098 15.998 16.048 16.192 16.307 16.34 16.327 16.302 16.278 16.268 16.27 16.27 16.323 16.44 16.572 16.685 16.735 16.747 16.77 16.8 16.84 16.892 16.952 17.022 17.11 17.207 17.307 17.337 17.282 17.223 17.195 17.218 17.26 17.303 17.345 17.435 17.64 17.925 18.215 18.43 18.56 18.625 18.645 18.663 18.68 18.748 18.865 18.983 19.095 19.208 19.375 19.477 19.4 19.255 19.14 19.11 19.123 19.11 19.085 19.073 19.07 19.071 19.84 20.71 20.91 21.11 21.315 21.51 21.72 21.992 22.287 22.485 22.943 23.74 24.549 25.022 25.075 25.065 25.058 25.055 25.053 25.05 25.055 25.045 25.073 25.155 25.235 25.31 25.385 25.465 25.543 25.62 25.692 25.737
14.305 14.228 14.165 14.12 14.08 14.035 13.978 13.92 13.87 13.823 13.805 13.82 13.837 13.857 13.872 13.865 13.84 13.822 13.795 13.745 13.695 13.653 13.633 13.625 13.618 13.62 13.648 13.69 13.737 13.752 13.725 13.698 13.672 13.632 13.575 13.51 13.445 13.385 13.385 13.46 13.552 13.645 13.735 13.825 13.915 14.002 14.05 14.052 14.04 14.017 13.965 13.882 13.792 13.708 13.7 13.755 13.813 13.885 13.985 14.107 14.23 14.322 14.375 14.415 14.45 14.492 14.557 14.632 14.71 14.792 14.84 14.85 14.87 14.905 14.945 14.988 15.03 15.085 15.165 15.263 15.362 15.445 15.515 15.582 15.647 15.69 15.672 15.615 15.55 15.535 15.59 15.655 15.72 15.79 15.84 15.842 15.82 16.078 16.585 16.865 16.942 16.987 16.95 16.825 16.66 16.488 16.313 16.178 16.205 16.36 16.455 16.455 16.427 16.402 16.38 16.373 16.375 16.375 16.43 16.55 16.68 16.787 16.845 16.875 16.905 16.947 17 17.05 17.097 17.13 17.18 17.265 17.362 17.415 17.385 17.323 17.295 17.323 17.365 17.405 17.455 17.583 17.835 18.145 18.395 18.545 18.692 18.84 18.895 18.895 18.898 18.945 19.05 19.17 19.29 19.425 19.607 19.73 19.705 19.625 19.538 19.365 19.165 19.098 19.103 19.1 19.14 19.493 20.245 20.797 21.018 21.23 21.445 21.665 21.933 22.23 22.53 23.15 23.987 24.564 24.822 24.952 25.015 25.003 25 25 24.998 24.998 25.005 25.015 25.055 25.137 25.227 25.307 25.385 25.463 25.54 25.62 25.695 25.745
14.335 14.265 14.208 14.165 14.125 14.08 14.02 13.955 13.898 13.848 13.815 13.805 13.813 13.833 13.857 13.872 13.865 13.847 13.815 13.768 13.725 13.69 13.668 13.655 13.648 13.643 13.665 13.715 13.767 13.787 13.767 13.743 13.717 13.68 13.625 13.562 13.497 13.43 13.428 13.508 13.605 13.705 13.805 13.9 13.99 14.067 14.095 14.085 14.075 14.06 13.997 13.895 13.8 13.713 13.7 13.758 13.825 13.91 14.015 14.132 14.225 14.267 14.287 14.318 14.355 14.403 14.465 14.54 14.625 14.717 14.77 14.783 14.805 14.84 14.88 14.925 14.988 15.078 15.177 15.262 15.335 15.397 15.47 15.55 15.62 15.67 15.66 15.605 15.543 15.538 15.6 15.665 15.72 15.772 15.83 15.842 15.81 16.145 16.685 16.912 16.972 17.005 17.01 16.965 16.867 16.722 16.548 16.408 16.395 16.515 16.587 16.558 16.523 16.498 16.478 16.475 16.482 16.485 16.54 16.66 16.775 16.857 16.905 16.935 16.978 17.045 17.11 17.157 17.187 17.187 17.2 17.265 17.367 17.457 17.46 17.415 17.43 17.48 17.52 17.565 17.65 17.815 18.075 18.345 18.515 18.625 18.763 18.96 19.135 19.2 19.215 19.25 19.325 19.435 19.558 19.7 19.87 20.022 20.077 20.067 20.055 19.927 19.698 19.615 19.645 19.665 19.815 20.295 20.75 20.978 21.212 21.435 21.655 21.873 22.143 22.618 23.28 24.087 24.554 24.61 24.748 24.897 24.95 24.945 24.945 24.948 24.958 24.973 24.988 25 25.023 25.093 25.195 25.292 25.385 25.467 25.542 25.62 25.695 25.745
14.373 14.308 14.253 14.21 14.17 14.125 14.072 14.005 13.93 13.875 13.84 13.813 13.8 13.81 13.833 13.857 13.872 13.867 13.84 13.803 13.77 13.74 13.715 13.698 13.688 13.683 13.703 13.75 13.802 13.827 13.812 13.788 13.762 13.73 13.677 13.612 13.545 13.48 13.48 13.55 13.638 13.74 13.847 13.95 14.047 14.115 14.127 14.112 14.097 14.08 14.015 13.91 13.81 13.715 13.7 13.768 13.85 13.94 14.037 14.12 14.155 14.17 14.188 14.213 14.255 14.305 14.368 14.453 14.548 14.645 14.7 14.718 14.745 14.78 14.825 14.893 14.99 15.09 15.172 15.235 15.287 15.34 15.408 15.5 15.587 15.65 15.65 15.597 15.54 15.543 15.607 15.65 15.67 15.728 15.815 15.835 15.798 16.208 16.775 16.94 16.975 16.995 17 16.99 16.97 16.91 16.782 16.663 16.633 16.692 16.725 16.675 16.625 16.59 16.575 16.58 16.59 16.595 16.65 16.755 16.84 16.91 16.96 17.005 17.075 17.155 17.217 17.247 17.247 17.233 17.228 17.27 17.375 17.497 17.532 17.528 17.58 17.64 17.688 17.768 17.908 18.08 18.292 18.477 18.595 18.705 18.82 18.998 19.235 19.422 19.52 19.57 19.62 19.708 19.835 19.985 20.147 20.29 20.362 20.37 20.362 20.352 20.347 20.395 20.445 20.472 20.597 20.775 20.95 21.168 21.4 21.63 21.86 22.08 22.34 23.122 24.029 24.36 24.423 24.518 24.7 24.845 24.892 24.9 24.91 24.923 24.943 24.965 24.98 24.987 24.995 25.04 25.135 25.245 25.352 25.45 25.54 25.625 25.7 25.745
14.418 14.353 14.298 14.255 14.212 14.167 14.122 14.06 13.98 13.913 13.87 13.84 13.815 13.803 13.815 13.845 13.875 13.895 13.885 13.855 13.823 13.79 13.765 13.75 13.745 13.748 13.768 13.803 13.845 13.87 13.857 13.832 13.807 13.78 13.73 13.658 13.585 13.53 13.54 13.605 13.677 13.765 13.865 13.967 14.067 14.135 14.147 14.135 14.12 14.1 14.037 13.932 13.825 13.723 13.71 13.79 13.88 13.967 14.037 14.07 14.08 14.093 14.105 14.13 14.175 14.225 14.293 14.383 14.478 14.575 14.635 14.658 14.685 14.718 14.78 14.885 14.992 15.07 15.125 15.175 15.23 15.285 15.34 15.428 15.535 15.622 15.635 15.585 15.538 15.537 15.567 15.565 15.595 15.71 15.817 15.83 15.925 16.405 16.852 16.945 16.965 16.985 16.99 16.98 16.972 16.962 16.915 16.857 16.835 16.835 16.82 16.775 16.727 16.687 16.675 16.682 16.69 16.695 16.737 16.817 16.89 16.96 17.025 17.1 17.185 17.262 17.307 17.31 17.295 17.28 17.267 17.288 17.383 17.515 17.602 17.662 17.735 17.802 17.885 18.015 18.172 18.332 18.467 18.573 18.68 18.788 18.893 19.053 19.288 19.54 19.715 19.802 19.877 19.965 20.075 20.195 20.315 20.42 20.492 20.53 20.55 20.57 20.635 20.74 20.827 20.887 20.925 20.998 21.15 21.36 21.59 21.82 22.052 22.277 22.51 23.36 24.132 24.223 24.303 24.443 24.647 24.8 24.857 24.875 24.895 24.915 24.935 24.955 24.967 24.972 24.978 25 25.075 25.185 25.295 25.4 25.505 25.607 25.692 25.727
14.468 14.4 14.343 14.3 14.255 14.21 14.168 14.115 14.04 13.965 13.933 13.915 13.888 13.863 13.858 13.883 13.918 13.95 13.95 13.92 13.887 13.848 13.818 13.815 13.82 13.823 13.84 13.873 13.905 13.915 13.9 13.875 13.85 13.822 13.775 13.707 13.633 13.578 13.585 13.642 13.705 13.78 13.872 13.967 14.062 14.14 14.165 14.155 14.14 14.12 14.06 13.955 13.848 13.75 13.743 13.82 13.903 13.987 14.04 14.055 14.063 14.073 14.088 14.118 14.165 14.22 14.293 14.378 14.465 14.537 14.572 14.593 14.62 14.658 14.74 14.85 14.937 15.005 15.062 15.115 15.167 15.22 15.27 15.34 15.447 15.562 15.592 15.542 15.495 15.472 15.458 15.468 15.568 15.72 15.823 15.925 16.215 16.62 16.88 16.955 16.97 17.008 16.985 16.928 16.915 16.9 16.885 16.895 16.897 16.867 16.835 16.802 16.77 16.742 16.74 16.75 16.752 16.757 16.79 16.86 16.935 17.002 17.08 17.17 17.257 17.322 17.337 17.32 17.302 17.287 17.27 17.28 17.368 17.51 17.65 17.76 17.842 17.943 18.085 18.24 18.392 18.555 18.65 18.688 18.77 18.878 18.983 19.14 19.38 19.63 19.8 19.91 20.02 20.122 20.195 20.26 20.342 20.427 20.497 20.552 20.61 20.685 20.77 20.855 20.975 21.1 21.185 21.25 21.358 21.55 21.78 22.005 22.222 22.435 22.643 23.395 24.072 24.125 24.218 24.39 24.597 24.767 24.845 24.868 24.89 24.91 24.93 24.945 24.952 24.958 24.963 24.97 25.023 25.125 25.232 25.338 25.445 25.542 25.625 25.667
14.542 14.438 14.378 14.355 14.318 14.275 14.233 14.177 14.09 14.018 14.01 14.017 14.002 13.978 13.963 13.968 13.993 14.022 14.02 13.99 13.952 13.903 13.873 13.88 13.892 13.895 13.913 13.945 13.962 13.96 13.942 13.915 13.885 13.85 13.807 13.757 13.69 13.628 13.62 13.663 13.72 13.793 13.878 13.965 14.06 14.147 14.18 14.172 14.16 14.142 14.082 13.975 13.87 13.79 13.793 13.858 13.925 14.005 14.057 14.073 14.085 14.1 14.12 14.155 14.208 14.273 14.347 14.425 14.487 14.512 14.513 14.523 14.55 14.603 14.692 14.782 14.852 14.92 14.987 15.047 15.1 15.15 15.2 15.258 15.345 15.462 15.505 15.455 15.4 15.355 15.35 15.43 15.575 15.73 15.878 16.09 16.375 16.632 16.847 16.965 17 17.085 17.042 16.878 16.815 16.8 16.793 16.827 16.865 16.852 16.82 16.79 16.765 16.753 16.762 16.782 16.79 16.793 16.828 16.897 16.967 17.03 17.105 17.197 17.272 17.31 17.31 17.287 17.267 17.25 17.23 17.243 17.345 17.51 17.657 17.787 17.895 18.05 18.26 18.43 18.59 18.767 18.86 18.858 18.885 18.97 19.075 19.243 19.495 19.725 19.875 19.985 20.092 20.192 20.243 20.275 20.348 20.43 20.5 20.555 20.62 20.723 20.827 20.93 21.075 21.227 21.357 21.46 21.563 21.733 21.947 22.157 22.357 22.555 22.755 23.437 24.045 24.058 24.125 24.325 24.55 24.735 24.832 24.862 24.885 24.905 24.922 24.932 24.938 24.943 24.948 24.953 24.983 25.063 25.167 25.275 25.365 25.425 25.492 25.57
14.577 14.44 14.385 14.395 14.39 14.365 14.32 14.242 14.13 14.065 14.07 14.092 14.105 14.092 14.078 14.073 14.08 14.1 14.092 14.052 14.002 13.948 13.925 13.94 13.957 13.968 13.985 14.002 14.003 14 13.985 13.952 13.915 13.875 13.835 13.795 13.742 13.683 13.668 13.698 13.74 13.805 13.885 13.97 14.06 14.15 14.19 14.185 14.177 14.165 14.105 13.998 13.895 13.828 13.843 13.905 13.965 14.032 14.077 14.095 14.115 14.135 14.158 14.198 14.257 14.327 14.395 14.45 14.472 14.468 14.46 14.46 14.48 14.54 14.625 14.7 14.767 14.835 14.902 14.967 15.027 15.08 15.133 15.188 15.253 15.352 15.392 15.343 15.29 15.258 15.313 15.45 15.605 15.76 15.94 16.147 16.355 16.57 16.795 16.955 17.053 17.19 17.165 16.943 16.77 16.703 16.708 16.75 16.807 16.83 16.81 16.785 16.773 16.768 16.773 16.795 16.817 16.828 16.865 16.932 16.995 17.053 17.127 17.207 17.25 17.27 17.27 17.25 17.23 17.218 17.215 17.243 17.353 17.522 17.66 17.79 17.933 18.153 18.428 18.628 18.8 18.982 19.07 19.06 19.055 19.085 19.168 19.348 19.61 19.822 19.952 20.057 20.16 20.257 20.31 20.315 20.353 20.43 20.5 20.563 20.653 20.772 20.888 21.018 21.18 21.342 21.48 21.597 21.717 21.878 22.07 22.263 22.462 22.667 22.87 23.487 23.997 23.95 24.003 24.23 24.485 24.697 24.815 24.852 24.875 24.895 24.91 24.917 24.923 24.927 24.933 24.938 24.95 25.005 25.097 25.182 25.237 25.275 25.338 25.46
14.57 14.428 14.38 14.4 14.418 14.42 14.392 14.302 14.173 14.115 14.133 14.157 14.18 14.19 14.187 14.182 14.177 14.177 14.157 14.105 14.048 13.993 13.978 14 14.02 14.035 14.045 14.048 14.048 14.042 14.022 13.99 13.948 13.905 13.865 13.825 13.782 13.733 13.72 13.745 13.773 13.825 13.9 13.985 14.07 14.157 14.202 14.198 14.193 14.185 14.132 14.04 13.95 13.88 13.885 13.945 14.005 14.055 14.087 14.115 14.142 14.167 14.195 14.24 14.297 14.352 14.402 14.432 14.435 14.425 14.415 14.408 14.418 14.47 14.543 14.61 14.68 14.75 14.818 14.885 14.95 15.01 15.068 15.123 15.178 15.252 15.278 15.248 15.233 15.235 15.338 15.512 15.673 15.825 15.993 16.18 16.373 16.573 16.783 16.958 17.105 17.272 17.267 17.06 16.833 16.66 16.623 16.678 16.748 16.8 16.805 16.793 16.787 16.78 16.78 16.8 16.83 16.855 16.895 16.957 17.02 17.077 17.137 17.182 17.208 17.233 17.25 17.253 17.25 17.258 17.275 17.313 17.408 17.55 17.673 17.935 18.582 19.067 19.12 19.145 19.195 19.25 19.275 19.265 19.255 19.25 19.288 19.458 19.722 19.915 20.025 20.125 20.225 20.325 20.39 20.385 20.378 20.43 20.503 20.588 20.703 20.828 20.955 21.105 21.275 21.442 21.585 21.697 21.828 21.997 22.182 22.367 22.562 22.765 22.963 23.382 23.71 23.738 23.873 24.12 24.39 24.642 24.79 24.84 24.87 24.887 24.897 24.903 24.908 24.913 24.918 24.923 24.93 24.958 25.003 25.045 25.083 25.12 25.18 25.342
14.603 14.473 14.44 14.458 14.473 14.482 14.452 14.35 14.218 14.168 14.192 14.215 14.235 14.255 14.265 14.26 14.25 14.24 14.217 14.18 14.128 14.065 14.048 14.07 14.09 14.105 14.11 14.113 14.115 14.09 14.063 14.042 14 13.955 13.915 13.873 13.83 13.78 13.763 13.785 13.813 13.86 13.933 14.018 14.103 14.187 14.232 14.23 14.223 14.215 14.18 14.115 14.04 13.963 13.935 13.975 14.035 14.062 14.078 14.112 14.147 14.18 14.21 14.25 14.297 14.34 14.38 14.4 14.397 14.39 14.38 14.368 14.383 14.44 14.505 14.57 14.64 14.708 14.775 14.845 14.913 14.973 15.033 15.093 15.143 15.195 15.218 15.22 15.24 15.263 15.373 15.575 15.755 15.908 16.08 16.27 16.46 16.647 16.83 16.982 17.12 17.282 17.277 17.075 16.852 16.668 16.61 16.66 16.735 16.797 16.812 16.803 16.797 16.79 16.788 16.803 16.83 16.86 16.892 16.942 17.007 17.07 17.127 17.165 17.19 17.22 17.265 17.315 17.345 17.365 17.383 17.418 17.505 17.615 17.71 18.031 19.165 19.937 19.747 19.605 19.53 19.472 19.447 19.442 19.435 19.425 19.445 19.605 19.85 20.005 20.098 20.195 20.292 20.39 20.467 20.475 20.443 20.453 20.523 20.64 20.775 20.91 21.045 21.18 21.335 21.505 21.65 21.768 21.905 22.075 22.257 22.442 22.627 22.815 23.002 23.205 23.385 23.543 23.755 24.015 24.285 24.542 24.712 24.805 24.862 24.878 24.885 24.895 24.905 24.915 24.923 24.933 24.953 24.973 24.978 24.98 24.988 24.995 25.03 25.195
14.67 14.58 14.56 14.575 14.58 14.567 14.507 14.392 14.265 14.215 14.24 14.265 14.285 14.307 14.317 14.31 14.3 14.287 14.272 14.255 14.222 14.172 14.145 14.155 14.172 14.185 14.19 14.195 14.182 14.13 14.1 14.1 14.072 14.028 13.985 13.94 13.89 13.823 13.79 13.815 13.85 13.903 13.978 14.063 14.148 14.232 14.28 14.28 14.27 14.257 14.23 14.182 14.125 14.057 13.998 14.005 14.055 14.06 14.065 14.1 14.135 14.165 14.19 14.228 14.272 14.315 14.352 14.367 14.362 14.355 14.345 14.345 14.385 14.455 14.52 14.583 14.65 14.718 14.785 14.852 14.915 14.963 15.025 15.105 15.16 15.203 15.23 15.245 15.265 15.288 15.395 15.615 15.827 15.995 16.17 16.36 16.542 16.715 16.877 17.007 17.113 17.242 17.215 17 16.818 16.718 16.69 16.71 16.768 16.82 16.827 16.813 16.803 16.795 16.793 16.803 16.823 16.85 16.878 16.91 16.96 17.023 17.097 17.162 17.2 17.23 17.285 17.36 17.42 17.462 17.487 17.523 17.605 17.708 17.81 18.513 19.612 19.967 19.803 19.703 19.645 19.605 19.59 19.59 19.587 19.583 19.618 19.775 19.977 20.105 20.188 20.268 20.358 20.455 20.545 20.565 20.53 20.53 20.6 20.73 20.878 21.025 21.157 21.265 21.39 21.55 21.695 21.825 21.968 22.118 22.278 22.453 22.637 22.822 23 23.14 23.273 23.44 23.655 23.915 24.185 24.417 24.575 24.702 24.822 24.882 24.9 24.915 24.93 24.945 24.955 24.975 25.013 25.047 25.05 25.03 24.987 24.92 24.915 25.045
14.775 14.703 14.68 14.682 14.66 14.625 14.552 14.44 14.32 14.258 14.275 14.31 14.337 14.362 14.37 14.357 14.345 14.332 14.317 14.3 14.282 14.26 14.24 14.242 14.255 14.265 14.272 14.267 14.227 14.16 14.13 14.142 14.137 14.1 14.055 14.01 13.942 13.85 13.815 13.85 13.893 13.948 14.023 14.107 14.192 14.277 14.325 14.325 14.317 14.302 14.267 14.222 14.18 14.13 14.07 14.053 14.062 14.048 14.055 14.09 14.12 14.142 14.163 14.2 14.245 14.285 14.317 14.33 14.327 14.32 14.313 14.34 14.405 14.475 14.54 14.6 14.665 14.733 14.8 14.865 14.915 14.95 15.013 15.107 15.187 15.237 15.262 15.278 15.295 15.315 15.418 15.64 15.885 16.082 16.257 16.435 16.6 16.757 16.912 17.035 17.113 17.197 17.142 16.968 16.873 16.82 16.793 16.795 16.822 16.847 16.842 16.827 16.812 16.8 16.8 16.81 16.823 16.843 16.87 16.895 16.925 16.975 17.05 17.132 17.197 17.24 17.295 17.37 17.445 17.517 17.572 17.623 17.733 17.908 18.028 19.102 20.109 19.998 19.885 19.823 19.78 19.745 19.73 19.73 19.732 19.735 19.78 19.918 20.085 20.215 20.3 20.363 20.438 20.525 20.617 20.65 20.635 20.668 20.75 20.865 21 21.142 21.27 21.37 21.473 21.605 21.745 21.888 22.04 22.18 22.315 22.463 22.633 22.815 22.977 23.1 23.208 23.35 23.558 23.815 24.085 24.292 24.43 24.575 24.747 24.877 24.927 24.947 24.967 24.985 25.003 25.038 25.082 25.102 25.06 24.987 24.897 24.815 24.84 24.953
14.905 14.825 14.78 14.755 14.715 14.675 14.602 14.495 14.38 14.303 14.305 14.345 14.38 14.408 14.415 14.403 14.39 14.377 14.362 14.345 14.328 14.312 14.305 14.315 14.332 14.347 14.35 14.32 14.26 14.19 14.16 14.175 14.187 14.167 14.125 14.067 13.977 13.878 13.85 13.893 13.94 13.993 14.063 14.147 14.232 14.315 14.36 14.362 14.36 14.345 14.305 14.26 14.217 14.172 14.127 14.09 14.06 14.035 14.045 14.075 14.095 14.115 14.135 14.17 14.218 14.26 14.287 14.293 14.29 14.285 14.295 14.348 14.422 14.495 14.56 14.62 14.683 14.748 14.812 14.867 14.907 14.94 14.998 15.09 15.187 15.262 15.297 15.31 15.325 15.343 15.44 15.66 15.92 16.147 16.325 16.483 16.638 16.793 16.947 17.062 17.122 17.165 17.117 17.025 16.975 16.925 16.895 16.882 16.865 16.845 16.825 16.81 16.795 16.79 16.802 16.815 16.825 16.84 16.863 16.888 16.915 16.955 17.02 17.1 17.178 17.24 17.308 17.393 17.478 17.563 17.645 17.733 17.913 18.187 18.31 19.215 20.109 20.042 19.988 19.952 19.917 19.885 19.867 19.862 19.86 19.87 19.928 20.043 20.185 20.325 20.42 20.48 20.545 20.615 20.693 20.74 20.773 20.84 20.93 21.035 21.15 21.273 21.385 21.48 21.575 21.68 21.805 21.953 22.108 22.252 22.382 22.51 22.653 22.812 22.952 23.06 23.16 23.275 23.46 23.715 23.972 24.16 24.303 24.47 24.655 24.827 24.93 24.965 24.97 24.987 25.047 25.11 25.155 25.115 24.977 24.833 24.715 24.698 24.787 24.9
14.977 14.89 14.825 14.787 14.75 14.715 14.652 14.55 14.438 14.348 14.34 14.405 14.465 14.477 14.463 14.448 14.435 14.422 14.407 14.39 14.373 14.358 14.355 14.375 14.402 14.425 14.41 14.352 14.285 14.218 14.19 14.205 14.225 14.225 14.185 14.105 14.005 13.915 13.895 13.94 13.99 14.04 14.098 14.175 14.26 14.34 14.382 14.385 14.385 14.372 14.335 14.29 14.245 14.2 14.155 14.105 14.06 14.028 14.03 14.053 14.075 14.103 14.128 14.158 14.195 14.235 14.258 14.263 14.273 14.285 14.313 14.368 14.438 14.512 14.58 14.64 14.7 14.762 14.817 14.855 14.888 14.938 15.005 15.085 15.18 15.272 15.32 15.332 15.35 15.365 15.455 15.668 15.92 16.162 16.385 16.565 16.71 16.855 17 17.085 17.117 17.14 17.12 17.075 17.032 16.985 16.945 16.905 16.847 16.798 16.773 16.758 16.753 16.77 16.792 16.807 16.82 16.843 16.875 16.905 16.938 16.985 17.05 17.125 17.2 17.28 17.378 17.478 17.573 17.665 17.755 17.868 18.073 18.362 18.473 18.883 19.617 19.997 20.082 20.052 20.017 19.982 19.96 19.95 19.963 20.013 20.098 20.205 20.325 20.455 20.553 20.618 20.685 20.753 20.825 20.9 20.975 21.058 21.13 21.213 21.32 21.43 21.515 21.59 21.683 21.778 21.898 22.043 22.187 22.317 22.435 22.557 22.685 22.817 22.942 23.048 23.143 23.24 23.395 23.625 23.852 24.03 24.193 24.373 24.56 24.75 24.905 24.912 24.8 24.843 25.05 25.18 25.225 25.107 24.883 24.715 24.583 24.588 24.7 24.812
14.99 14.903 14.84 14.805 14.775 14.75 14.697 14.6 14.49 14.433 14.473 14.552 14.59 14.56 14.52 14.498 14.48 14.467 14.452 14.435 14.42 14.405 14.408 14.435 14.46 14.477 14.452 14.383 14.31 14.243 14.215 14.233 14.255 14.265 14.225 14.135 14.035 13.955 13.945 13.99 14.04 14.087 14.138 14.2 14.278 14.357 14.395 14.392 14.39 14.385 14.357 14.312 14.265 14.218 14.17 14.123 14.083 14.053 14.045 14.063 14.095 14.13 14.158 14.183 14.208 14.243 14.268 14.283 14.31 14.338 14.365 14.403 14.458 14.53 14.6 14.66 14.717 14.767 14.802 14.833 14.885 14.973 15.055 15.118 15.193 15.277 15.327 15.345 15.362 15.378 15.47 15.665 15.898 16.145 16.407 16.647 16.825 16.97 17.092 17.108 17.08 17.097 17.085 17.047 17.007 16.96 16.91 16.86 16.802 16.748 16.72 16.713 16.728 16.76 16.78 16.795 16.82 16.863 16.907 16.943 16.988 17.05 17.12 17.195 17.278 17.375 17.49 17.605 17.707 17.802 17.898 18.018 18.198 18.455 18.54 18.566 19.16 19.887 20.102 20.085 20.062 20.035 20.023 20.045 20.108 20.195 20.295 20.405 20.518 20.635 20.733 20.805 20.875 20.95 21.04 21.143 21.24 21.327 21.375 21.408 21.49 21.6 21.667 21.713 21.79 21.885 22.01 22.152 22.277 22.377 22.47 22.575 22.695 22.82 22.945 23.062 23.163 23.258 23.4 23.593 23.763 23.918 24.09 24.277 24.452 24.585 24.687 24.59 24.468 24.655 24.977 25.205 25.265 25.075 24.803 24.633 24.49 24.468 24.568 24.682
