ncols         200
nrows         72
xllcorner     549000
yllcorner     259445
cellsize      5
NODATA_value  -9999.0
14.155 14.257 14.305 14.308 14.315 14.322 14.327 14.332 14.332 14.33 14.338 14.355 14.372 14.385 14.395 14.443 14.548 14.675 14.772 14.722 14.578 14.47 14.4 14.35 14.3 14.248 14.208 14.18 14.147 14.113 14.09 14.08 14.065 14.04 14.038 14.088 14.193 14.33 14.505 14.73 14.782 14.935 15.377 15.02 14.268 13.985 13.775 13.66 13.65 13.637 13.605 13.573 13.55 13.553 13.595 13.68 14.087 14.602 14.66 14.18 13.608 13.258 13.063 13.028 13.035 13.053 13.085 13.128 13.173 13.22 13.257 13.25 13.218 13.26 13.335 13.375 13.387 13.345 13.35 13.42 13.48 13.525 13.542 13.547 13.447 13.215 12.978 12.765 12.62 12.593 12.663 12.775 12.885 12.992 13.08 13.095 13.045 12.98 12.902 12.812 12.71 12.595 12.49 12.4 12.31 12.22 12.13 12.05 11.988 11.925 11.845 11.755 11.688 11.658 11.64 11.625 11.61 11.58 11.545 11.515 11.487 11.455 11.4 11.335 11.283 11.24 11.195 11.12 10.965 10.808 10.707 10.575 10.405 10.253 10.115 9.98 9.858 9.76 9.705 9.672 9.627 9.565 9.543 9.583 9.668 9.76 9.755 9.683 9.623 9.58 9.52 9.445 9.39 9.355 9.307 9.222 9.128 9.035 8.96 8.922 8.79 8.34 7.908 7.89 8.105 8.342 8.417 8.345 8.273 8.2 8.168 8.167 8.155 8.13 8.12 8.13 8.135 8.14 8.142 8.138 8.135 8.14 8.14 8.138 8.14 8.142 8.142 8.135 8.13 8.13 8.127 8.12 8.115 8.115 8.135 8.172 8.197 8.21 8.235 8.272
14.095 14.205 14.257 14.265 14.275 14.285 14.293 14.298 14.308 14.328 14.348 14.358 14.37 14.385 14.403 14.473 14.59 14.715 14.78 14.712 14.595 14.5 14.43 14.38 14.33 14.28 14.24 14.207 14.173 14.138 14.115 14.1 14.075 14.048 14.043 14.06 14.108 14.21 14.352 14.395 14.318 14.23 14.328 14.325 14.135 13.975 13.745 13.625 13.63 13.63 13.605 13.585 13.59 13.61 13.633 13.78 14.345 15.022 15.507 15.519 15.062 14.64 14.26 13.915 13.608 13.326 13.148 13.118 13.155 13.198 13.243 13.258 13.285 13.383 13.465 13.477 13.437 13.37 13.36 13.427 13.497 13.532 13.54 13.525 13.412 13.222 13.022 12.807 12.64 12.61 12.698 12.813 12.933 13.055 13.132 13.102 13.01 12.93 12.855 12.762 12.648 12.523 12.415 12.325 12.235 12.145 12.063 11.995 11.94 11.882 11.805 11.733 11.703 11.695 11.68 11.665 11.645 11.605 11.565 11.535 11.505 11.47 11.412 11.34 11.275 11.223 11.172 11.112 11.015 10.885 10.745 10.56 10.363 10.205 10.073 9.95 9.835 9.725 9.64 9.59 9.535 9.465 9.44 9.505 9.652 9.755 9.725 9.643 9.56 9.49 9.433 9.395 9.38 9.367 9.33 9.26 9.172 9.078 9.003 8.955 8.892 8.547 8.163 8.088 8.22 8.432 8.482 8.407 8.33 8.253 8.213 8.2 8.173 8.14 8.13 8.14 8.145 8.15 8.155 8.155 8.158 8.165 8.167 8.163 8.16 8.16 8.16 8.158 8.155 8.155 8.153 8.15 8.15 8.15 8.17 8.215 8.255 8.28 8.305 8.332
14.05 14.16 14.215 14.225 14.235 14.248 14.268 14.29 14.32 14.365 14.395 14.398 14.398 14.4 14.423 14.505 14.627 14.752 14.795 14.722 14.617 14.527 14.465 14.415 14.365 14.313 14.27 14.235 14.2 14.165 14.135 14.11 14.08 14.053 14.045 14.063 14.085 14.128 14.168 14.14 14.105 14.103 14.128 14.193 14.235 14.097 13.808 13.63 13.61 13.62 13.615 13.62 13.637 13.655 13.673 13.938 14.763 15.602 16.015 16.175 16.147 16.062 15.857 15.49 15.08 14.707 14.428 14.18 13.913 13.623 13.403 13.336 13.405 13.522 13.565 13.527 13.462 13.395 13.353 13.418 13.51 13.54 13.54 13.46 13.297 13.125 12.967 12.81 12.655 12.63 12.743 12.87 13 13.132 13.205 13.15 13.03 12.923 12.825 12.72 12.608 12.47 12.345 12.255 12.163 12.073 12.003 11.948 11.895 11.84 11.783 11.75 11.742 11.735 11.722 11.702 11.67 11.625 11.585 11.555 11.525 11.487 11.427 11.352 11.28 11.215 11.155 11.093 11.027 10.922 10.74 10.52 10.318 10.163 10.045 9.93 9.818 9.715 9.618 9.533 9.455 9.375 9.368 9.488 9.675 9.757 9.703 9.625 9.55 9.478 9.425 9.405 9.395 9.385 9.35 9.285 9.21 9.123 9.05 9 8.955 8.727 8.453 8.33 8.368 8.522 8.547 8.47 8.39 8.313 8.268 8.243 8.205 8.168 8.158 8.17 8.178 8.185 8.185 8.185 8.193 8.198 8.198 8.19 8.185 8.183 8.18 8.18 8.18 8.183 8.183 8.185 8.19 8.19 8.21 8.253 8.297 8.337 8.365 8.385
14.063 14.165 14.205 14.205 14.215 14.228 14.268 14.325 14.375 14.425 14.457 14.462 14.455 14.448 14.455 14.513 14.622 14.745 14.772 14.69 14.595 14.53 14.495 14.455 14.405 14.353 14.308 14.27 14.235 14.198 14.158 14.125 14.095 14.065 14.06 14.083 14.105 14.123 14.123 14.113 14.108 14.103 14.118 14.195 14.242 14.115 13.857 13.653 13.6 13.618 13.63 13.635 13.642 13.657 13.673 14.155 15.175 15.952 16.305 16.492 16.552 16.547 16.535 16.467 16.245 15.972 15.819 15.642 15.377 15.087 14.837 14.58 14.113 13.725 13.615 13.552 13.485 13.415 13.35 13.403 13.52 13.557 13.5 13.335 13.125 12.928 12.773 12.695 12.655 12.685 12.808 12.945 13.082 13.22 13.29 13.232 13.11 12.985 12.865 12.75 12.617 12.44 12.298 12.208 12.113 12.025 11.96 11.908 11.855 11.8 11.77 11.772 11.775 11.772 11.76 11.73 11.69 11.645 11.605 11.575 11.54 11.495 11.432 11.357 11.285 11.218 11.155 11.093 11.033 10.967 10.81 10.568 10.35 10.205 10.105 10 9.898 9.8 9.695 9.59 9.495 9.408 9.42 9.57 9.725 9.76 9.702 9.635 9.565 9.495 9.445 9.425 9.415 9.39 9.345 9.292 9.235 9.165 9.1 9.047 8.99 8.88 8.745 8.62 8.565 8.615 8.61 8.54 8.47 8.38 8.345 8.347 8.315 8.278 8.27 8.285 8.29 8.285 8.26 8.243 8.25 8.255 8.24 8.22 8.215 8.21 8.208 8.21 8.21 8.22 8.23 8.235 8.24 8.24 8.255 8.29 8.335 8.38 8.41 8.43
14.12 14.21 14.235 14.215 14.215 14.225 14.278 14.365 14.432 14.482 14.517 14.525 14.518 14.518 14.518 14.52 14.58 14.695 14.707 14.618 14.553 14.518 14.502 14.485 14.445 14.395 14.35 14.312 14.275 14.235 14.195 14.153 14.115 14.085 14.09 14.117 14.138 14.16 14.15 14.128 14.123 14.12 14.12 14.148 14.142 14.035 13.855 13.673 13.605 13.625 13.64 13.64 13.635 13.638 13.665 14.438 15.517 15.995 16.28 16.532 16.66 16.695 16.725 16.73 16.597 16.282 16.115 16.152 16.19 16.219 16.204 16.017 15.102 13.995 13.608 13.54 13.47 13.402 13.345 13.373 13.51 13.537 13.383 13.19 12.998 12.81 12.673 12.645 12.705 12.795 12.898 13.018 13.152 13.28 13.332 13.277 13.18 13.072 12.955 12.832 12.61 12.375 12.26 12.172 12.08 11.993 11.925 11.872 11.817 11.758 11.735 11.75 11.76 11.77 11.765 11.74 11.707 11.665 11.625 11.59 11.545 11.492 11.427 11.355 11.29 11.23 11.17 11.11 11.065 11.045 10.952 10.73 10.505 10.363 10.265 10.172 10.07 9.957 9.84 9.73 9.635 9.55 9.568 9.695 9.765 9.745 9.7 9.645 9.58 9.51 9.463 9.445 9.415 9.347 9.285 9.242 9.21 9.19 9.133 9.055 8.992 8.935 8.88 8.807 8.742 8.73 8.712 8.647 8.557 8.438 8.413 8.48 8.487 8.455 8.45 8.457 8.445 8.42 8.375 8.33 8.32 8.325 8.3 8.263 8.248 8.243 8.242 8.245 8.253 8.275 8.29 8.295 8.3 8.3 8.31 8.335 8.373 8.417 8.45 8.47
14.162 14.247 14.275 14.245 14.225 14.228 14.285 14.385 14.475 14.537 14.577 14.59 14.585 14.593 14.602 14.58 14.573 14.64 14.645 14.575 14.538 14.513 14.498 14.49 14.472 14.437 14.392 14.352 14.307 14.275 14.255 14.193 14.13 14.103 14.118 14.155 14.175 14.195 14.18 14.148 14.14 14.14 14.143 14.13 14.063 13.967 13.867 13.715 13.62 13.63 13.647 13.657 13.655 13.643 13.835 14.86 15.76 15.91 16.125 16.392 16.532 16.563 16.592 16.597 16.565 16.422 16.305 16.305 16.305 16.297 16.275 16.244 15.18 13.863 13.555 13.483 13.425 13.38 13.353 13.348 13.467 13.487 13.3 13.123 12.955 12.81 12.73 12.743 12.82 12.92 13.015 13.113 13.223 13.315 13.335 13.28 13.202 13.118 13.025 12.837 12.523 12.305 12.22 12.135 12.045 11.958 11.89 11.837 11.777 11.713 11.685 11.697 11.71 11.722 11.725 11.712 11.692 11.665 11.632 11.59 11.54 11.487 11.427 11.363 11.303 11.247 11.188 11.138 11.115 11.102 11.065 10.912 10.71 10.56 10.442 10.342 10.225 10.1 9.98 9.87 9.777 9.695 9.705 9.767 9.76 9.72 9.68 9.637 9.587 9.525 9.477 9.44 9.365 9.265 9.195 9.175 9.19 9.227 9.182 9.063 8.968 8.9 8.865 8.86 8.87 8.882 8.847 8.742 8.615 8.48 8.458 8.56 8.63 8.635 8.622 8.607 8.577 8.545 8.5 8.443 8.405 8.395 8.372 8.328 8.29 8.275 8.275 8.283 8.305 8.335 8.35 8.355 8.36 8.363 8.375 8.395 8.418 8.455 8.487 8.51
14.195 14.285 14.315 14.285 14.253 14.233 14.288 14.395 14.495 14.582 14.64 14.657 14.657 14.667 14.682 14.667 14.625 14.615 14.6 14.563 14.535 14.508 14.49 14.483 14.477 14.462 14.43 14.385 14.33 14.318 14.325 14.25 14.158 14.12 14.143 14.192 14.215 14.23 14.212 14.17 14.155 14.15 14.18 14.195 14.06 13.885 13.802 13.71 13.633 13.635 13.653 13.667 13.68 13.7 14.26 15.36 15.912 15.92 16.02 16.25 16.402 16.43 16.442 16.428 16.398 16.367 16.327 16.285 16.25 16.215 16.18 15.877 14.58 13.541 13.5 13.47 13.448 13.433 13.425 13.39 13.4 13.412 13.292 13.128 12.988 12.87 12.813 12.853 12.945 13.045 13.145 13.235 13.31 13.35 13.338 13.29 13.233 13.175 13.117 12.79 12.4 12.265 12.18 12.095 12.008 11.923 11.853 11.795 11.73 11.668 11.638 11.643 11.658 11.667 11.665 11.652 11.635 11.617 11.59 11.547 11.505 11.462 11.42 11.37 11.312 11.26 11.21 11.18 11.167 11.152 11.137 11.052 10.887 10.71 10.57 10.46 10.337 10.215 10.095 9.99 9.905 9.827 9.795 9.78 9.74 9.7 9.66 9.62 9.58 9.532 9.472 9.387 9.28 9.18 9.14 9.17 9.222 9.277 9.25 9.115 8.968 8.888 8.88 8.905 8.947 8.97 8.907 8.78 8.652 8.523 8.508 8.612 8.715 8.772 8.767 8.737 8.702 8.67 8.625 8.568 8.513 8.478 8.448 8.4 8.35 8.318 8.315 8.335 8.365 8.395 8.412 8.418 8.42 8.425 8.44 8.46 8.478 8.503 8.53 8.56
14.195 14.285 14.33 14.317 14.282 14.248 14.255 14.325 14.437 14.57 14.68 14.72 14.712 14.707 14.71 14.715 14.69 14.645 14.605 14.568 14.533 14.503 14.485 14.478 14.485 14.485 14.44 14.392 14.35 14.36 14.392 14.32 14.203 14.143 14.168 14.225 14.257 14.252 14.207 14.155 14.143 14.155 14.278 14.317 14.115 13.87 13.725 13.695 13.68 13.673 13.675 13.678 13.69 13.92 14.895 15.819 15.99 15.987 16.005 16.133 16.265 16.302 16.31 16.3 16.285 16.27 16.247 16.19 16.13 16.093 16.057 15.19 13.898 13.458 13.49 13.532 13.545 13.543 13.54 13.482 13.395 13.365 13.297 13.168 13.05 12.94 12.903 12.97 13.07 13.17 13.27 13.365 13.417 13.428 13.413 13.375 13.338 13.3 13.22 12.818 12.413 12.303 12.208 12.113 12.02 11.923 11.838 11.778 11.72 11.665 11.633 11.623 11.62 11.615 11.6 11.58 11.56 11.54 11.51 11.473 11.437 11.4 11.372 11.347 11.305 11.252 11.202 11.17 11.152 11.137 11.12 11.077 10.95 10.755 10.612 10.517 10.405 10.285 10.167 10.067 9.985 9.91 9.835 9.768 9.72 9.68 9.64 9.6 9.56 9.51 9.437 9.338 9.223 9.125 9.103 9.142 9.195 9.25 9.23 9.1 8.958 8.9 8.915 8.945 8.97 8.962 8.892 8.78 8.663 8.563 8.565 8.66 8.762 8.84 8.857 8.837 8.815 8.792 8.75 8.695 8.645 8.6 8.56 8.52 8.475 8.42 8.388 8.4 8.43 8.46 8.48 8.485 8.488 8.493 8.505 8.525 8.545 8.558 8.58 8.62
14.157 14.235 14.295 14.322 14.307 14.272 14.24 14.238 14.298 14.427 14.58 14.66 14.68 14.677 14.675 14.705 14.72 14.695 14.65 14.6 14.555 14.528 14.528 14.543 14.545 14.505 14.415 14.335 14.3 14.375 14.457 14.39 14.263 14.183 14.195 14.258 14.285 14.253 14.198 14.168 14.213 14.31 14.452 14.412 14.145 13.903 13.788 13.788 13.78 13.758 13.745 13.735 13.735 14.025 14.957 15.664 15.769 15.849 15.919 16.027 16.132 16.175 16.19 16.197 16.195 16.183 16.185 16.127 16.025 15.97 15.784 14.563 13.456 13.448 13.533 13.61 13.652 13.66 13.65 13.567 13.465 13.402 13.32 13.225 13.13 13.02 12.998 13.085 13.187 13.29 13.392 13.492 13.545 13.562 13.557 13.522 13.485 13.445 13.29 12.903 12.565 12.43 12.328 12.22 12.108 11.988 11.883 11.808 11.75 11.7 11.665 11.645 11.623 11.593 11.548 11.508 11.485 11.462 11.432 11.397 11.357 11.318 11.295 11.287 11.27 11.227 11.17 11.118 11.083 11.06 11.037 11.002 10.915 10.748 10.613 10.545 10.452 10.335 10.223 10.125 10.04 9.962 9.875 9.778 9.705 9.66 9.62 9.577 9.527 9.462 9.387 9.302 9.197 9.098 9.06 9.075 9.11 9.16 9.14 9.03 8.943 8.92 8.935 8.96 8.96 8.93 8.862 8.758 8.658 8.618 8.645 8.708 8.795 8.88 8.91 8.9 8.893 8.898 8.89 8.858 8.82 8.775 8.735 8.7 8.642 8.563 8.503 8.485 8.5 8.53 8.55 8.557 8.562 8.568 8.58 8.597 8.607 8.608 8.63 8.677
14.105 14.177 14.237 14.285 14.31 14.295 14.265 14.235 14.218 14.253 14.353 14.448 14.525 14.59 14.63 14.672 14.712 14.727 14.7 14.663 14.64 14.628 14.647 14.652 14.59 14.49 14.378 14.265 14.188 14.275 14.442 14.435 14.308 14.225 14.3 14.44 14.415 14.325 14.285 14.31 14.427 14.512 14.507 14.365 14.13 13.985 13.945 13.923 13.89 13.863 13.845 13.825 13.803 13.873 14.168 14.443 14.535 14.605 14.675 14.758 14.955 15.267 15.56 15.822 16.024 16.09 16.107 16.072 15.948 15.855 15.217 13.975 13.39 13.49 13.587 13.672 13.742 13.775 13.75 13.645 13.535 13.45 13.345 13.257 13.175 13.093 13.103 13.188 13.28 13.382 13.487 13.59 13.675 13.715 13.702 13.667 13.632 13.595 13.4 13.03 12.728 12.57 12.462 12.34 12.21 12.08 11.965 11.87 11.793 11.735 11.7 11.677 11.647 11.605 11.54 11.473 11.423 11.388 11.358 11.318 11.273 11.233 11.213 11.21 11.205 11.187 11.145 11.085 11.03 10.99 10.955 10.91 10.852 10.73 10.61 10.555 10.487 10.385 10.278 10.185 10.098 10.015 9.925 9.815 9.71 9.643 9.597 9.545 9.477 9.405 9.33 9.252 9.165 9.07 9.03 9.038 9.05 9.077 9.06 8.998 8.958 8.943 8.952 8.957 8.93 8.89 8.83 8.743 8.693 8.713 8.75 8.788 8.845 8.922 8.96 8.958 8.975 9.015 9.04 9.032 9.01 8.972 8.932 8.877 8.79 8.698 8.635 8.598 8.583 8.6 8.62 8.63 8.635 8.64 8.653 8.66 8.658 8.655 8.678 8.727
14.047 14.122 14.18 14.225 14.272 14.297 14.285 14.255 14.225 14.198 14.218 14.295 14.4 14.515 14.59 14.635 14.68 14.722 14.74 14.742 14.757 14.765 14.752 14.687 14.583 14.475 14.365 14.258 14.16 14.203 14.407 14.455 14.318 14.233 14.347 14.547 14.582 14.502 14.465 14.485 14.5 14.452 14.358 14.248 14.143 14.107 14.1 14.067 14.023 13.978 13.94 13.905 13.87 13.838 13.738 13.62 13.568 13.543 13.536 13.546 13.701 13.998 14.275 14.55 14.925 15.305 15.692 15.957 15.905 15.734 14.685 13.581 13.475 13.555 13.642 13.725 13.805 13.87 13.845 13.717 13.59 13.482 13.368 13.27 13.185 13.16 13.22 13.295 13.373 13.46 13.555 13.66 13.77 13.835 13.832 13.802 13.77 13.737 13.555 13.205 12.888 12.695 12.57 12.435 12.298 12.165 12.053 11.955 11.86 11.78 11.733 11.703 11.668 11.625 11.56 11.48 11.405 11.353 11.308 11.25 11.195 11.15 11.133 11.14 11.145 11.147 11.12 11.06 11 10.932 10.87 10.82 10.77 10.69 10.608 10.555 10.505 10.43 10.335 10.245 10.155 10.07 9.977 9.865 9.745 9.645 9.573 9.503 9.425 9.348 9.27 9.195 9.117 9.038 9.003 9.01 9.015 9.02 9.015 8.997 8.982 8.967 8.957 8.935 8.895 8.855 8.805 8.768 8.782 8.827 8.865 8.897 8.932 8.98 9.012 9.025 9.052 9.085 9.107 9.127 9.145 9.147 9.11 9.025 8.925 8.833 8.77 8.73 8.693 8.678 8.688 8.698 8.71 8.73 8.735 8.723 8.71 8.703 8.723 8.773
13.982 14.057 14.115 14.16 14.21 14.26 14.285 14.27 14.24 14.21 14.203 14.255 14.36 14.472 14.547 14.593 14.638 14.693 14.745 14.777 14.805 14.835 14.797 14.695 14.595 14.49 14.385 14.285 14.223 14.263 14.432 14.477 14.333 14.235 14.26 14.38 14.505 14.552 14.582 14.582 14.503 14.423 14.355 14.298 14.213 14.175 14.207 14.212 14.175 14.113 14.045 13.993 13.96 13.93 13.83 13.673 13.583 13.555 13.548 13.55 13.57 13.593 13.603 13.593 13.763 14.143 14.568 15.022 15.322 15.207 14.305 13.595 13.592 13.61 13.67 13.75 13.83 13.91 13.892 13.755 13.615 13.5 13.39 13.285 13.228 13.258 13.332 13.405 13.477 13.55 13.635 13.74 13.845 13.917 13.935 13.915 13.885 13.855 13.68 13.337 13.013 12.8 12.663 12.525 12.385 12.25 12.14 12.065 12.005 11.943 11.88 11.818 11.755 11.68 11.603 11.535 11.47 11.413 11.35 11.28 11.21 11.135 11.09 11.095 11.11 11.12 11.095 11.035 10.967 10.87 10.785 10.735 10.685 10.627 10.58 10.54 10.492 10.437 10.365 10.287 10.21 10.127 10.03 9.918 9.805 9.695 9.6 9.52 9.44 9.345 9.235 9.143 9.065 8.998 8.97 8.972 8.977 8.98 8.985 8.987 8.98 8.967 8.95 8.92 8.88 8.84 8.8 8.8 8.84 8.882 8.912 8.935 8.965 8.995 9.02 9.037 9.052 9.065 9.077 9.107 9.15 9.25 9.277 9.173 9.07 8.99 8.943 8.905 8.865 8.828 8.805 8.81 8.843 8.88 8.88 8.855 8.833 8.808 8.8 8.83
13.91 13.985 14.045 14.09 14.145 14.207 14.255 14.267 14.25 14.22 14.21 14.238 14.32 14.43 14.505 14.55 14.6 14.665 14.725 14.762 14.795 14.842 14.825 14.728 14.625 14.52 14.415 14.335 14.315 14.345 14.47 14.502 14.37 14.283 14.248 14.273 14.36 14.475 14.57 14.612 14.622 14.6 14.545 14.477 14.295 14.163 14.22 14.307 14.32 14.255 14.178 14.103 14.053 14.02 13.92 13.745 13.613 13.67 13.963 14.232 14.113 13.916 13.99 13.783 13.57 13.7 13.79 13.97 14.22 14.143 13.805 13.643 13.63 13.623 13.668 13.75 13.83 13.9 13.88 13.757 13.623 13.508 13.403 13.3 13.28 13.35 13.425 13.495 13.562 13.63 13.72 13.825 13.92 13.992 14.017 14.007 13.985 13.955 13.772 13.438 13.13 12.913 12.765 12.623 12.493 12.443 12.383 12.305 12.285 12.255 12.19 12.093 11.978 11.843 11.718 11.638 11.585 11.527 11.46 11.382 11.29 11.18 11.1 11.075 11.078 11.09 11.065 11.002 10.915 10.795 10.705 10.655 10.6 10.54 10.51 10.495 10.457 10.407 10.345 10.28 10.215 10.147 10.075 9.982 9.877 9.773 9.68 9.6 9.507 9.385 9.24 9.11 9.018 8.955 8.928 8.928 8.932 8.938 8.945 8.95 8.947 8.94 8.93 8.912 8.88 8.84 8.808 8.805 8.835 8.872 8.893 8.905 8.925 8.95 8.975 8.992 9.007 9.022 9.028 9.038 9.073 9.3 9.452 9.353 9.285 9.255 9.23 9.195 9.15 9.095 9.033 9.003 9.03 9.07 9.07 9.045 9.017 8.975 8.935 8.928
13.848 13.915 13.975 14.03 14.095 14.165 14.215 14.24 14.247 14.23 14.223 14.24 14.295 14.39 14.462 14.513 14.575 14.645 14.705 14.75 14.795 14.847 14.85 14.767 14.658 14.55 14.455 14.415 14.425 14.445 14.527 14.532 14.425 14.355 14.318 14.308 14.335 14.425 14.52 14.59 14.66 14.7 14.705 14.64 14.4 14.185 14.213 14.362 14.437 14.397 14.322 14.238 14.163 14.112 14.01 13.837 13.665 14.06 14.76 15.142 15.194 15.152 15.092 14.247 13.563 13.643 13.73 13.74 13.68 13.598 13.59 13.638 13.63 13.62 13.663 13.747 13.83 13.88 13.845 13.742 13.625 13.515 13.413 13.315 13.298 13.38 13.482 13.567 13.637 13.71 13.802 13.9 13.987 14.062 14.092 14.09 14.08 14.057 13.877 13.56 13.27 13.035 12.87 12.783 12.805 12.91 12.897 12.77 12.672 12.602 12.517 12.385 12.235 12.075 11.915 11.783 11.703 11.64 11.557 11.455 11.34 11.22 11.135 11.088 11.06 11.06 11.037 10.96 10.845 10.715 10.623 10.567 10.505 10.44 10.415 10.42 10.41 10.37 10.308 10.248 10.19 10.14 10.095 10.032 9.947 9.85 9.757 9.665 9.55 9.415 9.265 9.11 8.985 8.913 8.885 8.883 8.887 8.893 8.9 8.907 8.912 8.91 8.9 8.89 8.872 8.84 8.813 8.81 8.83 8.86 8.88 8.888 8.895 8.913 8.93 8.945 8.963 8.98 8.985 8.98 9.06 9.41 9.652 9.61 9.602 9.612 9.595 9.545 9.48 9.41 9.33 9.253 9.233 9.26 9.26 9.23 9.19 9.138 9.098 9.073
13.803 13.865 13.928 13.993 14.06 14.127 14.175 14.2 14.22 14.227 14.235 14.255 14.285 14.353 14.425 14.485 14.555 14.625 14.687 14.745 14.8 14.855 14.877 14.812 14.697 14.585 14.518 14.515 14.537 14.56 14.597 14.577 14.495 14.428 14.39 14.375 14.365 14.398 14.468 14.54 14.613 14.69 14.765 14.715 14.467 14.215 14.213 14.387 14.525 14.542 14.467 14.382 14.295 14.215 14.085 13.892 13.688 14.362 15.104 14.895 14.925 15.329 15.024 14.055 13.598 13.63 13.688 13.71 13.7 13.705 13.727 13.737 13.707 13.655 13.663 13.74 13.827 13.857 13.8 13.705 13.615 13.527 13.43 13.335 13.295 13.363 13.485 13.597 13.697 13.79 13.88 13.967 14.052 14.132 14.17 14.167 14.162 14.152 13.992 13.697 13.415 13.158 13.035 13.07 13.192 13.317 13.297 13.16 13.015 12.91 12.795 12.633 12.468 12.305 12.145 11.985 11.848 11.738 11.623 11.5 11.38 11.26 11.175 11.125 11.078 11.045 10.998 10.895 10.768 10.643 10.543 10.473 10.405 10.34 10.315 10.325 10.33 10.32 10.285 10.238 10.193 10.15 10.097 10.04 9.985 9.915 9.825 9.71 9.577 9.442 9.295 9.135 8.98 8.875 8.843 8.84 8.843 8.848 8.855 8.865 8.875 8.883 8.878 8.865 8.855 8.835 8.82 8.823 8.833 8.853 8.873 8.888 8.905 8.928 8.94 8.943 8.95 8.96 8.965 8.965 9.08 9.475 9.76 9.78 9.807 9.827 9.815 9.77 9.72 9.672 9.622 9.545 9.472 9.457 9.447 9.405 9.35 9.295 9.26 9.237
13.783 13.848 13.913 13.978 14.04 14.095 14.135 14.16 14.183 14.205 14.23 14.257 14.283 14.328 14.392 14.46 14.53 14.597 14.655 14.707 14.765 14.825 14.865 14.83 14.727 14.613 14.568 14.592 14.62 14.647 14.672 14.657 14.6 14.54 14.5 14.48 14.463 14.473 14.495 14.533 14.605 14.69 14.77 14.685 14.445 14.25 14.2 14.335 14.555 14.66 14.61 14.507 14.392 14.27 14.102 13.895 13.68 14.32 14.654 13.988 13.848 14.083 13.913 13.68 13.77 13.792 13.778 13.783 13.807 13.827 13.837 13.832 13.782 13.688 13.665 13.74 13.815 13.817 13.742 13.653 13.585 13.525 13.445 13.355 13.295 13.34 13.463 13.605 13.75 13.845 13.932 14.032 14.12 14.205 14.245 14.242 14.235 14.215 14.065 13.792 13.515 13.275 13.225 13.315 13.397 13.477 13.457 13.34 13.248 13.175 13.055 12.89 12.72 12.545 12.373 12.21 12.038 11.88 11.71 11.545 11.425 11.333 11.31 11.295 11.245 11.15 11.013 10.883 10.76 10.64 10.533 10.448 10.37 10.298 10.268 10.28 10.295 10.308 10.293 10.253 10.215 10.172 10.102 10.023 9.97 9.922 9.832 9.7 9.56 9.422 9.272 9.11 8.968 8.878 8.835 8.81 8.8 8.808 8.83 8.86 8.893 8.895 8.888 8.89 8.88 8.865 8.858 8.863 8.868 8.875 8.895 8.928 8.96 8.987 9 8.998 8.993 8.988 8.99 9.005 9.075 9.41 9.705 9.745 9.782 9.81 9.805 9.777 9.752 9.747 9.75 9.717 9.662 9.632 9.615 9.57 9.51 9.458 9.423 9.4
13.777 13.842 13.907 13.967 14.017 14.06 14.095 14.122 14.148 14.173 14.202 14.235 14.267 14.305 14.358 14.425 14.495 14.56 14.61 14.645 14.69 14.75 14.795 14.795 14.732 14.628 14.588 14.62 14.645 14.652 14.672 14.715 14.725 14.69 14.653 14.633 14.64 14.69 14.698 14.665 14.67 14.723 14.76 14.643 14.458 14.335 14.24 14.245 14.433 14.657 14.685 14.552 14.407 14.252 14.072 13.875 13.678 13.92 13.94 13.63 13.643 13.628 13.635 13.75 13.892 13.935 13.91 13.895 13.897 13.895 13.877 13.842 13.777 13.68 13.665 13.735 13.772 13.752 13.678 13.6 13.545 13.495 13.437 13.362 13.29 13.34 13.503 13.685 13.82 13.858 13.933 14.065 14.177 14.272 14.317 14.312 14.287 14.247 14.1 13.838 13.593 13.415 13.37 13.438 13.527 13.615 13.607 13.523 13.478 13.44 13.327 13.155 12.972 12.78 12.595 12.425 12.24 12.07 11.902 11.695 11.498 11.458 11.57 11.607 11.527 11.33 11.095 10.943 10.818 10.695 10.588 10.498 10.415 10.343 10.308 10.313 10.33 10.345 10.325 10.28 10.24 10.195 10.115 10.013 9.938 9.885 9.785 9.635 9.49 9.347 9.193 9.053 8.968 8.928 8.888 8.835 8.815 8.838 8.883 8.935 8.962 8.923 8.905 8.94 8.945 8.933 8.925 8.927 8.927 8.925 8.948 8.99 9.025 9.05 9.06 9.057 9.05 9.04 9.04 9.065 9.113 9.355 9.602 9.652 9.682 9.705 9.7 9.673 9.668 9.7 9.727 9.725 9.71 9.695 9.7 9.715 9.725 9.667 9.593 9.573
13.752 13.835 13.895 13.94 13.98 14.02 14.055 14.085 14.112 14.137 14.165 14.197 14.23 14.27 14.325 14.388 14.455 14.52 14.567 14.595 14.625 14.673 14.707 14.717 14.702 14.635 14.6 14.617 14.61 14.58 14.59 14.682 14.777 14.812 14.817 14.84 14.9 14.98 14.997 14.935 14.865 14.835 14.782 14.668 14.553 14.447 14.35 14.26 14.318 14.582 14.677 14.535 14.385 14.223 14.04 13.875 13.74 13.68 13.715 13.742 13.725 13.69 13.663 13.725 13.857 13.925 13.927 13.917 13.897 13.875 13.847 13.802 13.742 13.668 13.655 13.692 13.7 13.677 13.618 13.553 13.503 13.455 13.405 13.347 13.285 13.345 13.53 13.73 13.845 13.84 13.898 14.045 14.187 14.312 14.375 14.36 14.317 14.272 14.135 13.908 13.725 13.585 13.51 13.55 13.645 13.74 13.77 13.745 13.732 13.705 13.587 13.397 13.2 13.003 12.817 12.635 12.44 12.253 12.115 11.957 11.75 11.7 11.855 11.917 11.75 11.45 11.178 11.013 10.88 10.753 10.645 10.558 10.48 10.418 10.385 10.378 10.38 10.39 10.367 10.315 10.268 10.22 10.137 10.025 9.923 9.847 9.737 9.573 9.415 9.265 9.133 9.053 9.018 8.995 8.962 8.923 8.918 8.95 8.997 9.037 9.015 8.935 8.913 8.957 8.99 8.997 8.995 8.992 8.982 8.973 8.995 9.045 9.087 9.112 9.12 9.115 9.105 9.095 9.095 9.128 9.185 9.333 9.497 9.557 9.577 9.595 9.593 9.588 9.62 9.67 9.705 9.707 9.69 9.675 9.693 9.75 9.817 9.81 9.777 9.787
13.725 13.815 13.857 13.897 13.94 13.98 14.015 14.042 14.07 14.097 14.122 14.15 14.178 14.233 14.302 14.36 14.423 14.483 14.525 14.553 14.58 14.61 14.63 14.635 14.638 14.618 14.59 14.568 14.528 14.485 14.505 14.6 14.707 14.797 14.885 15.005 15.145 15.267 15.303 15.253 15.19 14.975 14.78 14.727 14.642 14.552 14.452 14.34 14.31 14.515 14.625 14.49 14.35 14.218 14.088 13.98 13.898 13.85 13.842 13.82 13.785 13.752 13.718 13.725 13.818 13.89 13.895 13.89 13.872 13.85 13.815 13.76 13.708 13.675 13.653 13.64 13.64 13.62 13.57 13.51 13.46 13.415 13.365 13.315 13.28 13.35 13.518 13.695 13.795 13.798 13.863 14.008 14.155 14.3 14.372 14.355 14.32 14.287 14.19 14.035 13.892 13.755 13.648 13.653 13.737 13.822 13.88 13.892 13.887 13.877 13.777 13.59 13.402 13.217 13.032 12.84 12.638 12.438 12.288 12.187 12.105 12.095 12.202 12.17 11.885 11.54 11.263 11.09 10.953 10.82 10.713 10.63 10.555 10.493 10.46 10.45 10.442 10.437 10.407 10.355 10.305 10.247 10.157 10.042 9.928 9.825 9.695 9.525 9.36 9.205 9.108 9.077 9.06 9.04 9.025 9.025 9.045 9.077 9.112 9.107 9.04 8.95 8.923 8.963 9.01 9.045 9.055 9.047 9.032 9.02 9.04 9.093 9.145 9.175 9.177 9.17 9.16 9.15 9.155 9.195 9.253 9.33 9.415 9.458 9.473 9.49 9.505 9.535 9.588 9.64 9.682 9.69 9.673 9.673 9.693 9.708 9.728 9.77 9.82 9.862
13.722 13.787 13.808 13.843 13.887 13.927 13.96 13.987 14.012 14.04 14.065 14.085 14.123 14.205 14.287 14.343 14.4 14.462 14.508 14.535 14.56 14.568 14.585 14.605 14.605 14.608 14.595 14.553 14.503 14.453 14.433 14.473 14.545 14.623 14.735 14.96 15.285 15.61 15.702 15.62 15.362 14.895 14.723 14.75 14.68 14.61 14.522 14.405 14.305 14.443 14.55 14.42 14.305 14.235 14.185 14.115 14.035 13.967 13.925 13.888 13.848 13.815 13.78 13.753 13.8 13.857 13.86 13.857 13.847 13.825 13.78 13.755 13.77 13.778 13.738 13.675 13.635 13.595 13.535 13.47 13.42 13.378 13.338 13.305 13.308 13.4 13.558 13.697 13.763 13.79 13.855 13.97 14.115 14.26 14.325 14.305 14.28 14.278 14.26 14.177 14.052 13.915 13.79 13.75 13.795 13.86 13.92 13.942 13.94 13.957 13.895 13.725 13.55 13.385 13.235 13.07 12.865 12.645 12.473 12.373 12.36 12.42 12.455 12.287 11.95 11.608 11.34 11.175 11.038 10.903 10.808 10.743 10.668 10.593 10.53 10.5 10.49 10.475 10.44 10.39 10.335 10.257 10.157 10.047 9.935 9.815 9.667 9.5 9.333 9.17 9.063 9.03 9.015 8.997 9.005 9.065 9.125 9.16 9.185 9.145 9.055 8.965 8.933 8.97 9.02 9.067 9.095 9.092 9.077 9.068 9.09 9.14 9.195 9.235 9.24 9.23 9.22 9.21 9.22 9.26 9.313 9.37 9.413 9.433 9.45 9.47 9.5 9.533 9.563 9.608 9.657 9.67 9.678 9.735 9.777 9.755 9.72 9.71 9.733 9.8
13.72 13.755 13.765 13.785 13.823 13.862 13.892 13.92 13.945 13.97 13.995 14.02 14.083 14.182 14.267 14.328 14.388 14.457 14.51 14.537 14.545 14.53 14.558 14.605 14.615 14.622 14.632 14.607 14.555 14.482 14.395 14.363 14.395 14.45 14.873 15.215 15.483 16.027 16.15 15.802 15.115 14.633 14.693 14.755 14.688 14.63 14.56 14.457 14.335 14.408 14.48 14.358 14.278 14.25 14.23 14.187 14.12 14.05 14.007 13.972 13.93 13.89 13.85 13.813 13.81 13.823 13.82 13.82 13.818 13.82 13.83 13.873 13.945 13.955 13.895 13.813 13.738 13.675 13.585 13.48 13.41 13.375 13.353 13.34 13.375 13.485 13.627 13.74 13.805 13.865 13.908 13.958 14.075 14.215 14.27 14.25 14.248 14.283 14.307 14.275 14.187 14.062 13.943 13.88 13.878 13.903 13.953 13.982 13.995 14.035 13.992 13.835 13.668 13.525 13.415 13.305 13.142 12.928 12.74 12.61 12.55 12.567 12.525 12.307 11.985 11.648 11.398 11.26 11.132 10.995 10.91 10.872 10.81 10.725 10.63 10.553 10.52 10.507 10.472 10.417 10.345 10.245 10.142 10.042 9.932 9.805 9.652 9.487 9.32 9.15 9.003 8.928 8.908 8.898 8.918 9.032 9.155 9.202 9.212 9.16 9.07 8.98 8.948 8.983 9.03 9.08 9.112 9.122 9.117 9.11 9.138 9.19 9.245 9.29 9.302 9.295 9.285 9.28 9.295 9.328 9.37 9.425 9.467 9.49 9.51 9.53 9.56 9.588 9.6 9.623 9.653 9.688 9.758 9.862 9.912 9.877 9.82 9.763 9.758 9.845
13.7 13.715 13.725 13.738 13.763 13.797 13.825 13.85 13.878 13.903 13.928 13.968 14.05 14.157 14.247 14.315 14.383 14.455 14.51 14.527 14.512 14.49 14.518 14.585 14.62 14.635 14.657 14.655 14.61 14.512 14.385 14.32 14.323 14.348 15.227 16.097 16.29 16.572 16.49 15.785 14.803 14.438 14.66 14.757 14.7 14.655 14.59 14.497 14.39 14.4 14.405 14.313 14.275 14.258 14.242 14.222 14.187 14.13 14.085 14.06 14.025 13.983 13.94 13.9 13.88 13.883 13.885 13.888 13.893 13.92 13.985 14.065 14.14 14.133 14.055 13.98 13.933 13.905 13.815 13.665 13.558 13.508 13.465 13.423 13.445 13.555 13.682 13.79 13.875 13.957 14.002 14.013 14.065 14.165 14.217 14.225 14.263 14.317 14.34 14.325 14.285 14.197 14.095 14.04 14.02 14.005 14.013 14.033 14.065 14.112 14.085 13.955 13.808 13.68 13.575 13.49 13.39 13.24 13.067 12.888 12.72 12.665 12.575 12.317 12.01 11.683 11.443 11.327 11.22 11.09 11.005 10.982 10.945 10.867 10.765 10.658 10.575 10.54 10.505 10.432 10.335 10.225 10.125 10.032 9.927 9.797 9.64 9.472 9.305 9.135 8.97 8.85 8.803 8.798 8.83 8.968 9.152 9.245 9.24 9.175 9.085 8.995 8.968 9.005 9.048 9.092 9.12 9.135 9.147 9.153 9.185 9.243 9.3 9.345 9.36 9.357 9.35 9.35 9.37 9.4 9.433 9.48 9.522 9.545 9.567 9.588 9.618 9.657 9.685 9.7 9.72 9.79 9.9 10.01 10.047 10 9.94 9.88 9.878 9.968
13.665 13.675 13.685 13.695 13.71 13.733 13.76 13.793 13.828 13.86 13.885 13.935 14.028 14.135 14.233 14.307 14.377 14.45 14.5 14.502 14.478 14.455 14.478 14.55 14.61 14.645 14.672 14.69 14.65 14.53 14.383 14.3 14.288 14.308 15.288 16.614 17.114 17.097 16.592 15.5 14.553 14.445 14.665 14.76 14.72 14.68 14.617 14.527 14.43 14.388 14.35 14.298 14.283 14.265 14.25 14.235 14.22 14.19 14.155 14.138 14.115 14.08 14.043 14.023 14.03 14.05 14.062 14.07 14.077 14.087 14.152 14.267 14.38 14.427 14.33 14.165 14.128 14.19 14.14 13.975 13.843 13.765 13.69 13.603 13.575 13.63 13.718 13.823 13.928 14.032 14.087 14.092 14.108 14.15 14.198 14.243 14.3 14.355 14.372 14.355 14.335 14.295 14.237 14.192 14.157 14.122 14.09 14.082 14.118 14.172 14.175 14.087 13.962 13.84 13.735 13.647 13.562 13.467 13.35 13.167 12.938 12.793 12.617 12.325 12.022 11.71 11.49 11.385 11.29 11.178 11.1 11.08 11.062 11.005 10.905 10.792 10.68 10.595 10.522 10.425 10.315 10.205 10.105 10.013 9.915 9.787 9.625 9.455 9.285 9.115 8.95 8.803 8.725 8.703 8.738 8.888 9.1 9.255 9.267 9.19 9.1 9.013 8.99 9.03 9.07 9.11 9.137 9.153 9.17 9.19 9.233 9.295 9.355 9.402 9.42 9.42 9.417 9.423 9.445 9.475 9.505 9.542 9.578 9.6 9.623 9.643 9.675 9.72 9.76 9.793 9.848 9.94 10.037 10.127 10.15 10.107 10.055 9.995 10 10.095
13.165 13.497 13.787 13.915 13.907 13.89 13.905 13.945 13.983 13.99 13.965 13.995 14.088 14.188 14.255 14.29 14.345 14.415 14.47 14.492 14.482 14.458 14.475 14.545 14.587 14.61 14.645 14.675 14.652 14.54 14.39 14.29 14.273 14.343 15.48 16.865 17.405 17.392 16.575 15.15 14.366 14.517 14.687 14.75 14.71 14.67 14.61 14.525 14.438 14.378 14.343 14.315 14.3 14.288 14.275 14.26 14.245 14.235 14.247 14.26 14.238 14.195 14.163 14.168 14.187 14.205 14.207 14.2 14.2 14.195 14.265 14.412 14.557 14.645 14.512 14.298 14.293 14.395 14.395 14.275 14.137 14.04 13.94 13.833 13.78 13.785 13.813 13.88 13.988 14.1 14.15 14.15 14.162 14.18 14.213 14.265 14.325 14.38 14.38 14.345 14.322 14.3 14.285 14.22 14.137 14.097 14.065 14.087 14.165 14.227 14.232 14.16 14.047 13.955 13.872 13.78 13.69 13.608 13.567 13.477 13.265 13.035 12.655 12.225 11.915 11.66 11.528 11.447 11.353 11.253 11.188 11.17 11.145 11.077 10.975 10.862 10.75 10.635 10.52 10.41 10.3 10.198 10.105 10.01 9.923 9.805 9.635 9.46 9.29 9.12 9.043 9.183 9.205 8.873 8.753 8.94 9.107 9.252 9.275 9.19 9.102 9.023 9.008 9.05 9.09 9.13 9.16 9.177 9.193 9.218 9.268 9.332 9.392 9.437 9.455 9.455 9.462 9.482 9.51 9.54 9.57 9.605 9.645 9.678 9.703 9.725 9.758 9.8 9.843 9.883 9.947 10.04 10.12 10.177 10.185 10.155 10.117 10.075 10.088 10.17
11.898 12.42 13.025 13.467 13.957 14.257 14.25 14.27 14.257 14.205 14.128 14.133 14.22 14.315 14.357 14.303 14.288 14.355 14.42 14.47 14.497 14.492 14.508 14.547 14.537 14.533 14.57 14.602 14.61 14.54 14.4 14.365 14.438 14.976 16.34 17.392 17.54 17.262 16.28 14.92 14.375 14.525 14.69 14.737 14.68 14.635 14.575 14.495 14.43 14.4 14.38 14.355 14.34 14.328 14.315 14.303 14.293 14.29 14.337 14.407 14.42 14.38 14.33 14.308 14.31 14.325 14.312 14.278 14.263 14.258 14.33 14.477 14.585 14.617 14.478 14.363 14.42 14.472 14.49 14.455 14.382 14.285 14.15 14.043 14.003 13.995 13.985 13.993 14.063 14.17 14.215 14.205 14.21 14.225 14.248 14.283 14.335 14.387 14.367 14.298 14.258 14.235 14.232 14.177 14.058 13.95 13.883 14.038 14.24 14.27 14.247 14.17 14.073 14.043 14.005 13.9 13.8 13.72 13.715 13.737 13.357 13.155 12.84 12.093 11.715 11.575 11.54 11.5 11.422 11.325 11.268 11.242 11.182 11.087 10.98 10.867 10.752 10.63 10.508 10.398 10.298 10.21 10.125 10.035 9.962 9.872 9.703 9.5 9.32 9.23 9.468 10.16 10.257 9.25 8.743 8.98 9.125 9.23 9.245 9.167 9.09 9.025 9.02 9.07 9.115 9.155 9.182 9.2 9.218 9.245 9.295 9.355 9.41 9.45 9.465 9.47 9.493 9.527 9.56 9.59 9.623 9.665 9.717 9.767 9.805 9.832 9.863 9.9 9.93 9.953 10.005 10.085 10.147 10.185 10.185 10.155 10.128 10.108 10.12 10.173
11.075 11.271 11.59 11.948 13.1 14.301 14.539 14.499 14.43 14.35 14.273 14.27 14.353 14.447 14.49 14.398 14.283 14.29 14.355 14.412 14.467 14.505 14.52 14.497 14.455 14.455 14.485 14.51 14.53 14.507 14.403 14.698 15.308 16.135 17.204 17.642 17.32 16.78 15.645 14.586 14.44 14.55 14.69 14.73 14.663 14.605 14.543 14.483 14.458 14.46 14.447 14.415 14.39 14.373 14.358 14.35 14.35 14.353 14.405 14.505 14.582 14.6 14.55 14.485 14.443 14.432 14.417 14.373 14.338 14.325 14.397 14.505 14.54 14.54 14.47 14.435 14.477 14.487 14.49 14.49 14.485 14.442 14.337 14.252 14.207 14.162 14.145 14.143 14.165 14.242 14.285 14.268 14.263 14.275 14.295 14.318 14.353 14.392 14.365 14.273 14.198 14.16 14.163 14.167 14.08 13.908 13.8 14.06 14.325 14.29 14.25 14.185 14.135 14.17 14.157 14.042 13.92 13.83 13.775 13.657 13.28 13.332 13.052 12.03 11.583 11.545 11.535 11.515 11.475 11.397 11.335 11.28 11.19 11.09 10.985 10.867 10.742 10.615 10.495 10.395 10.31 10.23 10.145 10.068 10.01 9.947 9.797 9.575 9.4 9.56 10.338 11.274 10.857 9.258 8.575 8.8 9.007 9.162 9.197 9.14 9.08 9.033 9.033 9.082 9.135 9.18 9.207 9.225 9.245 9.275 9.322 9.372 9.417 9.457 9.478 9.495 9.53 9.57 9.605 9.64 9.683 9.73 9.785 9.845 9.897 9.935 9.967 9.995 10.005 10.01 10.053 10.115 10.155 10.185 10.185 10.16 10.14 10.125 10.138 10.175
11.04 11.04 11.04 11.078 11.728 12.605 12.85 13.222 14.099 14.541 14.459 14.432 14.49 14.58 14.61 14.532 14.378 14.273 14.29 14.347 14.402 14.46 14.467 14.403 14.358 14.368 14.39 14.41 14.433 14.445 14.465 15.25 16.334 16.895 17.52 17.71 17.195 16.347 15.12 14.453 14.527 14.615 14.707 14.72 14.65 14.583 14.533 14.515 14.52 14.53 14.52 14.485 14.447 14.42 14.408 14.408 14.41 14.42 14.478 14.575 14.67 14.72 14.695 14.635 14.575 14.537 14.51 14.467 14.425 14.4 14.43 14.467 14.473 14.478 14.477 14.477 14.485 14.49 14.49 14.49 14.49 14.49 14.46 14.402 14.327 14.262 14.257 14.28 14.295 14.332 14.352 14.33 14.315 14.32 14.34 14.362 14.387 14.405 14.365 14.27 14.173 14.1 14.09 14.12 14.105 14.042 14.048 14.295 14.535 14.482 14.325 14.235 14.252 14.317 14.305 14.187 14.045 13.925 13.825 13.648 13.535 13.442 12.725 11.828 11.54 11.538 11.525 11.508 11.49 11.447 11.377 11.29 11.19 11.09 10.982 10.86 10.73 10.6 10.49 10.405 10.325 10.245 10.17 10.11 10.06 10.005 9.882 9.66 9.518 10.183 11.522 12.039 10.722 8.991 8.51 8.688 8.895 9.08 9.155 9.13 9.085 9.045 9.043 9.085 9.14 9.195 9.23 9.25 9.27 9.298 9.34 9.385 9.425 9.465 9.498 9.53 9.572 9.615 9.655 9.697 9.745 9.795 9.85 9.91 9.97 10.022 10.057 10.07 10.07 10.07 10.093 10.128 10.155 10.185 10.193 10.18 10.168 10.158 10.17 10.2
11.748 11.421 11.148 11.04 11.041 11.041 11.041 11.453 12.37 12.852 12.983 13.879 14.549 14.329 14.362 14.582 14.532 14.353 14.255 14.27 14.32 14.375 14.375 14.295 14.253 14.273 14.303 14.33 14.35 14.37 14.763 15.775 16.732 17.295 17.697 17.779 17.029 15.648 14.703 14.518 14.6 14.682 14.742 14.725 14.655 14.583 14.548 14.555 14.565 14.577 14.567 14.53 14.493 14.473 14.47 14.47 14.473 14.49 14.55 14.645 14.72 14.745 14.722 14.677 14.635 14.597 14.56 14.52 14.48 14.45 14.433 14.428 14.435 14.445 14.46 14.475 14.485 14.49 14.49 14.49 14.49 14.49 14.49 14.447 14.36 14.3 14.302 14.335 14.362 14.375 14.36 14.332 14.343 14.378 14.378 14.378 14.403 14.52 14.58 14.488 14.37 14.22 14.153 14.178 14.165 14.102 14.1 14.297 14.615 14.642 14.385 14.275 14.33 14.392 14.355 14.212 14.062 13.922 13.82 13.75 13.682 13.19 12.203 11.618 11.558 11.553 11.538 11.518 11.502 11.465 11.38 11.275 11.175 11.075 10.97 10.852 10.725 10.595 10.488 10.405 10.325 10.245 10.18 10.13 10.08 10.017 9.905 9.685 9.846 11.198 12.554 12.127 10.14 8.701 8.57 8.713 8.878 9.042 9.137 9.13 9.09 9.055 9.053 9.093 9.15 9.21 9.25 9.27 9.295 9.338 9.385 9.425 9.465 9.493 9.525 9.57 9.612 9.657 9.702 9.747 9.792 9.835 9.887 9.95 10.007 10.065 10.107 10.122 10.125 10.125 10.133 10.15 10.173 10.2 10.22 10.22 10.213 10.208 10.218 10.245
13.172 12.782 12.198 11.758 11.433 11.158 11.04 11.04 11.041 11.041 11.216 12.138 12.79 12.655 13.025 13.865 14.432 14.472 14.308 14.225 14.233 14.282 14.285 14.22 14.19 14.213 14.243 14.27 14.293 14.415 15.305 16.32 16.94 17.545 17.772 17.439 16.103 14.801 14.525 14.585 14.658 14.74 14.78 14.745 14.672 14.598 14.565 14.575 14.585 14.6 14.59 14.553 14.535 14.545 14.548 14.538 14.538 14.558 14.622 14.702 14.745 14.752 14.727 14.685 14.648 14.612 14.575 14.538 14.505 14.48 14.45 14.423 14.42 14.43 14.445 14.465 14.482 14.49 14.49 14.49 14.49 14.49 14.49 14.452 14.368 14.3 14.298 14.33 14.345 14.332 14.305 14.28 14.35 14.48 14.49 14.43 14.405 14.75 15.045 14.902 14.705 14.475 14.365 14.375 14.285 14.088 13.925 13.923 14.352 14.607 14.368 14.278 14.337 14.395 14.335 14.15 13.978 13.838 13.728 13.64 13.525 12.93 12 11.598 11.597 11.592 11.575 11.548 11.527 11.472 11.365 11.25 11.145 11.045 10.945 10.84 10.722 10.595 10.485 10.398 10.315 10.238 10.175 10.122 10.057 9.972 9.862 9.751 10.561 12.317 13.026 11.692 9.541 8.573 8.65 8.75 8.893 9.057 9.145 9.13 9.098 9.09 9.103 9.125 9.168 9.225 9.267 9.29 9.335 9.41 9.467 9.502 9.527 9.528 9.55 9.602 9.647 9.692 9.737 9.782 9.82 9.85 9.9 9.965 10.023 10.08 10.127 10.155 10.167 10.17 10.175 10.19 10.21 10.233 10.255 10.267 10.267 10.263 10.273 10.3
13.532 13.634 13.489 13.28 12.835 12.245 11.813 11.498 11.191 11.04 11.04 11.041 11.041 11.168 11.706 12.958 14.225 14.58 14.432 14.288 14.198 14.192 14.195 14.17 14.17 14.19 14.215 14.25 14.295 14.473 15.572 16.762 17.142 17.357 17.392 16.627 15.168 14.478 14.57 14.65 14.72 14.795 14.817 14.765 14.69 14.615 14.583 14.593 14.608 14.622 14.615 14.598 14.61 14.637 14.637 14.618 14.605 14.623 14.68 14.73 14.755 14.76 14.735 14.698 14.662 14.628 14.593 14.563 14.54 14.522 14.487 14.438 14.413 14.418 14.435 14.455 14.477 14.505 14.513 14.498 14.49 14.49 14.49 14.46 14.378 14.303 14.292 14.305 14.292 14.267 14.24 14.253 14.385 14.587 14.66 14.588 14.64 15.125 15.425 15.21 14.95 14.703 14.595 14.55 14.37 14.133 13.908 13.7 13.97 14.405 14.362 14.28 14.337 14.39 14.33 14.125 13.91 13.75 13.64 13.52 13.34 12.732 11.935 11.64 11.64 11.637 11.617 11.583 11.547 11.472 11.355 11.235 11.12 11.015 10.915 10.815 10.71 10.592 10.483 10.393 10.308 10.23 10.162 10.09 10.002 9.905 9.8 10.168 11.73 13.179 12.877 10.88 9.068 8.678 8.755 8.833 8.93 9.072 9.15 9.14 9.14 9.163 9.185 9.19 9.205 9.245 9.285 9.325 9.4 9.492 9.55 9.57 9.567 9.553 9.573 9.627 9.68 9.727 9.77 9.807 9.837 9.865 9.913 9.975 10.037 10.1 10.145 10.175 10.2 10.212 10.22 10.233 10.25 10.27 10.288 10.305 10.317 10.318 10.328 10.368
13.013 13.415 13.835 14.089 13.977 13.674 13.394 12.942 12.318 11.855 11.516 11.186 11.04 11.041 11.526 12.983 14.307 14.602 14.48 14.345 14.212 13.897 13.615 13.7 13.927 14.12 14.267 14.395 14.485 14.56 15.125 15.982 16.475 16.67 16.582 15.66 14.663 14.505 14.598 14.692 14.775 14.847 14.852 14.785 14.71 14.635 14.603 14.615 14.635 14.653 14.66 14.673 14.7 14.73 14.73 14.705 14.682 14.682 14.71 14.74 14.765 14.77 14.747 14.712 14.675 14.643 14.618 14.598 14.58 14.565 14.53 14.47 14.42 14.405 14.42 14.44 14.465 14.535 14.575 14.545 14.523 14.51 14.498 14.465 14.385 14.3 14.267 14.25 14.225 14.2 14.18 14.258 14.448 14.662 14.8 14.783 15.075 15.597 15.645 15.402 15.17 14.933 14.795 14.657 14.422 14.177 13.945 13.73 13.673 13.943 14.2 14.265 14.325 14.382 14.325 14.12 13.88 13.675 13.515 13.345 13.152 12.677 11.988 11.675 11.678 11.68 11.663 11.628 11.565 11.46 11.342 11.225 11.105 10.993 10.888 10.785 10.685 10.58 10.478 10.388 10.3 10.213 10.125 10.03 9.933 9.835 9.856 10.925 12.789 13.506 12.324 10.051 8.776 8.78 8.86 8.938 9.015 9.112 9.175 9.193 9.22 9.25 9.27 9.275 9.278 9.293 9.323 9.385 9.48 9.575 9.62 9.613 9.595 9.578 9.595 9.65 9.71 9.763 9.798 9.825 9.855 9.883 9.925 9.985 10.05 10.115 10.163 10.195 10.228 10.255 10.275 10.29 10.305 10.323 10.335 10.348 10.363 10.37 10.398 10.468
12.918 13.37 13.85 14.065 14.047 14.052 14.087 13.967 13.699 13.449 12.992 12.358 11.86 11.538 11.966 13.432 14.449 14.522 14.43 14.31 14.06 13.288 12.681 12.768 13.083 13.472 13.822 14.117 14.342 14.49 14.623 14.853 15.278 15.73 15.61 14.905 14.508 14.56 14.65 14.74 14.827 14.89 14.87 14.795 14.725 14.665 14.643 14.655 14.675 14.695 14.717 14.745 14.777 14.805 14.797 14.762 14.727 14.715 14.73 14.755 14.777 14.78 14.76 14.725 14.688 14.663 14.648 14.632 14.617 14.602 14.565 14.505 14.455 14.428 14.415 14.42 14.448 14.535 14.622 14.625 14.595 14.57 14.54 14.477 14.38 14.285 14.228 14.193 14.16 14.133 14.155 14.298 14.513 14.725 14.918 15.08 15.563 16.025 15.842 15.52 15.332 15.125 14.91 14.657 14.375 14.158 13.995 13.81 13.603 13.553 13.755 13.97 14.072 14.135 14.12 13.955 13.715 13.59 13.495 13.32 13.035 12.567 12.023 11.725 11.72 11.745 11.745 11.705 11.597 11.45 11.323 11.205 11.088 10.978 10.87 10.765 10.665 10.563 10.468 10.382 10.295 10.2 10.095 9.988 9.885 9.785 10.176 11.757 13.269 13.207 11.482 9.478 8.805 8.885 8.965 9.048 9.127 9.175 9.205 9.24 9.272 9.305 9.337 9.357 9.36 9.363 9.388 9.46 9.557 9.65 9.695 9.685 9.665 9.645 9.663 9.72 9.78 9.823 9.845 9.868 9.893 9.915 9.948 10.003 10.07 10.137 10.192 10.233 10.268 10.3 10.34 10.375 10.393 10.408 10.42 10.43 10.44 10.445 10.485 10.567
13.068 13.473 13.865 13.98 13.925 13.905 13.903 13.917 13.965 14.049 13.987 13.744 13.457 13.04 12.955 13.77 14.407 14.392 14.35 14.255 13.57 12.613 12.28 12.28 12.375 12.583 12.803 13.108 13.485 13.812 14.097 14.315 14.53 14.847 14.793 14.595 14.622 14.648 14.728 14.815 14.882 14.907 14.87 14.8 14.75 14.718 14.705 14.71 14.725 14.745 14.77 14.8 14.83 14.837 14.81 14.765 14.73 14.73 14.753 14.777 14.792 14.79 14.77 14.738 14.71 14.695 14.682 14.667 14.652 14.635 14.595 14.543 14.513 14.492 14.46 14.43 14.435 14.5 14.627 14.697 14.677 14.65 14.582 14.48 14.37 14.263 14.198 14.16 14.12 14.128 14.265 14.483 14.695 14.908 15.123 15.59 16.192 16.44 16.062 15.59 15.357 15.097 14.82 14.5 14.243 14.123 14.035 13.87 13.653 13.458 13.42 13.503 13.58 13.638 13.658 13.575 13.528 13.625 13.615 13.442 12.917 12.265 11.908 11.765 11.785 11.84 11.862 11.792 11.632 11.46 11.31 11.183 11.07 10.965 10.86 10.755 10.652 10.548 10.455 10.375 10.29 10.197 10.09 9.973 9.86 9.753 10.568 12.454 13.494 12.599 10.453 9.051 8.92 9 9.083 9.165 9.215 9.21 9.215 9.25 9.285 9.32 9.365 9.415 9.437 9.44 9.468 9.54 9.633 9.725 9.78 9.79 9.78 9.76 9.78 9.837 9.88 9.9 9.915 9.938 9.96 9.98 10.003 10.043 10.103 10.17 10.232 10.282 10.32 10.353 10.402 10.46 10.495 10.512 10.527 10.54 10.545 10.54 10.573 10.653
13.24 13.597 13.855 13.87 13.805 13.773 13.768 13.763 13.758 13.785 13.853 13.947 14.07 14.039 13.89 14.077 14.302 14.265 14.235 14.157 13.193 12.288 12.28 12.28 12.28 12.28 12.283 12.395 12.608 12.818 13.108 13.462 13.76 14.08 14.292 14.437 14.63 14.732 14.807 14.87 14.9 14.905 14.875 14.828 14.8 14.78 14.77 14.77 14.778 14.795 14.82 14.845 14.85 14.827 14.79 14.753 14.74 14.755 14.777 14.795 14.8 14.797 14.78 14.755 14.74 14.73 14.715 14.7 14.687 14.667 14.633 14.598 14.578 14.562 14.54 14.495 14.463 14.48 14.602 14.737 14.76 14.7 14.572 14.46 14.36 14.243 14.173 14.168 14.203 14.293 14.51 14.8 15.057 15.283 15.708 16.357 16.82 16.902 16.31 15.59 15.19 14.848 14.578 14.32 14.185 14.135 14.072 13.925 13.715 13.528 13.415 13.358 13.345 13.353 13.343 13.39 13.595 13.78 13.727 13.475 12.748 12.038 11.843 11.815 11.863 11.93 12.055 11.948 11.645 11.483 11.405 11.28 11.09 10.955 10.85 10.745 10.64 10.533 10.44 10.362 10.282 10.192 10.085 9.967 9.85 9.838 11.02 12.894 13.341 11.822 9.738 8.936 9.037 9.125 9.205 9.255 9.25 9.223 9.228 9.262 9.298 9.333 9.38 9.442 9.495 9.517 9.553 9.625 9.71 9.802 9.86 9.877 9.885 9.878 9.898 9.94 9.96 9.97 9.985 10.01 10.035 10.057 10.08 10.108 10.148 10.203 10.265 10.322 10.37 10.408 10.458 10.522 10.58 10.615 10.632 10.64 10.635 10.625 10.658 10.737
13.415 13.707 13.835 13.778 13.703 13.66 13.665 13.683 13.7 13.725 13.753 13.793 13.858 13.945 14.075 14.227 14.277 14.228 14.183 14.117 13.45 12.675 12.4 12.28 12.28 12.28 12.28 12.28 12.28 12.298 12.413 12.6 12.79 13.153 13.637 14.125 14.53 14.752 14.86 14.892 14.905 14.913 14.903 14.88 14.86 14.84 14.83 14.83 14.833 14.845 14.862 14.862 14.838 14.805 14.773 14.755 14.762 14.777 14.792 14.802 14.805 14.805 14.795 14.78 14.77 14.76 14.747 14.732 14.72 14.7 14.675 14.657 14.64 14.625 14.61 14.58 14.537 14.503 14.568 14.732 14.795 14.69 14.54 14.445 14.355 14.233 14.193 14.262 14.377 14.505 14.753 15.105 15.425 15.718 16.215 16.72 17.015 17.192 16.777 15.923 15.32 14.868 14.45 14.253 14.193 14.15 14.105 13.985 13.8 13.623 13.51 13.465 13.432 13.4 13.34 13.423 13.617 13.69 13.61 13.335 12.593 11.988 11.913 11.9 11.948 12.09 12.347 12.297 11.998 11.85 11.752 11.555 11.26 11.013 10.85 10.743 10.635 10.52 10.42 10.342 10.267 10.185 10.08 9.962 9.845 10.116 11.628 13.169 12.859 10.965 9.361 9.033 9.14 9.24 9.295 9.29 9.26 9.235 9.24 9.275 9.31 9.345 9.395 9.455 9.52 9.572 9.63 9.712 9.795 9.88 9.935 9.952 9.97 9.98 9.997 10.02 10.03 10.04 10.055 10.08 10.105 10.13 10.155 10.18 10.21 10.248 10.298 10.355 10.413 10.46 10.513 10.578 10.645 10.702 10.73 10.73 10.72 10.71 10.743 10.817
13.537 13.755 13.817 13.75 13.67 13.63 13.655 13.7 13.74 13.777 13.805 13.82 13.835 13.87 13.95 14.115 14.242 14.24 14.197 14.157 13.947 13.6 13.287 12.98 12.683 12.408 12.28 12.28 12.28 12.28 12.28 12.28 12.293 12.44 12.855 13.708 14.482 14.767 14.87 14.905 14.93 14.945 14.945 14.932 14.915 14.9 14.895 14.895 14.895 14.897 14.892 14.868 14.835 14.808 14.778 14.763 14.77 14.78 14.792 14.805 14.81 14.813 14.817 14.815 14.805 14.792 14.775 14.755 14.737 14.715 14.682 14.66 14.647 14.632 14.617 14.605 14.572 14.523 14.54 14.68 14.762 14.66 14.515 14.438 14.35 14.223 14.198 14.272 14.375 14.518 14.945 15.432 15.715 16.082 16.375 16.595 16.905 17.202 17.22 16.782 16.255 15.688 14.963 14.418 14.225 14.182 14.122 14.007 13.84 13.673 13.573 13.54 13.515 13.487 13.4 13.375 13.407 13.303 13.125 12.927 12.435 12.035 12.003 11.993 12.1 12.35 12.635 12.665 12.482 12.317 12.012 11.635 11.31 11.053 10.91 10.805 10.68 10.517 10.375 10.287 10.212 10.137 10.05 9.947 9.835 10.443 12.207 13.354 12.359 10.248 9.128 9.128 9.23 9.307 9.32 9.29 9.26 9.243 9.255 9.29 9.325 9.36 9.408 9.468 9.533 9.597 9.67 9.755 9.842 9.927 9.985 10.01 10.027 10.042 10.057 10.07 10.08 10.09 10.11 10.14 10.165 10.19 10.215 10.24 10.273 10.31 10.358 10.413 10.468 10.525 10.588 10.655 10.725 10.792 10.827 10.825 10.815 10.803 10.805 10.85
13.587 13.747 13.812 13.77 13.688 13.655 13.7 13.757 13.8 13.832 13.853 13.87 13.893 13.92 13.948 14.023 14.162 14.232 14.202 14.168 14.142 14.13 14.09 13.895 13.602 13.327 13.03 12.723 12.428 12.28 12.28 12.28 12.28 12.28 12.426 13.503 14.595 14.795 14.857 14.9 14.937 14.967 14.982 14.982 14.975 14.97 14.965 14.958 14.955 14.95 14.93 14.9 14.87 14.843 14.81 14.773 14.76 14.773 14.788 14.802 14.812 14.818 14.835 14.85 14.845 14.827 14.798 14.768 14.745 14.717 14.67 14.623 14.6 14.587 14.578 14.577 14.555 14.518 14.53 14.62 14.702 14.655 14.725 14.743 14.433 14.198 14.163 14.188 14.24 14.418 14.907 15.507 15.872 16.27 16.607 16.678 16.85 17.152 17.307 17.23 17.007 16.744 16.247 15.308 14.49 14.205 14.11 13.98 13.82 13.678 13.598 13.555 13.527 13.482 13.398 13.333 13.263 13.058 12.783 12.583 12.325 12.133 12.113 12.168 12.403 12.71 12.932 12.91 12.71 12.51 12.128 11.57 11.185 11.075 11.022 10.897 10.717 10.498 10.318 10.21 10.125 10.05 9.977 9.9 9.81 10.693 12.564 13.201 11.7 9.783 9.118 9.22 9.292 9.32 9.31 9.28 9.258 9.255 9.278 9.313 9.348 9.385 9.428 9.483 9.545 9.61 9.683 9.763 9.85 9.935 9.997 10.035 10.057 10.075 10.09 10.1 10.107 10.115 10.143 10.185 10.215 10.24 10.265 10.295 10.338 10.388 10.442 10.495 10.55 10.613 10.683 10.755 10.825 10.895 10.93 10.925 10.912 10.897 10.873 10.868
13.585 13.722 13.81 13.79 13.705 13.675 13.73 13.802 13.855 13.887 13.91 13.935 13.965 13.993 14.018 14.043 14.113 14.2 14.207 14.173 14.145 14.128 14.12 14.105 14.1 14.102 13.95 13.665 13.395 13.103 12.785 12.473 12.301 12.28 12.386 13.57 14.707 14.792 14.84 14.88 14.897 14.89 14.905 14.965 15.03 15.052 15.04 15.022 15.012 15.005 14.985 14.953 14.92 14.89 14.852 14.8 14.763 14.765 14.782 14.798 14.812 14.823 14.843 14.872 14.88 14.857 14.82 14.783 14.752 14.72 14.67 14.61 14.563 14.54 14.538 14.545 14.53 14.515 14.545 14.603 14.673 14.99 15.665 15.887 15.115 14.338 14.17 14.19 14.22 14.393 14.633 15.048 15.662 16.298 16.927 17.082 16.968 17.12 17.235 17.102 16.972 16.99 16.962 16.462 15.135 14.19 14.077 13.95 13.803 13.688 13.625 13.573 13.535 13.478 13.408 13.368 13.325 13.178 12.942 12.6 12.305 12.24 12.245 12.405 12.788 13.152 13.272 13.14 12.953 12.838 12.692 12.04 11.325 11.175 11.112 10.92 10.69 10.453 10.27 10.147 10.045 9.965 9.9 9.838 9.831 11.14 12.917 12.739 10.885 9.431 9.208 9.28 9.305 9.31 9.3 9.278 9.273 9.28 9.303 9.337 9.375 9.413 9.453 9.503 9.56 9.623 9.695 9.775 9.857 9.935 9.992 10.037 10.075 10.102 10.12 10.127 10.132 10.138 10.165 10.217 10.26 10.29 10.32 10.363 10.415 10.47 10.525 10.58 10.643 10.708 10.778 10.852 10.925 10.995 11.03 11.022 11.007 10.992 10.965 10.93
13.555 13.695 13.807 13.81 13.725 13.698 13.758 13.84 13.907 13.95 13.98 14.01 14.04 14.067 14.092 14.115 14.14 14.188 14.208 14.18 14.15 14.128 14.113 14.095 14.075 14.07 14.085 14.12 14.17 14.047 13.752 13.465 13.173 12.86 12.958 13.962 14.735 14.767 14.772 14.765 14.735 14.683 14.68 14.785 14.93 15.03 15.06 15.052 15.047 15.05 15.04 15.007 14.972 14.94 14.897 14.84 14.785 14.763 14.775 14.792 14.81 14.825 14.847 14.877 14.89 14.87 14.83 14.792 14.757 14.72 14.67 14.61 14.55 14.508 14.5 14.51 14.508 14.52 14.565 14.615 14.675 15.517 16.594 16.786 15.879 14.63 14.225 14.253 14.38 14.657 14.725 14.691 15.301 16.4 17.38 17.677 17.39 17.21 17.115 16.935 16.74 16.683 16.752 16.857 15.685 14.276 14.04 13.918 13.795 13.71 13.655 13.6 13.55 13.512 13.49 13.482 13.49 13.452 13.19 12.65 12.32 12.308 12.403 12.868 13.375 13.595 13.62 13.47 13.307 13.217 13.167 12.575 11.613 11.233 11.12 10.872 10.637 10.403 10.205 10.057 9.942 9.885 9.85 9.795 9.973 11.537 13.061 12.249 10.261 9.246 9.262 9.29 9.295 9.3 9.298 9.293 9.298 9.305 9.325 9.36 9.4 9.437 9.48 9.53 9.585 9.645 9.713 9.788 9.865 9.937 9.99 10.035 10.082 10.12 10.14 10.147 10.152 10.158 10.188 10.242 10.295 10.34 10.385 10.44 10.495 10.55 10.61 10.675 10.74 10.805 10.875 10.947 11.017 11.085 11.12 11.112 11.1 11.085 11.057 11.02
13.59 13.73 13.845 13.857 13.783 13.753 13.81 13.898 13.972 14.02 14.05 14.075 14.095 14.117 14.14 14.16 14.185 14.225 14.25 14.228 14.183 14.148 14.133 14.125 14.118 14.113 14.11 14.125 14.16 14.197 14.237 14.28 14.175 13.89 14.017 14.52 14.722 14.695 14.655 14.6 14.545 14.518 14.523 14.555 14.66 14.817 14.92 14.947 14.952 15.012 15.07 15.055 15.017 14.972 14.922 14.867 14.812 14.768 14.757 14.77 14.782 14.795 14.812 14.83 14.847 14.84 14.802 14.767 14.745 14.727 14.675 14.605 14.545 14.498 14.48 14.48 14.5 14.543 14.59 14.64 14.92 15.807 16.515 16.477 15.63 14.595 14.308 14.385 14.6 14.89 14.88 14.908 15.726 17.01 17.819 17.802 17.44 17.075 16.72 16.52 16.46 16.407 16.502 16.824 15.844 14.348 13.988 13.893 13.8 13.728 13.672 13.617 13.535 13.462 13.445 13.452 13.467 13.48 13.165 12.6 12.338 12.32 12.638 13.49 14.109 13.96 13.682 13.56 13.395 13.23 13.06 12.682 11.82 11.238 11.082 10.808 10.565 10.332 10.098 9.898 9.783 9.777 9.795 9.76 10.178 11.71 12.799 11.635 9.851 9.25 9.275 9.288 9.298 9.308 9.315 9.32 9.325 9.325 9.34 9.373 9.41 9.45 9.502 9.57 9.633 9.69 9.755 9.825 9.893 9.952 10 10.045 10.09 10.117 10.13 10.14 10.147 10.16 10.202 10.262 10.317 10.372 10.43 10.487 10.542 10.605 10.675 10.745 10.81 10.89 10.96 11.015 11.082 11.147 11.182 11.18 11.172 11.165 11.15 11.117
13.685 13.825 13.922 13.93 13.875 13.84 13.883 13.97 14.042 14.08 14.1 14.115 14.125 14.14 14.16 14.18 14.223 14.298 14.35 14.33 14.273 14.235 14.23 14.238 14.245 14.253 14.253 14.25 14.265 14.295 14.328 14.36 14.375 14.347 14.502 14.687 14.665 14.615 14.565 14.523 14.515 14.555 14.57 14.523 14.513 14.568 14.665 14.742 14.778 14.907 15.062 15.087 15.037 14.982 14.93 14.875 14.815 14.752 14.715 14.708 14.71 14.72 14.73 14.748 14.78 14.782 14.748 14.718 14.728 14.75 14.7 14.61 14.54 14.495 14.473 14.463 14.513 14.59 14.638 14.693 15.138 15.87 16.167 15.845 15.03 14.458 14.372 14.435 14.595 14.735 14.923 15.62 16.775 17.712 17.94 17.49 16.99 16.607 16.105 15.773 15.79 15.787 15.56 15.462 14.927 14.148 13.963 13.902 13.813 13.733 13.677 13.597 13.46 13.323 13.255 13.233 13.233 13.247 12.995 12.57 12.365 12.498 13.03 13.917 14.387 13.88 13.393 13.297 13.155 12.99 12.807 12.565 11.85 11.24 11.057 10.765 10.493 10.243 9.983 9.73 9.603 9.64 9.697 9.698 10.275 11.862 12.511 10.925 9.481 9.278 9.29 9.305 9.32 9.335 9.345 9.35 9.352 9.345 9.355 9.383 9.413 9.45 9.51 9.602 9.687 9.75 9.815 9.88 9.932 9.977 10.02 10.062 10.092 10.1 10.103 10.11 10.125 10.15 10.203 10.272 10.332 10.39 10.448 10.505 10.568 10.64 10.715 10.783 10.86 10.97 11.042 11.07 11.125 11.19 11.225 11.225 11.223 11.227 11.227 11.21
13.785 13.915 13.997 13.995 13.957 13.925 13.958 14.035 14.09 14.115 14.125 14.135 14.145 14.16 14.183 14.223 14.3 14.397 14.462 14.452 14.408 14.383 14.38 14.39 14.4 14.402 14.405 14.407 14.41 14.43 14.46 14.467 14.425 14.335 14.385 14.53 14.577 14.56 14.545 14.573 14.635 14.715 14.72 14.653 14.58 14.52 14.518 14.55 14.618 14.762 14.92 14.992 14.977 14.945 14.91 14.852 14.78 14.712 14.663 14.635 14.625 14.628 14.64 14.673 14.717 14.725 14.693 14.688 14.735 14.782 14.745 14.643 14.55 14.493 14.463 14.453 14.528 14.642 14.705 14.78 15.19 15.859 15.982 15.48 14.835 14.423 14.305 14.335 14.468 14.688 15.49 16.795 17.699 18.002 17.877 17.297 16.625 16.137 15.545 15.015 14.858 14.79 14.393 13.998 13.935 13.945 13.965 13.93 13.83 13.74 13.662 13.53 13.355 13.203 13.11 13.058 13.028 13.02 12.835 12.658 12.96 13.387 13.537 13.692 13.702 13.338 13.053 12.975 12.887 12.75 12.552 12.295 11.745 11.258 11.032 10.735 10.45 10.2 9.96 9.708 9.528 9.525 9.593 9.628 10.253 11.839 12.201 10.433 9.288 9.302 9.318 9.335 9.352 9.367 9.375 9.375 9.372 9.365 9.373 9.398 9.423 9.453 9.513 9.613 9.72 9.805 9.87 9.92 9.96 10 10.037 10.065 10.075 10.075 10.078 10.09 10.113 10.143 10.198 10.272 10.342 10.405 10.465 10.53 10.603 10.677 10.75 10.83 10.943 11.07 11.137 11.153 11.18 11.23 11.265 11.268 11.27 11.28 11.285 11.282
13.91 14.017 14.07 14.05 14.023 13.998 14.018 14.072 14.112 14.135 14.145 14.155 14.165 14.183 14.228 14.305 14.4 14.5 14.575 14.582 14.555 14.535 14.525 14.52 14.512 14.5 14.507 14.532 14.545 14.562 14.562 14.512 14.425 14.325 14.323 14.418 14.505 14.558 14.628 14.727 14.815 14.877 14.86 14.788 14.715 14.645 14.575 14.523 14.53 14.568 14.635 14.738 14.795 14.797 14.777 14.737 14.688 14.65 14.618 14.585 14.56 14.543 14.555 14.6 14.65 14.662 14.655 14.69 14.755 14.817 14.792 14.685 14.575 14.493 14.448 14.44 14.53 14.677 14.773 14.97 15.207 15.297 15.325 15.075 14.595 14.285 14.17 14.203 14.373 14.873 16.115 17.494 18.012 17.917 17.417 16.725 16.195 15.662 14.91 14.31 14.165 14.12 13.983 13.84 13.83 13.875 13.917 13.902 13.825 13.732 13.605 13.428 13.243 13.09 12.983 12.915 12.868 12.83 12.918 13.27 13.84 14.104 13.857 13.453 13.18 13.025 12.86 12.74 12.64 12.513 12.3 12.025 11.655 11.303 11.06 10.818 10.585 10.378 10.152 9.858 9.59 9.518 9.555 9.593 10.255 11.749 11.767 10.09 9.288 9.327 9.345 9.365 9.382 9.397 9.402 9.395 9.39 9.385 9.39 9.413 9.438 9.463 9.52 9.623 9.74 9.837 9.897 9.937 9.975 10.015 10.042 10.05 10.05 10.05 10.06 10.085 10.11 10.14 10.198 10.275 10.353 10.425 10.498 10.57 10.643 10.715 10.798 10.91 11.05 11.177 11.235 11.247 11.262 11.288 11.31 11.318 11.325 11.335 11.337 11.335
13.997 14.087 14.13 14.115 14.088 14.065 14.06 14.085 14.125 14.152 14.165 14.175 14.188 14.218 14.288 14.382 14.48 14.577 14.65 14.67 14.655 14.637 14.625 14.605 14.58 14.56 14.57 14.605 14.635 14.65 14.622 14.55 14.46 14.37 14.363 14.445 14.513 14.578 14.697 14.84 14.97 15.032 14.997 14.93 14.863 14.795 14.725 14.665 14.615 14.555 14.528 14.548 14.568 14.573 14.58 14.6 14.625 14.623 14.583 14.545 14.513 14.493 14.508 14.545 14.585 14.613 14.65 14.707 14.765 14.827 14.817 14.717 14.6 14.503 14.445 14.438 14.53 14.69 14.808 14.96 14.937 14.685 14.675 14.608 14.358 14.235 14.145 14.14 14.275 14.803 15.965 17.074 17.427 17.252 16.312 15.365 15.038 14.62 14.075 13.758 13.765 13.825 13.785 13.713 13.737 13.775 13.802 13.777 13.712 13.682 13.57 13.345 13.138 12.98 12.858 12.775 12.725 12.818 13.41 14.015 14.152 14.125 13.87 13.425 13.17 13.007 12.803 12.655 12.51 12.36 12.145 11.865 11.578 11.333 11.15 10.982 10.81 10.64 10.38 9.988 9.785 9.7 9.575 9.575 10.298 11.569 11.062 9.621 9.298 9.347 9.37 9.39 9.407 9.417 9.42 9.415 9.408 9.403 9.41 9.43 9.453 9.483 9.543 9.645 9.76 9.845 9.895 9.935 9.975 10.017 10.047 10.055 10.055 10.055 10.07 10.1 10.128 10.165 10.228 10.305 10.385 10.465 10.548 10.628 10.7 10.773 10.87 11 11.14 11.25 11.305 11.325 11.337 11.35 11.36 11.37 11.38 11.39 11.387 11.378
14.027 14.11 14.16 14.175 14.162 14.138 14.118 14.115 14.14 14.172 14.19 14.2 14.225 14.275 14.348 14.44 14.54 14.63 14.685 14.702 14.7 14.687 14.675 14.66 14.64 14.623 14.633 14.662 14.677 14.67 14.647 14.605 14.53 14.44 14.435 14.507 14.542 14.57 14.68 14.85 15.017 15.117 15.127 15.085 15.02 14.955 14.888 14.835 14.792 14.735 14.665 14.598 14.543 14.503 14.52 14.593 14.667 14.657 14.565 14.505 14.478 14.483 14.507 14.528 14.55 14.563 14.595 14.65 14.702 14.762 14.785 14.727 14.622 14.52 14.455 14.458 14.545 14.69 14.812 14.838 14.78 14.7 14.6 14.488 14.388 14.295 14.215 14.228 14.3 14.468 15.035 15.68 15.892 15.832 15.07 14.261 14.035 13.803 13.64 13.573 13.575 13.605 13.598 13.59 13.618 13.638 13.652 13.603 13.558 13.642 13.597 13.353 13.11 12.913 12.753 12.67 12.808 13.3 14.062 14.3 14.133 14.052 13.55 12.998 12.94 12.92 12.745 12.597 12.447 12.285 12.075 11.81 11.525 11.32 11.2 11.067 10.915 10.755 10.45 10.005 10.047 9.982 9.61 9.575 10.345 11.267 10.37 9.288 9.305 9.365 9.395 9.412 9.425 9.425 9.425 9.43 9.425 9.42 9.43 9.45 9.475 9.513 9.573 9.67 9.772 9.84 9.885 9.925 9.968 10.012 10.052 10.077 10.085 10.085 10.1 10.13 10.168 10.218 10.28 10.355 10.435 10.515 10.603 10.692 10.772 10.848 10.948 11.075 11.187 11.267 11.327 11.37 11.392 11.405 11.415 11.423 11.43 11.44 11.437 11.423
14.057 14.132 14.173 14.2 14.217 14.21 14.193 14.178 14.175 14.195 14.215 14.238 14.285 14.345 14.413 14.5 14.592 14.67 14.715 14.727 14.732 14.73 14.72 14.71 14.697 14.685 14.69 14.7 14.69 14.67 14.65 14.625 14.58 14.508 14.498 14.542 14.555 14.565 14.655 14.82 14.985 15.11 15.172 15.182 15.162 15.115 15.053 15.005 14.965 14.912 14.848 14.782 14.715 14.638 14.613 14.668 14.732 14.692 14.558 14.47 14.455 14.477 14.5 14.512 14.525 14.503 14.485 14.525 14.588 14.652 14.695 14.692 14.635 14.538 14.475 14.503 14.585 14.703 14.815 14.87 14.862 14.792 14.69 14.582 14.477 14.38 14.333 14.357 14.372 14.32 14.34 14.428 14.478 14.533 14.318 14.028 13.935 13.828 13.718 13.62 13.548 13.515 13.695 13.88 13.778 13.583 13.493 13.443 13.46 13.62 13.627 13.415 13.155 12.92 12.73 12.848 13.35 14.025 14.545 14.445 14.153 13.847 13.205 12.788 12.773 12.78 12.692 12.537 12.375 12.202 11.992 11.745 11.48 11.29 11.19 11.082 10.955 10.8 10.472 9.995 10.255 10.242 9.675 9.593 10.367 10.917 9.933 9.235 9.315 9.382 9.42 9.43 9.427 9.423 9.425 9.435 9.44 9.438 9.448 9.475 9.51 9.55 9.603 9.687 9.77 9.828 9.875 9.918 9.962 10.007 10.047 10.082 10.107 10.115 10.133 10.17 10.218 10.273 10.333 10.405 10.488 10.57 10.658 10.75 10.837 10.918 11.015 11.122 11.2 11.265 11.33 11.387 11.435 11.46 11.47 11.477 11.483 11.49 11.49 11.475
14.085 14.163 14.208 14.235 14.265 14.277 14.267 14.252 14.238 14.233 14.25 14.295 14.355 14.415 14.478 14.555 14.635 14.705 14.745 14.753 14.76 14.767 14.765 14.755 14.747 14.74 14.725 14.707 14.69 14.67 14.65 14.625 14.597 14.563 14.55 14.563 14.565 14.57 14.64 14.79 14.952 15.08 15.15 15.19 15.222 15.227 15.207 15.175 15.135 15.09 15.032 14.965 14.897 14.82 14.74 14.743 14.785 14.715 14.568 14.473 14.448 14.453 14.468 14.48 14.485 14.45 14.413 14.435 14.488 14.545 14.585 14.605 14.6 14.54 14.508 14.56 14.64 14.73 14.81 14.867 14.905 14.87 14.77 14.665 14.562 14.467 14.427 14.417 14.392 14.357 14.275 14.198 14.18 14.198 14.173 14.085 13.995 13.897 13.797 13.705 13.613 13.54 14.027 14.585 14.552 14.278 13.955 13.573 13.405 13.582 13.637 13.47 13.203 12.958 12.78 13.045 13.87 14.592 14.847 14.627 14.205 13.733 13.215 12.935 12.813 12.738 12.635 12.46 12.29 12.115 11.902 11.657 11.42 11.26 11.165 11.065 10.962 10.825 10.47 9.931 10.435 10.48 9.695 9.598 10.35 10.524 9.555 9.245 9.325 9.4 9.437 9.435 9.428 9.425 9.43 9.44 9.448 9.45 9.47 9.51 9.55 9.59 9.638 9.703 9.768 9.828 9.878 9.915 9.958 10.005 10.045 10.078 10.113 10.143 10.18 10.23 10.28 10.335 10.395 10.465 10.548 10.628 10.71 10.803 10.895 10.983 11.063 11.133 11.198 11.265 11.33 11.39 11.45 11.495 11.515 11.525 11.532 11.54 11.545 11.535
14.11 14.22 14.285 14.315 14.342 14.35 14.337 14.322 14.307 14.293 14.313 14.372 14.435 14.493 14.55 14.623 14.7 14.767 14.793 14.788 14.795 14.805 14.807 14.8 14.793 14.787 14.753 14.705 14.68 14.66 14.642 14.622 14.598 14.598 14.637 14.645 14.603 14.583 14.63 14.758 14.92 15.057 15.135 15.178 15.22 15.252 15.272 15.265 15.237 15.21 15.177 15.137 15.082 15.01 14.903 14.845 14.832 14.743 14.618 14.56 14.533 14.485 14.453 14.448 14.445 14.415 14.395 14.408 14.44 14.478 14.503 14.518 14.53 14.52 14.535 14.602 14.677 14.75 14.81 14.862 14.892 14.855 14.762 14.657 14.557 14.48 14.442 14.422 14.4 14.377 14.34 14.307 14.287 14.277 14.232 14.125 14.002 13.887 13.82 13.76 13.667 13.575 14.213 15.032 15.225 15.132 14.645 13.845 13.425 13.545 13.612 13.485 13.235 12.975 12.78 13.025 13.997 14.749 14.85 14.722 14.272 13.77 13.385 13.125 12.972 12.75 12.53 12.355 12.185 12.002 11.775 11.52 11.328 11.22 11.13 11.03 10.932 10.745 10.312 9.958 10.747 10.657 9.67 9.58 10.182 10.08 9.273 9.255 9.335 9.412 9.447 9.44 9.435 9.438 9.445 9.455 9.46 9.465 9.503 9.555 9.595 9.635 9.685 9.748 9.81 9.875 9.925 9.955 9.993 10.038 10.08 10.12 10.163 10.213 10.273 10.33 10.383 10.438 10.495 10.568 10.65 10.728 10.795 10.875 10.97 11.06 11.125 11.168 11.218 11.27 11.325 11.382 11.44 11.497 11.535 11.55 11.56 11.567 11.585 11.602
14.15 14.295 14.382 14.412 14.427 14.42 14.403 14.387 14.372 14.358 14.378 14.447 14.522 14.583 14.643 14.72 14.8 14.862 14.872 14.845 14.84 14.85 14.852 14.847 14.84 14.835 14.797 14.728 14.673 14.64 14.627 14.615 14.59 14.625 14.745 14.807 14.755 14.688 14.668 14.745 14.905 15.05 15.132 15.175 15.207 15.225 15.245 15.262 15.257 15.242 15.235 15.232 15.207 15.16 15.072 14.972 14.895 14.803 14.713 14.698 14.7 14.635 14.55 14.49 14.443 14.413 14.408 14.415 14.44 14.457 14.465 14.475 14.485 14.503 14.548 14.615 14.685 14.755 14.815 14.847 14.83 14.765 14.675 14.573 14.485 14.433 14.415 14.407 14.392 14.375 14.36 14.352 14.34 14.312 14.21 14.047 13.892 13.77 13.74 13.74 13.685 13.598 14.248 15.15 15.39 15.385 14.957 14.115 13.54 13.475 13.515 13.442 13.252 12.985 12.738 12.9 13.657 14.285 14.47 14.342 13.95 13.712 13.54 13.267 12.992 12.653 12.395 12.232 12.065 11.87 11.618 11.368 11.23 11.167 11.087 10.99 10.827 10.515 10.033 10.176 11.079 10.645 9.668 9.555 9.76 9.585 9.19 9.263 9.34 9.417 9.452 9.448 9.448 9.455 9.465 9.472 9.477 9.483 9.525 9.595 9.645 9.688 9.745 9.817 9.887 9.955 10.005 10.038 10.075 10.118 10.165 10.218 10.27 10.325 10.39 10.455 10.515 10.57 10.628 10.705 10.79 10.87 10.928 10.98 11.06 11.147 11.21 11.248 11.285 11.32 11.343 11.373 11.423 11.48 11.525 11.55 11.565 11.573 11.603 11.652
14.203 14.36 14.467 14.502 14.502 14.485 14.467 14.452 14.437 14.423 14.435 14.505 14.597 14.672 14.743 14.825 14.91 14.972 14.972 14.93 14.9 14.895 14.897 14.895 14.892 14.89 14.855 14.78 14.7 14.635 14.61 14.603 14.595 14.67 14.825 14.947 14.957 14.877 14.808 14.825 14.925 15.05 15.135 15.165 15.177 15.185 15.208 15.242 15.255 15.245 15.243 15.247 15.247 15.232 15.17 15.072 14.983 14.895 14.828 14.83 14.865 14.832 14.745 14.635 14.52 14.46 14.438 14.425 14.433 14.443 14.45 14.46 14.47 14.5 14.555 14.62 14.69 14.757 14.8 14.79 14.74 14.672 14.585 14.498 14.435 14.395 14.38 14.377 14.372 14.36 14.345 14.332 14.317 14.282 14.135 13.913 13.725 13.618 13.61 13.64 13.645 13.61 14.293 15.212 15.445 15.48 15.272 14.542 13.698 13.375 13.375 13.342 13.23 13.002 12.733 12.638 12.878 13.485 13.967 13.505 12.913 13.087 13.327 13.197 12.855 12.498 12.265 12.105 11.94 11.737 11.463 11.243 11.16 11.115 11.045 10.892 10.602 10.22 10.088 10.738 11.272 10.512 9.72 9.562 9.4 9.25 9.215 9.278 9.348 9.425 9.46 9.458 9.465 9.475 9.485 9.49 9.493 9.495 9.533 9.617 9.69 9.743 9.808 9.885 9.962 10.035 10.085 10.123 10.168 10.215 10.268 10.325 10.38 10.435 10.5 10.57 10.64 10.7 10.763 10.845 10.932 11.015 11.072 11.108 11.16 11.235 11.292 11.333 11.375 11.41 11.41 11.4 11.42 11.463 11.505 11.537 11.565 11.58 11.615 11.675
14.26 14.417 14.54 14.582 14.57 14.55 14.53 14.515 14.5 14.485 14.493 14.555 14.657 14.752 14.837 14.925 15.012 15.075 15.07 15.022 14.977 14.95 14.945 14.945 14.945 14.945 14.912 14.84 14.755 14.67 14.62 14.6 14.623 14.73 14.882 15.012 15.057 15.03 15 15 15.03 15.09 15.133 15.138 15.143 15.148 15.17 15.21 15.24 15.248 15.25 15.263 15.278 15.285 15.242 15.16 15.077 14.993 14.945 14.965 15.015 15.017 14.932 14.79 14.64 14.55 14.51 14.503 14.493 14.45 14.435 14.448 14.463 14.5 14.563 14.63 14.697 14.755 14.76 14.71 14.648 14.583 14.513 14.45 14.4 14.36 14.343 14.34 14.34 14.332 14.317 14.3 14.28 14.24 14.087 13.845 13.625 13.505 13.5 13.53 13.558 13.598 14.338 15.212 15.445 15.53 15.502 14.945 13.885 13.295 13.235 13.205 13.15 12.997 12.758 12.52 12.393 12.74 13.095 12.565 12.103 12.405 12.715 12.715 12.552 12.335 12.135 11.975 11.812 11.605 11.323 11.14 11.095 11.057 10.952 10.687 10.323 10.038 10.583 11.677 11.412 10.258 9.725 9.53 9.298 9.205 9.273 9.328 9.385 9.445 9.472 9.475 9.485 9.495 9.502 9.505 9.508 9.51 9.54 9.625 9.725 9.802 9.875 9.955 10.035 10.11 10.167 10.215 10.262 10.31 10.367 10.43 10.487 10.545 10.613 10.685 10.758 10.825 10.895 10.98 11.07 11.155 11.21 11.242 11.28 11.33 11.377 11.417 11.46 11.497 11.502 11.478 11.46 11.463 11.488 11.523 11.558 11.59 11.635 11.695
14.29 14.447 14.577 14.627 14.615 14.595 14.575 14.56 14.545 14.535 14.55 14.618 14.723 14.825 14.92 15.01 15.087 15.13 15.115 15.065 15.025 15.005 14.998 14.995 14.995 14.99 14.96 14.897 14.817 14.735 14.675 14.65 14.683 14.785 14.925 15.035 15.077 15.1 15.117 15.127 15.14 15.157 15.183 15.19 15.183 15.178 15.193 15.23 15.265 15.283 15.298 15.325 15.353 15.375 15.342 15.26 15.175 15.09 15.065 15.105 15.152 15.15 15.067 14.927 14.765 14.658 14.61 14.65 14.665 14.573 14.475 14.435 14.46 14.505 14.57 14.63 14.67 14.735 14.75 14.685 14.615 14.535 14.483 14.445 14.395 14.348 14.308 14.29 14.29 14.285 14.27 14.25 14.23 14.197 14.065 13.84 13.633 13.505 13.468 13.465 13.48 13.538 14.41 15.322 15.477 15.562 15.505 15.12 14.19 13.343 13.095 13.065 13.035 12.985 12.857 12.613 12.385 12.446 12.585 12.173 11.9 12.175 12.288 12.25 12.238 12.175 12.025 11.865 11.705 11.512 11.233 11.058 11.04 10.997 10.847 10.55 10.188 10.358 11.502 12.286 11.207 9.938 9.633 9.425 9.268 9.27 9.355 9.405 9.455 9.487 9.495 9.5 9.51 9.517 9.523 9.528 9.533 9.535 9.568 9.655 9.767 9.862 9.94 10.02 10.1 10.18 10.247 10.3 10.347 10.395 10.452 10.515 10.583 10.663 10.743 10.815 10.885 10.96 11.02 11.08 11.165 11.25 11.307 11.342 11.377 11.412 11.45 11.492 11.535 11.572 11.585 11.567 11.543 11.518 11.523 11.558 11.598 11.643 11.695 11.755
14.29 14.45 14.575 14.632 14.64 14.625 14.605 14.59 14.583 14.59 14.618 14.688 14.792 14.897 14.992 15.072 15.122 15.137 15.115 15.07 15.048 15.05 15.052 15.05 15.042 15.025 14.995 14.945 14.877 14.8 14.743 14.753 14.8 14.86 14.97 15.057 15.093 15.133 15.165 15.18 15.19 15.213 15.265 15.312 15.315 15.3 15.313 15.342 15.352 15.353 15.378 15.42 15.455 15.48 15.445 15.36 15.278 15.205 15.203 15.247 15.252 15.195 15.112 15.027 14.9 14.775 14.728 14.812 14.872 14.785 14.608 14.463 14.458 14.502 14.545 14.572 14.583 14.697 14.777 14.705 14.612 14.515 14.47 14.455 14.417 14.365 14.303 14.255 14.233 14.222 14.198 14.175 14.163 14.135 14.05 13.868 13.688 13.583 13.515 13.468 13.45 13.46 14.507 15.514 15.5 15.565 15.417 15.02 14.415 13.495 12.968 12.953 12.958 12.987 12.982 12.915 12.913 13.272 13.165 12.238 11.818 12.002 12.09 12.068 12.075 12.052 11.94 11.777 11.612 11.437 11.188 11.03 11.007 10.922 10.755 10.503 10.526 11.405 12.474 12.112 10.643 9.778 9.543 9.32 9.235 9.335 9.44 9.49 9.527 9.532 9.525 9.53 9.537 9.54 9.548 9.56 9.567 9.57 9.618 9.717 9.822 9.917 10 10.08 10.163 10.252 10.325 10.375 10.425 10.475 10.53 10.59 10.675 10.79 10.885 10.958 11.033 11.112 11.15 11.165 11.228 11.31 11.37 11.405 11.44 11.477 11.515 11.557 11.6 11.632 11.647 11.647 11.635 11.613 11.615 11.65 11.693 11.735 11.785 11.845
14.295 14.45 14.565 14.62 14.65 14.652 14.635 14.628 14.64 14.665 14.693 14.755 14.86 14.97 15.06 15.11 15.127 15.132 15.115 15.09 15.093 15.105 15.107 15.097 15.077 15.055 15.022 14.977 14.927 14.863 14.83 14.883 14.947 14.982 15.03 15.082 15.127 15.175 15.212 15.23 15.243 15.268 15.323 15.395 15.442 15.45 15.46 15.467 15.445 15.425 15.448 15.5 15.545 15.577 15.55 15.472 15.398 15.345 15.345 15.342 15.28 15.19 15.105 15.04 14.967 14.875 14.865 14.99 15.077 14.985 14.765 14.533 14.433 14.445 14.457 14.463 14.49 14.665 14.78 14.69 14.575 14.483 14.448 14.442 14.43 14.392 14.33 14.263 14.208 14.173 14.39 14.62 14.583 14.493 14.315 14.023 13.778 13.665 13.59 13.525 13.483 13.405 14.315 15.392 15.452 15.5 15.45 15.072 14.51 13.545 12.913 12.92 12.948 12.99 13.133 13.488 13.735 14.164 13.579 12.183 11.795 11.863 11.917 11.93 11.96 11.955 11.855 11.69 11.52 11.345 11.143 11.017 10.947 10.813 10.633 10.733 11.513 12.602 12.744 11.39 10.111 9.698 9.46 9.243 9.225 9.397 9.522 9.572 9.585 9.57 9.558 9.56 9.565 9.565 9.573 9.585 9.598 9.613 9.673 9.775 9.875 9.972 10.06 10.145 10.235 10.33 10.405 10.455 10.505 10.555 10.608 10.68 10.79 10.92 11.025 11.108 11.195 11.27 11.29 11.28 11.308 11.375 11.432 11.468 11.505 11.542 11.58 11.62 11.657 11.687 11.702 11.71 11.712 11.703 11.713 11.75 11.787 11.825 11.872 11.91
14.313 14.452 14.55 14.595 14.635 14.663 14.673 14.688 14.713 14.74 14.768 14.825 14.927 15.035 15.102 15.12 15.125 15.13 15.128 15.13 15.142 15.155 15.152 15.13 15.105 15.082 15.048 15.005 14.965 14.92 14.938 15.017 15.06 15.067 15.065 15.085 15.137 15.197 15.255 15.285 15.3 15.325 15.378 15.452 15.525 15.572 15.58 15.557 15.525 15.495 15.505 15.552 15.595 15.632 15.625 15.575 15.522 15.475 15.432 15.365 15.275 15.185 15.098 15.018 14.958 15.095 15.238 15.238 15.273 15.162 14.895 14.613 14.43 14.385 14.37 14.357 14.375 14.492 14.592 14.555 14.483 14.435 14.417 14.415 14.415 14.402 14.357 14.287 14.218 14.625 15.442 15.855 15.817 15.607 15.2 14.745 14.433 14.198 13.978 13.758 13.57 13.4 13.7 14.223 14.525 15.027 15.244 15.084 14.502 13.413 12.893 12.95 13.01 13.095 13.615 14.195 14.242 14.23 13.332 12.085 11.78 11.755 11.763 11.812 11.85 11.857 11.767 11.6 11.427 11.245 11.072 10.95 10.838 10.793 11.031 11.763 12.754 13.171 12.254 10.668 9.83 9.607 9.38 9.233 9.285 9.457 9.59 9.635 9.625 9.605 9.59 9.588 9.59 9.59 9.595 9.61 9.635 9.668 9.735 9.835 9.935 10.033 10.125 10.22 10.315 10.407 10.483 10.535 10.585 10.635 10.693 10.788 10.917 11.05 11.167 11.267 11.367 11.427 11.427 11.412 11.41 11.448 11.495 11.53 11.57 11.607 11.642 11.68 11.715 11.742 11.757 11.765 11.775 11.78 11.792 11.827 11.867 11.905 11.932 11.927
14.34 14.472 14.567 14.615 14.655 14.695 14.733 14.765 14.792 14.818 14.848 14.885 14.96 15.06 15.112 15.122 15.128 15.133 15.147 15.17 15.185 15.195 15.187 15.163 15.138 15.113 15.08 15.04 15 14.97 15.002 15.07 15.09 15.075 15.06 15.063 15.105 15.185 15.282 15.355 15.383 15.403 15.443 15.51 15.585 15.647 15.665 15.637 15.605 15.57 15.548 15.565 15.6 15.635 15.642 15.615 15.575 15.517 15.445 15.36 15.27 15.18 15.09 15.54 15.842 15.938 16.295 16.12 15.658 15.29 14.99 14.693 14.47 14.375 14.335 14.18 13.853 13.773 14.132 14.382 14.38 14.365 14.355 14.355 14.355 14.362 14.357 14.305 14.295 15.335 16.624 17.087 17.177 16.845 16.345 15.943 15.65 15.328 14.925 14.445 13.968 13.598 13.401 13.301 13.441 13.94 14.19 14.125 13.725 13.055 12.78 12.825 12.922 13.035 13.785 14.444 14.54 14.389 13.097 11.908 11.743 11.693 11.605 11.615 11.695 11.747 11.677 11.497 11.307 11.11 10.953 10.946 11.173 11.583 12.325 13.164 13.409 12.762 11.31 10.128 9.725 9.505 9.303 9.245 9.355 9.51 9.627 9.655 9.632 9.61 9.602 9.615 9.622 9.62 9.64 9.675 9.708 9.748 9.818 9.915 10.015 10.113 10.21 10.308 10.4 10.49 10.58 10.652 10.703 10.75 10.813 10.91 11.04 11.175 11.297 11.407 11.495 11.527 11.522 11.515 11.51 11.525 11.555 11.59 11.627 11.665 11.7 11.735 11.767 11.792 11.812 11.825 11.835 11.845 11.853 11.873 11.91 11.95 11.96 11.935
14.37 14.505 14.617 14.68 14.723 14.768 14.81 14.845 14.875 14.91 14.952 14.965 14.98 15.052 15.107 15.122 15.132 15.138 15.158 15.192 15.217 15.23 15.22 15.195 15.173 15.15 15.12 15.08 15.048 15.03 15.033 15.052 15.065 15.063 15.058 15.053 15.08 15.173 15.302 15.417 15.477 15.5 15.528 15.575 15.642 15.702 15.725 15.712 15.685 15.65 15.608 15.583 15.595 15.627 15.635 15.61 15.55 15.467 15.405 15.342 15.26 15.17 15.085 15.88 16.619 16.745 17.089 16.987 16.29 15.518 15.048 14.74 14.5 14.375 14.327 13.872 13.153 12.971 13.673 14.297 14.315 14.29 14.273 14.27 14.27 14.29 14.315 14.302 14.313 15.457 16.784 17.234 17.524 17.522 17.394 17.177 16.892 16.585 16.165 15.638 15.088 14.54 14.083 13.715 13.403 13.241 13.246 13.183 12.955 12.785 12.683 12.613 12.64 12.725 13.208 14.207 14.889 14.107 12.508 11.755 11.713 11.677 11.503 11.38 11.445 11.527 11.467 11.29 11.108 11.118 11.411 11.898 12.583 13.202 13.612 13.569 12.807 11.53 10.348 9.81 9.612 9.4 9.255 9.263 9.38 9.53 9.627 9.635 9.61 9.585 9.588 9.627 9.66 9.665 9.7 9.762 9.805 9.843 9.913 10.008 10.108 10.21 10.307 10.402 10.492 10.578 10.68 10.785 10.855 10.905 10.968 11.053 11.165 11.295 11.415 11.505 11.55 11.562 11.565 11.568 11.58 11.603 11.628 11.653 11.68 11.715 11.75 11.782 11.81 11.832 11.86 11.882 11.895 11.905 11.91 11.915 11.935 11.972 11.982 11.958
14.403 14.54 14.667 14.745 14.792 14.845 14.892 14.935 14.975 15.025 15.075 15.072 15.04 15.06 15.1 15.118 15.132 15.143 15.165 15.205 15.24 15.26 15.252 15.23 15.21 15.19 15.16 15.127 15.105 15.077 15.047 15.04 15.05 15.06 15.067 15.065 15.09 15.19 15.325 15.45 15.55 15.6 15.625 15.658 15.705 15.752 15.772 15.772 15.76 15.73 15.69 15.645 15.615 15.625 15.63 15.587 15.495 15.393 15.335 15.297 15.24 15.16 15.103 15.698 16.557 16.98 17.107 17 16.729 15.87 15.058 14.78 14.55 14.393 14.32 13.61 12.813 12.713 13.48 14.252 14.252 14.22 14.195 14.185 14.2 14.23 14.252 14.265 14.253 15.013 15.972 16.38 16.792 17.195 17.539 17.627 17.522 17.404 17.224 16.865 16.392 15.875 15.302 14.688 14.163 13.798 13.433 13.068 12.84 12.748 12.663 12.54 12.458 12.47 12.73 13.515 14.089 13.172 11.988 11.72 11.698 11.662 11.475 11.223 11.163 11.193 11.241 11.458 11.748 12.203 12.96 13.664 14.069 14.079 13.599 12.647 11.463 10.411 9.863 9.687 9.498 9.31 9.243 9.308 9.41 9.537 9.615 9.607 9.583 9.558 9.565 9.62 9.677 9.707 9.75 9.825 9.892 9.938 10.005 10.102 10.203 10.307 10.405 10.495 10.58 10.66 10.76 10.88 10.987 11.062 11.13 11.213 11.305 11.417 11.517 11.565 11.58 11.59 11.595 11.61 11.643 11.682 11.717 11.735 11.748 11.77 11.797 11.822 11.845 11.868 11.897 11.927 11.95 11.965 11.97 11.97 11.975 12 12.007 11.995
14.44 14.58 14.717 14.805 14.852 14.902 14.957 15.022 15.082 15.14 15.182 15.172 15.128 15.1 15.105 15.12 15.135 15.153 15.183 15.225 15.265 15.29 15.282 15.262 15.247 15.23 15.2 15.162 15.125 15.077 15.04 15.038 15.055 15.07 15.082 15.088 15.125 15.225 15.348 15.47 15.59 15.68 15.722 15.747 15.775 15.802 15.817 15.82 15.82 15.805 15.77 15.725 15.675 15.645 15.62 15.542 15.425 15.318 15.255 15.225 15.19 15.135 15.075 15.44 16.44 17.08 17.003 16.785 16.654 15.87 15.033 14.85 14.627 14.425 14.3 13.498 12.715 12.743 13.525 14.252 14.218 14.175 14.133 14.105 14.133 14.173 14.19 14.208 14.223 14.443 14.765 15.07 15.495 15.982 16.412 16.74 16.959 17.092 17.277 17.397 17.262 16.895 16.467 15.942 15.41 15 14.413 13.731 13.268 12.948 12.693 12.538 12.428 12.353 12.45 12.605 12.638 12.323 11.87 11.72 11.697 11.655 11.47 11.16 10.953 11.463 12.25 12.852 13.509 13.959 14.334 14.524 14.274 13.659 12.647 11.42 10.443 9.95 9.748 9.568 9.388 9.255 9.26 9.352 9.447 9.552 9.605 9.585 9.558 9.53 9.543 9.605 9.675 9.735 9.798 9.875 9.955 10.022 10.098 10.195 10.295 10.402 10.5 10.58 10.66 10.74 10.84 10.96 11.085 11.2 11.29 11.375 11.46 11.537 11.587 11.605 11.615 11.625 11.638 11.668 11.71 11.752 11.792 11.812 11.817 11.825 11.84 11.86 11.878 11.9 11.93 11.962 11.995 12.02 12.03 12.03 12.03 12.035 12.043 12.058
14.505 14.645 14.785 14.855 14.878 14.92 14.985 15.085 15.17 15.227 15.265 15.257 15.217 15.175 15.153 15.155 15.17 15.19 15.223 15.265 15.305 15.327 15.305 15.275 15.262 15.245 15.205 15.145 15.087 15.035 15.02 15.042 15.065 15.082 15.097 15.113 15.175 15.288 15.38 15.475 15.595 15.705 15.765 15.785 15.81 15.835 15.845 15.847 15.852 15.845 15.802 15.745 15.697 15.652 15.587 15.482 15.36 15.25 15.185 15.155 15.125 15.09 14.998 15 15.835 16.884 17.022 16.57 15.99 15.308 14.873 14.762 14.622 14.465 14.245 13.41 12.7 12.905 13.735 14.305 14.223 14.17 14.118 14.09 14.13 14.18 14.2 14.22 14.233 14.22 14.183 14.215 14.403 14.66 14.838 15.073 15.425 15.768 16.202 16.727 17.114 17.262 17.307 17.097 16.719 16.337 15.87 15.305 14.673 14.058 13.305 12.7 12.455 12.297 12.168 12.13 12.08 11.86 11.688 11.672 11.662 11.632 11.447 11.11 11.218 12.524 13.794 14.179 14.371 14.357 14.147 13.744 13.115 12.32 11.323 10.433 9.988 9.795 9.66 9.852 9.642 9.195 9.267 9.36 9.455 9.557 9.602 9.58 9.553 9.525 9.545 9.615 9.69 9.765 9.845 9.93 10.01 10.087 10.172 10.27 10.375 10.495 10.597 10.675 10.753 10.828 10.928 11.058 11.195 11.335 11.447 11.532 11.602 11.637 11.65 11.66 11.67 11.683 11.693 11.715 11.755 11.795 11.832 11.855 11.862 11.868 11.88 11.9 11.915 11.93 11.952 11.982 12.017 12.05 12.072 12.08 12.077 12.073 12.085 12.115
14.59 14.735 14.872 14.917 14.898 14.92 14.993 15.115 15.23 15.302 15.335 15.327 15.297 15.26 15.233 15.225 15.233 15.25 15.28 15.317 15.35 15.37 15.332 15.278 15.257 15.23 15.17 15.098 15.033 14.983 14.993 15.04 15.072 15.095 15.113 15.15 15.248 15.377 15.447 15.488 15.58 15.692 15.755 15.778 15.813 15.847 15.86 15.863 15.867 15.862 15.802 15.715 15.658 15.612 15.535 15.422 15.303 15.19 15.125 15.098 15.073 15.045 14.945 14.815 15.235 15.937 16.18 16.04 15.445 14.873 14.7 14.605 14.53 14.44 14.155 13.315 12.7 13.11 13.997 14.405 14.275 14.188 14.135 14.123 14.185 14.252 14.28 14.297 14.292 14.257 14.215 14.17 14.123 14.078 14.045 14.103 14.275 14.463 14.755 15.255 15.84 16.39 16.812 16.989 17.034 17.072 17.027 16.699 16.184 15.632 14.385 12.983 12.4 12.18 11.978 11.903 11.868 11.723 11.608 11.578 11.562 11.547 11.395 11.068 11.298 12.394 13.272 13.407 13.242 13.002 12.595 11.933 11.311 10.825 10.281 9.945 9.828 9.753 10.083 10.457 9.807 9.153 9.24 9.335 9.443 9.555 9.605 9.587 9.565 9.54 9.568 9.65 9.73 9.805 9.89 9.985 10.07 10.145 10.23 10.335 10.455 10.592 10.707 10.787 10.86 10.95 11.068 11.198 11.338 11.482 11.6 11.672 11.707 11.715 11.718 11.728 11.745 11.762 11.76 11.755 11.78 11.82 11.855 11.882 11.897 11.905 11.92 11.937 11.947 11.952 11.965 11.988 12.018 12.05 12.082 12.107 12.112 12.11 12.125 12.152
14.667 14.825 14.957 14.99 14.945 14.933 14.998 15.125 15.262 15.367 15.405 15.395 15.372 15.34 15.315 15.307 15.305 15.313 15.337 15.367 15.39 15.41 15.372 15.293 15.253 15.21 15.135 15.058 14.983 14.943 14.968 15.02 15.065 15.102 15.128 15.195 15.33 15.47 15.54 15.548 15.588 15.68 15.745 15.775 15.82 15.86 15.875 15.878 15.882 15.882 15.822 15.715 15.628 15.557 15.47 15.36 15.245 15.135 15.07 15.045 15.025 15.002 14.918 14.828 14.955 15.04 15.068 15.265 15.127 14.785 14.643 14.558 14.483 14.41 14.105 13.268 12.706 13.265 14.2 14.53 14.39 14.24 14.153 14.148 14.225 14.315 14.362 14.365 14.335 14.292 14.247 14.2 14.15 14.103 14.08 14.085 14.08 13.993 13.953 14.105 14.405 14.803 15.198 15.547 15.88 16.35 16.819 16.952 16.744 16.214 14.774 13.048 12.29 12.065 12.013 12.355 12.555 12.333 11.958 11.601 11.456 11.423 11.322 11.088 11.01 11.303 11.593 11.598 11.468 11.318 11.085 10.711 10.418 10.248 10.035 9.873 9.871 10.325 11.084 10.614 9.47 9.155 9.218 9.328 9.445 9.56 9.607 9.592 9.575 9.553 9.585 9.677 9.767 9.845 9.93 10.03 10.122 10.203 10.295 10.415 10.55 10.695 10.82 10.905 10.993 11.12 11.255 11.375 11.5 11.635 11.74 11.78 11.785 11.785 11.785 11.8 11.83 11.847 11.84 11.82 11.818 11.845 11.88 11.91 11.932 11.945 11.957 11.967 11.967 11.968 11.98 11.998 12.018 12.045 12.08 12.115 12.14 12.15 12.162 12.172
14.74 14.905 15.035 15.06 15.01 14.968 15.008 15.138 15.283 15.415 15.472 15.46 15.44 15.412 15.39 15.382 15.375 15.37 15.377 15.395 15.415 15.435 15.402 15.317 15.25 15.185 15.102 15.02 14.943 14.923 14.965 15.013 15.06 15.108 15.153 15.253 15.41 15.56 15.632 15.635 15.642 15.685 15.737 15.78 15.827 15.87 15.89 15.892 15.895 15.892 15.837 15.727 15.617 15.51 15.4 15.29 15.18 15.08 15.023 15 14.98 14.958 14.913 14.875 14.87 14.89 14.88 14.845 14.803 14.715 14.628 14.563 14.51 14.455 14.107 13.245 12.783 13.47 14.38 14.652 14.53 14.35 14.2 14.173 14.26 14.362 14.422 14.41 14.365 14.325 14.277 14.225 14.175 14.123 14.092 14.08 14.062 14.01 13.895 13.755 13.688 13.778 13.953 14.115 14.34 14.885 15.547 15.985 16.147 15.767 14.417 12.88 12.208 11.988 12.088 13.122 13.922 13.735 13.272 12.728 12.243 11.723 11.326 11.128 11.033 10.988 10.933 10.85 10.748 10.685 10.633 10.56 10.44 10.203 9.963 10.131 10.753 11.592 11.656 10.278 9.241 9.18 9.24 9.35 9.46 9.567 9.61 9.595 9.58 9.565 9.605 9.7 9.795 9.883 9.973 10.07 10.17 10.268 10.378 10.51 10.653 10.798 10.928 11.04 11.167 11.315 11.445 11.552 11.66 11.772 11.845 11.857 11.855 11.855 11.86 11.883 11.917 11.932 11.92 11.9 11.883 11.883 11.905 11.935 11.962 11.98 11.987 11.988 11.983 11.985 12 12.018 12.035 12.06 12.093 12.125 12.158 12.18 12.18 12.157
14.823 14.982 15.097 15.112 15.065 15.01 15.038 15.168 15.313 15.45 15.505 15.485 15.465 15.442 15.422 15.41 15.4 15.385 15.372 15.38 15.4 15.417 15.385 15.305 15.225 15.145 15.062 14.978 14.915 14.925 14.982 15.032 15.08 15.125 15.195 15.325 15.48 15.602 15.647 15.642 15.637 15.665 15.722 15.777 15.827 15.877 15.902 15.897 15.89 15.88 15.825 15.715 15.587 15.45 15.323 15.21 15.108 15.035 15 14.98 14.96 14.94 14.918 14.902 14.897 14.887 14.852 14.795 14.738 14.698 14.662 14.612 14.56 14.507 14.117 13.228 12.92 13.735 14.56 14.752 14.625 14.442 14.26 14.2 14.285 14.39 14.45 14.437 14.395 14.347 14.29 14.235 14.185 14.13 14.085 14.058 14.037 13.997 13.897 13.76 13.628 13.548 13.51 13.47 13.46 13.7 14.105 14.418 14.687 14.54 13.598 12.625 12.208 11.99 11.883 13.04 14.397 14.559 14.452 14.244 13.789 12.965 12.188 11.761 11.445 11.156 10.99 10.925 10.855 10.803 10.738 10.615 10.53 10.546 10.621 11.23 12.182 12.434 11.375 9.838 9.213 9.233 9.31 9.41 9.51 9.6 9.645 9.645 9.633 9.623 9.675 9.78 9.875 9.968 10.063 10.163 10.27 10.383 10.51 10.65 10.793 10.933 11.058 11.183 11.322 11.467 11.58 11.667 11.765 11.862 11.917 11.922 11.923 11.93 11.945 11.97 11.995 11.997 11.98 11.962 11.948 11.94 11.945 11.965 11.993 12.012 12.02 12.015 12.01 12.015 12.03 12.05 12.073 12.103 12.135 12.165 12.192 12.2 12.175 12.135
14.912 15.04 15.12 15.135 15.102 15.05 15.08 15.212 15.35 15.467 15.505 15.478 15.455 15.435 15.415 15.4 15.385 15.36 15.343 15.345 15.36 15.372 15.335 15.255 15.175 15.095 15.015 14.933 14.898 14.935 14.995 15.05 15.103 15.155 15.23 15.33 15.425 15.49 15.51 15.508 15.533 15.608 15.685 15.745 15.802 15.86 15.885 15.875 15.862 15.85 15.792 15.672 15.525 15.37 15.238 15.13 15.055 15.02 15 14.98 14.963 14.95 14.928 14.9 14.888 14.875 14.84 14.787 14.733 14.703 14.692 14.66 14.61 14.56 14.127 13.21 13.045 13.962 14.667 14.752 14.635 14.472 14.29 14.233 14.31 14.407 14.472 14.465 14.417 14.355 14.29 14.235 14.185 14.13 14.08 14.043 14.015 13.982 13.892 13.76 13.633 13.543 13.495 13.42 13.253 13.123 13.148 13.228 13.298 13.18 12.808 12.488 12.285 12.042 11.718 12.503 14.009 14.599 14.687 14.72 14.642 14.329 13.852 13.335 12.783 12.25 11.833 11.51 11.298 11.225 11.21 11.22 11.423 11.835 12.197 12.65 12.964 12.309 10.653 9.441 9.24 9.298 9.385 9.487 9.58 9.65 9.702 9.735 9.74 9.73 9.788 9.907 10.015 10.11 10.205 10.31 10.423 10.54 10.675 10.825 10.97 11.107 11.222 11.32 11.435 11.572 11.675 11.748 11.835 11.927 11.982 11.99 11.998 12.015 12.035 12.055 12.06 12.045 12.025 12.013 12.013 12.02 12.02 12.02 12.033 12.05 12.06 12.057 12.053 12.055 12.07 12.093 12.123 12.16 12.195 12.222 12.23 12.207 12.17 12.13
14.965 15.05 15.112 15.14 15.13 15.093 15.125 15.25 15.37 15.47 15.502 15.475 15.448 15.425 15.405 15.385 15.36 15.333 15.318 15.315 15.323 15.327 15.285 15.205 15.125 15.045 14.965 14.898 14.895 14.948 15.005 15.065 15.128 15.185 15.222 15.245 15.268 15.293 15.318 15.36 15.448 15.557 15.64 15.7 15.76 15.82 15.847 15.84 15.83 15.82 15.755 15.615 15.452 15.29 15.155 15.075 15.04 15.02 15 14.985 14.975 14.965 14.942 14.908 14.883 14.865 14.83 14.78 14.728 14.7 14.7 14.687 14.655 14.61 14.1 13.158 13.153 14.135 14.69 14.672 14.585 14.467 14.313 14.27 14.348 14.432 14.495 14.485 14.425 14.355 14.29 14.235 14.185 14.13 14.08 14.04 14.003 13.97 13.89 13.763 13.638 13.538 13.455 13.33 13.165 13.035 12.958 12.883 12.79 12.68 12.588 12.507 12.35 12.067 11.71 12.005 13.182 14.002 14.225 14.422 14.614 14.709 14.642 14.439 14.182 13.927 13.512 12.945 12.563 12.408 12.383 12.51 12.84 13.295 13.492 13.392 12.974 11.707 10.031 9.263 9.29 9.373 9.46 9.555 9.627 9.685 9.742 9.795 9.83 9.835 9.89 10.015 10.14 10.25 10.353 10.463 10.58 10.7 10.835 10.99 11.145 11.282 11.387 11.47 11.563 11.682 11.785 11.853 11.92 11.997 12.05 12.068 12.083 12.1 12.12 12.127 12.115 12.093 12.078 12.08 12.095 12.11 12.11 12.1 12.095 12.1 12.102 12.1 12.098 12.098 12.113 12.143 12.18 12.22 12.25 12.257 12.237 12.202 12.165 12.125
14.972 15.045 15.107 15.135 15.135 15.123 15.165 15.275 15.382 15.472 15.5 15.475 15.448 15.428 15.405 15.37 15.335 15.308 15.293 15.29 15.293 15.285 15.235 15.155 15.078 15.005 14.933 14.89 14.918 14.978 15.038 15.105 15.172 15.225 15.22 15.193 15.193 15.2 15.228 15.308 15.42 15.515 15.587 15.655 15.72 15.78 15.812 15.81 15.792 15.767 15.685 15.532 15.367 15.205 15.093 15.053 15.035 15.015 14.997 14.99 14.987 14.98 14.957 14.922 14.887 14.855 14.815 14.767 14.723 14.7 14.697 14.692 14.682 14.655 14.037 13.071 13.258 14.257 14.665 14.59 14.51 14.423 14.325 14.313 14.39 14.467 14.515 14.492 14.425 14.355 14.293 14.238 14.185 14.13 14.08 14.04 13.997 13.957 13.885 13.767 13.645 13.533 13.42 13.298 13.185 13.085 12.987 12.882 12.762 12.64 12.555 12.5 12.365 12.08 11.718 11.58 12 12.56 12.927 13.29 13.647 13.92 14.105 14.289 14.432 14.489 14.377 14.109 13.897 13.782 13.74 13.765 13.847 14 13.912 13.52 12.617 10.948 9.626 9.293 9.35 9.445 9.53 9.602 9.663 9.72 9.778 9.832 9.885 9.92 9.99 10.115 10.245 10.372 10.495 10.615 10.735 10.855 10.993 11.147 11.302 11.432 11.53 11.617 11.707 11.807 11.897 11.962 12.02 12.082 12.127 12.15 12.168 12.185 12.2 12.195 12.175 12.15 12.138 12.15 12.172 12.192 12.192 12.175 12.157 12.15 12.148 12.145 12.143 12.145 12.168 12.203 12.24 12.275 12.285 12.262 12.23 12.195 12.158 12.12
14.983 15.055 15.112 15.135 15.135 15.135 15.188 15.293 15.397 15.482 15.507 15.49 15.47 15.453 15.425 15.383 15.343 15.308 15.293 15.295 15.295 15.285 15.245 15.178 15.108 15.043 14.978 14.948 14.975 15.03 15.095 15.162 15.227 15.28 15.262 15.205 15.185 15.19 15.223 15.305 15.4 15.455 15.508 15.582 15.655 15.72 15.747 15.732 15.697 15.655 15.562 15.41 15.25 15.115 15.05 15.03 15.01 14.99 14.977 14.972 14.97 14.962 14.937 14.9 14.865 14.832 14.792 14.748 14.76 14.748 14.695 14.69 14.687 14.677 13.967 12.983 13.343 14.322 14.62 14.54 14.463 14.385 14.328 14.345 14.417 14.492 14.53 14.495 14.425 14.355 14.295 14.24 14.185 14.128 14.073 14.03 13.987 13.942 13.875 13.77 13.65 13.53 13.42 13.317 13.212 13.102 12.982 12.86 12.735 12.603 12.508 12.445 12.332 12.082 11.73 11.448 11.343 11.413 11.543 11.68 11.953 12.34 12.727 13.16 13.602 13.865 13.987 14.112 14.174 14.172 14.169 14.16 14.097 14.017 13.847 13.337 12.04 10.278 9.373 9.333 9.407 9.49 9.57 9.64 9.7 9.76 9.815 9.868 9.923 9.993 10.098 10.225 10.355 10.49 10.625 10.752 10.875 11 11.143 11.297 11.44 11.555 11.65 11.74 11.832 11.93 12.007 12.06 12.115 12.172 12.212 12.235 12.255 12.275 12.29 12.288 12.27 12.243 12.208 12.195 12.215 12.24 12.24 12.215 12.195 12.193 12.195 12.192 12.19 12.205 12.24 12.277 12.307 12.31 12.282 12.247 12.215 12.19 12.165 12.13
15.007 15.08 15.132 15.15 15.15 15.15 15.205 15.312 15.41 15.485 15.517 15.52 15.51 15.49 15.457 15.415 15.378 15.34 15.325 15.335 15.34 15.337 15.315 15.27 15.212 15.148 15.085 15.058 15.068 15.1 15.155 15.218 15.282 15.337 15.32 15.243 15.19 15.18 15.218 15.295 15.35 15.368 15.415 15.49 15.557 15.61 15.62 15.592 15.552 15.507 15.415 15.265 15.125 15.04 15.005 14.987 14.97 14.95 14.94 14.935 14.925 14.91 14.88 14.845 14.82 14.8 14.768 14.76 14.872 14.885 14.745 14.69 14.685 14.68 13.887 12.898 13.405 14.372 14.602 14.533 14.458 14.383 14.338 14.365 14.435 14.507 14.535 14.492 14.427 14.36 14.298 14.242 14.185 14.122 14.063 14.013 13.97 13.925 13.86 13.765 13.65 13.533 13.423 13.32 13.212 13.095 12.975 12.85 12.71 12.558 12.453 12.372 12.26 12.052 11.738 11.493 11.323 11.163 11.03 10.915 10.918 11.028 11.143 11.398 11.873 12.425 12.827 13.09 13.302 13.445 13.577 13.715 13.78 13.762 13.614 12.867 11.29 9.826 9.328 9.368 9.437 9.5 9.577 9.665 9.737 9.8 9.855 9.905 9.975 10.083 10.21 10.343 10.478 10.615 10.75 10.878 11.003 11.138 11.285 11.432 11.557 11.66 11.755 11.848 11.945 12.05 12.122 12.158 12.203 12.257 12.3 12.325 12.345 12.365 12.385 12.395 12.385 12.352 12.295 12.243 12.235 12.257 12.26 12.238 12.228 12.235 12.24 12.238 12.248 12.28 12.32 12.355 12.355 12.307 12.255 12.223 12.205 12.202 12.187 12.15
15.03 15.105 15.152 15.165 15.168 15.173 15.228 15.325 15.407 15.472 15.512 15.532 15.54 15.527 15.492 15.453 15.417 15.38 15.363 15.377 15.395 15.4 15.382 15.347 15.305 15.252 15.198 15.175 15.18 15.195 15.233 15.283 15.34 15.392 15.375 15.295 15.223 15.183 15.207 15.255 15.267 15.275 15.323 15.387 15.432 15.462 15.465 15.437 15.402 15.36 15.267 15.135 15.04 14.99 14.96 14.943 14.927 14.91 14.898 14.887 14.87 14.85 14.825 14.8 14.783 14.77 14.76 14.835 15.02 15.08 14.91 14.738 14.685 14.665 13.775 12.801 13.475 14.44 14.597 14.532 14.462 14.388 14.353 14.388 14.453 14.522 14.54 14.49 14.43 14.365 14.3 14.242 14.18 14.115 14.055 14 13.953 13.907 13.842 13.75 13.647 13.537 13.425 13.317 13.205 13.087 12.965 12.822 12.665 12.505 12.388 12.287 12.165 12.002 11.762 11.54 11.36 11.185 11.055 10.942 10.808 10.655 10.493 10.423 10.503 10.751 10.99 11.27 11.675 11.995 12.267 12.54 12.765 12.842 12.664 11.904 10.478 9.548 9.44 9.43 9.45 9.5 9.575 9.67 9.762 9.835 9.893 9.963 10.068 10.195 10.325 10.46 10.6 10.74 10.877 11.005 11.135 11.278 11.422 11.552 11.66 11.763 11.86 11.958 12.068 12.18 12.247 12.27 12.298 12.343 12.385 12.41 12.43 12.45 12.47 12.49 12.492 12.46 12.4 12.33 12.28 12.278 12.28 12.268 12.27 12.28 12.285 12.29 12.318 12.36 12.397 12.402 12.352 12.28 12.233 12.215 12.215 12.225 12.212 12.178
15.063 15.135 15.175 15.183 15.188 15.193 15.24 15.32 15.392 15.452 15.487 15.51 15.53 15.535 15.517 15.492 15.46 15.42 15.4 15.413 15.435 15.45 15.442 15.41 15.375 15.337 15.302 15.295 15.3 15.308 15.33 15.365 15.41 15.452 15.43 15.35 15.272 15.203 15.178 15.18 15.173 15.18 15.215 15.255 15.283 15.308 15.31 15.283 15.248 15.207 15.133 15.045 14.988 14.945 14.915 14.898 14.885 14.875 14.863 14.845 14.825 14.808 14.79 14.773 14.758 14.745 14.798 14.963 15.175 15.292 15.16 14.895 14.728 14.567 13.647 12.761 13.538 14.51 14.592 14.528 14.462 14.393 14.368 14.413 14.475 14.54 14.545 14.485 14.425 14.363 14.3 14.237 14.173 14.108 14.045 13.99 13.94 13.892 13.825 13.73 13.635 13.535 13.422 13.31 13.195 13.077 12.942 12.782 12.618 12.455 12.32 12.203 12.08 11.947 11.77 11.572 11.385 11.203 11.065 10.96 10.85 10.727 10.575 10.408 10.243 10.075 9.953 10.046 10.273 10.415 10.506 10.708 11.01 11.148 11.005 10.498 9.775 9.5 9.557 9.525 9.512 9.523 9.575 9.67 9.77 9.86 9.948 10.055 10.18 10.31 10.448 10.59 10.728 10.865 11.005 11.14 11.278 11.422 11.557 11.67 11.77 11.873 11.973 12.075 12.19 12.302 12.365 12.387 12.41 12.438 12.47 12.495 12.512 12.528 12.548 12.575 12.592 12.567 12.505 12.435 12.365 12.318 12.303 12.305 12.315 12.328 12.338 12.355 12.395 12.44 12.452 12.412 12.345 12.275 12.24 12.24 12.243 12.248 12.237 12.212
15.135 15.203 15.238 15.243 15.232 15.21 15.24 15.315 15.382 15.437 15.455 15.46 15.48 15.495 15.497 15.487 15.47 15.45 15.44 15.447 15.462 15.48 15.475 15.44 15.402 15.365 15.35 15.37 15.397 15.42 15.435 15.458 15.492 15.507 15.462 15.38 15.3 15.223 15.18 15.165 15.145 15.138 15.153 15.178 15.203 15.215 15.195 15.158 15.12 15.08 15.03 14.98 14.938 14.898 14.878 14.873 14.868 14.863 14.85 14.833 14.815 14.803 14.79 14.775 14.76 14.765 14.87 15.085 15.322 15.502 15.425 15.137 14.877 14.48 13.473 12.688 13.585 14.58 14.59 14.525 14.46 14.393 14.375 14.427 14.49 14.55 14.547 14.485 14.425 14.365 14.3 14.23 14.165 14.1 14.033 13.973 13.92 13.87 13.802 13.71 13.615 13.52 13.41 13.295 13.18 13.055 12.905 12.738 12.573 12.415 12.278 12.153 12.028 11.895 11.735 11.552 11.367 11.193 11.058 10.952 10.847 10.737 10.62 10.475 10.305 10.135 10.01 9.928 9.843 9.755 9.668 9.693 9.818 9.858 9.765 9.555 9.45 9.525 9.565 9.56 9.555 9.55 9.603 9.708 9.813 9.918 10.033 10.157 10.285 10.42 10.58 10.745 10.888 11.023 11.158 11.29 11.428 11.572 11.705 11.818 11.92 12.02 12.103 12.185 12.295 12.405 12.467 12.492 12.515 12.535 12.555 12.575 12.59 12.6 12.62 12.65 12.672 12.665 12.615 12.545 12.475 12.405 12.365 12.365 12.373 12.383 12.393 12.412 12.45 12.487 12.49 12.445 12.385 12.32 12.29 12.295 12.295 12.285 12.262 12.24
