ncols         200
nrows         71
xllcorner     549000
yllcorner     255580
cellsize      5
NODATA_value  -9999.0
22.415 22.488 22.378 22.213 22.036 21.883 22.013 22.227 22.137 21.913 21.72 21.578 21.51 21.528 21.57 21.61 21.69 21.81 21.93 22.05 22.167 22.252 22.297 22.333 22.383 22.483 22.555 22.561 22.56 22.56 22.56 22.56 22.561 24.98 27.901 28.497 28.657 28.752 28.79 28.757 28.83 29.498 30.222 30.533 30.803 31.067 31.22 31.22 31.182 31.15 31.07 30.937 30.818 30.72 30.612 30.477 30.33 30.182 30.022 29.83 29.615 29.395 29.165 28.925 28.685 28.465 28.275 28.103 27.938 27.773 27.613 27.468 27.335 27.205 27.085 26.977 26.877 26.782 26.665 26.52 26.373 26.225 26.09 25.973 25.858 25.74 25.613 25.485 25.36 25.243 25.153 25.075 24.998 24.93 24.9 24.9 24.903 24.902 24.895 24.857 24.788 24.718 24.665 24.633 24.603 24.57 24.537 24.505 24.475 24.445 24.418 24.388 24.353 24.32 24.26 24.173 24.1 24.045 23.993 23.938 23.885 23.83 23.768 23.71 23.66 23.613 23.578 23.56 23.547 23.535 23.505 23.442 23.365 23.285 23.19 23.08 22.97 22.86 22.755 22.655 22.555 22.468 22.39 22.308 22.223 22.145 22.08 22.025 21.97 21.915 21.852 21.772 21.69 21.628 21.595 21.573 21.55 21.525 21.46 21.365 21.275 21.177 21.012 20.788 20.56 20.348 20.205 20.118 20.033 19.953 19.883 19.818 19.755 19.7 19.663 19.637 19.612 19.59 19.58 19.585 19.595 19.603 19.61 19.62 19.633 19.645 19.673 19.733 19.81 19.888 19.963 20.033 20.095 20.155 20.2 20.235 20.27 20.302 20.33 20.352
23.49 23.54 23.448 23.263 23.003 22.753 22.646 22.623 22.471 22.286 22.191 22.143 22.106 22.071 22.036 21.999 21.999 22.036 22.078 22.128 22.218 22.328 22.4 22.44 22.475 22.523 23.258 23.675 23.096 22.684 22.561 22.561 22.563 25.079 28.519 29.602 29.805 29.867 29.882 29.857 29.927 30.255 30.647 30.943 31.218 31.47 31.605 31.61 31.577 31.542 31.46 31.332 31.2 31.057 30.913 30.765 30.617 30.45 30.235 30.007 29.79 29.57 29.352 29.125 28.885 28.648 28.443 28.27 28.103 27.93 27.77 27.635 27.505 27.372 27.247 27.135 27.03 26.925 26.802 26.66 26.51 26.36 26.223 26.1 25.985 25.87 25.743 25.61 25.48 25.365 25.278 25.2 25.12 25.04 25 25.003 25.005 25.002 24.99 24.95 24.878 24.8 24.74 24.705 24.68 24.653 24.627 24.6 24.57 24.548 24.528 24.495 24.458 24.423 24.363 24.278 24.198 24.135 24.085 24.033 23.975 23.915 23.858 23.805 23.755 23.713 23.685 23.67 23.66 23.65 23.607 23.53 23.45 23.367 23.265 23.15 23.04 22.93 22.823 22.72 22.62 22.525 22.435 22.35 22.268 22.183 22.098 22.028 21.97 21.915 21.847 21.76 21.675 21.598 21.55 21.53 21.507 21.475 21.405 21.305 21.205 21.105 20.945 20.733 20.525 20.328 20.188 20.1 20.02 19.945 19.878 19.813 19.753 19.703 19.668 19.642 19.618 19.595 19.588 19.595 19.605 19.615 19.625 19.635 19.645 19.668 19.723 19.8 19.88 19.96 20.042 20.122 20.19 20.245 20.275 20.3 20.335 20.37 20.385 20.39
25.285 25.355 25.372 25.297 25.147 24.995 24.845 24.693 24.565 24.505 24.485 24.465 24.443 24.423 24.403 24.383 24.333 24.193 23.998 23.793 23.611 23.461 23.296 23.126 22.989 22.865 24.708 26.336 25.772 25.375 25.268 25.283 25.298 26.573 29.057 30.422 30.582 30.605 30.622 30.637 30.675 30.833 31.115 31.425 31.72 31.917 31.972 31.96 31.935 31.9 31.815 31.685 31.537 31.372 31.215 31.067 30.9 30.68 30.42 30.16 29.925 29.705 29.505 29.305 29.075 28.843 28.64 28.465 28.287 28.1 27.935 27.795 27.66 27.528 27.398 27.278 27.17 27.065 26.942 26.805 26.66 26.51 26.373 26.248 26.128 26.01 25.885 25.75 25.615 25.495 25.403 25.325 25.242 25.153 25.105 25.108 25.107 25.1 25.085 25.06 25.01 24.933 24.858 24.805 24.77 24.74 24.713 24.685 24.665 24.66 24.65 24.62 24.583 24.547 24.49 24.408 24.325 24.26 24.207 24.15 24.085 24.015 23.955 23.908 23.863 23.825 23.8 23.783 23.77 23.757 23.71 23.63 23.547 23.46 23.347 23.223 23.11 23 22.89 22.783 22.68 22.585 22.497 22.413 22.33 22.24 22.13 22.025 21.953 21.897 21.822 21.73 21.643 21.563 21.515 21.492 21.462 21.425 21.362 21.265 21.155 21.047 20.905 20.723 20.535 20.345 20.2 20.105 20.02 19.945 19.88 19.818 19.76 19.71 19.673 19.648 19.625 19.608 19.605 19.615 19.625 19.635 19.645 19.655 19.678 19.725 19.795 19.877 19.96 20.04 20.125 20.212 20.287 20.345 20.365 20.37 20.395 20.43 20.435 20.415
26.395 26.477 26.557 26.632 26.717 26.812 26.907 27.002 27.097 27.174 27.234 27.292 27.329 27.349 27.369 27.389 27.372 27.254 27.074 26.877 26.665 26.452 26.24 26.045 25.888 25.758 26.91 28.134 28.154 28.172 28.187 28.202 28.217 28.22 29.573 31.012 31.122 31.165 31.193 31.235 31.298 31.445 31.69 31.965 32.2 32.305 32.315 32.305 32.287 32.255 32.167 32.022 31.855 31.678 31.517 31.347 31.127 30.877 30.612 30.338 30.075 29.84 29.643 29.462 29.26 29.038 28.838 28.657 28.465 28.27 28.103 27.958 27.815 27.68 27.553 27.43 27.315 27.205 27.08 26.945 26.807 26.663 26.528 26.4 26.275 26.155 26.027 25.89 25.755 25.628 25.528 25.447 25.36 25.268 25.218 25.212 25.202 25.19 25.175 25.155 25.127 25.072 24.998 24.928 24.87 24.83 24.8 24.778 24.775 24.78 24.77 24.742 24.71 24.68 24.625 24.54 24.455 24.385 24.322 24.255 24.185 24.115 24.058 24.015 23.977 23.943 23.915 23.895 23.878 23.862 23.815 23.73 23.64 23.547 23.432 23.303 23.18 23.065 22.957 22.85 22.745 22.648 22.56 22.475 22.39 22.302 22.187 22.055 21.95 21.88 21.8 21.705 21.613 21.528 21.48 21.452 21.412 21.37 21.315 21.225 21.118 21.01 20.88 20.722 20.552 20.37 20.22 20.115 20.023 19.945 19.883 19.825 19.77 19.718 19.678 19.655 19.638 19.625 19.625 19.635 19.645 19.655 19.668 19.693 19.74 19.798 19.863 19.948 20.037 20.12 20.205 20.295 20.38 20.445 20.467 20.463 20.468 20.492 20.495 20.465
26.947 27.07 27.187 27.302 27.427 27.555 27.672 27.79 27.922 28.06 28.192 28.325 28.437 28.532 28.627 28.72 28.807 28.882 28.947 29.007 29.067 29.129 29.192 29.256 29.301 29.326 29.347 29.363 29.375 29.385 29.393 29.398 29.4 29.416 30.448 31.535 31.655 31.72 31.76 31.833 31.935 32.112 32.325 32.485 32.595 32.65 32.66 32.647 32.63 32.6 32.502 32.337 32.162 31.985 31.797 31.575 31.323 31.07 30.805 30.53 30.255 29.993 29.78 29.603 29.423 29.225 29.028 28.835 28.638 28.443 28.273 28.128 27.983 27.84 27.71 27.59 27.468 27.345 27.218 27.085 26.95 26.813 26.68 26.553 26.428 26.303 26.17 26.03 25.895 25.763 25.653 25.565 25.475 25.385 25.328 25.31 25.295 25.28 25.265 25.245 25.225 25.195 25.137 25.065 24.995 24.933 24.898 24.89 24.895 24.9 24.89 24.865 24.837 24.81 24.75 24.657 24.565 24.482 24.41 24.342 24.275 24.207 24.157 24.122 24.087 24.052 24.025 24.005 23.985 23.965 23.912 23.822 23.727 23.632 23.52 23.39 23.26 23.135 23.023 22.917 22.812 22.71 22.62 22.535 22.45 22.36 22.242 22.107 21.98 21.873 21.778 21.682 21.588 21.498 21.44 21.403 21.358 21.315 21.27 21.19 21.085 20.977 20.845 20.695 20.542 20.38 20.238 20.13 20.033 19.953 19.893 19.838 19.783 19.725 19.685 19.668 19.655 19.645 19.645 19.655 19.665 19.678 19.705 19.755 19.815 19.872 19.933 20.015 20.11 20.198 20.285 20.375 20.465 20.542 20.572 20.565 20.557 20.562 20.555 20.525
27.422 27.545 27.662 27.782 27.907 28.025 28.127 28.223 28.333 28.455 28.583 28.722 28.867 29.012 29.157 29.3 29.442 29.587 29.725 29.85 29.972 30.092 30.225 30.385 30.527 30.625 30.702 30.78 30.857 30.935 31.012 31.085 31.155 31.225 31.63 32.07 32.2 32.287 32.36 32.455 32.565 32.692 32.8 32.865 32.932 32.992 33.005 32.992 32.972 32.925 32.802 32.627 32.452 32.262 32.035 31.783 31.528 31.273 31.01 30.738 30.463 30.188 29.96 29.78 29.603 29.415 29.215 29.018 28.823 28.63 28.47 28.335 28.193 28.045 27.91 27.79 27.66 27.518 27.378 27.245 27.11 26.975 26.845 26.72 26.592 26.458 26.32 26.18 26.045 25.913 25.8 25.71 25.62 25.53 25.47 25.45 25.433 25.413 25.383 25.353 25.335 25.317 25.272 25.2 25.13 25.058 25.015 25.013 25.017 25.022 25.005 24.965 24.932 24.905 24.842 24.745 24.64 24.545 24.47 24.405 24.342 24.28 24.235 24.205 24.17 24.137 24.115 24.095 24.075 24.05 23.99 23.9 23.805 23.71 23.6 23.467 23.335 23.205 23.088 22.983 22.875 22.768 22.675 22.592 22.502 22.39 22.26 22.127 21.995 21.865 21.755 21.66 21.565 21.468 21.403 21.368 21.325 21.285 21.245 21.167 21.058 20.942 20.808 20.663 20.52 20.378 20.253 20.15 20.053 19.973 19.913 19.858 19.803 19.753 19.715 19.693 19.68 19.67 19.67 19.68 19.693 19.718 19.765 19.825 19.885 19.945 20.01 20.1 20.203 20.295 20.385 20.475 20.562 20.635 20.652 20.635 20.627 20.622 20.605 20.575
27.86 28 28.115 28.225 28.343 28.465 28.575 28.675 28.775 28.875 28.985 29.108 29.245 29.39 29.535 29.68 29.82 29.952 30.072 30.195 30.325 30.44 30.585 30.782 30.98 31.157 31.317 31.465 31.605 31.742 31.88 32.017 32.155 32.29 32.43 32.575 32.702 32.8 32.887 32.975 33.042 33.087 33.123 33.178 33.26 33.33 33.35 33.337 33.297 33.215 33.077 32.905 32.715 32.495 32.252 31.998 31.743 31.487 31.227 30.96 30.688 30.413 30.185 30.005 29.815 29.61 29.405 29.21 29.02 28.838 28.688 28.562 28.43 28.285 28.15 28.022 27.875 27.712 27.563 27.428 27.293 27.157 27.025 26.897 26.762 26.62 26.48 26.34 26.205 26.075 25.965 25.878 25.79 25.7 25.648 25.637 25.622 25.6 25.553 25.495 25.468 25.452 25.405 25.33 25.26 25.193 25.15 25.14 25.143 25.145 25.112 25.053 25.005 24.97 24.91 24.812 24.7 24.598 24.52 24.455 24.398 24.34 24.295 24.265 24.233 24.205 24.185 24.165 24.145 24.117 24.055 23.967 23.875 23.78 23.667 23.533 23.4 23.27 23.153 23.047 22.937 22.825 22.73 22.645 22.532 22.39 22.248 22.113 21.978 21.845 21.735 21.64 21.537 21.425 21.36 21.342 21.315 21.28 21.24 21.155 21.032 20.912 20.787 20.657 20.523 20.388 20.27 20.173 20.078 19.998 19.938 19.885 19.84 19.805 19.77 19.735 19.713 19.7 19.7 19.713 19.738 19.778 19.833 19.895 19.955 20.015 20.09 20.2 20.317 20.417 20.51 20.595 20.667 20.722 20.722 20.688 20.67 20.662 20.645 20.615
28.237 28.425 28.567 28.677 28.785 28.897 29.005 29.105 29.205 29.305 29.41 29.52 29.64 29.775 29.915 30.045 30.165 30.275 30.383 30.513 30.657 30.788 30.95 31.162 31.372 31.57 31.757 31.932 32.087 32.227 32.365 32.502 32.637 32.765 32.9 33.03 33.13 33.217 33.3 33.355 33.372 33.393 33.43 33.495 33.585 33.665 33.697 33.667 33.59 33.49 33.355 33.167 32.947 32.712 32.467 32.215 31.96 31.705 31.445 31.18 30.912 30.643 30.418 30.225 30.017 29.803 29.598 29.408 29.225 29.05 28.9 28.775 28.652 28.522 28.385 28.232 28.065 27.898 27.748 27.612 27.477 27.34 27.205 27.07 26.925 26.78 26.64 26.503 26.37 26.24 26.13 26.045 25.96 25.87 25.82 25.815 25.81 25.795 25.745 25.67 25.615 25.585 25.537 25.465 25.395 25.328 25.285 25.273 25.27 25.262 25.22 25.153 25.09 25.04 24.975 24.872 24.755 24.65 24.573 24.51 24.455 24.4 24.355 24.328 24.3 24.275 24.255 24.235 24.215 24.185 24.12 24.032 23.942 23.847 23.732 23.6 23.468 23.335 23.218 23.11 22.997 22.883 22.782 22.677 22.535 22.38 22.235 22.1 21.965 21.83 21.715 21.61 21.495 21.375 21.31 21.3 21.287 21.267 21.235 21.142 21.002 20.875 20.765 20.657 20.535 20.403 20.288 20.195 20.103 20.023 19.965 19.925 19.895 19.867 19.832 19.79 19.755 19.735 19.735 19.758 19.798 19.843 19.898 19.962 20.025 20.088 20.173 20.295 20.425 20.537 20.63 20.7 20.755 20.805 20.807 20.765 20.728 20.705 20.685 20.655
28.573 28.79 28.96 29.075 29.182 29.285 29.387 29.49 29.592 29.702 29.815 29.925 30.035 30.152 30.272 30.38 30.478 30.573 30.69 30.838 30.99 31.143 31.325 31.537 31.75 31.955 32.155 32.35 32.53 32.697 32.847 32.98 33.107 33.232 33.352 33.45 33.53 33.61 33.67 33.69 33.69 33.7 33.74 33.815 33.905 33.99 34.02 33.962 33.865 33.762 33.61 33.392 33.162 32.93 32.685 32.432 32.175 31.917 31.655 31.387 31.122 30.862 30.635 30.425 30.21 29.995 29.793 29.61 29.432 29.257 29.105 28.975 28.847 28.722 28.58 28.412 28.242 28.077 27.925 27.787 27.652 27.515 27.375 27.232 27.087 26.942 26.803 26.67 26.54 26.41 26.3 26.212 26.125 26.035 25.988 25.982 25.977 25.965 25.917 25.847 25.78 25.725 25.67 25.602 25.535 25.465 25.42 25.407 25.395 25.37 25.32 25.252 25.185 25.122 25.042 24.93 24.81 24.705 24.63 24.57 24.515 24.46 24.418 24.393 24.368 24.345 24.325 24.305 24.282 24.25 24.185 24.095 24.007 23.915 23.8 23.67 23.535 23.4 23.28 23.167 23.052 22.937 22.817 22.678 22.523 22.37 22.225 22.09 21.958 21.825 21.7 21.578 21.453 21.33 21.265 21.258 21.25 21.243 21.225 21.125 20.963 20.825 20.72 20.625 20.52 20.41 20.308 20.215 20.125 20.053 20.008 19.98 19.955 19.93 19.895 19.85 19.81 19.778 19.78 19.818 19.863 19.908 19.96 20.025 20.095 20.165 20.26 20.388 20.522 20.64 20.722 20.78 20.832 20.882 20.882 20.837 20.79 20.747 20.717 20.69
28.91 29.13 29.297 29.412 29.517 29.607 29.705 29.81 29.92 30.047 30.17 30.28 30.392 30.505 30.61 30.71 30.805 30.893 31.01 31.162 31.315 31.475 31.665 31.875 32.085 32.282 32.47 32.66 32.85 33.04 33.2 33.33 33.457 33.587 33.695 33.775 33.857 33.937 33.98 33.985 33.987 33.995 34.035 34.112 34.195 34.275 34.295 34.225 34.12 33.985 33.79 33.562 33.337 33.1 32.845 32.582 32.32 32.06 31.795 31.527 31.265 31.015 30.802 30.605 30.392 30.178 29.98 29.8 29.622 29.44 29.28 29.147 29.015 28.885 28.74 28.575 28.407 28.237 28.083 27.945 27.807 27.667 27.522 27.38 27.237 27.095 26.96 26.83 26.7 26.567 26.453 26.36 26.27 26.18 26.133 26.127 26.12 26.105 26.055 25.98 25.912 25.847 25.785 25.725 25.662 25.598 25.55 25.525 25.5 25.465 25.412 25.347 25.283 25.222 25.135 25.013 24.893 24.793 24.718 24.655 24.598 24.543 24.498 24.468 24.445 24.423 24.4 24.38 24.355 24.312 24.242 24.155 24.067 23.977 23.865 23.735 23.6 23.468 23.34 23.22 23.105 22.99 22.855 22.695 22.538 22.378 22.228 22.095 21.965 21.835 21.705 21.575 21.445 21.32 21.255 21.25 21.245 21.243 21.227 21.105 20.918 20.778 20.673 20.575 20.493 20.43 20.35 20.255 20.173 20.115 20.078 20.048 20.02 19.993 19.96 19.92 19.883 19.845 19.848 19.89 19.935 19.98 20.038 20.113 20.188 20.26 20.36 20.493 20.62 20.72 20.787 20.842 20.897 20.927 20.912 20.87 20.82 20.77 20.735 20.71
29.25 29.467 29.632 29.742 29.832 29.91 30.005 30.113 30.235 30.375 30.502 30.615 30.73 30.845 30.95 31.05 31.14 31.22 31.335 31.485 31.63 31.778 31.96 32.17 32.367 32.537 32.708 32.893 33.08 33.27 33.43 33.56 33.693 33.827 33.935 34.017 34.102 34.185 34.235 34.247 34.252 34.26 34.303 34.377 34.45 34.525 34.545 34.47 34.332 34.142 33.922 33.697 33.462 33.207 32.94 32.67 32.405 32.145 31.88 31.615 31.358 31.118 30.925 30.757 30.565 30.353 30.158 29.977 29.79 29.598 29.435 29.305 29.175 29.045 28.9 28.735 28.56 28.383 28.228 28.09 27.95 27.805 27.66 27.518 27.375 27.243 27.115 26.985 26.85 26.71 26.588 26.49 26.403 26.315 26.263 26.253 26.247 26.232 26.175 26.09 26.013 25.943 25.882 25.827 25.773 25.72 25.67 25.625 25.59 25.557 25.507 25.443 25.38 25.325 25.24 25.12 25.015 24.93 24.848 24.77 24.705 24.65 24.6 24.56 24.533 24.508 24.485 24.462 24.427 24.37 24.295 24.212 24.125 24.037 23.927 23.795 23.663 23.532 23.403 23.275 23.155 23.037 22.9 22.74 22.575 22.4 22.245 22.118 21.987 21.855 21.725 21.595 21.468 21.343 21.275 21.27 21.268 21.27 21.245 21.1 20.885 20.73 20.638 20.568 20.518 20.48 20.412 20.325 20.255 20.205 20.168 20.133 20.1 20.063 20.03 20.005 19.975 19.94 19.938 19.975 20.018 20.063 20.13 20.22 20.3 20.373 20.475 20.602 20.707 20.785 20.845 20.9 20.935 20.927 20.902 20.872 20.83 20.78 20.745 20.72
29.595 29.805 29.962 30.057 30.135 30.21 30.305 30.423 30.56 30.705 30.838 30.955 31.07 31.188 31.295 31.387 31.465 31.543 31.66 31.805 31.94 32.078 32.253 32.447 32.62 32.775 32.943 33.127 33.313 33.497 33.655 33.788 33.925 34.062 34.17 34.253 34.335 34.417 34.477 34.5 34.505 34.513 34.558 34.632 34.705 34.777 34.787 34.677 34.49 34.277 34.055 33.817 33.565 33.302 33.035 32.763 32.493 32.23 31.968 31.708 31.458 31.225 31.035 30.88 30.715 30.522 30.33 30.145 29.95 29.755 29.593 29.46 29.332 29.205 29.057 28.887 28.705 28.525 28.37 28.23 28.087 27.943 27.8 27.66 27.525 27.397 27.27 27.137 26.995 26.848 26.723 26.625 26.537 26.45 26.395 26.38 26.372 26.357 26.3 26.212 26.122 26.035 25.972 25.93 25.887 25.842 25.792 25.737 25.688 25.65 25.6 25.538 25.483 25.43 25.347 25.245 25.165 25.09 25 24.905 24.825 24.763 24.71 24.663 24.623 24.595 24.572 24.537 24.482 24.417 24.345 24.265 24.182 24.097 23.99 23.86 23.73 23.6 23.47 23.338 23.208 23.085 22.945 22.777 22.6 22.42 22.265 22.14 22.012 21.88 21.75 21.62 21.493 21.365 21.295 21.293 21.298 21.305 21.267 21.11 20.9 20.763 20.68 20.62 20.583 20.542 20.48 20.41 20.35 20.298 20.26 20.222 20.18 20.133 20.1 20.087 20.067 20.038 20.035 20.068 20.105 20.148 20.215 20.31 20.402 20.485 20.587 20.695 20.772 20.84 20.902 20.942 20.94 20.913 20.887 20.862 20.832 20.79 20.755 20.745
29.95 30.15 30.29 30.368 30.443 30.518 30.62 30.758 30.905 31.055 31.195 31.315 31.425 31.538 31.64 31.718 31.785 31.865 31.98 32.115 32.245 32.378 32.535 32.703 32.858 33.013 33.18 33.363 33.548 33.728 33.883 34.02 34.16 34.297 34.405 34.485 34.568 34.652 34.72 34.75 34.755 34.767 34.812 34.875 34.935 34.995 34.975 34.82 34.612 34.405 34.175 33.92 33.66 33.4 33.132 32.857 32.585 32.318 32.06 31.81 31.565 31.335 31.145 30.987 30.83 30.662 30.485 30.3 30.105 29.91 29.745 29.61 29.482 29.357 29.21 29.032 28.848 28.67 28.513 28.37 28.225 28.08 27.943 27.81 27.68 27.552 27.42 27.278 27.133 26.985 26.858 26.76 26.67 26.58 26.525 26.51 26.5 26.48 26.412 26.31 26.207 26.105 26.03 25.992 25.962 25.927 25.887 25.837 25.785 25.74 25.69 25.635 25.585 25.532 25.46 25.38 25.31 25.235 25.147 25.05 24.957 24.88 24.82 24.77 24.722 24.685 24.645 24.59 24.527 24.465 24.395 24.315 24.232 24.145 24.042 23.922 23.795 23.667 23.537 23.402 23.27 23.14 22.987 22.805 22.62 22.44 22.285 22.16 22.035 21.905 21.775 21.645 21.515 21.385 21.32 21.325 21.335 21.345 21.292 21.158 21.068 21.01 20.902 20.792 20.702 20.625 20.558 20.5 20.447 20.392 20.345 20.3 20.25 20.203 20.178 20.168 20.15 20.13 20.133 20.163 20.2 20.238 20.3 20.395 20.495 20.59 20.68 20.76 20.827 20.895 20.945 20.95 20.925 20.895 20.87 20.847 20.822 20.792 20.778 20.795
30.315 30.512 30.645 30.718 30.793 30.9 31.025 31.15 31.295 31.45 31.593 31.71 31.818 31.918 32.003 32.073 32.138 32.22 32.335 32.468 32.6 32.728 32.858 32.998 33.148 33.303 33.47 33.648 33.828 33.998 34.143 34.28 34.418 34.542 34.635 34.71 34.792 34.875 34.942 34.972 34.977 34.987 35.012 35.05 35.095 35.145 35.097 34.92 34.715 34.51 34.272 34.01 33.75 33.49 33.222 32.948 32.68 32.428 32.183 31.935 31.688 31.448 31.248 31.085 30.925 30.765 30.607 30.44 30.252 30.058 29.888 29.75 29.62 29.492 29.35 29.18 28.998 28.82 28.66 28.515 28.37 28.22 28.08 27.95 27.82 27.697 27.567 27.42 27.275 27.117 26.973 26.877 26.795 26.705 26.648 26.63 26.612 26.567 26.48 26.37 26.26 26.153 26.068 26.015 25.98 25.955 25.922 25.877 25.832 25.787 25.74 25.69 25.637 25.582 25.52 25.45 25.385 25.315 25.225 25.125 25.03 24.945 24.882 24.835 24.785 24.74 24.687 24.625 24.565 24.505 24.435 24.352 24.265 24.177 24.077 23.96 23.837 23.717 23.592 23.457 23.325 23.19 23.025 22.838 22.653 22.468 22.313 22.188 22.063 21.935 21.805 21.673 21.54 21.41 21.343 21.347 21.362 21.377 21.345 21.272 21.252 21.202 21.07 20.93 20.8 20.703 20.638 20.585 20.532 20.478 20.43 20.385 20.335 20.293 20.283 20.288 20.273 20.253 20.248 20.27 20.31 20.348 20.395 20.475 20.575 20.67 20.735 20.79 20.86 20.927 20.957 20.937 20.905 20.875 20.85 20.83 20.805 20.78 20.785 20.817
30.685 30.885 31.022 31.1 31.208 31.383 31.525 31.608 31.723 31.87 32.01 32.125 32.227 32.312 32.385 32.455 32.53 32.625 32.745 32.878 33.007 33.13 33.245 33.36 33.498 33.65 33.815 33.99 34.155 34.305 34.44 34.575 34.702 34.81 34.878 34.93 35.003 35.08 35.14 35.162 35.167 35.172 35.173 35.18 35.215 35.265 35.202 35.012 34.81 34.605 34.365 34.098 33.835 33.575 33.308 33.035 32.785 32.56 32.325 32.075 31.823 31.57 31.353 31.175 31.01 30.85 30.702 30.557 30.39 30.203 30.028 29.88 29.748 29.62 29.477 29.32 29.15 28.973 28.81 28.665 28.515 28.355 28.208 28.078 27.955 27.84 27.715 27.57 27.407 27.21 27.048 26.967 26.902 26.82 26.76 26.735 26.692 26.615 26.52 26.417 26.307 26.198 26.115 26.053 25.998 25.963 25.927 25.882 25.837 25.792 25.745 25.695 25.642 25.59 25.53 25.463 25.408 25.345 25.247 25.138 25.04 24.955 24.895 24.852 24.805 24.757 24.707 24.65 24.587 24.522 24.452 24.375 24.29 24.202 24.1 23.98 23.865 23.755 23.635 23.5 23.365 23.232 23.07 22.882 22.695 22.508 22.353 22.225 22.1 21.975 21.843 21.708 21.575 21.445 21.368 21.353 21.36 21.382 21.377 21.335 21.282 21.197 21.07 20.938 20.838 20.77 20.715 20.662 20.608 20.555 20.515 20.477 20.43 20.395 20.4 20.427 20.435 20.417 20.4 20.403 20.43 20.47 20.505 20.558 20.645 20.732 20.78 20.813 20.87 20.935 20.957 20.925 20.885 20.855 20.83 20.81 20.785 20.76 20.768 20.803
31.1 31.258 31.4 31.513 31.685 31.897 32.04 32.108 32.185 32.3 32.43 32.537 32.622 32.698 32.77 32.848 32.94 33.042 33.16 33.287 33.41 33.53 33.645 33.75 33.865 34.005 34.165 34.327 34.475 34.615 34.747 34.872 34.985 35.085 35.142 35.168 35.215 35.285 35.335 35.35 35.355 35.357 35.353 35.343 35.35 35.382 35.305 35.107 34.91 34.702 34.46 34.19 33.923 33.66 33.395 33.14 32.915 32.7 32.467 32.217 31.957 31.698 31.473 31.28 31.098 30.93 30.785 30.652 30.51 30.342 30.173 30.02 29.878 29.745 29.602 29.45 29.292 29.122 28.96 28.81 28.65 28.485 28.335 28.208 28.095 27.985 27.862 27.7 27.492 27.26 27.1 27.038 26.987 26.925 26.867 26.817 26.745 26.652 26.555 26.455 26.35 26.245 26.163 26.097 26.035 25.98 25.932 25.885 25.84 25.795 25.745 25.698 25.65 25.6 25.54 25.48 25.437 25.38 25.28 25.163 25.055 24.968 24.91 24.868 24.822 24.775 24.725 24.667 24.597 24.525 24.455 24.385 24.31 24.225 24.122 24.008 23.9 23.795 23.675 23.542 23.41 23.28 23.12 22.93 22.74 22.553 22.395 22.265 22.14 22.015 21.88 21.745 21.612 21.48 21.398 21.368 21.355 21.365 21.355 21.31 21.257 21.185 21.078 20.973 20.903 20.845 20.79 20.738 20.685 20.635 20.595 20.562 20.52 20.495 20.51 20.545 20.575 20.582 20.572 20.56 20.563 20.59 20.625 20.66 20.723 20.797 20.84 20.86 20.893 20.945 20.962 20.922 20.873 20.835 20.81 20.79 20.765 20.74 20.75 20.788
31.618 31.69 31.815 31.988 32.203 32.415 32.547 32.612 32.677 32.755 32.847 32.935 33.01 33.085 33.163 33.25 33.35 33.447 33.56 33.685 33.805 33.92 34.03 34.135 34.24 34.362 34.505 34.647 34.785 34.92 35.04 35.15 35.255 35.355 35.415 35.432 35.458 35.502 35.532 35.537 35.542 35.545 35.54 35.53 35.517 35.507 35.402 35.202 35.005 34.797 34.555 34.285 34.015 33.748 33.498 33.27 33.055 32.842 32.612 32.357 32.09 31.825 31.598 31.402 31.208 31.023 30.87 30.737 30.605 30.46 30.307 30.16 30.012 29.87 29.725 29.572 29.417 29.26 29.1 28.94 28.775 28.607 28.457 28.335 28.222 28.11 27.972 27.775 27.54 27.303 27.155 27.103 27.055 27.005 26.945 26.867 26.78 26.687 26.59 26.49 26.387 26.287 26.202 26.132 26.067 25.997 25.938 25.89 25.843 25.795 25.747 25.702 25.655 25.605 25.553 25.507 25.475 25.42 25.32 25.2 25.08 24.983 24.925 24.882 24.837 24.792 24.74 24.675 24.602 24.527 24.455 24.385 24.315 24.24 24.147 24.042 23.94 23.835 23.715 23.585 23.455 23.325 23.167 22.98 22.79 22.6 22.44 22.31 22.182 22.055 21.92 21.785 21.65 21.513 21.425 21.395 21.375 21.36 21.335 21.29 21.24 21.183 21.108 21.038 20.98 20.92 20.865 20.815 20.765 20.718 20.678 20.645 20.608 20.593 20.615 20.647 20.677 20.7 20.707 20.705 20.702 20.715 20.745 20.775 20.815 20.865 20.9 20.92 20.94 20.97 20.97 20.922 20.867 20.82 20.79 20.77 20.745 20.723 20.735 20.778
32.195 32.225 32.335 32.543 32.757 32.915 33 33.062 33.127 33.192 33.26 33.333 33.408 33.483 33.555 33.635 33.73 33.825 33.935 34.06 34.172 34.262 34.355 34.46 34.567 34.695 34.835 34.972 35.102 35.21 35.307 35.412 35.515 35.607 35.66 35.68 35.7 35.72 35.73 35.73 35.732 35.725 35.7 35.675 35.652 35.617 35.497 35.3 35.1 34.892 34.65 34.38 34.11 33.833 33.583 33.367 33.155 32.945 32.72 32.467 32.202 31.94 31.71 31.512 31.315 31.123 30.958 30.818 30.685 30.55 30.41 30.265 30.12 29.977 29.83 29.677 29.525 29.367 29.202 29.037 28.87 28.705 28.55 28.415 28.295 28.18 28.022 27.805 27.573 27.348 27.215 27.163 27.11 27.057 26.99 26.905 26.812 26.712 26.61 26.507 26.405 26.31 26.227 26.152 26.08 26.005 25.943 25.897 25.847 25.795 25.747 25.7 25.653 25.613 25.563 25.515 25.482 25.427 25.33 25.207 25.088 24.993 24.93 24.885 24.842 24.797 24.74 24.67 24.6 24.522 24.445 24.375 24.302 24.237 24.162 24.065 23.965 23.86 23.74 23.612 23.485 23.347 23.182 22.995 22.805 22.63 22.478 22.34 22.21 22.08 21.96 21.837 21.7 21.563 21.468 21.43 21.41 21.385 21.35 21.305 21.258 21.21 21.157 21.105 21.05 20.99 20.935 20.885 20.838 20.795 20.758 20.725 20.693 20.683 20.702 20.73 20.757 20.78 20.792 20.8 20.807 20.822 20.85 20.882 20.91 20.932 20.955 20.975 20.995 20.992 20.955 20.9 20.848 20.808 20.78 20.758 20.733 20.723 20.745 20.79
32.772 32.805 32.925 33.132 33.287 33.355 33.403 33.467 33.533 33.603 33.675 33.743 33.813 33.887 33.952 34.013 34.09 34.183 34.295 34.41 34.495 34.558 34.638 34.743 34.865 35.018 35.167 35.302 35.41 35.48 35.563 35.667 35.76 35.835 35.88 35.9 35.915 35.925 35.93 35.93 35.92 35.885 35.83 35.775 35.738 35.707 35.592 35.395 35.195 34.987 34.745 34.475 34.192 33.893 33.633 33.417 33.205 32.995 32.775 32.54 32.29 32.03 31.8 31.603 31.41 31.225 31.055 30.903 30.765 30.63 30.487 30.343 30.203 30.067 29.925 29.772 29.615 29.447 29.278 29.11 28.945 28.79 28.63 28.468 28.33 28.212 28.047 27.825 27.61 27.428 27.303 27.223 27.158 27.102 27.032 26.94 26.835 26.72 26.608 26.505 26.41 26.323 26.243 26.165 26.09 26.015 25.95 25.902 25.85 25.793 25.743 25.695 25.658 25.637 25.585 25.51 25.46 25.405 25.31 25.193 25.088 25.003 24.935 24.883 24.838 24.792 24.735 24.662 24.585 24.5 24.42 24.35 24.283 24.23 24.165 24.072 23.975 23.87 23.75 23.625 23.49 23.332 23.155 22.968 22.798 22.653 22.503 22.35 22.215 22.088 21.985 21.89 21.765 21.633 21.533 21.478 21.448 21.422 21.39 21.347 21.302 21.257 21.21 21.162 21.11 21.05 20.995 20.948 20.908 20.87 20.835 20.805 20.778 20.765 20.778 20.805 20.832 20.855 20.867 20.875 20.89 20.913 20.942 20.972 20.987 20.993 21.005 21.025 21.025 20.977 20.913 20.86 20.823 20.8 20.78 20.755 20.74 20.75 20.78 20.822
33.332 33.39 33.507 33.657 33.725 33.758 33.808 33.873 33.943 34.02 34.092 34.158 34.223 34.292 34.355 34.408 34.468 34.545 34.642 34.727 34.787 34.843 34.92 35.038 35.188 35.352 35.5 35.612 35.685 35.74 35.82 35.915 35.992 36.057 36.1 36.115 36.12 36.125 36.13 36.12 36.085 36.03 35.965 35.893 35.833 35.795 35.682 35.485 35.287 35.085 34.845 34.562 34.252 33.938 33.678 33.463 33.248 33.035 32.817 32.592 32.36 32.11 31.883 31.693 31.51 31.333 31.163 31 30.848 30.708 30.565 30.423 30.29 30.16 30.02 29.862 29.692 29.52 29.35 29.185 29.03 28.88 28.72 28.545 28.38 28.242 28.07 27.868 27.7 27.56 27.435 27.323 27.223 27.148 27.07 26.96 26.84 26.718 26.605 26.51 26.423 26.338 26.258 26.18 26.103 26.025 25.96 25.907 25.85 25.79 25.738 25.7 25.683 25.672 25.62 25.53 25.453 25.385 25.295 25.193 25.1 25.015 24.948 24.893 24.838 24.787 24.73 24.65 24.56 24.47 24.393 24.33 24.278 24.232 24.165 24.075 23.98 23.877 23.762 23.627 23.47 23.3 23.125 22.96 22.823 22.69 22.535 22.368 22.218 22.09 21.993 21.917 21.825 21.71 21.61 21.54 21.49 21.458 21.425 21.387 21.347 21.303 21.258 21.215 21.167 21.11 21.058 21.018 20.985 20.95 20.915 20.888 20.865 20.848 20.853 20.88 20.905 20.925 20.942 20.958 20.98 21.005 21.03 21.047 21.047 21.045 21.055 21.055 21.01 20.938 20.873 20.833 20.813 20.798 20.78 20.765 20.77 20.79 20.817 20.85
33.855 33.945 34.03 34.097 34.13 34.163 34.213 34.282 34.357 34.435 34.507 34.572 34.635 34.697 34.755 34.807 34.857 34.912 34.975 35.03 35.083 35.133 35.215 35.358 35.522 35.685 35.812 35.887 35.942 35.998 36.067 36.142 36.21 36.275 36.312 36.32 36.32 36.322 36.315 36.282 36.23 36.17 36.102 36.027 35.952 35.89 35.77 35.575 35.377 35.175 34.925 34.62 34.297 33.983 33.723 33.507 33.292 33.077 32.86 32.635 32.41 32.182 31.975 31.795 31.615 31.437 31.267 31.105 30.943 30.79 30.65 30.515 30.385 30.252 30.105 29.94 29.767 29.595 29.428 29.27 29.12 28.97 28.81 28.635 28.455 28.29 28.128 27.973 27.84 27.71 27.58 27.452 27.325 27.213 27.105 26.98 26.855 26.733 26.625 26.533 26.443 26.355 26.273 26.195 26.118 26.04 25.967 25.905 25.845 25.785 25.742 25.725 25.72 25.71 25.652 25.56 25.465 25.372 25.285 25.197 25.112 25.03 24.962 24.905 24.842 24.782 24.715 24.627 24.535 24.448 24.373 24.317 24.275 24.23 24.16 24.07 23.975 23.877 23.765 23.615 23.448 23.28 23.12 22.985 22.86 22.727 22.575 22.4 22.233 22.095 22 21.93 21.857 21.772 21.687 21.615 21.55 21.5 21.46 21.425 21.393 21.355 21.313 21.268 21.223 21.175 21.13 21.095 21.063 21.028 20.995 20.973 20.955 20.935 20.933 20.953 20.977 21 21.022 21.045 21.07 21.092 21.102 21.105 21.102 21.097 21.085 21.042 20.97 20.895 20.845 20.825 20.81 20.795 20.788 20.79 20.802 20.817 20.835 20.855
34.325 34.427 34.49 34.523 34.555 34.588 34.62 34.673 34.747 34.822 34.895 34.96 35.022 35.082 35.132 35.18 35.227 35.272 35.318 35.363 35.41 35.453 35.538 35.69 35.85 35.985 36.075 36.13 36.185 36.24 36.29 36.345 36.407 36.472 36.507 36.51 36.512 36.505 36.455 36.387 36.33 36.272 36.185 36.09 36.015 35.937 35.81 35.62 35.42 35.215 34.955 34.64 34.32 34.01 33.75 33.53 33.312 33.1 32.892 32.677 32.453 32.235 32.052 31.885 31.707 31.532 31.367 31.21 31.047 30.885 30.735 30.6 30.47 30.335 30.18 30.01 29.84 29.667 29.498 29.34 29.19 29.042 28.887 28.712 28.53 28.355 28.205 28.075 27.945 27.812 27.68 27.55 27.417 27.285 27.155 27.025 26.9 26.78 26.675 26.58 26.48 26.38 26.293 26.215 26.137 26.057 25.965 25.883 25.82 25.755 25.692 25.67 25.682 25.69 25.65 25.557 25.45 25.345 25.255 25.175 25.095 25.015 24.942 24.88 24.815 24.755 24.685 24.595 24.508 24.433 24.355 24.285 24.24 24.195 24.127 24.037 23.942 23.847 23.74 23.605 23.448 23.283 23.133 23.005 22.88 22.742 22.585 22.412 22.245 22.115 22.033 21.965 21.893 21.815 21.74 21.67 21.605 21.563 21.53 21.495 21.463 21.43 21.39 21.343 21.3 21.26 21.223 21.188 21.153 21.118 21.085 21.063 21.045 21.028 21.02 21.028 21.048 21.072 21.097 21.122 21.147 21.16 21.14 21.117 21.115 21.11 21.08 21.017 20.943 20.87 20.83 20.82 20.807 20.795 20.79 20.795 20.805 20.815 20.827 20.845
34.762 34.872 34.94 34.97 35 35.035 35.05 35.06 35.113 35.187 35.257 35.32 35.385 35.447 35.495 35.538 35.583 35.628 35.672 35.715 35.755 35.79 35.873 36.012 36.14 36.235 36.302 36.357 36.412 36.465 36.505 36.543 36.595 36.657 36.692 36.695 36.687 36.66 36.58 36.473 36.395 36.337 36.23 36.095 36.003 35.917 35.785 35.607 35.415 35.212 34.955 34.64 34.325 34.025 33.763 33.533 33.31 33.1 32.907 32.712 32.497 32.28 32.105 31.952 31.782 31.613 31.455 31.305 31.15 30.987 30.828 30.678 30.54 30.407 30.255 30.083 29.91 29.735 29.56 29.395 29.24 29.092 28.94 28.772 28.595 28.418 28.265 28.135 28.002 27.868 27.74 27.615 27.483 27.35 27.22 27.09 26.963 26.84 26.735 26.637 26.525 26.41 26.318 26.24 26.157 26.07 25.965 25.858 25.783 25.707 25.593 25.525 25.54 25.562 25.555 25.497 25.4 25.293 25.203 25.125 25.042 24.96 24.885 24.82 24.76 24.71 24.647 24.56 24.483 24.427 24.347 24.248 24.183 24.135 24.067 23.98 23.887 23.792 23.695 23.585 23.452 23.297 23.148 23.017 22.882 22.727 22.56 22.398 22.263 22.165 22.093 22.025 21.945 21.855 21.775 21.705 21.663 21.655 21.632 21.593 21.558 21.525 21.485 21.44 21.4 21.363 21.33 21.295 21.257 21.218 21.183 21.16 21.14 21.123 21.11 21.108 21.118 21.14 21.165 21.187 21.205 21.207 21.167 21.11 21.088 21.082 21.057 21 20.93 20.86 20.823 20.815 20.805 20.792 20.783 20.78 20.785 20.795 20.81 20.835
35.2 35.315 35.387 35.42 35.452 35.487 35.5 35.49 35.5 35.553 35.622 35.685 35.747 35.81 35.86 35.9 35.94 35.98 36.02 36.057 36.09 36.123 36.19 36.29 36.38 36.46 36.527 36.583 36.635 36.685 36.725 36.755 36.793 36.845 36.877 36.87 36.84 36.8 36.717 36.59 36.478 36.4 36.29 36.133 36.005 35.892 35.745 35.575 35.397 35.207 34.955 34.645 34.34 34.045 33.78 33.545 33.315 33.1 32.91 32.727 32.532 32.328 32.153 32.007 31.852 31.69 31.535 31.39 31.245 31.09 30.93 30.77 30.618 30.48 30.33 30.155 29.978 29.802 29.628 29.455 29.293 29.14 28.982 28.82 28.655 28.48 28.325 28.195 28.06 27.925 27.798 27.673 27.547 27.42 27.287 27.155 27.025 26.9 26.79 26.682 26.56 26.438 26.34 26.257 26.17 26.08 25.975 25.85 25.753 25.66 25.52 25.395 25.365 25.385 25.39 25.377 25.33 25.24 25.148 25.07 24.987 24.903 24.825 24.765 24.718 24.675 24.615 24.538 24.478 24.432 24.352 24.238 24.14 24.075 24.005 23.918 23.83 23.737 23.64 23.537 23.43 23.302 23.162 23.022 22.867 22.703 22.543 22.41 22.313 22.23 22.155 22.08 21.99 21.893 21.81 21.76 21.755 21.765 21.74 21.695 21.655 21.62 21.582 21.54 21.503 21.47 21.437 21.4 21.357 21.313 21.28 21.26 21.24 21.22 21.205 21.198 21.198 21.213 21.235 21.25 21.255 21.252 21.212 21.14 21.083 21.058 21.03 20.975 20.912 20.85 20.818 20.81 20.8 20.788 20.78 20.775 20.773 20.78 20.798 20.84
35.635 35.752 35.832 35.87 35.905 35.94 35.95 35.94 35.93 35.94 35.988 36.047 36.105 36.162 36.2 36.227 36.26 36.287 36.322 36.362 36.395 36.43 36.48 36.548 36.62 36.693 36.757 36.81 36.86 36.91 36.947 36.975 37.002 37.037 37.047 37.015 36.975 36.935 36.85 36.72 36.593 36.482 36.355 36.193 36.035 35.883 35.72 35.55 35.378 35.2 34.96 34.66 34.36 34.065 33.8 33.565 33.333 33.11 32.915 32.735 32.553 32.365 32.198 32.055 31.912 31.763 31.612 31.467 31.325 31.177 31.022 30.865 30.708 30.557 30.397 30.22 30.042 29.867 29.692 29.52 29.352 29.19 29.025 28.86 28.7 28.535 28.382 28.25 28.117 27.982 27.852 27.73 27.607 27.48 27.347 27.215 27.085 26.955 26.832 26.712 26.585 26.457 26.352 26.267 26.18 26.09 25.985 25.855 25.733 25.61 25.46 25.303 25.215 25.208 25.21 25.208 25.198 25.162 25.095 25.013 24.93 24.845 24.77 24.72 24.68 24.64 24.588 24.53 24.482 24.435 24.355 24.242 24.128 24.03 23.948 23.86 23.773 23.683 23.585 23.485 23.385 23.28 23.16 23.012 22.848 22.688 22.555 22.46 22.375 22.29 22.212 22.128 22.03 21.933 21.863 21.848 21.865 21.875 21.852 21.807 21.76 21.718 21.68 21.643 21.61 21.58 21.545 21.503 21.455 21.41 21.38 21.357 21.335 21.315 21.3 21.292 21.287 21.287 21.295 21.3 21.3 21.297 21.257 21.185 21.11 21.048 21 20.945 20.888 20.838 20.81 20.8 20.793 20.785 20.78 20.775 20.77 20.775 20.808 20.875
36.078 36.2 36.285 36.325 36.358 36.392 36.4 36.385 36.372 36.36 36.363 36.39 36.44 36.495 36.515 36.515 36.53 36.553 36.59 36.637 36.677 36.713 36.763 36.827 36.887 36.942 36.995 37.045 37.09 37.125 37.142 37.157 37.18 37.202 37.182 37.13 37.09 37.047 36.96 36.832 36.707 36.57 36.412 36.245 36.075 35.905 35.735 35.565 35.39 35.212 34.982 34.69 34.393 34.1 33.848 33.625 33.393 33.168 32.97 32.788 32.605 32.425 32.265 32.123 31.98 31.833 31.685 31.54 31.395 31.252 31.102 30.947 30.79 30.622 30.45 30.275 30.097 29.922 29.75 29.58 29.41 29.24 29.06 28.883 28.72 28.557 28.407 28.275 28.145 28.015 27.887 27.762 27.637 27.51 27.38 27.247 27.115 26.982 26.852 26.725 26.592 26.447 26.323 26.235 26.15 26.06 25.965 25.85 25.717 25.573 25.415 25.255 25.128 25.083 25.088 25.09 25.093 25.097 25.052 24.963 24.878 24.793 24.73 24.69 24.65 24.61 24.568 24.525 24.482 24.432 24.352 24.242 24.127 24.015 23.918 23.83 23.738 23.64 23.543 23.445 23.345 23.245 23.14 23.005 22.845 22.693 22.58 22.5 22.417 22.335 22.262 22.182 22.088 21.993 21.94 21.945 21.965 21.98 21.962 21.915 21.865 21.82 21.782 21.748 21.718 21.695 21.665 21.62 21.57 21.518 21.475 21.445 21.42 21.4 21.38 21.367 21.36 21.352 21.335 21.32 21.32 21.317 21.272 21.192 21.117 21.04 20.975 20.92 20.868 20.835 20.82 20.81 20.805 20.798 20.79 20.785 20.783 20.795 20.845 20.925
36.535 36.66 36.742 36.782 36.815 36.847 36.852 36.828 36.808 36.795 36.773 36.753 36.77 36.817 36.832 36.808 36.8 36.82 36.86 36.91 36.957 36.995 37.045 37.105 37.15 37.19 37.235 37.277 37.302 37.315 37.313 37.305 37.318 37.337 37.305 37.235 37.185 37.14 37.052 36.927 36.787 36.625 36.455 36.285 36.115 35.945 35.775 35.605 35.43 35.25 35.02 34.732 34.438 34.15 33.915 33.715 33.49 33.263 33.065 32.88 32.693 32.51 32.35 32.205 32.057 31.905 31.755 31.61 31.465 31.325 31.175 31.017 30.85 30.665 30.488 30.32 30.145 29.97 29.798 29.628 29.46 29.292 29.105 28.905 28.723 28.553 28.405 28.275 28.148 28.022 27.897 27.77 27.642 27.515 27.385 27.252 27.12 26.987 26.857 26.725 26.575 26.403 26.26 26.165 26.078 25.99 25.905 25.812 25.692 25.547 25.39 25.235 25.103 25.048 25.053 25.06 25.07 25.075 25.02 24.92 24.833 24.75 24.695 24.665 24.63 24.59 24.55 24.51 24.465 24.41 24.332 24.23 24.12 24.01 23.91 23.82 23.72 23.61 23.508 23.41 23.31 23.212 23.115 23 22.855 22.71 22.605 22.525 22.445 22.365 22.3 22.24 22.16 22.065 22.018 22.033 22.057 22.08 22.065 22.015 21.968 21.923 21.885 21.855 21.833 21.82 21.792 21.747 21.695 21.633 21.575 21.53 21.5 21.48 21.455 21.43 21.415 21.407 21.377 21.335 21.318 21.312 21.262 21.173 21.093 21.018 20.953 20.903 20.868 20.855 20.85 20.84 20.832 20.822 20.813 20.81 20.818 20.838 20.89 20.97
37.028 37.118 37.2 37.24 37.275 37.305 37.307 37.277 37.25 37.232 37.205 37.167 37.145 37.155 37.155 37.12 37.09 37.09 37.125 37.175 37.225 37.27 37.317 37.362 37.395 37.43 37.462 37.482 37.492 37.498 37.49 37.47 37.463 37.472 37.44 37.36 37.29 37.232 37.142 37.002 36.837 36.662 36.492 36.325 36.158 35.99 35.817 35.642 35.465 35.285 35.06 34.777 34.48 34.198 33.97 33.78 33.577 33.36 33.158 32.97 32.78 32.595 32.433 32.285 32.132 31.975 31.825 31.682 31.537 31.395 31.245 31.075 30.89 30.7 30.523 30.357 30.19 30.017 29.843 29.675 29.513 29.347 29.162 28.955 28.75 28.56 28.408 28.28 28.155 28.03 27.903 27.775 27.647 27.52 27.387 27.255 27.125 26.992 26.857 26.707 26.532 26.348 26.205 26.105 26.01 25.92 25.835 25.75 25.652 25.527 25.38 25.235 25.11 25.055 25.052 25.053 25.06 25.057 24.995 24.888 24.79 24.71 24.66 24.635 24.607 24.57 24.53 24.485 24.43 24.367 24.292 24.202 24.105 24 23.9 23.802 23.692 23.58 23.475 23.375 23.275 23.178 23.082 22.982 22.857 22.73 22.635 22.555 22.475 22.395 22.33 22.28 22.22 22.138 22.098 22.12 22.15 22.177 22.165 22.115 22.07 22.025 21.988 21.968 21.955 21.945 21.917 21.87 21.81 21.745 21.688 21.633 21.588 21.56 21.535 21.505 21.478 21.46 21.43 21.375 21.328 21.307 21.257 21.163 21.073 20.993 20.933 20.903 20.89 20.885 20.88 20.87 20.857 20.845 20.838 20.845 20.865 20.885 20.935 21.02
37.595 37.612 37.65 37.677 37.707 37.735 37.732 37.7 37.67 37.642 37.607 37.567 37.527 37.495 37.467 37.43 37.39 37.363 37.378 37.425 37.472 37.517 37.56 37.595 37.625 37.655 37.67 37.673 37.68 37.685 37.673 37.65 37.63 37.618 37.575 37.495 37.415 37.335 37.217 37.05 36.875 36.7 36.528 36.362 36.197 36.03 35.855 35.677 35.5 35.32 35.1 34.82 34.523 34.245 34.02 33.83 33.642 33.447 33.247 33.055 32.865 32.677 32.51 32.36 32.205 32.047 31.897 31.752 31.605 31.457 31.297 31.112 30.92 30.733 30.557 30.39 30.225 30.057 29.887 29.725 29.565 29.402 29.217 29.005 28.787 28.578 28.413 28.287 28.162 28.037 27.91 27.777 27.647 27.52 27.385 27.25 27.12 26.99 26.84 26.665 26.48 26.295 26.153 26.05 25.95 25.853 25.762 25.672 25.582 25.475 25.342 25.21 25.098 25.05 25.05 25.05 25.052 25.04 24.97 24.86 24.75 24.668 24.625 24.6 24.575 24.545 24.505 24.45 24.39 24.327 24.253 24.165 24.075 23.982 23.885 23.775 23.66 23.548 23.443 23.345 23.245 23.145 23.05 22.955 22.85 22.75 22.665 22.585 22.505 22.425 22.36 22.31 22.26 22.203 22.183 22.212 22.245 22.275 22.265 22.215 22.17 22.127 22.097 22.087 22.08 22.07 22.042 21.987 21.92 21.855 21.8 21.747 21.692 21.647 21.615 21.582 21.547 21.517 21.477 21.422 21.365 21.317 21.255 21.163 21.07 20.985 20.935 20.925 20.92 20.915 20.91 20.897 20.88 20.868 20.87 20.89 20.915 20.935 20.988 21.083
38.1 38.062 38.027 38.03 38.052 38.077 38.07 38.03 37.995 37.965 37.927 37.882 37.837 37.792 37.75 37.71 37.667 37.625 37.618 37.653 37.697 37.74 37.78 37.815 37.842 37.865 37.875 37.875 37.878 37.88 37.865 37.84 37.817 37.782 37.72 37.64 37.555 37.447 37.295 37.115 36.938 36.747 36.56 36.393 36.227 36.057 35.882 35.707 35.53 35.352 35.142 34.872 34.58 34.303 34.075 33.888 33.702 33.507 33.305 33.11 32.92 32.73 32.558 32.405 32.25 32.095 31.94 31.782 31.63 31.48 31.31 31.12 30.933 30.757 30.583 30.408 30.242 30.077 29.915 29.752 29.59 29.427 29.242 29.027 28.805 28.588 28.418 28.292 28.168 28.045 27.912 27.77 27.635 27.505 27.37 27.23 27.095 26.965 26.805 26.62 26.435 26.263 26.13 26.025 25.923 25.808 25.685 25.578 25.482 25.375 25.253 25.14 25.05 25.003 25 25.005 25.002 24.98 24.905 24.792 24.685 24.61 24.57 24.542 24.517 24.495 24.467 24.42 24.36 24.3 24.227 24.14 24.05 23.968 23.875 23.763 23.65 23.535 23.428 23.333 23.238 23.143 23.048 22.953 22.873 22.805 22.73 22.65 22.568 22.48 22.408 22.355 22.305 22.26 22.25 22.28 22.315 22.342 22.337 22.295 22.247 22.205 22.18 22.172 22.167 22.16 22.132 22.077 22.01 21.942 21.882 21.827 21.772 21.72 21.672 21.63 21.595 21.56 21.512 21.457 21.4 21.335 21.262 21.18 21.09 21.005 20.96 20.955 20.95 20.945 20.937 20.92 20.903 20.89 20.895 20.92 20.945 20.97 21.038 21.145
38.485 38.412 38.348 38.328 38.34 38.365 38.352 38.305 38.263 38.23 38.195 38.15 38.103 38.058 38.015 37.972 37.925 37.878 37.86 37.88 37.918 37.96 37.997 38.03 38.055 38.075 38.085 38.085 38.082 38.077 38.062 38.037 38.002 37.952 37.885 37.8 37.69 37.547 37.382 37.205 37.01 36.787 36.585 36.417 36.252 36.082 35.907 35.73 35.553 35.38 35.177 34.927 34.65 34.368 34.138 33.952 33.757 33.547 33.338 33.138 32.945 32.758 32.585 32.428 32.272 32.117 31.955 31.785 31.623 31.47 31.3 31.113 30.938 30.777 30.605 30.42 30.248 30.083 29.92 29.757 29.59 29.417 29.23 29.025 28.81 28.593 28.423 28.298 28.178 28.06 27.917 27.758 27.615 27.485 27.347 27.2 27.058 26.925 26.765 26.58 26.41 26.263 26.14 26.035 25.92 25.777 25.625 25.488 25.375 25.27 25.165 25.075 24.995 24.93 24.908 24.907 24.895 24.867 24.797 24.693 24.603 24.538 24.498 24.47 24.445 24.428 24.415 24.392 24.345 24.285 24.212 24.128 24.045 23.97 23.88 23.77 23.66 23.545 23.435 23.34 23.253 23.167 23.075 22.993 22.94 22.895 22.83 22.75 22.65 22.545 22.47 22.415 22.365 22.318 22.3 22.32 22.352 22.377 22.372 22.342 22.3 22.255 22.23 22.22 22.212 22.205 22.18 22.135 22.077 22.01 21.943 21.878 21.82 21.767 21.71 21.658 21.618 21.58 21.535 21.48 21.415 21.34 21.27 21.202 21.12 21.035 20.99 20.983 20.977 20.972 20.962 20.945 20.925 20.905 20.905 20.93 20.96 20.995 21.075 21.197
38.835 38.74 38.673 38.645 38.638 38.65 38.635 38.588 38.543 38.5 38.46 38.417 38.37 38.325 38.282 38.235 38.185 38.133 38.11 38.125 38.148 38.18 38.215 38.242 38.265 38.285 38.295 38.292 38.285 38.275 38.255 38.22 38.172 38.117 38.047 37.94 37.795 37.635 37.47 37.28 37.052 36.81 36.608 36.442 36.275 36.105 35.93 35.753 35.58 35.41 35.205 34.962 34.707 34.435 34.203 34.007 33.797 33.585 33.375 33.168 32.968 32.78 32.61 32.453 32.297 32.14 31.972 31.798 31.625 31.462 31.293 31.118 30.958 30.802 30.635 30.448 30.26 30.085 29.92 29.755 29.58 29.4 29.212 29.015 28.81 28.598 28.428 28.308 28.192 28.077 27.935 27.768 27.61 27.468 27.325 27.175 27.028 26.887 26.728 26.558 26.413 26.278 26.153 26.035 25.9 25.745 25.588 25.433 25.295 25.19 25.105 25.025 24.945 24.87 24.823 24.8 24.775 24.743 24.688 24.61 24.535 24.468 24.423 24.4 24.38 24.363 24.35 24.34 24.317 24.272 24.2 24.118 24.048 23.98 23.89 23.78 23.667 23.553 23.448 23.358 23.275 23.193 23.115 23.06 23.022 22.985 22.925 22.832 22.708 22.598 22.533 22.478 22.425 22.375 22.355 22.368 22.39 22.407 22.397 22.375 22.347 22.308 22.28 22.27 22.26 22.25 22.222 22.18 22.135 22.077 22.007 21.935 21.87 21.813 21.755 21.698 21.645 21.603 21.557 21.495 21.42 21.343 21.273 21.21 21.142 21.065 21.02 21.01 21.003 20.997 20.987 20.967 20.943 20.92 20.92 20.945 20.983 21.025 21.108 21.237
39.165 39.065 39 38.975 38.953 38.942 38.92 38.872 38.822 38.77 38.722 38.677 38.632 38.585 38.535 38.487 38.44 38.388 38.363 38.375 38.39 38.405 38.427 38.45 38.467 38.485 38.492 38.487 38.48 38.465 38.432 38.385 38.335 38.275 38.177 38.035 37.875 37.715 37.537 37.32 37.075 36.833 36.633 36.465 36.295 36.125 35.953 35.78 35.61 35.44 35.235 34.99 34.742 34.49 34.258 34.048 33.835 33.625 33.415 33.205 33 32.808 32.635 32.478 32.323 32.165 31.995 31.818 31.64 31.465 31.298 31.14 30.985 30.83 30.667 30.482 30.285 30.095 29.92 29.745 29.565 29.383 29.195 29 28.803 28.6 28.435 28.32 28.208 28.095 27.955 27.787 27.62 27.465 27.318 27.165 27.013 26.86 26.708 26.563 26.427 26.292 26.16 26.02 25.87 25.715 25.555 25.4 25.25 25.135 25.055 24.975 24.898 24.828 24.78 24.753 24.723 24.688 24.64 24.573 24.498 24.413 24.358 24.343 24.325 24.305 24.29 24.28 24.27 24.25 24.195 24.12 24.053 23.987 23.9 23.79 23.678 23.565 23.468 23.385 23.305 23.23 23.178 23.14 23.102 23.067 23.005 22.892 22.755 22.655 22.598 22.543 22.49 22.435 22.408 22.417 22.432 22.435 22.42 22.4 22.38 22.352 22.327 22.315 22.305 22.295 22.267 22.223 22.18 22.135 22.072 21.998 21.925 21.863 21.805 21.745 21.685 21.635 21.577 21.5 21.42 21.345 21.275 21.21 21.153 21.09 21.05 21.04 21.03 21.022 21.01 20.985 20.96 20.94 20.94 20.968 21.01 21.055 21.14 21.27
39.498 39.395 39.328 39.297 39.267 39.24 39.197 39.14 39.085 39.03 38.98 38.93 38.882 38.827 38.773 38.727 38.68 38.63 38.605 38.612 38.625 38.627 38.625 38.635 38.65 38.665 38.67 38.665 38.652 38.62 38.575 38.525 38.472 38.397 38.26 38.088 37.925 37.765 37.572 37.34 37.098 36.86 36.66 36.49 36.32 36.15 35.98 35.81 35.64 35.47 35.265 35.022 34.775 34.535 34.313 34.098 33.885 33.673 33.46 33.253 33.048 32.85 32.675 32.515 32.358 32.197 32.032 31.86 31.68 31.5 31.335 31.185 31.032 30.87 30.692 30.502 30.305 30.105 29.92 29.745 29.565 29.383 29.193 28.998 28.803 28.608 28.448 28.33 28.22 28.107 27.967 27.8 27.635 27.49 27.345 27.19 27.035 26.865 26.705 26.567 26.432 26.297 26.157 26.008 25.855 25.695 25.528 25.368 25.213 25.09 25.005 24.925 24.855 24.798 24.768 24.76 24.737 24.705 24.655 24.577 24.49 24.368 24.308 24.317 24.3 24.283 24.27 24.26 24.25 24.24 24.2 24.13 24.06 23.99 23.907 23.805 23.695 23.585 23.49 23.41 23.335 23.273 23.23 23.195 23.155 23.12 23.065 22.957 22.823 22.73 22.675 22.62 22.557 22.48 22.44 22.447 22.46 22.455 22.435 22.415 22.395 22.375 22.362 22.357 22.35 22.337 22.31 22.267 22.223 22.188 22.142 22.07 21.995 21.925 21.863 21.805 21.745 21.677 21.595 21.51 21.43 21.36 21.303 21.245 21.19 21.135 21.09 21.068 21.055 21.045 21.03 21.007 20.983 20.965 20.975 21.013 21.058 21.103 21.19 21.323
39.842 39.723 39.638 39.597 39.562 39.527 39.47 39.398 39.335 39.28 39.23 39.177 39.122 39.06 39.005 38.96 38.907 38.855 38.833 38.84 38.845 38.84 38.825 38.818 38.825 38.837 38.842 38.83 38.795 38.745 38.695 38.642 38.575 38.482 38.33 38.135 37.958 37.792 37.595 37.36 37.123 36.89 36.688 36.515 36.347 36.18 36.01 35.84 35.67 35.502 35.3 35.06 34.82 34.59 34.375 34.16 33.945 33.73 33.515 33.308 33.103 32.903 32.725 32.565 32.4 32.228 32.067 31.912 31.742 31.565 31.398 31.245 31.085 30.902 30.705 30.507 30.307 30.1 29.915 29.75 29.577 29.4 29.21 29.013 28.82 28.63 28.468 28.34 28.225 28.112 27.972 27.81 27.663 27.532 27.392 27.24 27.072 26.88 26.708 26.565 26.428 26.292 26.152 26.005 25.857 25.695 25.515 25.34 25.18 25.05 24.955 24.88 24.823 24.775 24.753 24.755 24.745 24.72 24.67 24.59 24.472 24.31 24.255 24.302 24.305 24.288 24.278 24.27 24.262 24.252 24.21 24.14 24.067 23.987 23.907 23.82 23.715 23.605 23.51 23.435 23.37 23.31 23.26 23.223 23.185 23.15 23.102 23.02 22.908 22.82 22.757 22.682 22.595 22.5 22.455 22.46 22.467 22.46 22.44 22.42 22.4 22.38 22.378 22.39 22.392 22.382 22.355 22.315 22.278 22.255 22.22 22.15 22.072 21.995 21.928 21.872 21.802 21.71 21.618 21.535 21.458 21.395 21.352 21.31 21.257 21.203 21.15 21.108 21.083 21.07 21.052 21.03 21.013 21.005 21.028 21.077 21.125 21.17 21.26 21.395
40.177 40.035 39.935 39.888 39.848 39.81 39.752 39.673 39.595 39.53 39.475 39.42 39.357 39.293 39.237 39.187 39.132 39.078 39.055 39.06 39.055 39.045 39.032 39.018 39.01 39.012 39.007 38.975 38.92 38.865 38.812 38.745 38.657 38.56 38.407 38.203 38.005 37.822 37.62 37.388 37.155 36.925 36.718 36.54 36.375 36.21 36.04 35.87 35.7 35.535 35.337 35.103 34.873 34.65 34.435 34.22 34.005 33.79 33.575 33.365 33.16 32.958 32.772 32.605 32.43 32.253 32.095 31.95 31.795 31.627 31.462 31.297 31.112 30.915 30.715 30.51 30.3 30.09 29.905 29.745 29.585 29.415 29.227 29.033 28.845 28.66 28.495 28.36 28.235 28.117 27.98 27.83 27.7 27.575 27.437 27.277 27.087 26.885 26.713 26.568 26.428 26.29 26.148 26.005 25.867 25.707 25.52 25.333 25.158 25.01 24.91 24.848 24.8 24.758 24.74 24.745 24.745 24.732 24.682 24.577 24.415 24.238 24.19 24.257 24.295 24.292 24.283 24.278 24.272 24.262 24.217 24.142 24.065 23.98 23.9 23.822 23.73 23.628 23.535 23.468 23.41 23.35 23.295 23.253 23.215 23.18 23.13 23.06 22.975 22.887 22.802 22.705 22.608 22.513 22.468 22.47 22.47 22.462 22.445 22.425 22.405 22.385 22.385 22.405 22.42 22.422 22.402 22.37 22.348 22.335 22.297 22.225 22.145 22.065 21.995 21.927 21.835 21.73 21.64 21.563 21.49 21.433 21.395 21.365 21.322 21.27 21.22 21.17 21.128 21.1 21.08 21.063 21.055 21.058 21.085 21.137 21.19 21.24 21.333 21.468
40.482 40.33 40.233 40.185 40.137 40.095 40.037 39.955 39.867 39.787 39.717 39.655 39.59 39.525 39.467 39.41 39.355 39.3 39.27 39.267 39.26 39.25 39.235 39.215 39.197 39.182 39.152 39.1 39.043 38.985 38.917 38.83 38.735 38.637 38.48 38.272 38.065 37.862 37.647 37.415 37.185 36.958 36.75 36.57 36.405 36.24 36.07 35.9 35.732 35.567 35.375 35.152 34.93 34.71 34.495 34.28 34.065 33.85 33.635 33.425 33.217 33.005 32.805 32.625 32.447 32.275 32.117 31.97 31.82 31.667 31.505 31.32 31.12 30.92 30.717 30.505 30.287 30.075 29.893 29.735 29.58 29.42 29.245 29.06 28.875 28.69 28.525 28.387 28.255 28.127 27.992 27.855 27.73 27.605 27.47 27.297 27.093 26.89 26.718 26.573 26.43 26.29 26.148 26.01 25.88 25.72 25.533 25.348 25.163 24.998 24.895 24.838 24.785 24.743 24.73 24.735 24.74 24.74 24.672 24.517 24.33 24.165 24.13 24.2 24.263 24.292 24.29 24.285 24.28 24.27 24.227 24.15 24.068 23.98 23.898 23.82 23.735 23.645 23.568 23.508 23.45 23.393 23.338 23.288 23.248 23.213 23.16 23.09 23.017 22.927 22.825 22.725 22.625 22.525 22.478 22.478 22.475 22.467 22.45 22.43 22.41 22.393 22.398 22.423 22.445 22.46 22.455 22.438 22.425 22.412 22.37 22.295 22.215 22.135 22.055 21.963 21.858 21.755 21.668 21.595 21.525 21.468 21.433 21.408 21.378 21.338 21.29 21.243 21.198 21.155 21.13 21.12 21.113 21.115 21.145 21.195 21.25 21.308 21.405 21.542
40.778 40.625 40.525 40.47 40.41 40.352 40.29 40.212 40.125 40.037 39.958 39.89 39.825 39.758 39.69 39.623 39.565 39.51 39.475 39.467 39.46 39.44 39.407 39.377 39.355 39.33 39.287 39.23 39.173 39.112 39.033 38.938 38.842 38.717 38.535 38.325 38.115 37.905 37.675 37.433 37.2 36.973 36.768 36.592 36.427 36.247 36.062 35.89 35.725 35.56 35.37 35.152 34.93 34.71 34.497 34.29 34.082 33.872 33.662 33.45 33.23 33.005 32.795 32.612 32.437 32.265 32.097 31.94 31.792 31.647 31.485 31.295 31.095 30.895 30.69 30.477 30.263 30.06 29.885 29.728 29.572 29.415 29.255 29.082 28.9 28.718 28.55 28.405 28.27 28.137 27.992 27.847 27.717 27.592 27.462 27.305 27.11 26.905 26.74 26.6 26.455 26.315 26.178 26.043 25.908 25.75 25.57 25.39 25.205 25.043 24.945 24.885 24.818 24.745 24.71 24.712 24.717 24.71 24.612 24.43 24.253 24.133 24.13 24.2 24.263 24.297 24.302 24.298 24.292 24.285 24.247 24.175 24.09 24.003 23.923 23.848 23.765 23.68 23.62 23.57 23.513 23.46 23.405 23.35 23.308 23.268 23.2 23.123 23.055 22.965 22.86 22.76 22.655 22.548 22.495 22.495 22.49 22.475 22.455 22.435 22.418 22.423 22.453 22.483 22.508 22.525 22.522 22.507 22.495 22.482 22.437 22.36 22.28 22.197 22.112 22.02 21.918 21.818 21.733 21.66 21.595 21.543 21.51 21.488 21.46 21.423 21.378 21.335 21.293 21.248 21.22 21.21 21.198 21.188 21.21 21.26 21.313 21.378 21.478 21.608
41.08 40.938 40.815 40.718 40.64 40.57 40.505 40.44 40.362 40.275 40.195 40.128 40.062 39.995 39.92 39.84 39.77 39.71 39.675 39.662 39.64 39.602 39.558 39.515 39.485 39.462 39.422 39.365 39.305 39.247 39.17 39.072 38.952 38.78 38.575 38.363 38.15 37.942 37.71 37.455 37.213 36.98 36.778 36.607 36.425 36.215 36.013 35.838 35.672 35.505 35.315 35.092 34.865 34.645 34.435 34.235 34.027 33.812 33.61 33.412 33.195 32.965 32.758 32.577 32.403 32.228 32.05 31.88 31.728 31.58 31.42 31.24 31.045 30.845 30.64 30.43 30.233 30.058 29.89 29.725 29.565 29.408 29.252 29.092 28.92 28.74 28.57 28.418 28.278 28.14 27.983 27.818 27.675 27.548 27.422 27.292 27.13 26.935 26.773 26.642 26.505 26.365 26.23 26.095 25.955 25.8 25.627 25.447 25.263 25.118 25.035 24.965 24.875 24.77 24.695 24.678 24.677 24.647 24.527 24.353 24.225 24.163 24.18 24.247 24.292 24.31 24.315 24.31 24.305 24.3 24.265 24.2 24.122 24.038 23.96 23.892 23.82 23.74 23.685 23.647 23.6 23.548 23.493 23.443 23.398 23.352 23.27 23.168 23.09 23.002 22.9 22.797 22.69 22.583 22.528 22.522 22.51 22.49 22.47 22.45 22.445 22.488 22.547 22.58 22.597 22.605 22.595 22.575 22.558 22.545 22.5 22.42 22.337 22.247 22.165 22.092 22.007 21.912 21.825 21.758 21.708 21.668 21.638 21.612 21.575 21.525 21.483 21.445 21.4 21.355 21.33 21.317 21.295 21.265 21.275 21.328 21.385 21.463 21.56 21.67
41.403 41.272 41.13 40.983 40.865 40.78 40.715 40.655 40.592 40.515 40.435 40.365 40.298 40.232 40.157 40.072 39.99 39.915 39.87 39.845 39.805 39.758 39.71 39.663 39.623 39.595 39.555 39.495 39.438 39.382 39.307 39.185 39.015 38.82 38.615 38.4 38.185 37.977 37.745 37.488 37.235 36.993 36.788 36.6 36.387 36.163 35.958 35.783 35.615 35.447 35.255 35.028 34.798 34.575 34.365 34.155 33.93 33.703 33.503 33.325 33.135 32.923 32.72 32.542 32.368 32.192 32.015 31.838 31.668 31.51 31.35 31.175 30.992 30.797 30.59 30.393 30.223 30.065 29.9 29.73 29.563 29.403 29.247 29.092 28.932 28.757 28.588 28.435 28.288 28.142 27.98 27.805 27.645 27.505 27.38 27.26 27.125 26.955 26.798 26.675 26.55 26.415 26.28 26.145 26.002 25.847 25.68 25.502 25.32 25.193 25.112 25.017 24.91 24.8 24.7 24.648 24.625 24.572 24.453 24.325 24.26 24.22 24.233 24.285 24.31 24.32 24.325 24.32 24.315 24.31 24.275 24.215 24.15 24.07 23.993 23.93 23.867 23.798 23.745 23.715 23.682 23.635 23.583 23.537 23.492 23.45 23.365 23.24 23.133 23.037 22.937 22.83 22.722 22.618 22.56 22.547 22.527 22.505 22.485 22.47 22.495 22.567 22.637 22.672 22.68 22.677 22.665 22.645 22.625 22.607 22.56 22.477 22.387 22.293 22.21 22.142 22.075 21.997 21.925 21.875 21.837 21.802 21.77 21.732 21.682 21.628 21.585 21.55 21.507 21.465 21.437 21.415 21.38 21.34 21.343 21.398 21.47 21.56 21.655 21.753
41.735 41.61 41.465 41.3 41.143 41.013 40.925 40.865 40.807 40.742 40.67 40.6 40.53 40.462 40.385 40.297 40.21 40.123 40.058 40.013 39.967 39.917 39.865 39.82 39.775 39.733 39.685 39.625 39.57 39.515 39.417 39.25 39.055 38.86 38.655 38.44 38.225 38.015 37.78 37.522 37.265 37.01 36.785 36.57 36.343 36.115 35.908 35.73 35.56 35.393 35.195 34.965 34.733 34.503 34.283 34.058 33.825 33.595 33.395 33.223 33.053 32.873 32.685 32.51 32.335 32.16 31.985 31.805 31.625 31.453 31.283 31.105 30.93 30.748 30.558 30.388 30.233 30.078 29.915 29.745 29.573 29.403 29.245 29.09 28.933 28.768 28.605 28.455 28.305 28.15 27.983 27.808 27.635 27.478 27.345 27.225 27.103 26.963 26.825 26.705 26.582 26.455 26.325 26.19 26.047 25.892 25.725 25.552 25.382 25.257 25.16 25.05 24.94 24.827 24.715 24.628 24.565 24.503 24.425 24.36 24.32 24.278 24.275 24.305 24.323 24.335 24.34 24.335 24.328 24.322 24.287 24.225 24.165 24.098 24.03 23.97 23.91 23.85 23.808 23.78 23.755 23.72 23.67 23.622 23.577 23.532 23.447 23.317 23.187 23.072 22.967 22.86 22.752 22.648 22.588 22.567 22.543 22.52 22.5 22.508 22.568 22.65 22.72 22.752 22.755 22.752 22.737 22.715 22.695 22.672 22.615 22.525 22.432 22.337 22.258 22.193 22.13 22.065 22.02 21.992 21.96 21.927 21.887 21.837 21.782 21.728 21.685 21.65 21.61 21.57 21.535 21.5 21.46 21.42 21.42 21.48 21.565 21.657 21.752 21.85
42.005 41.882 41.737 41.572 41.407 41.24 41.113 41.04 40.98 40.922 40.867 40.805 40.735 40.665 40.585 40.495 40.405 40.315 40.24 40.188 40.14 40.085 40.033 39.987 39.94 39.885 39.805 39.72 39.657 39.602 39.485 39.298 39.103 38.905 38.69 38.465 38.25 38.037 37.802 37.545 37.285 37.025 36.795 36.585 36.36 36.13 35.913 35.72 35.545 35.378 35.178 34.945 34.713 34.483 34.253 34.02 33.79 33.565 33.358 33.175 33.008 32.84 32.665 32.49 32.315 32.14 31.975 31.805 31.625 31.445 31.265 31.088 30.913 30.743 30.58 30.425 30.27 30.105 29.938 29.773 29.603 29.43 29.268 29.11 28.953 28.8 28.65 28.5 28.35 28.193 28.028 27.858 27.683 27.515 27.375 27.255 27.133 26.995 26.858 26.735 26.61 26.485 26.357 26.22 26.07 25.905 25.735 25.567 25.407 25.275 25.167 25.06 24.947 24.832 24.72 24.615 24.53 24.485 24.455 24.415 24.375 24.34 24.328 24.338 24.355 24.373 24.38 24.375 24.365 24.347 24.302 24.24 24.178 24.128 24.083 24.025 23.968 23.923 23.895 23.87 23.843 23.807 23.742 23.673 23.622 23.575 23.487 23.357 23.222 23.095 22.987 22.885 22.775 22.673 22.615 22.59 22.565 22.543 22.53 22.56 22.63 22.707 22.775 22.81 22.82 22.825 22.812 22.79 22.765 22.722 22.65 22.56 22.467 22.373 22.3 22.247 22.187 22.123 22.09 22.08 22.055 22.025 21.982 21.927 21.873 21.825 21.788 21.753 21.715 21.68 21.643 21.6 21.56 21.518 21.51 21.57 21.66 21.75 21.843 21.94
42.21 42.09 41.947 41.782 41.612 41.438 41.293 41.193 41.123 41.068 41.02 40.972 40.912 40.842 40.762 40.675 40.585 40.495 40.423 40.37 40.315 40.258 40.208 40.16 40.105 40.04 39.935 39.805 39.71 39.647 39.532 39.35 39.155 38.957 38.735 38.49 38.26 38.042 37.807 37.552 37.295 37.038 36.818 36.627 36.42 36.195 35.97 35.76 35.573 35.402 35.2 34.965 34.738 34.515 34.287 34.055 33.83 33.612 33.393 33.183 33.003 32.835 32.66 32.482 32.305 32.13 31.975 31.825 31.655 31.475 31.298 31.123 30.953 30.795 30.64 30.485 30.322 30.137 29.963 29.807 29.647 29.478 29.313 29.155 29.005 28.868 28.725 28.573 28.42 28.265 28.107 27.947 27.777 27.61 27.47 27.342 27.2 27.04 26.89 26.765 26.64 26.512 26.38 26.232 26.06 25.88 25.71 25.537 25.375 25.245 25.14 25.037 24.927 24.817 24.707 24.603 24.538 24.523 24.505 24.465 24.433 24.418 24.41 24.405 24.413 24.43 24.44 24.435 24.412 24.37 24.315 24.255 24.205 24.18 24.15 24.098 24.053 24.025 24.005 23.98 23.945 23.897 23.815 23.715 23.643 23.592 23.505 23.372 23.233 23.103 23 22.902 22.795 22.7 22.648 22.623 22.603 22.593 22.598 22.623 22.673 22.74 22.805 22.845 22.867 22.887 22.885 22.86 22.815 22.745 22.665 22.582 22.492 22.398 22.333 22.295 22.242 22.18 22.15 22.147 22.135 22.11 22.067 22.013 21.965 21.93 21.895 21.86 21.828 21.8 21.765 21.72 21.677 21.63 21.618 21.668 21.748 21.835 21.925 22.02
42.412 42.295 42.155 41.987 41.807 41.63 41.488 41.375 41.28 41.21 41.16 41.12 41.075 41.015 40.937 40.852 40.765 40.675 40.603 40.545 40.487 40.432 40.38 40.325 40.26 40.19 40.085 39.938 39.8 39.703 39.58 39.4 39.208 39.015 38.795 38.54 38.288 38.053 37.813 37.56 37.305 37.05 36.833 36.65 36.462 36.255 36.035 35.82 35.618 35.43 35.222 34.993 34.77 34.55 34.325 34.098 33.88 33.665 33.44 33.213 33.008 32.83 32.655 32.475 32.295 32.123 31.968 31.825 31.675 31.507 31.335 31.165 31.005 30.855 30.702 30.537 30.352 30.158 29.985 29.835 29.685 29.522 29.358 29.208 29.07 28.94 28.8 28.645 28.488 28.332 28.177 28.022 27.865 27.705 27.557 27.41 27.245 27.073 26.92 26.792 26.665 26.535 26.395 26.23 26.04 25.853 25.675 25.488 25.323 25.203 25.1 24.997 24.892 24.79 24.685 24.6 24.573 24.575 24.555 24.523 24.508 24.505 24.5 24.49 24.485 24.493 24.497 24.48 24.437 24.382 24.325 24.278 24.258 24.25 24.222 24.183 24.155 24.135 24.115 24.082 24.035 23.982 23.9 23.79 23.69 23.615 23.52 23.382 23.238 23.11 23.008 22.912 22.813 22.728 22.683 22.668 22.668 22.678 22.69 22.705 22.73 22.775 22.835 22.877 22.908 22.945 22.95 22.905 22.835 22.758 22.678 22.595 22.512 22.423 22.36 22.33 22.292 22.24 22.21 22.21 22.207 22.192 22.152 22.105 22.07 22.04 22.005 21.973 21.945 21.92 21.887 21.842 21.792 21.74 21.733 21.778 21.84 21.918 22.005 22.09
42.61 42.49 42.345 42.177 42 41.822 41.68 41.57 41.46 41.363 41.3 41.257 41.215 41.167 41.095 41.01 40.927 40.842 40.772 40.715 40.657 40.602 40.545 40.48 40.41 40.34 40.232 40.082 39.927 39.787 39.637 39.455 39.265 39.075 38.852 38.595 38.335 38.08 37.828 37.575 37.32 37.068 36.855 36.675 36.495 36.307 36.102 35.887 35.675 35.475 35.265 35.04 34.818 34.593 34.368 34.148 33.933 33.718 33.495 33.265 33.038 32.83 32.645 32.465 32.285 32.115 31.963 31.823 31.688 31.545 31.388 31.225 31.07 30.92 30.765 30.583 30.378 30.178 30.005 29.858 29.713 29.563 29.41 29.27 29.14 29.01 28.87 28.715 28.555 28.398 28.243 28.09 27.94 27.787 27.625 27.455 27.282 27.108 26.953 26.82 26.69 26.557 26.405 26.22 26.02 25.825 25.633 25.435 25.273 25.16 25.057 24.953 24.85 24.753 24.658 24.605 24.61 24.622 24.613 24.598 24.595 24.595 24.59 24.58 24.57 24.562 24.547 24.507 24.453 24.398 24.353 24.33 24.323 24.315 24.297 24.277 24.262 24.245 24.217 24.172 24.117 24.065 23.987 23.877 23.762 23.655 23.537 23.395 23.248 23.12 23.015 22.92 22.828 22.76 22.738 22.74 22.755 22.77 22.78 22.795 22.813 22.835 22.875 22.918 22.958 23.005 23.005 22.938 22.855 22.778 22.698 22.613 22.53 22.45 22.393 22.36 22.33 22.293 22.268 22.268 22.27 22.265 22.24 22.205 22.175 22.145 22.115 22.087 22.062 22.04 22.007 21.96 21.907 21.853 21.848 21.895 21.95 22.013 22.08 22.143
42.762 42.627 42.475 42.312 42.147 41.977 41.84 41.735 41.622 41.51 41.43 41.382 41.337 41.29 41.22 41.135 41.055 40.975 40.907 40.85 40.79 40.735 40.675 40.605 40.532 40.452 40.335 40.18 40.025 39.87 39.7 39.515 39.322 39.122 38.895 38.64 38.382 38.125 37.865 37.608 37.353 37.11 36.903 36.718 36.538 36.36 36.165 35.95 35.74 35.555 35.355 35.13 34.905 34.668 34.438 34.223 34.008 33.798 33.58 33.35 33.118 32.898 32.705 32.525 32.345 32.173 32.018 31.88 31.748 31.615 31.468 31.305 31.15 31 30.842 30.66 30.455 30.25 30.075 29.928 29.783 29.635 29.49 29.355 29.225 29.095 28.952 28.795 28.635 28.475 28.318 28.165 28.015 27.865 27.69 27.5 27.323 27.15 26.995 26.86 26.727 26.58 26.42 26.237 26.033 25.83 25.63 25.43 25.25 25.12 25.015 24.913 24.818 24.728 24.643 24.61 24.635 24.67 24.687 24.685 24.685 24.682 24.67 24.65 24.632 24.612 24.585 24.542 24.488 24.433 24.403 24.395 24.385 24.378 24.37 24.36 24.35 24.335 24.292 24.232 24.177 24.125 24.05 23.937 23.815 23.695 23.565 23.42 23.273 23.145 23.043 22.95 22.865 22.815 22.81 22.82 22.833 22.85 22.865 22.875 22.89 22.905 22.93 22.973 23.02 23.07 23.062 22.988 22.903 22.82 22.74 22.658 22.575 22.498 22.443 22.41 22.378 22.343 22.325 22.328 22.332 22.332 22.315 22.285 22.255 22.232 22.215 22.19 22.165 22.142 22.112 22.072 22.025 21.97 21.96 22.008 22.062 22.115 22.168 22.22
42.868 42.72 42.565 42.405 42.242 42.075 41.95 41.86 41.75 41.635 41.553 41.5 41.452 41.405 41.335 41.248 41.165 41.085 41.013 40.95 40.89 40.833 40.77 40.7 40.62 40.525 40.397 40.24 40.083 39.927 39.757 39.57 39.367 39.15 38.92 38.675 38.425 38.17 37.91 37.653 37.408 37.18 36.973 36.78 36.595 36.415 36.222 36.013 35.823 35.665 35.477 35.252 35.017 34.765 34.53 34.318 34.108 33.905 33.69 33.46 33.238 33.03 32.838 32.655 32.478 32.305 32.143 31.993 31.853 31.72 31.567 31.398 31.238 31.085 30.93 30.762 30.575 30.373 30.195 30.047 29.897 29.738 29.588 29.452 29.32 29.19 29.045 28.885 28.725 28.563 28.403 28.248 28.095 27.942 27.762 27.56 27.37 27.195 27.043 26.907 26.76 26.59 26.43 26.27 26.077 25.873 25.67 25.47 25.27 25.098 24.978 24.888 24.8 24.715 24.643 24.625 24.67 24.737 24.775 24.775 24.767 24.74 24.707 24.685 24.662 24.635 24.61 24.582 24.54 24.488 24.46 24.455 24.448 24.442 24.435 24.427 24.42 24.405 24.352 24.273 24.208 24.155 24.08 23.97 23.85 23.727 23.595 23.453 23.313 23.19 23.09 23.003 22.928 22.883 22.878 22.89 22.905 22.933 22.955 22.953 22.95 22.963 22.99 23.035 23.085 23.135 23.125 23.05 22.965 22.878 22.798 22.722 22.645 22.565 22.51 22.477 22.44 22.4 22.385 22.392 22.397 22.397 22.38 22.35 22.325 22.315 22.305 22.28 22.255 22.23 22.205 22.18 22.142 22.093 22.08 22.118 22.165 22.218 22.272 22.325
42.968 42.815 42.658 42.495 42.33 42.16 42.038 41.957 41.865 41.758 41.675 41.62 41.57 41.522 41.452 41.365 41.278 41.195 41.12 41.055 40.993 40.93 40.862 40.782 40.69 40.59 40.462 40.305 40.143 39.982 39.81 39.612 39.395 39.168 38.938 38.7 38.46 38.21 37.95 37.703 37.475 37.257 37.05 36.853 36.66 36.473 36.28 36.09 35.928 35.78 35.595 35.365 35.115 34.858 34.625 34.418 34.215 34.015 33.802 33.58 33.37 33.167 32.973 32.79 32.615 32.442 32.275 32.115 31.963 31.825 31.672 31.498 31.328 31.17 31.012 30.85 30.682 30.493 30.315 30.165 30.005 29.835 29.683 29.548 29.415 29.285 29.137 28.975 28.815 28.65 28.488 28.332 28.177 28.02 27.837 27.633 27.43 27.243 27.087 26.937 26.765 26.585 26.425 26.282 26.115 25.918 25.715 25.523 25.338 25.155 25.003 24.885 24.788 24.705 24.648 24.658 24.733 24.822 24.865 24.85 24.81 24.75 24.705 24.695 24.682 24.657 24.633 24.61 24.582 24.543 24.52 24.515 24.51 24.505 24.498 24.492 24.485 24.472 24.42 24.328 24.243 24.18 24.102 23.995 23.882 23.762 23.63 23.493 23.36 23.24 23.143 23.065 23 22.953 22.945 22.968 22.995 23.027 23.05 23.04 23.02 23.023 23.053 23.1 23.147 23.195 23.185 23.107 23.02 22.933 22.855 22.785 22.712 22.635 22.578 22.54 22.497 22.458 22.445 22.455 22.46 22.46 22.448 22.425 22.41 22.402 22.39 22.368 22.343 22.318 22.295 22.275 22.25 22.215 22.21 22.24 22.275 22.323 22.375 22.428
43.085 42.917 42.75 42.585 42.42 42.25 42.123 42.04 41.96 41.873 41.798 41.743 41.69 41.637 41.568 41.48 41.39 41.305 41.23 41.162 41.095 41.03 40.955 40.86 40.758 40.655 40.527 40.37 40.208 40.045 39.862 39.648 39.423 39.193 38.96 38.725 38.488 38.245 38 37.77 37.55 37.332 37.127 36.93 36.732 36.537 36.353 36.188 36.035 35.885 35.697 35.457 35.2 34.945 34.718 34.517 34.32 34.122 33.917 33.707 33.502 33.297 33.105 32.925 32.747 32.572 32.405 32.245 32.085 31.932 31.775 31.602 31.428 31.26 31.097 30.935 30.772 30.6 30.43 30.27 30.105 29.935 29.78 29.645 29.51 29.372 29.222 29.06 28.9 28.735 28.57 28.415 28.26 28.097 27.912 27.707 27.5 27.297 27.117 26.942 26.76 26.58 26.42 26.285 26.142 25.977 25.798 25.62 25.45 25.283 25.115 24.953 24.815 24.705 24.665 24.72 24.815 24.907 24.932 24.883 24.815 24.745 24.698 24.69 24.69 24.678 24.658 24.635 24.615 24.593 24.577 24.572 24.57 24.567 24.562 24.555 24.545 24.535 24.485 24.392 24.298 24.215 24.125 24.015 23.905 23.792 23.668 23.538 23.41 23.293 23.203 23.135 23.073 23.028 23.028 23.06 23.095 23.125 23.142 23.13 23.105 23.093 23.115 23.165 23.213 23.26 23.247 23.165 23.075 22.99 22.915 22.845 22.775 22.703 22.643 22.6 22.555 22.515 22.505 22.515 22.523 22.528 22.523 22.51 22.5 22.49 22.475 22.455 22.43 22.405 22.388 22.373 22.358 22.34 22.345 22.375 22.403 22.435 22.48 22.535
43.19 43.013 42.85 42.692 42.525 42.358 42.228 42.14 42.063 41.988 41.923 41.868 41.813 41.765 41.703 41.62 41.538 41.443 41.348 41.265 41.193 41.127 41.047 40.95 40.845 40.73 40.592 40.435 40.272 40.11 39.922 39.7 39.473 39.237 39 38.765 38.525 38.29 38.055 37.825 37.605 37.385 37.177 36.98 36.782 36.593 36.425 36.272 36.12 35.97 35.78 35.535 35.275 35.018 34.793 34.597 34.402 34.207 34.007 33.802 33.597 33.392 33.2 33.02 32.845 32.677 32.515 32.355 32.195 32.035 31.87 31.7 31.525 31.35 31.18 31.015 30.85 30.685 30.525 30.365 30.2 30.03 29.868 29.722 29.582 29.44 29.29 29.13 28.97 28.805 28.63 28.462 28.307 28.145 27.955 27.745 27.535 27.325 27.128 26.945 26.763 26.59 26.435 26.295 26.167 26.04 25.902 25.75 25.585 25.417 25.252 25.085 24.918 24.778 24.765 24.863 24.957 25.005 24.99 24.935 24.865 24.793 24.745 24.735 24.733 24.718 24.695 24.675 24.655 24.635 24.622 24.617 24.615 24.615 24.61 24.6 24.592 24.585 24.535 24.445 24.352 24.255 24.15 24.04 23.93 23.828 23.712 23.58 23.453 23.34 23.255 23.19 23.14 23.12 23.135 23.168 23.2 23.232 23.247 23.233 23.21 23.188 23.19 23.23 23.28 23.327 23.312 23.232 23.145 23.058 22.983 22.915 22.845 22.778 22.72 22.673 22.628 22.59 22.58 22.588 22.595 22.608 22.61 22.602 22.595 22.585 22.57 22.55 22.525 22.5 22.495 22.497 22.49 22.483 22.493 22.52 22.542 22.558 22.593 22.647
43.272 43.098 42.95 42.81 42.65 42.483 42.353 42.265 42.188 42.113 42.048 41.993 41.948 41.92 41.872 41.797 41.71 41.595 41.48 41.383 41.295 41.22 41.142 41.047 40.932 40.8 40.655 40.5 40.337 40.175 39.987 39.765 39.532 39.29 39.05 38.815 38.58 38.355 38.115 37.865 37.633 37.413 37.205 37.005 36.815 36.64 36.48 36.332 36.185 36.035 35.847 35.605 35.345 35.085 34.858 34.662 34.467 34.272 34.072 33.865 33.66 33.455 33.26 33.083 32.918 32.763 32.605 32.445 32.285 32.127 31.962 31.79 31.618 31.445 31.268 31.088 30.918 30.755 30.6 30.45 30.29 30.122 29.953 29.788 29.64 29.5 29.35 29.188 29.025 28.862 28.678 28.488 28.323 28.16 27.965 27.75 27.54 27.33 27.133 26.95 26.778 26.628 26.48 26.328 26.193 26.075 25.962 25.837 25.7 25.55 25.387 25.223 25.065 24.95 24.968 25.062 25.105 25.08 25.042 25.015 24.96 24.888 24.845 24.835 24.815 24.777 24.745 24.725 24.7 24.673 24.658 24.653 24.65 24.647 24.643 24.635 24.628 24.622 24.577 24.49 24.395 24.29 24.18 24.073 23.97 23.877 23.765 23.625 23.49 23.378 23.3 23.253 23.233 23.235 23.255 23.285 23.315 23.347 23.362 23.35 23.33 23.308 23.295 23.31 23.35 23.39 23.37 23.297 23.217 23.133 23.06 22.997 22.93 22.863 22.808 22.76 22.713 22.675 22.665 22.673 22.683 22.697 22.702 22.698 22.69 22.68 22.665 22.647 22.627 22.605 22.61 22.63 22.635 22.635 22.645 22.665 22.677 22.68 22.708 22.76
43.345 43.183 43.035 42.905 42.765 42.608 42.483 42.397 42.315 42.238 42.173 42.13 42.105 42.09 42.055 41.975 41.862 41.735 41.62 41.52 41.42 41.328 41.24 41.132 41 40.86 40.712 40.557 40.4 40.24 40.05 39.822 39.585 39.34 39.1 38.87 38.645 38.425 38.185 37.925 37.673 37.44 37.233 37.043 36.865 36.695 36.533 36.385 36.242 36.097 35.915 35.672 35.41 35.15 34.923 34.728 34.533 34.338 34.135 33.928 33.722 33.515 33.323 33.155 33 32.85 32.695 32.535 32.378 32.222 32.055 31.883 31.715 31.545 31.365 31.173 30.99 30.825 30.67 30.525 30.375 30.215 30.045 29.87 29.708 29.558 29.405 29.243 29.08 28.917 28.732 28.533 28.348 28.172 27.975 27.76 27.548 27.335 27.138 26.965 26.818 26.685 26.537 26.373 26.22 26.095 25.985 25.872 25.76 25.637 25.5 25.362 25.243 25.168 25.177 25.205 25.175 25.12 25.08 25.065 25.037 24.982 24.943 24.92 24.88 24.83 24.795 24.772 24.74 24.71 24.695 24.69 24.688 24.683 24.677 24.67 24.662 24.657 24.617 24.532 24.43 24.32 24.213 24.113 24.02 23.93 23.817 23.678 23.535 23.425 23.37 23.353 23.348 23.353 23.375 23.405 23.435 23.465 23.477 23.467 23.45 23.43 23.415 23.41 23.428 23.45 23.422 23.355 23.282 23.205 23.135 23.077 23.017 22.95 22.893 22.847 22.8 22.76 22.75 22.76 22.775 22.79 22.797 22.795 22.782 22.77 22.757 22.743 22.728 22.713 22.72 22.747 22.767 22.78 22.79 22.797 22.8 22.8 22.825 22.888
43.395 43.255 43.115 42.985 42.855 42.717 42.605 42.522 42.44 42.362 42.308 42.282 42.265 42.247 42.21 42.12 41.997 41.872 41.757 41.652 41.547 41.445 41.337 41.207 41.063 40.92 40.77 40.615 40.46 40.302 40.112 39.877 39.635 39.393 39.158 38.935 38.715 38.495 38.255 37.995 37.733 37.48 37.27 37.095 36.923 36.75 36.588 36.44 36.3 36.16 35.985 35.745 35.48 35.22 34.993 34.798 34.603 34.408 34.205 33.998 33.79 33.583 33.4 33.245 33.095 32.945 32.79 32.63 32.472 32.312 32.142 31.975 31.81 31.64 31.46 31.267 31.075 30.898 30.74 30.592 30.447 30.297 30.132 29.957 29.785 29.62 29.46 29.297 29.135 28.97 28.785 28.585 28.388 28.192 27.985 27.77 27.555 27.34 27.153 27.003 26.872 26.745 26.595 26.423 26.255 26.12 26.013 25.905 25.795 25.685 25.575 25.477 25.402 25.347 25.315 25.275 25.218 25.16 25.118 25.1 25.087 25.062 25.027 24.985 24.935 24.885 24.845 24.813 24.775 24.745 24.733 24.73 24.725 24.72 24.712 24.7 24.695 24.69 24.65 24.562 24.457 24.353 24.253 24.16 24.073 23.985 23.875 23.74 23.605 23.505 23.468 23.465 23.463 23.47 23.495 23.523 23.55 23.58 23.59 23.58 23.568 23.553 23.54 23.53 23.528 23.52 23.477 23.41 23.343 23.273 23.205 23.15 23.095 23.035 22.98 22.935 22.89 22.85 22.84 22.85 22.865 22.88 22.89 22.89 22.875 22.86 22.85 22.838 22.825 22.815 22.823 22.847 22.87 22.892 22.915 22.925 22.923 22.92 22.953 23.032
43.445 43.315 43.19 43.065 42.935 42.805 42.7 42.62 42.54 42.468 42.425 42.402 42.38 42.36 42.315 42.22 42.1 41.98 41.865 41.757 41.65 41.542 41.427 41.29 41.14 40.987 40.833 40.678 40.522 40.362 40.165 39.927 39.685 39.45 39.225 39.005 38.785 38.562 38.32 38.06 37.798 37.548 37.34 37.163 36.988 36.815 36.653 36.505 36.365 36.225 36.057 35.832 35.575 35.315 35.085 34.89 34.695 34.5 34.3 34.09 33.883 33.685 33.515 33.365 33.215 33.052 32.885 32.725 32.562 32.395 32.225 32.057 31.89 31.72 31.54 31.347 31.15 30.96 30.798 30.65 30.502 30.345 30.177 30.007 29.835 29.665 29.502 29.342 29.18 29.015 28.83 28.63 28.43 28.222 28.003 27.783 27.568 27.353 27.175 27.042 26.917 26.79 26.64 26.465 26.298 26.168 26.063 25.958 25.85 25.743 25.635 25.553 25.502 25.455 25.4 25.34 25.283 25.228 25.183 25.158 25.148 25.14 25.11 25.06 25.01 24.963 24.92 24.88 24.838 24.8 24.785 24.785 24.78 24.767 24.745 24.725 24.717 24.712 24.672 24.58 24.475 24.383 24.295 24.207 24.122 24.037 23.945 23.833 23.71 23.613 23.575 23.575 23.575 23.593 23.635 23.673 23.7 23.73 23.74 23.73 23.715 23.693 23.675 23.665 23.645 23.6 23.537 23.47 23.403 23.338 23.275 23.218 23.165 23.125 23.085 23.035 22.985 22.945 22.933 22.943 22.96 22.975 22.985 22.982 22.968 22.958 22.95 22.94 22.93 22.918 22.913 22.925 22.942 22.965 23.01 23.047 23.052 23.048 23.073 23.14
43.505 43.375 43.255 43.14 43.015 42.885 42.78 42.7 42.625 42.56 42.518 42.49 42.465 42.445 42.397 42.297 42.175 42.055 41.943 41.842 41.74 41.63 41.512 41.375 41.222 41.06 40.9 40.745 40.582 40.41 40.207 39.975 39.74 39.515 39.295 39.075 38.853 38.627 38.382 38.123 37.873 37.64 37.435 37.248 37.068 36.893 36.728 36.578 36.435 36.295 36.13 35.922 35.682 35.425 35.195 35 34.805 34.61 34.41 34.203 34.005 33.823 33.658 33.505 33.342 33.157 32.978 32.815 32.647 32.472 32.3 32.13 31.96 31.787 31.605 31.412 31.212 31.013 30.843 30.695 30.535 30.355 30.18 30.02 29.855 29.685 29.525 29.372 29.217 29.055 28.87 28.67 28.47 28.26 28.033 27.803 27.583 27.368 27.198 27.075 26.95 26.82 26.67 26.5 26.35 26.23 26.123 26.02 25.915 25.807 25.703 25.625 25.58 25.537 25.485 25.425 25.37 25.323 25.283 25.253 25.235 25.225 25.195 25.145 25.098 25.058 25.02 24.977 24.927 24.878 24.855 24.852 24.84 24.815 24.783 24.753 24.733 24.725 24.685 24.59 24.493 24.415 24.337 24.252 24.165 24.085 24.02 23.94 23.83 23.728 23.685 23.685 23.683 23.703 23.77 23.847 23.895 23.922 23.93 23.915 23.885 23.845 23.817 23.797 23.747 23.67 23.6 23.535 23.467 23.403 23.34 23.285 23.248 23.23 23.2 23.148 23.105 23.08 23.063 23.055 23.063 23.075 23.085 23.083 23.073 23.07 23.065 23.055 23.045 23.03 23.01 23 23.008 23.03 23.083 23.147 23.18 23.183 23.195 23.235
43.565 43.435 43.315 43.205 43.087 42.963 42.86 42.785 42.72 42.66 42.615 42.585 42.558 42.532 42.477 42.373 42.25 42.13 42.02 41.923 41.825 41.72 41.6 41.457 41.297 41.13 40.967 40.805 40.63 40.45 40.252 40.028 39.803 39.585 39.365 39.142 38.917 38.692 38.447 38.198 37.968 37.743 37.535 37.345 37.158 36.973 36.803 36.653 36.51 36.37 36.2 35.995 35.775 35.533 35.308 35.112 34.915 34.72 34.525 34.33 34.145 33.967 33.8 33.632 33.447 33.253 33.07 32.9 32.725 32.545 32.37 32.2 32.027 31.85 31.667 31.477 31.275 31.068 30.888 30.727 30.547 30.355 30.183 30.028 29.87 29.705 29.545 29.398 29.25 29.092 28.91 28.71 28.51 28.3 28.07 27.833 27.6 27.383 27.22 27.1 26.977 26.85 26.702 26.548 26.413 26.29 26.18 26.08 25.977 25.873 25.775 25.708 25.665 25.622 25.57 25.513 25.465 25.425 25.388 25.355 25.328 25.308 25.277 25.233 25.19 25.155 25.12 25.07 25.01 24.953 24.923 24.91 24.885 24.855 24.825 24.79 24.755 24.737 24.695 24.608 24.525 24.455 24.38 24.295 24.213 24.143 24.085 24.025 23.94 23.843 23.793 23.79 23.785 23.8 23.873 23.977 24.065 24.115 24.115 24.08 24.035 23.99 23.955 23.905 23.82 23.73 23.66 23.595 23.53 23.468 23.408 23.368 23.35 23.34 23.315 23.28 23.26 23.252 23.237 23.213 23.198 23.193 23.19 23.188 23.185 23.185 23.182 23.175 23.165 23.152 23.127 23.095 23.08 23.098 23.15 23.222 23.285 23.312 23.33 23.36
43.625 43.495 43.375 43.262 43.147 43.03 42.935 42.872 42.817 42.76 42.715 42.685 42.655 42.625 42.565 42.46 42.338 42.213 42.1 42 41.903 41.805 41.685 41.532 41.365 41.195 41.025 40.85 40.67 40.49 40.3 40.087 39.867 39.65 39.43 39.205 38.977 38.752 38.52 38.287 38.065 37.842 37.632 37.44 37.25 37.06 36.885 36.733 36.59 36.447 36.273 36.065 35.855 35.633 35.42 35.225 35.025 34.828 34.64 34.46 34.282 34.105 33.927 33.742 33.548 33.353 33.163 32.98 32.8 32.62 32.443 32.268 32.093 31.915 31.735 31.542 31.333 31.12 30.928 30.75 30.563 30.373 30.203 30.045 29.888 29.728 29.573 29.43 29.285 29.135 28.958 28.755 28.553 28.343 28.115 27.875 27.635 27.415 27.25 27.125 27.005 26.88 26.743 26.605 26.475 26.35 26.24 26.14 26.04 25.935 25.845 25.79 25.75 25.708 25.658 25.608 25.568 25.53 25.493 25.46 25.43 25.397 25.362 25.325 25.285 25.247 25.207 25.152 25.09 25.03 24.99 24.965 24.935 24.905 24.87 24.833 24.795 24.763 24.713 24.638 24.565 24.493 24.418 24.34 24.27 24.205 24.145 24.093 24.03 23.948 23.898 23.893 23.888 23.9 23.968 24.075 24.187 24.275 24.28 24.23 24.18 24.127 24.065 23.98 23.883 23.793 23.72 23.655 23.593 23.535 23.493 23.475 23.465 23.455 23.443 23.43 23.42 23.412 23.397 23.372 23.35 23.328 23.31 23.305 23.305 23.303 23.298 23.29 23.282 23.275 23.25 23.21 23.178 23.175 23.22 23.293 23.367 23.42 23.445 23.467
43.66 43.535 43.42 43.307 43.192 43.078 42.99 42.935 42.885 42.84 42.81 42.785 42.755 42.727 42.67 42.562 42.438 42.313 42.198 42.095 41.997 41.887 41.747 41.585 41.415 41.242 41.062 40.88 40.7 40.52 40.335 40.132 39.915 39.695 39.477 39.257 39.03 38.803 38.582 38.362 38.14 37.92 37.715 37.527 37.34 37.148 36.97 36.818 36.675 36.543 36.382 36.18 35.97 35.753 35.535 35.33 35.13 34.933 34.75 34.575 34.4 34.225 34.04 33.85 33.658 33.463 33.263 33.065 32.88 32.7 32.52 32.34 32.163 31.988 31.807 31.615 31.408 31.193 30.995 30.815 30.633 30.45 30.28 30.12 29.958 29.793 29.64 29.5 29.355 29.208 29.032 28.828 28.62 28.402 28.17 27.93 27.695 27.49 27.33 27.198 27.073 26.945 26.818 26.69 26.563 26.438 26.335 26.243 26.14 26.038 25.955 25.903 25.858 25.81 25.763 25.718 25.675 25.635 25.598 25.56 25.522 25.48 25.44 25.407 25.37 25.33 25.282 25.222 25.16 25.1 25.06 25.038 25.01 24.978 24.933 24.885 24.848 24.81 24.765 24.705 24.635 24.56 24.485 24.42 24.355 24.288 24.233 24.183 24.125 24.058 24.015 24.003 23.993 23.998 24.063 24.18 24.305 24.415 24.432 24.38 24.327 24.257 24.165 24.065 23.968 23.88 23.81 23.75 23.693 23.635 23.603 23.597 23.59 23.58 23.577 23.575 23.565 23.555 23.535 23.508 23.485 23.463 23.445 23.44 23.437 23.427 23.415 23.405 23.397 23.387 23.362 23.325 23.293 23.28 23.31 23.38 23.455 23.515 23.525 23.518
43.675 43.558 43.445 43.337 43.225 43.11 43.028 42.975 42.933 42.908 42.895 42.88 42.857 42.832 42.775 42.667 42.545 42.425 42.312 42.207 42.092 41.95 41.787 41.62 41.45 41.277 41.092 40.903 40.72 40.54 40.352 40.15 39.937 39.72 39.507 39.297 39.077 38.85 38.63 38.417 38.2 37.98 37.783 37.607 37.425 37.233 37.055 36.905 36.778 36.67 36.527 36.33 36.115 35.892 35.663 35.438 35.23 35.035 34.855 34.683 34.51 34.335 34.15 33.96 33.77 33.577 33.375 33.165 32.965 32.783 32.603 32.42 32.24 32.063 31.882 31.695 31.497 31.288 31.095 30.925 30.75 30.57 30.398 30.235 30.07 29.9 29.743 29.6 29.455 29.305 29.127 28.922 28.705 28.47 28.23 27.995 27.783 27.603 27.45 27.315 27.183 27.05 26.928 26.81 26.688 26.563 26.473 26.402 26.31 26.208 26.128 26.075 26.02 25.96 25.91 25.865 25.818 25.775 25.718 25.648 25.595 25.55 25.51 25.48 25.447 25.41 25.357 25.29 25.223 25.163 25.13 25.117 25.097 25.062 25.01 24.953 24.905 24.868 24.835 24.797 24.74 24.665 24.593 24.54 24.485 24.418 24.368 24.328 24.278 24.22 24.18 24.16 24.14 24.133 24.188 24.305 24.44 24.562 24.587 24.532 24.465 24.375 24.275 24.175 24.08 24 23.935 23.88 23.822 23.76 23.728 23.725 23.72 23.71 23.71 23.712 23.707 23.7 23.677 23.645 23.618 23.595 23.58 23.575 23.567 23.55 23.535 23.525 23.512 23.495 23.47 23.438 23.413 23.405 23.43 23.488 23.555 23.617 23.61 23.56
43.698 43.58 43.468 43.362 43.255 43.145 43.065 43.025 43.003 42.988 42.975 42.965 42.952 42.932 42.877 42.775 42.655 42.535 42.417 42.292 42.145 41.985 41.822 41.655 41.485 41.312 41.127 40.933 40.74 40.555 40.365 40.163 39.955 39.743 39.533 39.328 39.117 38.897 38.68 38.47 38.257 38.04 37.845 37.675 37.5 37.315 37.143 37.008 36.905 36.81 36.672 36.475 36.252 36.027 35.798 35.563 35.338 35.135 34.955 34.785 34.618 34.445 34.26 34.07 33.882 33.692 33.49 33.275 33.063 32.87 32.687 32.503 32.32 32.14 31.957 31.77 31.58 31.38 31.193 31.027 30.86 30.685 30.513 30.347 30.177 30.005 29.848 29.7 29.55 29.4 29.222 29.01 28.777 28.535 28.295 28.078 27.898 27.73 27.573 27.432 27.295 27.158 27.038 26.93 26.817 26.698 26.61 26.557 26.492 26.402 26.323 26.267 26.207 26.143 26.09 26.045 25.995 25.942 25.865 25.77 25.688 25.623 25.58 25.55 25.52 25.485 25.43 25.36 25.29 25.23 25.2 25.19 25.18 25.15 25.092 25.03 24.973 24.925 24.893 24.87 24.835 24.772 24.708 24.665 24.625 24.568 24.523 24.495 24.46 24.415 24.378 24.355 24.33 24.318 24.365 24.465 24.585 24.707 24.74 24.675 24.585 24.483 24.38 24.285 24.203 24.13 24.065 24.007 23.947 23.885 23.853 23.85 23.847 23.84 23.84 23.845 23.847 23.845 23.82 23.785 23.755 23.728 23.713 23.705 23.69 23.67 23.655 23.642 23.625 23.605 23.58 23.555 23.543 23.538 23.56 23.608 23.66 23.72 23.715 23.645
43.72 43.6 43.49 43.385 43.28 43.183 43.12 43.098 43.085 43.07 43.058 43.05 43.04 43.027 42.98 42.877 42.752 42.627 42.492 42.34 42.18 42.02 41.858 41.69 41.52 41.347 41.162 40.967 40.77 40.578 40.385 40.185 39.983 39.775 39.568 39.365 39.16 38.948 38.735 38.525 38.313 38.1 37.91 37.74 37.57 37.395 37.243 37.132 37.04 36.945 36.81 36.612 36.387 36.162 35.932 35.697 35.465 35.245 35.055 34.888 34.722 34.552 34.37 34.18 33.992 33.802 33.6 33.387 33.172 32.963 32.77 32.585 32.4 32.22 32.035 31.845 31.657 31.465 31.285 31.122 30.96 30.795 30.625 30.455 30.28 30.105 29.947 29.797 29.645 29.495 29.312 29.082 28.84 28.6 28.375 28.185 28.017 27.847 27.682 27.537 27.4 27.262 27.142 27.037 26.932 26.822 26.738 26.685 26.635 26.572 26.505 26.445 26.385 26.322 26.262 26.205 26.145 26.08 26 25.905 25.805 25.718 25.66 25.625 25.595 25.56 25.503 25.43 25.36 25.3 25.27 25.265 25.262 25.235 25.177 25.113 25.05 24.993 24.955 24.933 24.905 24.868 24.823 24.785 24.753 24.713 24.68 24.655 24.628 24.598 24.575 24.558 24.53 24.52 24.568 24.655 24.753 24.86 24.88 24.795 24.695 24.593 24.49 24.403 24.333 24.265 24.198 24.133 24.07 24.01 23.978 23.975 23.973 23.968 23.97 23.975 23.98 23.982 23.96 23.925 23.895 23.865 23.845 23.83 23.81 23.79 23.773 23.755 23.735 23.718 23.7 23.685 23.678 23.673 23.693 23.735 23.78 23.827 23.815 23.745
43.755 43.64 43.543 43.448 43.345 43.255 43.208 43.193 43.178 43.163 43.148 43.135 43.127 43.12 43.07 42.955 42.82 42.69 42.545 42.385 42.225 42.07 41.905 41.728 41.555 41.385 41.202 41.008 40.815 40.63 40.44 40.24 40.038 39.833 39.633 39.435 39.233 39.025 38.813 38.6 38.388 38.183 38.003 37.835 37.665 37.495 37.34 37.222 37.127 37.032 36.907 36.727 36.512 36.287 36.057 35.825 35.592 35.36 35.158 34.987 34.82 34.65 34.47 34.28 34.09 33.9 33.697 33.482 33.265 33.048 32.848 32.662 32.478 32.297 32.112 31.92 31.73 31.543 31.365 31.2 31.04 30.877 30.71 30.537 30.362 30.187 30.025 29.875 29.727 29.572 29.382 29.152 28.91 28.67 28.46 28.282 28.11 27.935 27.768 27.622 27.485 27.347 27.227 27.122 27.017 26.915 26.837 26.785 26.735 26.687 26.63 26.565 26.505 26.445 26.39 26.33 26.26 26.19 26.11 26.015 25.92 25.835 25.768 25.723 25.69 25.655 25.595 25.52 25.448 25.385 25.358 25.36 25.355 25.32 25.265 25.2 25.135 25.093 25.068 25.043 25.015 24.988 24.96 24.928 24.895 24.865 24.845 24.825 24.8 24.775 24.77 24.772 24.75 24.738 24.783 24.868 24.955 25.022 25.005 24.915 24.815 24.715 24.618 24.538 24.473 24.408 24.34 24.27 24.203 24.143 24.115 24.115 24.113 24.108 24.11 24.118 24.123 24.12 24.097 24.063 24.03 24 23.978 23.96 23.943 23.925 23.905 23.885 23.865 23.848 23.835 23.828 23.82 23.815 23.838 23.883 23.925 23.94 23.905 23.84
43.81 43.705 43.623 43.547 43.455 43.363 43.313 43.298 43.283 43.268 43.248 43.225 43.213 43.207 43.152 43.022 42.875 42.74 42.595 42.435 42.283 42.14 41.975 41.785 41.603 41.43 41.247 41.058 40.878 40.702 40.517 40.32 40.115 39.908 39.713 39.522 39.325 39.12 38.908 38.695 38.488 38.29 38.115 37.952 37.785 37.615 37.438 37.285 37.175 37.077 36.96 36.807 36.62 36.402 36.173 35.94 35.708 35.475 35.268 35.085 34.913 34.745 34.562 34.368 34.175 33.985 33.782 33.563 33.34 33.123 32.923 32.737 32.553 32.375 32.19 31.993 31.8 31.615 31.435 31.263 31.1 30.935 30.77 30.602 30.427 30.253 30.09 29.94 29.787 29.62 29.427 29.215 28.987 28.75 28.538 28.355 28.18 28.005 27.84 27.695 27.555 27.415 27.293 27.188 27.085 26.988 26.913 26.86 26.813 26.772 26.715 26.643 26.58 26.52 26.475 26.432 26.37 26.3 26.22 26.125 26.035 25.958 25.893 25.84 25.8 25.765 25.705 25.63 25.558 25.493 25.468 25.467 25.447 25.407 25.352 25.288 25.243 25.235 25.225 25.2 25.172 25.138 25.112 25.09 25.057 25.028 25.012 25 24.98 24.958 24.958 24.975 24.97 24.96 25.005 25.09 25.147 25.155 25.115 25.042 24.95 24.85 24.758 24.685 24.62 24.555 24.49 24.42 24.353 24.298 24.273 24.27 24.27 24.265 24.265 24.275 24.275 24.257 24.23 24.197 24.165 24.135 24.115 24.102 24.087 24.07 24.05 24.03 24.012 23.995 23.98 23.973 23.97 23.973 24 24.047 24.062 24.03 23.98 23.925
43.878 43.78 43.698 43.632 43.557 43.47 43.418 43.403 43.388 43.373 43.352 43.328 43.308 43.297 43.237 43.1 42.943 42.795 42.648 42.498 42.358 42.22 42.055 41.86 41.668 41.485 41.3 41.12 40.95 40.777 40.595 40.397 40.19 39.983 39.788 39.602 39.412 39.212 39.005 38.798 38.595 38.4 38.225 38.065 37.9 37.732 37.557 37.38 37.235 37.12 36.997 36.86 36.707 36.515 36.287 36.055 35.825 35.595 35.385 35.195 35.013 34.84 34.655 34.458 34.263 34.07 33.867 33.645 33.418 33.195 32.995 32.813 32.63 32.455 32.27 32.07 31.875 31.688 31.505 31.33 31.163 30.995 30.83 30.665 30.492 30.318 30.157 30.002 29.832 29.657 29.465 29.257 29.047 28.825 28.613 28.428 28.252 28.075 27.913 27.767 27.625 27.483 27.358 27.255 27.158 27.063 26.985 26.935 26.895 26.86 26.805 26.728 26.658 26.598 26.553 26.517 26.472 26.41 26.33 26.24 26.16 26.085 26.02 25.965 25.915 25.875 25.817 25.745 25.675 25.61 25.58 25.567 25.535 25.495 25.44 25.393 25.385 25.395 25.385 25.355 25.322 25.285 25.258 25.242 25.22 25.193 25.175 25.167 25.157 25.14 25.14 25.162 25.177 25.18 25.22 25.275 25.28 25.255 25.215 25.155 25.08 24.99 24.903 24.833 24.767 24.702 24.638 24.573 24.513 24.465 24.44 24.435 24.433 24.428 24.43 24.43 24.415 24.392 24.363 24.33 24.3 24.27 24.25 24.24 24.227 24.21 24.193 24.175 24.158 24.142 24.13 24.125 24.13 24.14 24.167 24.187 24.157 24.103 24.05 24
43.945 43.852 43.772 43.707 43.642 43.57 43.523 43.507 43.492 43.477 43.457 43.435 43.412 43.392 43.322 43.18 43.02 42.863 42.713 42.573 42.437 42.3 42.132 41.938 41.745 41.553 41.368 41.195 41.025 40.855 40.672 40.47 40.263 40.058 39.863 39.678 39.493 39.305 39.108 38.905 38.708 38.513 38.335 38.175 38.013 37.847 37.675 37.493 37.318 37.168 37.035 36.9 36.765 36.61 36.402 36.17 35.94 35.71 35.5 35.31 35.12 34.935 34.747 34.552 34.355 34.16 33.955 33.73 33.5 33.275 33.075 32.895 32.715 32.537 32.35 32.15 31.955 31.763 31.578 31.403 31.23 31.058 30.888 30.722 30.555 30.382 30.215 30.047 29.87 29.693 29.503 29.298 29.095 28.89 28.688 28.503 28.328 28.15 27.988 27.84 27.695 27.55 27.425 27.328 27.233 27.135 27.06 27.018 26.983 26.947 26.892 26.815 26.74 26.678 26.63 26.595 26.56 26.512 26.443 26.363 26.288 26.213 26.148 26.092 26.04 25.99 25.932 25.865 25.795 25.73 25.688 25.658 25.62 25.58 25.545 25.535 25.545 25.555 25.542 25.505 25.47 25.435 25.405 25.388 25.373 25.355 25.34 25.333 25.328 25.318 25.323 25.348 25.37 25.388 25.405 25.403 25.38 25.355 25.315 25.255 25.19 25.12 25.045 24.978 24.915 24.85 24.785 24.73 24.68 24.635 24.61 24.603 24.598 24.593 24.587 24.573 24.55 24.53 24.5 24.465 24.435 24.405 24.385 24.375 24.365 24.35 24.335 24.32 24.302 24.288 24.28 24.285 24.297 24.31 24.31 24.28 24.23 24.178 24.123 24.07
43.995 43.903 43.832 43.775 43.71 43.648 43.608 43.592 43.577 43.562 43.545 43.522 43.497 43.472 43.4 43.26 43.1 42.94 42.788 42.647 42.512 42.372 42.205 42.015 41.822 41.628 41.445 41.275 41.103 40.93 40.745 40.542 40.338 40.138 39.953 39.773 39.59 39.41 39.223 39.025 38.828 38.633 38.45 38.285 38.125 37.962 37.79 37.608 37.43 37.275 37.138 37.003 36.868 36.712 36.505 36.27 36.042 35.82 35.605 35.405 35.215 35.025 34.832 34.637 34.44 34.245 34.042 33.818 33.588 33.373 33.18 33 32.82 32.627 32.428 32.232 32.037 31.843 31.658 31.483 31.307 31.125 30.945 30.777 30.61 30.44 30.265 30.09 29.918 29.748 29.565 29.365 29.165 28.953 28.753 28.585 28.417 28.24 28.065 27.905 27.76 27.615 27.498 27.41 27.318 27.22 27.15 27.11 27.073 27.037 26.985 26.91 26.835 26.773 26.725 26.69 26.655 26.62 26.565 26.49 26.415 26.343 26.275 26.215 26.162 26.105 26.055 26 25.933 25.868 25.815 25.775 25.735 25.7 25.685 25.69 25.7 25.71 25.707 25.68 25.643 25.605 25.583 25.575 25.565 25.555 25.545 25.535 25.528 25.518 25.523 25.548 25.573 25.605 25.61 25.58 25.553 25.5 25.438 25.383 25.318 25.255 25.198 25.14 25.078 25.013 24.953 24.903 24.858 24.815 24.79 24.78 24.775 24.762 24.743 24.725 24.705 24.683 24.653 24.62 24.59 24.552 24.523 24.51 24.5 24.487 24.472 24.455 24.44 24.433 24.435 24.445 24.457 24.457 24.42 24.365 24.313 24.26 24.21 24.16
44.03 43.938 43.873 43.83 43.772 43.71 43.673 43.658 43.642 43.627 43.61 43.587 43.563 43.537 43.467 43.332 43.175 43.015 42.863 42.722 42.585 42.44 42.272 42.087 41.897 41.705 41.523 41.35 41.177 41.002 40.815 40.615 40.418 40.235 40.065 39.892 39.715 39.535 39.35 39.155 38.955 38.758 38.573 38.403 38.238 38.075 37.905 37.728 37.57 37.438 37.305 37.167 37.012 36.817 36.592 36.363 36.145 35.935 35.715 35.495 35.295 35.105 34.91 34.715 34.522 34.33 34.127 33.903 33.683 33.485 33.3 33.12 32.93 32.712 32.5 32.312 32.122 31.928 31.74 31.562 31.38 31.185 31 30.83 30.66 30.49 30.315 30.143 29.983 29.832 29.66 29.457 29.242 29.005 28.805 28.665 28.515 28.342 28.158 27.975 27.818 27.673 27.568 27.495 27.41 27.318 27.25 27.21 27.17 27.132 27.08 27.008 26.938 26.88 26.835 26.798 26.765 26.742 26.697 26.623 26.553 26.498 26.428 26.343 26.275 26.218 26.177 26.142 26.087 26.023 25.97 25.93 25.895 25.868 25.85 25.845 25.85 25.86 25.872 25.872 25.845 25.808 25.795 25.805 25.805 25.795 25.785 25.775 25.76 25.74 25.74 25.768 25.805 25.85 25.86 25.822 25.76 25.655 25.57 25.527 25.472 25.41 25.358 25.31 25.252 25.19 25.135 25.088 25.045 25.005 24.978 24.967 24.957 24.93 24.903 24.887 24.87 24.847 24.82 24.79 24.75 24.695 24.655 24.64 24.63 24.62 24.605 24.588 24.578 24.58 24.59 24.6 24.597 24.57 24.52 24.465 24.413 24.363 24.32 24.275
44.052 43.97 43.908 43.872 43.827 43.77 43.735 43.72 43.705 43.69 43.67 43.65 43.627 43.602 43.53 43.395 43.243 43.088 42.938 42.795 42.652 42.505 42.337 42.155 41.97 41.78 41.598 41.423 41.25 41.075 40.885 40.693 40.515 40.35 40.185 40.015 39.842 39.665 39.477 39.28 39.08 38.88 38.695 38.525 38.355 38.188 38.02 37.865 37.73 37.603 37.472 37.315 37.12 36.905 36.683 36.465 36.26 36.057 35.84 35.608 35.385 35.185 34.99 34.795 34.605 34.415 34.213 33.998 33.795 33.607 33.422 33.23 33.017 32.785 32.57 32.385 32.2 32.007 31.82 31.635 31.437 31.235 31.05 30.88 30.71 30.54 30.37 30.208 30.06 29.92 29.75 29.535 29.295 29.045 28.853 28.725 28.595 28.442 28.262 28.068 27.885 27.733 27.635 27.57 27.497 27.413 27.348 27.31 27.27 27.23 27.175 27.108 27.048 26.993 26.945 26.91 26.885 26.87 26.83 26.765 26.715 26.68 26.607 26.498 26.403 26.333 26.293 26.267 26.232 26.18 26.13 26.093 26.065 26.042 26.023 26.008 26.003 26.01 26.025 26.042 26.042 26.02 26.013 26.027 26.037 26.035 26.025 26.01 25.987 25.963 25.965 26.002 26.05 26.097 26.092 26.017 25.905 25.773 25.688 25.655 25.617 25.565 25.513 25.468 25.42 25.368 25.318 25.275 25.235 25.195 25.165 25.147 25.125 25.09 25.06 25.045 25.032 25.015 24.987 24.947 24.89 24.825 24.785 24.77 24.76 24.75 24.735 24.725 24.728 24.735 24.745 24.74 24.71 24.67 24.622 24.57 24.523 24.48 24.437 24.387
44.06 43.995 43.943 43.908 43.87 43.828 43.798 43.782 43.767 43.752 43.732 43.71 43.69 43.667 43.595 43.46 43.31 43.16 43.01 42.862 42.715 42.567 42.405 42.225 42.043 41.858 41.678 41.5 41.325 41.15 40.968 40.793 40.63 40.467 40.302 40.132 39.96 39.787 39.6 39.4 39.2 39.003 38.82 38.648 38.475 38.308 38.153 38.018 37.892 37.765 37.617 37.425 37.21 36.995 36.783 36.58 36.38 36.177 35.96 35.727 35.493 35.273 35.073 34.88 34.69 34.5 34.305 34.107 33.912 33.722 33.532 33.32 33.09 32.855 32.64 32.452 32.265 32.077 31.89 31.695 31.492 31.29 31.103 30.93 30.76 30.59 30.425 30.272 30.127 29.985 29.815 29.59 29.338 29.085 28.898 28.775 28.655 28.525 28.362 28.17 27.975 27.808 27.703 27.638 27.575 27.503 27.443 27.405 27.365 27.325 27.275 27.218 27.163 27.105 27.06 27.035 27.015 27 26.965 26.917 26.882 26.85 26.78 26.67 26.558 26.46 26.408 26.383 26.357 26.327 26.293 26.263 26.237 26.215 26.195 26.178 26.165 26.163 26.175 26.195 26.212 26.217 26.222 26.237 26.252 26.262 26.26 26.24 26.212 26.185 26.185 26.225 26.275 26.322 26.287 26.163 26.028 25.89 25.808 25.78 25.75 25.713 25.67 25.628 25.585 25.543 25.5 25.46 25.42 25.382 25.35 25.317 25.283 25.245 25.215 25.2 25.19 25.177 25.145 25.088 25.023 24.958 24.915 24.9 24.89 24.88 24.87 24.87 24.88 24.89 24.887 24.857 24.813 24.77 24.728 24.683 24.64 24.6 24.553 24.493
44.063 44.018 43.98 43.945 43.91 43.878 43.855 43.837 43.822 43.805 43.782 43.76 43.737 43.715 43.655 43.532 43.385 43.235 43.083 42.928 42.775 42.63 42.477 42.305 42.125 41.945 41.765 41.588 41.413 41.235 41.068 40.912 40.752 40.588 40.42 40.245 40.07 39.9 39.715 39.513 39.313 39.123 38.945 38.772 38.6 38.438 38.295 38.165 38.04 37.9 37.725 37.522 37.31 37.095 36.888 36.69 36.49 36.28 36.052 35.82 35.587 35.357 35.15 34.96 34.77 34.577 34.375 34.17 33.972 33.777 33.585 33.377 33.15 32.915 32.698 32.505 32.315 32.127 31.935 31.735 31.535 31.338 31.153 30.98 30.81 30.637 30.465 30.307 30.16 30.015 29.855 29.645 29.398 29.148 28.953 28.82 28.7 28.58 28.447 28.282 28.095 27.915 27.798 27.735 27.67 27.593 27.53 27.49 27.45 27.415 27.382 27.34 27.285 27.225 27.188 27.17 27.153 27.137 27.09 27.032 26.997 26.962 26.907 26.817 26.705 26.595 26.53 26.505 26.483 26.47 26.457 26.435 26.41 26.393 26.38 26.363 26.348 26.34 26.35 26.373 26.393 26.407 26.42 26.435 26.45 26.465 26.475 26.462 26.435 26.405 26.398 26.423 26.465 26.512 26.46 26.315 26.175 26.04 25.965 25.94 25.91 25.875 25.838 25.8 25.76 25.72 25.68 25.642 25.605 25.567 25.527 25.485 25.445 25.405 25.37 25.348 25.335 25.325 25.295 25.238 25.173 25.108 25.063 25.045 25.035 25.025 25.015 25.013 25.02 25.03 25.012 24.97 24.928 24.883 24.845 24.813 24.775 24.735 24.688 24.625
44.08 44.05 44.02 43.983 43.95 43.923 43.903 43.885 43.865 43.84 43.815 43.795 43.772 43.75 43.697 43.597 43.467 43.32 43.162 42.998 42.838 42.688 42.542 42.387 42.215 42.035 41.858 41.682 41.507 41.33 41.17 41.03 40.877 40.715 40.542 40.358 40.178 40.005 39.82 39.618 39.425 39.245 39.07 38.9 38.733 38.575 38.435 38.305 38.165 37.997 37.812 37.62 37.415 37.202 36.995 36.792 36.582 36.36 36.127 35.893 35.66 35.43 35.22 35.03 34.835 34.635 34.417 34.188 33.978 33.78 33.59 33.402 33.192 32.963 32.743 32.543 32.35 32.16 31.965 31.765 31.568 31.378 31.198 31.025 30.855 30.682 30.503 30.328 30.17 30.025 29.875 29.695 29.47 29.23 29.028 28.868 28.735 28.615 28.5 28.377 28.225 28.045 27.92 27.857 27.777 27.68 27.61 27.57 27.535 27.51 27.487 27.457 27.412 27.355 27.32 27.31 27.297 27.28 27.215 27.125 27.075 27.037 26.99 26.927 26.832 26.725 26.66 26.638 26.628 26.63 26.625 26.603 26.585 26.585 26.58 26.56 26.548 26.545 26.555 26.577 26.592 26.6 26.61 26.622 26.638 26.653 26.665 26.667 26.652 26.625 26.615 26.628 26.653 26.687 26.63 26.488 26.353 26.228 26.158 26.13 26.097 26.055 26.013 25.975 25.935 25.895 25.858 25.825 25.79 25.75 25.705 25.658 25.615 25.575 25.535 25.5 25.478 25.465 25.44 25.395 25.337 25.273 25.228 25.208 25.195 25.185 25.17 25.155 25.153 25.157 25.137 25.092 25.047 25 24.968 24.952 24.925 24.885 24.84 24.78
