ncols         200
nrows         71
xllcorner     549000
yllcorner     257290
cellsize      5
NODATA_value  -9999.0
12.125 12.14 12.163 12.335 13.02 13.515 13.442 13.342 13.202 13.09 13.042 13 12.94 12.87 12.903 13.07 13.273 13.475 13.718 14 14.255 14.457 14.612 14.748 14.89 15.053 15.23 15.405 15.567 15.717 15.85 15.97 16.09 16.205 16.293 16.378 16.515 16.685 16.747 16.702 16.658 16.615 16.575 16.54 16.518 16.508 16.505 16.505 16.508 16.515 16.505 16.45 16.342 16.198 16.065 15.953 15.84 15.725 15.633 15.568 15.508 15.45 15.387 15.315 15.235 15.163 15.13 15.12 15.09 15.06 15.072 15.072 15.007 14.915 14.79 14.64 14.498 14.363 14.305 14.345 14.42 14.51 14.562 14.575 14.555 14.465 14.365 14.31 14.255 14.177 14.09 13.995 13.913 13.868 13.845 13.828 13.815 13.807 13.8 13.782 13.76 13.735 13.71 13.698 13.695 13.692 13.67 13.63 13.582 13.525 13.48 13.45 13.417 13.382 13.34 13.293 13.245 13.2 13.165 13.135 13.102 13.065 13.033 13.008 12.99 12.988 12.975 12.947 12.92 12.893 12.865 12.837 12.805 12.765 12.735 12.728 12.733 12.737 12.717 12.675 12.638 12.61 12.583 12.558 12.54 12.517 12.485 12.445 12.407 12.35 12.29 12.263 12.245 12.225 12.195 12.122 12.05 12.015 11.977 11.93 11.918 11.917 11.855 11.768 11.73 11.78 11.85 11.842 11.788 11.735 11.738 11.77 11.775 11.77 11.763 11.755 11.74 11.712 11.657 11.583 11.515 11.463 11.417 11.37 11.315 11.252 11.198 11.168 11.145 11.11 11.077 11.05 11.02 10.99 10.97 10.958 10.948 10.945 10.953 10.965
12.195 12.22 12.25 12.505 13.212 13.65 13.545 13.382 13.208 13.098 13.067 13.047 13.012 12.958 12.975 13.125 13.328 13.53 13.77 14.027 14.25 14.452 14.62 14.77 14.935 15.11 15.288 15.467 15.645 15.807 15.945 16.062 16.175 16.285 16.37 16.428 16.51 16.65 16.712 16.668 16.625 16.585 16.548 16.52 16.508 16.503 16.498 16.495 16.495 16.497 16.472 16.405 16.317 16.197 16.07 15.96 15.85 15.738 15.648 15.583 15.523 15.465 15.4 15.325 15.245 15.17 15.14 15.145 15.135 15.12 15.14 15.172 15.145 15.045 14.908 14.768 14.632 14.498 14.435 14.473 14.535 14.607 14.667 14.66 14.57 14.435 14.338 14.277 14.202 14.115 14.025 13.943 13.893 13.87 13.85 13.83 13.813 13.803 13.797 13.79 13.777 13.755 13.73 13.715 13.705 13.697 13.675 13.637 13.597 13.55 13.51 13.477 13.442 13.407 13.365 13.318 13.27 13.225 13.19 13.157 13.117 13.075 13.045 13.03 13.033 13.042 13.032 13.01 12.987 12.96 12.93 12.9 12.86 12.815 12.783 12.773 12.778 12.782 12.765 12.73 12.713 12.715 12.695 12.655 12.628 12.602 12.57 12.52 12.447 12.342 12.26 12.238 12.227 12.2 12.135 12.033 11.953 11.92 11.895 11.86 11.842 11.81 11.743 11.693 11.675 11.703 11.762 11.777 11.732 11.678 11.685 11.742 11.765 11.76 11.75 11.74 11.73 11.712 11.662 11.595 11.54 11.495 11.45 11.395 11.327 11.255 11.195 11.157 11.122 11.075 11.04 11.017 10.99 10.96 10.943 10.938 10.935 10.935 10.94 10.95
12.277 12.31 12.34 12.563 13.095 13.45 13.42 13.302 13.183 13.105 13.082 13.067 13.05 13.02 13.038 13.178 13.385 13.593 13.815 14.043 14.258 14.47 14.655 14.825 15 15.173 15.345 15.525 15.71 15.885 16.027 16.14 16.25 16.36 16.445 16.502 16.558 16.642 16.677 16.635 16.598 16.56 16.528 16.513 16.505 16.5 16.495 16.487 16.485 16.48 16.435 16.355 16.275 16.182 16.075 15.965 15.855 15.748 15.663 15.6 15.537 15.475 15.41 15.335 15.255 15.18 15.148 15.152 15.155 15.16 15.192 15.242 15.252 15.175 15.04 14.902 14.767 14.633 14.565 14.597 14.66 14.707 14.73 14.672 14.54 14.405 14.305 14.225 14.138 14.053 13.973 13.918 13.89 13.87 13.85 13.83 13.81 13.798 13.792 13.787 13.782 13.77 13.75 13.735 13.72 13.705 13.682 13.645 13.605 13.565 13.53 13.497 13.465 13.43 13.387 13.342 13.297 13.252 13.212 13.175 13.132 13.09 13.068 13.073 13.087 13.097 13.09 13.07 13.05 13.025 12.992 12.955 12.91 12.865 12.83 12.817 12.822 12.83 12.825 12.812 12.82 12.837 12.82 12.772 12.73 12.69 12.627 12.532 12.412 12.283 12.213 12.205 12.202 12.152 12.048 11.935 11.853 11.815 11.795 11.773 11.755 11.725 11.693 11.683 11.683 11.69 11.713 11.715 11.672 11.618 11.625 11.7 11.747 11.75 11.74 11.73 11.717 11.7 11.662 11.612 11.565 11.52 11.47 11.402 11.327 11.252 11.187 11.138 11.09 11.04 11.005 10.985 10.963 10.938 10.925 10.925 10.925 10.925 10.93 10.94
12.352 12.387 12.42 12.54 12.83 13.098 13.163 13.133 13.137 13.112 13.06 13.042 13.025 13.02 13.105 13.288 13.495 13.705 13.9 14.093 14.305 14.527 14.727 14.903 15.075 15.248 15.418 15.59 15.77 15.95 16.095 16.205 16.315 16.417 16.49 16.545 16.602 16.657 16.677 16.653 16.618 16.583 16.54 16.51 16.503 16.497 16.485 16.467 16.457 16.442 16.385 16.3 16.217 16.135 16.04 15.93 15.825 15.743 15.67 15.6 15.54 15.48 15.412 15.332 15.25 15.183 15.148 15.143 15.147 15.16 15.197 15.25 15.29 15.25 15.132 15.007 14.885 14.763 14.69 14.69 14.712 14.725 14.712 14.632 14.495 14.378 14.288 14.2 14.11 14.018 13.943 13.908 13.89 13.87 13.85 13.83 13.81 13.795 13.788 13.782 13.778 13.772 13.76 13.745 13.73 13.71 13.687 13.655 13.615 13.578 13.543 13.51 13.48 13.44 13.395 13.352 13.307 13.257 13.207 13.165 13.125 13.098 13.095 13.107 13.12 13.13 13.125 13.105 13.085 13.062 13.03 12.99 12.945 12.9 12.862 12.842 12.842 12.85 12.857 12.867 12.885 12.907 12.9 12.852 12.8 12.745 12.642 12.498 12.353 12.225 12.18 12.205 12.2 12.117 11.99 11.863 11.77 11.735 11.728 11.72 11.708 11.698 11.695 11.69 11.688 11.695 11.69 11.655 11.6 11.545 11.56 11.642 11.715 11.712 11.673 11.655 11.635 11.615 11.592 11.557 11.512 11.47 11.427 11.37 11.297 11.22 11.16 11.12 11.075 11.025 10.993 10.975 10.955 10.935 10.925 10.925 10.922 10.91 10.902 10.91
12.42 12.455 12.49 12.575 12.785 12.962 13 12.998 13.107 13.112 12.998 12.98 12.96 13.035 13.243 13.457 13.655 13.865 14.045 14.203 14.388 14.603 14.807 14.985 15.158 15.335 15.502 15.66 15.83 16.01 16.155 16.265 16.367 16.455 16.515 16.563 16.618 16.67 16.702 16.705 16.682 16.65 16.595 16.53 16.5 16.492 16.472 16.433 16.405 16.385 16.325 16.238 16.153 16.067 15.97 15.868 15.793 15.75 15.685 15.593 15.523 15.467 15.397 15.313 15.24 15.19 15.153 15.128 15.123 15.135 15.173 15.222 15.27 15.255 15.16 15.052 14.945 14.853 14.783 14.72 14.678 14.66 14.645 14.575 14.458 14.365 14.292 14.21 14.117 14 13.915 13.9 13.89 13.87 13.85 13.83 13.81 13.793 13.783 13.778 13.773 13.77 13.76 13.745 13.73 13.71 13.69 13.662 13.628 13.592 13.557 13.522 13.485 13.435 13.385 13.342 13.292 13.232 13.178 13.135 13.108 13.105 13.113 13.12 13.13 13.14 13.135 13.115 13.095 13.075 13.045 13.005 12.96 12.915 12.875 12.843 12.828 12.828 12.837 12.855 12.877 12.905 12.907 12.872 12.825 12.765 12.65 12.49 12.34 12.225 12.205 12.237 12.205 12.107 11.98 11.843 11.748 11.723 11.728 11.727 11.715 11.703 11.7 11.697 11.692 11.677 11.637 11.58 11.523 11.47 11.49 11.583 11.68 11.685 11.6 11.528 11.483 11.463 11.447 11.425 11.39 11.353 11.332 11.302 11.237 11.163 11.115 11.095 11.067 11.025 10.995 10.98 10.96 10.943 10.932 10.927 10.912 10.877 10.858 10.865
12.488 12.525 12.56 12.635 12.797 12.902 12.91 12.913 13.095 13.11 12.933 12.915 12.955 13.16 13.435 13.64 13.823 14.025 14.205 14.35 14.503 14.688 14.887 15.07 15.245 15.425 15.59 15.74 15.898 16.07 16.215 16.317 16.405 16.485 16.545 16.588 16.635 16.682 16.715 16.732 16.735 16.717 16.665 16.585 16.52 16.49 16.462 16.408 16.355 16.325 16.267 16.175 16.088 16 15.908 15.835 15.803 15.78 15.712 15.608 15.513 15.443 15.373 15.3 15.25 15.21 15.17 15.133 15.108 15.11 15.148 15.195 15.237 15.245 15.175 15.08 15.003 14.943 14.872 14.775 14.693 14.633 14.585 14.52 14.438 14.367 14.3 14.217 14.105 13.963 13.885 13.887 13.887 13.875 13.852 13.83 13.808 13.788 13.778 13.773 13.77 13.77 13.76 13.745 13.73 13.71 13.69 13.667 13.64 13.605 13.57 13.53 13.48 13.425 13.373 13.323 13.262 13.198 13.143 13.113 13.11 13.122 13.13 13.135 13.145 13.15 13.14 13.12 13.1 13.08 13.052 13.012 12.967 12.925 12.885 12.845 12.815 12.8 12.805 12.828 12.858 12.89 12.895 12.87 12.835 12.78 12.67 12.53 12.408 12.303 12.27 12.257 12.19 12.097 11.975 11.848 11.768 11.75 11.75 11.737 11.72 11.705 11.7 11.7 11.675 11.637 11.588 11.515 11.45 11.398 11.425 11.53 11.642 11.695 11.62 11.49 11.388 11.323 11.293 11.28 11.263 11.24 11.238 11.22 11.165 11.105 11.068 11.055 11.042 11.017 10.995 10.98 10.963 10.948 10.933 10.91 10.875 10.83 10.81 10.82
12.552 12.59 12.627 12.692 12.767 12.802 12.82 12.828 13.082 13.122 12.88 12.885 13.05 13.347 13.627 13.827 13.998 14.187 14.365 14.51 14.65 14.803 14.978 15.158 15.335 15.515 15.68 15.83 15.98 16.137 16.267 16.355 16.437 16.517 16.575 16.615 16.658 16.7 16.728 16.745 16.763 16.77 16.73 16.65 16.57 16.503 16.448 16.39 16.325 16.273 16.21 16.118 16.028 15.943 15.875 15.843 15.827 15.805 15.737 15.632 15.528 15.433 15.36 15.31 15.27 15.23 15.19 15.15 15.113 15.095 15.117 15.16 15.195 15.245 15.253 15.213 15.172 15.082 14.952 14.835 14.74 14.647 14.56 14.485 14.42 14.36 14.3 14.207 14.065 13.923 13.865 13.87 13.875 13.875 13.855 13.83 13.805 13.783 13.773 13.77 13.77 13.77 13.76 13.743 13.727 13.71 13.69 13.668 13.643 13.613 13.575 13.528 13.475 13.423 13.37 13.31 13.238 13.168 13.123 13.115 13.125 13.137 13.145 13.15 13.157 13.152 13.135 13.115 13.095 13.075 13.047 13.007 12.962 12.917 12.875 12.837 12.805 12.778 12.778 12.805 12.837 12.87 12.875 12.85 12.817 12.772 12.685 12.577 12.48 12.38 12.312 12.252 12.17 12.082 11.973 11.863 11.795 11.773 11.762 11.745 11.725 11.708 11.7 11.69 11.63 11.58 11.562 11.507 11.43 11.373 11.408 11.513 11.62 11.707 11.677 11.545 11.408 11.32 11.33 11.338 11.278 11.208 11.178 11.188 11.17 11.098 11.043 11.03 11.02 11.008 11.028 11.048 11.033 11.015 10.988 10.945 10.898 10.82 10.76 10.762
12.585 12.625 12.665 12.735 12.738 12.703 12.728 12.776 13.105 13.185 12.898 12.941 13.218 13.543 13.818 14.013 14.18 14.358 14.522 14.662 14.797 14.932 15.083 15.26 15.445 15.625 15.79 15.94 16.087 16.207 16.297 16.38 16.465 16.55 16.61 16.653 16.7 16.753 16.788 16.805 16.825 16.82 16.762 16.68 16.6 16.512 16.438 16.378 16.313 16.25 16.193 16.118 16.03 15.95 15.9 15.88 15.858 15.83 15.762 15.655 15.547 15.44 15.36 15.315 15.275 15.235 15.195 15.155 15.118 15.095 15.018 14.938 15.058 15.352 15.525 15.482 15.367 15.197 14.993 14.83 14.722 14.63 14.537 14.453 14.385 14.325 14.267 14.187 14.053 13.913 13.858 13.863 13.868 13.87 13.857 13.832 13.805 13.773 13.76 13.767 13.77 13.77 13.76 13.74 13.725 13.713 13.695 13.673 13.65 13.628 13.59 13.54 13.49 13.44 13.39 13.333 13.26 13.183 13.138 13.128 13.128 13.135 13.142 13.15 13.145 13.122 13.1 13.08 13.062 13.045 13.017 12.98 12.935 12.885 12.84 12.802 12.77 12.743 12.743 12.77 12.797 12.82 12.822 12.802 12.77 12.73 12.66 12.565 12.472 12.392 12.322 12.243 12.158 12.075 11.985 11.89 11.82 11.785 11.767 11.75 11.73 11.71 11.7 11.662 11.573 11.503 11.497 11.497 11.452 11.42 11.47 11.56 11.64 11.717 11.72 11.617 11.483 11.41 11.467 11.542 11.545 11.472 11.38 11.327 11.25 11.128 11.048 11.03 11.02 11.01 11.063 11.147 11.18 11.175 11.14 11.07 10.967 10.825 10.708 10.685
12.58 12.625 12.673 12.778 13.178 13.743 13.882 13.62 13.58 13.77 13.788 13.805 13.96 14.188 14.248 14.253 14.43 14.59 14.695 14.788 14.91 15.037 15.183 15.372 15.572 15.755 15.92 16.065 16.18 16.247 16.313 16.395 16.488 16.59 16.663 16.713 16.775 16.847 16.895 16.912 16.905 16.85 16.767 16.685 16.597 16.503 16.428 16.37 16.31 16.248 16.2 16.157 16.09 16.01 15.96 15.935 15.905 15.867 15.782 15.665 15.555 15.45 15.368 15.31 15.265 15.225 15.185 15.145 15.128 15.14 14.99 14.828 15.038 15.517 15.78 15.675 15.475 15.27 15.048 14.835 14.685 14.583 14.493 14.408 14.333 14.272 14.215 14.155 14.057 13.925 13.863 13.867 13.87 13.87 13.86 13.835 13.8 13.753 13.738 13.757 13.765 13.765 13.757 13.74 13.73 13.728 13.715 13.695 13.675 13.655 13.62 13.568 13.517 13.47 13.42 13.37 13.31 13.238 13.185 13.158 13.138 13.128 13.13 13.127 13.102 13.07 13.045 13.028 13.013 12.997 12.975 12.94 12.895 12.845 12.8 12.763 12.728 12.698 12.695 12.715 12.732 12.742 12.74 12.73 12.707 12.67 12.602 12.51 12.433 12.38 12.32 12.238 12.155 12.093 12.028 11.938 11.853 11.788 11.753 11.737 11.722 11.71 11.687 11.615 11.51 11.42 11.395 11.42 11.44 11.468 11.528 11.6 11.66 11.72 11.732 11.67 11.558 11.47 11.513 11.64 11.76 11.74 11.56 11.405 11.28 11.14 11.063 11.04 11.025 11.018 11.07 11.185 11.282 11.33 11.28 11.142 10.975 10.803 10.65 10.59
12.58 12.615 12.693 12.848 13.9 15.201 15.377 14.94 14.528 14.695 15.089 15.137 15.087 15.11 14.992 14.758 14.775 14.897 14.925 14.95 15.018 15.123 15.273 15.473 15.69 15.887 16.042 16.15 16.217 16.263 16.325 16.415 16.528 16.647 16.732 16.795 16.872 16.952 17 16.992 16.935 16.855 16.772 16.685 16.587 16.488 16.413 16.358 16.302 16.243 16.195 16.17 16.132 16.068 16.018 15.99 15.96 15.912 15.8 15.665 15.555 15.458 15.383 15.32 15.263 15.215 15.175 15.155 15.175 15.215 15.128 15.063 15.22 15.58 15.81 15.712 15.537 15.342 15.122 14.888 14.68 14.54 14.448 14.363 14.283 14.218 14.16 14.1 14.03 13.928 13.868 13.87 13.873 13.875 13.862 13.827 13.78 13.728 13.713 13.735 13.75 13.757 13.755 13.748 13.75 13.755 13.745 13.725 13.705 13.685 13.65 13.595 13.542 13.495 13.447 13.4 13.347 13.29 13.245 13.212 13.177 13.148 13.128 13.1 13.063 13.028 12.998 12.98 12.967 12.955 12.932 12.895 12.852 12.807 12.765 12.727 12.69 12.653 12.638 12.645 12.653 12.655 12.653 12.647 12.637 12.61 12.548 12.473 12.42 12.377 12.315 12.235 12.173 12.14 12.092 12.007 11.913 11.82 11.75 11.708 11.685 11.675 11.63 11.538 11.438 11.345 11.323 11.373 11.468 11.575 11.615 11.623 11.66 11.72 11.73 11.685 11.612 11.528 11.555 11.67 11.725 11.65 11.455 11.325 11.262 11.153 11.08 11.055 11.03 11.023 11.08 11.19 11.25 11.242 11.182 11.085 10.952 10.785 10.61 10.51
12.61 12.653 12.798 13.026 14.172 15.492 15.665 15.415 15.1 15.132 15.51 15.637 15.567 15.482 15.4 15.22 15.122 15.17 15.177 15.185 15.202 15.248 15.368 15.565 15.787 15.995 16.127 16.187 16.235 16.28 16.343 16.448 16.575 16.702 16.8 16.877 16.965 17.05 17.075 17.02 16.94 16.86 16.772 16.675 16.575 16.475 16.4 16.345 16.29 16.238 16.198 16.175 16.153 16.115 16.075 16.042 16.01 15.957 15.83 15.678 15.558 15.465 15.398 15.335 15.273 15.213 15.185 15.205 15.245 15.285 15.3 15.352 15.462 15.65 15.77 15.692 15.557 15.4 15.195 14.957 14.72 14.533 14.42 14.333 14.248 14.17 14.105 14.045 13.985 13.915 13.875 13.875 13.878 13.88 13.857 13.807 13.753 13.7 13.685 13.708 13.73 13.75 13.76 13.767 13.78 13.785 13.775 13.755 13.735 13.712 13.675 13.62 13.565 13.517 13.472 13.425 13.375 13.327 13.285 13.245 13.205 13.167 13.132 13.095 13.055 13.005 12.95 12.92 12.91 12.9 12.877 12.84 12.802 12.767 12.73 12.69 12.65 12.615 12.593 12.585 12.583 12.575 12.568 12.563 12.557 12.542 12.505 12.46 12.417 12.372 12.315 12.258 12.222 12.2 12.157 12.08 11.985 11.89 11.8 11.718 11.655 11.61 11.553 11.475 11.4 11.33 11.325 11.413 11.585 11.772 11.812 11.755 11.728 11.737 11.73 11.685 11.635 11.57 11.567 11.597 11.54 11.435 11.333 11.268 11.225 11.155 11.098 11.073 11.045 11.033 11.047 11.062 11.02 10.915 10.895 10.975 10.942 10.777 10.593 10.453
12.683 12.72 12.973 13.398 14.253 15.37 15.725 15.475 15.203 15.185 15.452 15.602 15.565 15.48 15.403 15.332 15.297 15.305 15.322 15.34 15.357 15.367 15.44 15.618 15.835 16.037 16.162 16.217 16.263 16.308 16.375 16.48 16.605 16.732 16.835 16.917 17.005 17.09 17.092 17.015 16.935 16.855 16.765 16.665 16.563 16.463 16.388 16.343 16.313 16.285 16.26 16.24 16.212 16.157 16.11 16.087 16.06 16.002 15.872 15.705 15.565 15.475 15.413 15.35 15.287 15.21 15.195 15.245 15.285 15.325 15.38 15.477 15.597 15.71 15.745 15.667 15.55 15.422 15.24 15.005 14.773 14.578 14.45 14.358 14.263 14.168 14.093 14.035 13.975 13.92 13.895 13.895 13.895 13.882 13.842 13.788 13.733 13.688 13.675 13.693 13.718 13.742 13.762 13.777 13.792 13.8 13.787 13.762 13.737 13.712 13.672 13.617 13.567 13.527 13.487 13.442 13.395 13.347 13.302 13.258 13.215 13.175 13.138 13.102 13.055 12.987 12.915 12.863 12.84 12.83 12.81 12.775 12.743 12.72 12.69 12.65 12.615 12.59 12.573 12.558 12.545 12.52 12.49 12.478 12.472 12.465 12.45 12.425 12.392 12.36 12.32 12.28 12.247 12.215 12.177 12.122 12.04 11.945 11.855 11.765 11.673 11.595 11.54 11.485 11.428 11.373 11.375 11.455 11.625 11.837 11.902 11.845 11.785 11.74 11.705 11.66 11.615 11.572 11.537 11.483 11.398 11.33 11.285 11.243 11.198 11.158 11.125 11.1 11.075 11.045 10.973 10.848 10.733 10.713 10.85 10.99 10.95 10.785 10.593 10.423
12.788 12.81 13.078 13.63 14.305 15.26 15.772 15.56 15.27 15.195 15.392 15.565 15.565 15.48 15.405 15.353 15.343 15.36 15.38 15.4 15.417 15.43 15.488 15.638 15.843 16.04 16.17 16.242 16.297 16.345 16.415 16.51 16.623 16.747 16.847 16.923 17.005 17.077 17.07 17 16.925 16.845 16.755 16.653 16.548 16.47 16.43 16.413 16.408 16.4 16.385 16.355 16.287 16.18 16.115 16.105 16.09 16.035 15.905 15.73 15.58 15.49 15.428 15.365 15.292 15.193 15.183 15.255 15.3 15.338 15.375 15.445 15.555 15.675 15.71 15.64 15.542 15.425 15.255 15.033 14.823 14.65 14.52 14.422 14.317 14.203 14.118 14.06 14.003 13.95 13.925 13.925 13.912 13.875 13.825 13.773 13.725 13.695 13.685 13.693 13.713 13.735 13.755 13.772 13.782 13.785 13.77 13.74 13.713 13.69 13.65 13.595 13.555 13.528 13.495 13.455 13.412 13.365 13.318 13.273 13.228 13.185 13.145 13.1 13.035 12.96 12.89 12.825 12.78 12.76 12.737 12.705 12.685 12.675 12.65 12.615 12.59 12.57 12.555 12.542 12.517 12.472 12.428 12.4 12.388 12.382 12.37 12.35 12.332 12.315 12.282 12.24 12.2 12.16 12.122 12.087 12.037 11.972 11.892 11.8 11.708 11.628 11.575 11.527 11.472 11.42 11.423 11.478 11.58 11.76 11.84 11.79 11.74 11.69 11.645 11.605 11.573 11.55 11.505 11.435 11.375 11.333 11.297 11.255 11.21 11.188 11.172 11.148 11.12 11.075 10.958 10.798 10.69 10.748 10.967 11.062 10.962 10.802 10.61 10.45
12.91 12.94 13.113 13.595 14.273 15.065 15.552 15.54 15.335 15.205 15.333 15.517 15.555 15.48 15.415 15.39 15.4 15.417 15.435 15.452 15.467 15.48 15.533 15.67 15.858 16.042 16.172 16.255 16.325 16.383 16.458 16.55 16.648 16.762 16.862 16.935 17.01 17.065 17.045 16.978 16.907 16.83 16.74 16.653 16.588 16.555 16.55 16.547 16.54 16.53 16.502 16.432 16.315 16.183 16.115 16.102 16.08 16.027 15.912 15.762 15.633 15.532 15.45 15.372 15.277 15.163 15.16 15.257 15.32 15.355 15.388 15.43 15.51 15.625 15.652 15.585 15.51 15.417 15.27 15.075 14.895 14.735 14.595 14.482 14.362 14.233 14.143 14.088 14.035 13.985 13.957 13.942 13.907 13.86 13.808 13.76 13.73 13.71 13.7 13.703 13.71 13.728 13.747 13.76 13.76 13.755 13.74 13.713 13.69 13.67 13.63 13.583 13.555 13.535 13.505 13.465 13.425 13.382 13.335 13.288 13.242 13.197 13.147 13.082 13.008 12.935 12.865 12.798 12.735 12.695 12.668 12.645 12.64 12.632 12.61 12.588 12.57 12.55 12.535 12.515 12.47 12.415 12.373 12.338 12.31 12.298 12.285 12.27 12.26 12.247 12.212 12.163 12.12 12.08 12.04 12.005 11.972 11.937 11.887 11.822 11.742 11.663 11.608 11.56 11.513 11.478 11.475 11.51 11.57 11.702 11.775 11.725 11.673 11.623 11.585 11.56 11.543 11.525 11.482 11.425 11.383 11.347 11.312 11.275 11.245 11.233 11.222 11.2 11.165 11.117 11.02 10.913 10.855 10.87 10.987 11.035 10.95 10.815 10.648 10.525
13.04 13.07 13.148 13.533 14.217 14.807 15.122 15.27 15.292 15.215 15.273 15.452 15.527 15.483 15.44 15.442 15.457 15.472 15.487 15.5 15.512 15.525 15.575 15.71 15.89 16.06 16.182 16.265 16.343 16.418 16.502 16.595 16.688 16.787 16.88 16.955 17.022 17.057 17.025 16.955 16.885 16.815 16.753 16.713 16.695 16.685 16.677 16.667 16.652 16.632 16.57 16.455 16.322 16.19 16.115 16.085 16.037 15.982 15.89 15.77 15.662 15.555 15.45 15.355 15.245 15.13 15.135 15.245 15.327 15.37 15.4 15.43 15.48 15.575 15.597 15.525 15.452 15.377 15.267 15.12 14.97 14.817 14.67 14.535 14.4 14.263 14.168 14.115 14.065 14.015 13.975 13.937 13.892 13.845 13.798 13.763 13.743 13.725 13.715 13.717 13.72 13.728 13.735 13.735 13.73 13.725 13.712 13.688 13.665 13.645 13.615 13.585 13.565 13.542 13.51 13.473 13.435 13.395 13.35 13.3 13.252 13.205 13.142 13.065 12.988 12.918 12.85 12.78 12.713 12.655 12.618 12.605 12.603 12.595 12.58 12.565 12.55 12.53 12.507 12.467 12.41 12.355 12.315 12.283 12.25 12.225 12.208 12.198 12.193 12.182 12.147 12.095 12.045 12 11.96 11.925 11.89 11.855 11.825 11.79 11.737 11.69 11.67 11.657 11.647 11.652 11.657 11.657 11.655 11.687 11.707 11.668 11.623 11.58 11.553 11.538 11.52 11.5 11.467 11.427 11.392 11.357 11.322 11.297 11.285 11.275 11.265 11.242 11.2 11.15 11.095 11.05 11.017 10.997 11.005 10.98 10.91 10.815 10.702 10.61
13.16 13.197 13.23 13.51 14.062 14.517 14.75 14.895 15.042 15.1 15.192 15.377 15.49 15.5 15.48 15.467 15.437 15.462 15.52 15.54 15.55 15.568 15.628 15.755 15.925 16.092 16.21 16.29 16.368 16.448 16.535 16.627 16.722 16.807 16.882 16.955 17.02 17.05 17.015 16.945 16.878 16.815 16.783 16.775 16.765 16.755 16.742 16.715 16.685 16.657 16.575 16.445 16.317 16.195 16.103 16.04 15.98 15.925 15.837 15.717 15.607 15.502 15.395 15.292 15.187 15.093 15.11 15.22 15.317 15.375 15.407 15.442 15.478 15.535 15.537 15.462 15.382 15.302 15.212 15.092 14.955 14.817 14.687 14.557 14.42 14.28 14.18 14.125 14.075 14.025 13.96 13.898 13.852 13.808 13.792 13.79 13.77 13.75 13.733 13.728 13.73 13.73 13.725 13.72 13.715 13.707 13.69 13.66 13.635 13.615 13.595 13.577 13.56 13.537 13.512 13.482 13.445 13.405 13.36 13.307 13.252 13.2 13.137 13.06 12.983 12.918 12.855 12.788 12.723 12.653 12.598 12.578 12.573 12.567 12.555 12.54 12.525 12.507 12.477 12.425 12.368 12.318 12.278 12.245 12.213 12.18 12.163 12.155 12.147 12.122 12.072 12.02 11.968 11.928 11.898 11.863 11.828 11.795 11.763 11.728 11.698 11.685 11.7 11.727 11.755 11.78 11.785 11.762 11.717 11.677 11.66 11.635 11.598 11.563 11.538 11.52 11.5 11.48 11.452 11.417 11.382 11.347 11.315 11.307 11.31 11.3 11.29 11.265 11.22 11.17 11.137 11.12 11.097 11.072 11.03 10.965 10.893 10.807 10.72 10.64
13.195 13.245 13.275 13.475 13.9 14.275 14.498 14.653 14.81 14.89 14.872 14.995 15.317 15.472 15.425 15.367 15.295 15.373 15.525 15.57 15.585 15.64 15.733 15.833 15.968 16.13 16.25 16.327 16.4 16.473 16.555 16.65 16.735 16.797 16.86 16.932 17.002 17.042 17.017 16.95 16.885 16.823 16.79 16.787 16.78 16.77 16.752 16.71 16.663 16.632 16.555 16.425 16.305 16.198 16.093 15.995 15.923 15.867 15.775 15.645 15.525 15.418 15.313 15.21 15.108 15.023 15.065 15.195 15.3 15.367 15.405 15.442 15.475 15.505 15.475 15.388 15.303 15.22 15.13 15.01 14.875 14.753 14.65 14.55 14.422 14.28 14.18 14.123 14.07 14.02 13.94 13.845 13.785 13.748 13.765 13.815 13.82 13.798 13.765 13.738 13.73 13.727 13.722 13.717 13.71 13.697 13.67 13.633 13.605 13.585 13.565 13.55 13.535 13.518 13.505 13.487 13.455 13.415 13.37 13.312 13.25 13.195 13.135 13.063 12.993 12.935 12.875 12.81 12.745 12.67 12.603 12.56 12.545 12.54 12.525 12.51 12.495 12.48 12.45 12.395 12.345 12.305 12.265 12.225 12.188 12.155 12.138 12.13 12.105 12.047 11.983 11.93 11.893 11.878 11.857 11.82 11.785 11.752 11.718 11.685 11.665 11.66 11.675 11.705 11.727 11.737 11.73 11.705 11.672 11.64 11.622 11.61 11.582 11.55 11.525 11.505 11.482 11.457 11.427 11.393 11.358 11.323 11.298 11.305 11.317 11.312 11.3 11.272 11.232 11.185 11.155 11.142 11.122 11.097 11.052 10.985 10.902 10.797 10.698 10.615
13.155 13.185 13.163 13.345 13.848 14.215 14.37 14.543 14.727 14.72 14.393 14.4 14.995 15.32 15.247 15.173 15.145 15.305 15.525 15.603 15.653 15.765 15.877 15.955 16.045 16.175 16.287 16.36 16.427 16.495 16.575 16.657 16.72 16.768 16.828 16.905 16.982 17.037 17.022 16.957 16.892 16.828 16.795 16.795 16.792 16.785 16.76 16.71 16.653 16.61 16.532 16.413 16.308 16.21 16.105 15.99 15.888 15.81 15.71 15.578 15.45 15.335 15.23 15.125 15.013 14.928 14.978 15.135 15.275 15.352 15.387 15.42 15.447 15.47 15.427 15.328 15.233 15.14 15.045 14.932 14.813 14.703 14.61 14.527 14.417 14.28 14.18 14.12 14.065 14.012 13.93 13.82 13.733 13.685 13.713 13.795 13.852 13.855 13.812 13.763 13.733 13.723 13.72 13.712 13.7 13.685 13.655 13.615 13.58 13.555 13.535 13.52 13.508 13.495 13.485 13.475 13.457 13.425 13.377 13.317 13.255 13.197 13.135 13.07 13.01 12.955 12.897 12.832 12.762 12.688 12.62 12.563 12.525 12.51 12.498 12.483 12.465 12.45 12.42 12.37 12.33 12.295 12.255 12.21 12.168 12.135 12.112 12.085 12.027 11.953 11.89 11.853 11.843 11.842 11.82 11.78 11.743 11.708 11.675 11.65 11.64 11.64 11.652 11.672 11.68 11.68 11.67 11.645 11.615 11.585 11.565 11.562 11.557 11.535 11.51 11.487 11.462 11.435 11.405 11.37 11.333 11.298 11.283 11.3 11.322 11.327 11.31 11.277 11.242 11.203 11.173 11.16 11.145 11.122 11.075 10.995 10.895 10.783 10.678 10.59
13.138 13.098 13 13.258 13.945 14.45 14.6 14.66 14.727 14.557 14.058 14.048 14.715 15.107 15.067 14.978 15.033 15.275 15.525 15.665 15.775 15.915 16.022 16.095 16.165 16.245 16.325 16.393 16.455 16.517 16.582 16.64 16.687 16.733 16.795 16.875 16.955 17.027 17.027 16.962 16.898 16.835 16.805 16.805 16.805 16.8 16.767 16.71 16.65 16.595 16.518 16.418 16.323 16.228 16.125 16.007 15.882 15.768 15.65 15.518 15.385 15.26 15.142 15.025 14.903 14.828 14.86 15.03 15.25 15.347 15.363 15.388 15.41 15.43 15.395 15.292 15.175 15.057 14.947 14.847 14.752 14.657 14.57 14.49 14.4 14.283 14.185 14.125 14.068 14.007 13.92 13.81 13.703 13.633 13.658 13.743 13.832 13.882 13.857 13.805 13.758 13.728 13.717 13.705 13.688 13.672 13.645 13.605 13.565 13.533 13.513 13.5 13.49 13.48 13.463 13.445 13.435 13.417 13.377 13.32 13.26 13.197 13.135 13.08 13.027 12.975 12.92 12.852 12.778 12.703 12.635 12.578 12.528 12.495 12.478 12.46 12.443 12.425 12.395 12.355 12.32 12.287 12.247 12.2 12.155 12.115 12.07 12.01 11.935 11.86 11.813 11.803 11.808 11.805 11.78 11.742 11.705 11.667 11.638 11.622 11.617 11.618 11.62 11.62 11.62 11.62 11.61 11.585 11.555 11.525 11.505 11.508 11.517 11.51 11.485 11.455 11.43 11.405 11.377 11.345 11.307 11.275 11.268 11.29 11.32 11.335 11.317 11.282 11.247 11.212 11.187 11.175 11.165 11.145 11.085 10.985 10.875 10.765 10.657 10.565
13.182 13.11 12.96 13.188 13.845 14.347 14.47 14.48 14.507 14.342 13.943 14.03 14.607 14.88 14.87 14.82 14.94 15.205 15.435 15.658 15.888 16.063 16.165 16.195 16.225 16.3 16.372 16.435 16.495 16.535 16.565 16.608 16.653 16.703 16.77 16.85 16.93 17.015 17.03 16.965 16.9 16.843 16.815 16.815 16.815 16.817 16.788 16.728 16.67 16.61 16.54 16.455 16.36 16.265 16.147 16.003 15.865 15.735 15.602 15.468 15.335 15.187 15.043 14.922 14.805 14.785 14.915 15.163 15.36 15.373 15.355 15.375 15.392 15.377 15.302 15.187 15.06 14.932 14.815 14.72 14.647 14.59 14.527 14.45 14.372 14.277 14.19 14.13 14.075 14.018 13.93 13.82 13.705 13.613 13.623 13.713 13.805 13.872 13.872 13.827 13.78 13.738 13.713 13.695 13.678 13.662 13.637 13.603 13.565 13.528 13.508 13.498 13.485 13.475 13.445 13.4 13.378 13.37 13.345 13.297 13.24 13.175 13.122 13.082 13.032 12.98 12.927 12.865 12.792 12.718 12.658 12.61 12.56 12.52 12.495 12.475 12.452 12.415 12.375 12.342 12.307 12.275 12.235 12.188 12.142 12.095 12.033 11.958 11.883 11.82 11.793 11.79 11.788 11.775 11.743 11.7 11.66 11.62 11.593 11.583 11.585 11.602 11.6 11.57 11.555 11.555 11.552 11.538 11.513 11.488 11.473 11.475 11.488 11.495 11.457 11.4 11.37 11.345 11.317 11.287 11.252 11.23 11.238 11.267 11.302 11.32 11.3 11.26 11.22 11.185 11.162 11.147 11.132 11.11 11.045 10.94 10.83 10.72 10.612 10.522
13.262 13.23 13.075 13.188 13.655 14.203 14.535 14.366 14.098 14.053 13.968 14.117 14.447 14.53 14.811 15.145 15.25 15.313 15.416 15.748 16.185 16.402 16.305 16.183 16.233 16.338 16.425 16.487 16.53 16.53 16.538 16.575 16.623 16.68 16.75 16.83 16.915 17.01 17.03 16.965 16.9 16.848 16.825 16.828 16.838 16.855 16.832 16.77 16.71 16.65 16.587 16.512 16.422 16.327 16.185 16 15.835 15.693 15.558 15.425 15.275 15.087 14.925 14.813 14.77 14.928 15.227 15.477 15.53 15.438 15.38 15.38 15.367 15.27 15.118 14.993 14.887 14.767 14.653 14.57 14.528 14.512 14.475 14.4 14.325 14.26 14.208 14.158 14.108 14.055 13.97 13.857 13.735 13.618 13.61 13.702 13.787 13.855 13.865 13.823 13.78 13.743 13.715 13.693 13.673 13.657 13.635 13.605 13.572 13.535 13.513 13.503 13.49 13.48 13.442 13.37 13.315 13.295 13.275 13.242 13.197 13.138 13.093 13.065 13.025 12.975 12.925 12.872 12.807 12.733 12.683 12.652 12.61 12.57 12.545 12.517 12.47 12.405 12.355 12.325 12.29 12.255 12.217 12.172 12.125 12.075 12.017 11.945 11.88 11.843 11.825 11.815 11.805 11.787 11.74 11.665 11.603 11.56 11.535 11.538 11.565 11.605 11.607 11.55 11.495 11.483 11.497 11.507 11.495 11.475 11.465 11.468 11.475 11.487 11.442 11.353 11.295 11.263 11.235 11.205 11.183 11.18 11.198 11.23 11.262 11.27 11.24 11.19 11.145 11.107 11.08 11.06 11.037 11.007 10.95 10.86 10.755 10.645 10.543 10.46
13.337 13.352 13.245 13.433 13.98 14.815 15.697 15.515 14.756 14.478 14.173 13.996 14.273 14.89 15.735 16.255 16.337 16.17 16.198 16.547 16.827 16.82 16.428 16.165 16.28 16.395 16.48 16.522 16.525 16.508 16.513 16.548 16.6 16.66 16.73 16.815 16.91 17.01 17.027 16.962 16.9 16.853 16.838 16.85 16.875 16.9 16.882 16.82 16.753 16.69 16.63 16.562 16.482 16.387 16.232 16.03 15.838 15.663 15.513 15.36 15.17 14.96 14.803 14.725 14.74 15.122 15.58 15.682 15.62 15.522 15.435 15.367 15.267 15.103 14.918 14.78 14.693 14.595 14.5 14.453 14.445 14.447 14.415 14.343 14.285 14.263 14.247 14.21 14.157 14.1 14.015 13.895 13.757 13.62 13.6 13.685 13.76 13.83 13.852 13.82 13.783 13.75 13.723 13.698 13.673 13.655 13.635 13.605 13.575 13.543 13.52 13.51 13.5 13.49 13.45 13.37 13.288 13.23 13.198 13.173 13.142 13.098 13.058 13.035 13.01 12.97 12.92 12.87 12.815 12.748 12.7 12.68 12.65 12.617 12.582 12.53 12.46 12.385 12.335 12.305 12.27 12.235 12.2 12.155 12.105 12.057 12.005 11.943 11.9 11.88 11.865 11.855 11.842 11.825 11.777 11.685 11.593 11.52 11.495 11.528 11.572 11.615 11.622 11.56 11.468 11.42 11.435 11.467 11.475 11.465 11.46 11.463 11.468 11.475 11.437 11.343 11.248 11.185 11.153 11.135 11.135 11.145 11.16 11.185 11.202 11.197 11.162 11.108 11.058 11.013 10.98 10.955 10.925 10.892 10.84 10.762 10.67 10.565 10.47 10.395
13.415 13.447 13.42 13.793 14.59 15.71 16.754 16.869 16.382 15.987 15.605 15.313 15.318 15.857 16.624 17.032 17.097 16.87 16.935 17.167 17.072 16.805 16.505 16.35 16.382 16.452 16.515 16.517 16.5 16.483 16.485 16.523 16.58 16.64 16.713 16.808 16.91 17.01 17.025 16.96 16.9 16.863 16.863 16.885 16.915 16.942 16.932 16.875 16.805 16.737 16.672 16.605 16.532 16.437 16.277 16.073 15.87 15.673 15.485 15.288 15.073 14.863 14.743 14.728 14.738 15.248 15.782 15.762 15.66 15.56 15.457 15.325 15.148 14.955 14.763 14.608 14.523 14.46 14.405 14.38 14.378 14.382 14.353 14.305 14.29 14.295 14.292 14.26 14.205 14.145 14.052 13.917 13.773 13.628 13.59 13.66 13.73 13.8 13.835 13.82 13.79 13.76 13.73 13.705 13.68 13.655 13.632 13.605 13.575 13.545 13.525 13.515 13.505 13.495 13.455 13.375 13.285 13.2 13.148 13.12 13.093 13.06 13.03 13.01 12.988 12.955 12.91 12.86 12.81 12.755 12.712 12.69 12.665 12.632 12.58 12.51 12.437 12.365 12.313 12.28 12.247 12.215 12.177 12.13 12.082 12.037 11.99 11.947 11.925 11.91 11.897 11.887 11.87 11.85 11.822 11.752 11.65 11.55 11.498 11.52 11.57 11.617 11.635 11.577 11.47 11.39 11.383 11.418 11.442 11.452 11.455 11.458 11.462 11.467 11.435 11.345 11.235 11.138 11.09 11.088 11.095 11.105 11.118 11.13 11.135 11.125 11.09 11.038 10.983 10.928 10.883 10.848 10.813 10.777 10.725 10.652 10.575 10.485 10.403 10.34
13.477 13.513 13.56 14.008 14.9 16.207 17.134 17.317 17.342 17.265 17.219 17.047 16.64 16.445 16.79 17.142 17.09 16.88 16.987 17.092 16.838 16.568 16.477 16.472 16.452 16.48 16.505 16.487 16.47 16.455 16.465 16.508 16.565 16.625 16.7 16.8 16.907 17.005 17.017 16.955 16.9 16.885 16.905 16.93 16.96 16.987 16.965 16.892 16.817 16.745 16.675 16.605 16.535 16.447 16.307 16.115 15.91 15.71 15.503 15.285 15.065 14.873 14.805 14.825 14.895 15.365 15.772 15.732 15.64 15.535 15.425 15.27 15.07 14.87 14.675 14.538 14.473 14.428 14.393 14.368 14.353 14.343 14.318 14.305 14.312 14.317 14.315 14.295 14.252 14.195 14.095 13.95 13.797 13.64 13.585 13.645 13.715 13.782 13.825 13.822 13.795 13.765 13.735 13.707 13.682 13.652 13.627 13.605 13.578 13.55 13.528 13.515 13.505 13.495 13.455 13.372 13.28 13.19 13.13 13.1 13.073 13.05 13.028 13.005 12.98 12.947 12.89 12.825 12.775 12.725 12.687 12.662 12.635 12.597 12.54 12.47 12.4 12.327 12.273 12.24 12.21 12.18 12.132 12.072 12.022 11.975 11.935 11.915 11.902 11.887 11.895 11.895 11.87 11.85 11.837 11.807 11.73 11.63 11.54 11.508 11.543 11.597 11.622 11.575 11.475 11.383 11.36 11.39 11.418 11.437 11.445 11.45 11.455 11.445 11.405 11.325 11.22 11.11 11.055 11.055 11.06 11.07 11.078 11.08 11.078 11.065 11.03 10.98 10.925 10.86 10.798 10.753 10.715 10.672 10.615 10.545 10.478 10.423 10.373 10.32
13.528 13.573 13.645 13.965 14.893 16.312 17.157 17.31 17.43 17.572 17.617 17.462 17.13 16.855 17.042 17.22 17.04 16.888 16.99 16.967 16.645 16.423 16.37 16.388 16.415 16.452 16.467 16.45 16.435 16.438 16.465 16.505 16.553 16.61 16.688 16.787 16.89 16.977 16.99 16.933 16.903 16.925 16.957 16.983 17.01 17.012 16.952 16.863 16.78 16.703 16.632 16.565 16.495 16.412 16.292 16.13 15.945 15.75 15.545 15.33 15.128 14.973 14.933 14.963 15.15 15.48 15.645 15.655 15.6 15.495 15.385 15.222 15.01 14.805 14.64 14.55 14.5 14.453 14.418 14.395 14.37 14.333 14.31 14.315 14.32 14.32 14.315 14.305 14.282 14.24 14.14 13.985 13.817 13.645 13.588 13.648 13.715 13.777 13.822 13.825 13.795 13.762 13.73 13.702 13.675 13.64 13.615 13.6 13.58 13.555 13.53 13.513 13.5 13.49 13.447 13.365 13.273 13.183 13.123 13.093 13.073 13.06 13.042 13.017 12.987 12.95 12.875 12.78 12.715 12.665 12.63 12.605 12.575 12.54 12.485 12.415 12.345 12.27 12.215 12.185 12.155 12.125 12.07 11.995 11.933 11.88 11.85 11.845 11.835 11.838 11.88 11.89 11.858 11.835 11.825 11.822 11.79 11.71 11.61 11.533 11.52 11.562 11.58 11.542 11.47 11.38 11.35 11.377 11.402 11.422 11.432 11.437 11.43 11.392 11.34 11.28 11.192 11.085 11.03 11.03 11.033 11.04 11.045 11.042 11.03 11.01 10.977 10.93 10.87 10.795 10.723 10.67 10.627 10.577 10.515 10.448 10.405 10.395 10.375 10.33
13.59 13.643 13.718 13.92 14.913 16.384 17.087 17.205 17.325 17.515 17.635 17.597 17.452 17.22 17.207 17.21 16.99 16.895 16.932 16.79 16.463 16.28 16.273 16.308 16.353 16.397 16.42 16.415 16.418 16.44 16.475 16.51 16.545 16.593 16.67 16.765 16.85 16.925 16.947 16.92 16.93 16.975 17.01 17.037 17.047 17.005 16.92 16.83 16.743 16.66 16.587 16.52 16.45 16.367 16.247 16.102 15.947 15.777 15.587 15.388 15.22 15.09 15.055 15.093 15.277 15.47 15.505 15.54 15.532 15.452 15.345 15.177 14.953 14.753 14.633 14.578 14.53 14.48 14.445 14.417 14.375 14.323 14.3 14.31 14.317 14.322 14.317 14.305 14.293 14.272 14.17 13.993 13.817 13.643 13.588 13.65 13.712 13.772 13.82 13.825 13.792 13.757 13.725 13.695 13.66 13.623 13.6 13.59 13.577 13.557 13.535 13.515 13.495 13.48 13.435 13.355 13.267 13.178 13.118 13.093 13.08 13.07 13.055 13.027 12.99 12.95 12.875 12.765 12.67 12.608 12.573 12.545 12.515 12.48 12.427 12.358 12.285 12.21 12.155 12.125 12.097 12.067 12.01 11.933 11.86 11.795 11.768 11.772 11.775 11.82 11.887 11.89 11.853 11.823 11.813 11.815 11.812 11.775 11.69 11.595 11.528 11.525 11.527 11.49 11.442 11.373 11.34 11.363 11.387 11.407 11.42 11.412 11.375 11.322 11.268 11.215 11.152 11.063 11.01 11.008 11.005 11.007 11.007 10.997 10.977 10.955 10.925 10.875 10.805 10.723 10.645 10.588 10.537 10.478 10.415 10.375 10.373 10.385 10.372 10.332
13.657 13.712 13.765 13.895 14.675 15.867 16.652 17.037 17.26 17.485 17.625 17.615 17.555 17.447 17.278 17.08 16.872 16.817 16.812 16.6 16.303 16.175 16.208 16.253 16.298 16.343 16.378 16.398 16.42 16.45 16.485 16.52 16.553 16.59 16.65 16.728 16.8 16.87 16.913 16.935 16.975 17.022 17.06 17.072 17.042 16.97 16.88 16.79 16.702 16.617 16.54 16.47 16.4 16.322 16.205 16.058 15.912 15.765 15.607 15.455 15.322 15.205 15.175 15.22 15.28 15.335 15.365 15.4 15.425 15.395 15.3 15.125 14.895 14.725 14.645 14.6 14.555 14.505 14.462 14.417 14.363 14.308 14.288 14.3 14.313 14.325 14.325 14.318 14.313 14.305 14.2 14.005 13.818 13.638 13.585 13.647 13.705 13.765 13.815 13.82 13.785 13.747 13.717 13.685 13.645 13.608 13.585 13.575 13.567 13.557 13.54 13.52 13.497 13.475 13.425 13.342 13.257 13.17 13.115 13.1 13.09 13.08 13.06 13.025 12.985 12.945 12.872 12.765 12.653 12.563 12.515 12.485 12.455 12.423 12.372 12.303 12.228 12.15 12.095 12.068 12.043 12.012 11.955 11.877 11.8 11.72 11.688 11.7 11.74 11.835 11.902 11.89 11.85 11.813 11.8 11.805 11.81 11.805 11.757 11.675 11.578 11.513 11.48 11.44 11.4 11.353 11.33 11.348 11.373 11.395 11.395 11.358 11.303 11.25 11.195 11.14 11.09 11.028 10.99 10.988 10.985 10.975 10.957 10.94 10.92 10.9 10.87 10.812 10.735 10.653 10.575 10.513 10.455 10.393 10.348 10.343 10.358 10.375 10.365 10.327
13.715 13.76 13.778 13.855 14.25 14.783 15.438 16.272 16.967 17.422 17.615 17.627 17.583 17.555 17.415 16.953 16.443 16.428 16.56 16.373 16.17 16.153 16.203 16.245 16.288 16.33 16.365 16.398 16.43 16.462 16.5 16.538 16.573 16.608 16.655 16.72 16.788 16.855 16.9 16.93 16.975 17.025 17.047 17.02 16.965 16.89 16.8 16.712 16.633 16.563 16.49 16.413 16.34 16.267 16.157 16.01 15.865 15.725 15.595 15.48 15.365 15.293 15.305 15.355 15.378 15.36 15.33 15.303 15.303 15.313 15.247 15.07 14.838 14.69 14.637 14.592 14.545 14.497 14.462 14.42 14.365 14.313 14.295 14.313 14.325 14.327 14.335 14.347 14.35 14.347 14.245 14.043 13.84 13.648 13.583 13.635 13.69 13.758 13.812 13.802 13.757 13.72 13.69 13.67 13.637 13.595 13.57 13.56 13.553 13.545 13.53 13.51 13.49 13.457 13.395 13.312 13.23 13.15 13.103 13.09 13.08 13.067 13.042 13.005 12.967 12.93 12.86 12.752 12.638 12.54 12.48 12.445 12.415 12.382 12.332 12.263 12.185 12.105 12.05 12.025 12 11.967 11.905 11.82 11.735 11.645 11.633 11.7 11.788 11.882 11.917 11.887 11.845 11.805 11.788 11.792 11.797 11.802 11.78 11.705 11.602 11.513 11.455 11.415 11.375 11.343 11.335 11.35 11.373 11.395 11.377 11.323 11.265 11.208 11.15 11.093 11.043 10.998 10.975 10.975 10.965 10.927 10.89 10.87 10.85 10.832 10.81 10.76 10.685 10.608 10.535 10.475 10.423 10.365 10.328 10.328 10.345 10.362 10.352 10.317
13.76 13.78 13.78 13.883 14.15 14.285 14.478 15.031 15.86 16.705 17.339 17.642 17.65 17.64 17.59 17.162 16.323 16.028 16.232 16.16 16.088 16.172 16.235 16.277 16.317 16.345 16.368 16.403 16.44 16.473 16.513 16.557 16.597 16.633 16.683 16.748 16.813 16.877 16.91 16.908 16.925 16.97 16.972 16.913 16.848 16.777 16.69 16.615 16.56 16.51 16.44 16.353 16.275 16.202 16.1 15.96 15.818 15.695 15.585 15.473 15.393 15.395 15.445 15.495 15.542 15.545 15.48 15.39 15.33 15.3 15.207 15.015 14.78 14.635 14.592 14.555 14.51 14.463 14.44 14.427 14.387 14.34 14.33 14.342 14.337 14.323 14.335 14.367 14.385 14.39 14.29 14.088 13.89 13.7 13.595 13.613 13.683 13.775 13.825 13.782 13.72 13.68 13.653 13.645 13.627 13.59 13.563 13.55 13.54 13.53 13.515 13.492 13.462 13.417 13.35 13.27 13.193 13.123 13.078 13.055 13.04 13.027 13.005 12.97 12.932 12.897 12.83 12.723 12.615 12.53 12.47 12.425 12.39 12.357 12.307 12.235 12.155 12.078 12.025 11.998 11.967 11.93 11.86 11.775 11.7 11.625 11.668 11.807 11.89 11.91 11.9 11.872 11.832 11.79 11.77 11.775 11.78 11.785 11.76 11.677 11.583 11.505 11.45 11.41 11.373 11.353 11.355 11.37 11.39 11.405 11.382 11.327 11.268 11.205 11.145 11.083 11.028 10.985 10.965 10.955 10.92 10.86 10.815 10.795 10.775 10.76 10.745 10.715 10.657 10.583 10.515 10.465 10.422 10.372 10.325 10.315 10.332 10.345 10.335 10.3
13.79 13.803 13.813 13.945 14.245 14.415 14.458 14.528 14.811 15.375 16.173 16.98 17.492 17.71 17.692 17.07 16.158 15.873 15.968 16.01 16.065 16.187 16.267 16.307 16.332 16.345 16.368 16.407 16.447 16.48 16.52 16.57 16.617 16.658 16.708 16.772 16.837 16.902 16.93 16.908 16.888 16.905 16.897 16.825 16.745 16.67 16.6 16.55 16.515 16.47 16.395 16.305 16.22 16.14 16.042 15.915 15.788 15.683 15.58 15.498 15.49 15.535 15.585 15.635 15.685 15.722 15.7 15.622 15.522 15.395 15.212 14.97 14.72 14.575 14.535 14.505 14.47 14.428 14.403 14.405 14.395 14.37 14.36 14.35 14.327 14.31 14.325 14.367 14.405 14.425 14.332 14.143 13.96 13.78 13.63 13.613 13.71 13.822 13.85 13.775 13.693 13.638 13.618 13.612 13.605 13.585 13.56 13.542 13.53 13.52 13.502 13.47 13.422 13.37 13.305 13.23 13.16 13.098 13.055 13.025 13 12.985 12.962 12.927 12.89 12.855 12.792 12.695 12.603 12.523 12.46 12.413 12.37 12.335 12.285 12.21 12.13 12.055 12.005 11.972 11.935 11.895 11.83 11.77 11.735 11.688 11.76 11.887 11.902 11.87 11.845 11.832 11.81 11.773 11.753 11.757 11.762 11.767 11.732 11.653 11.575 11.505 11.45 11.41 11.383 11.373 11.375 11.387 11.402 11.41 11.385 11.33 11.272 11.212 11.15 11.088 11.028 10.978 10.945 10.91 10.855 10.79 10.743 10.722 10.705 10.688 10.67 10.65 10.617 10.557 10.498 10.455 10.415 10.372 10.325 10.305 10.315 10.325 10.315 10.28
13.84 13.86 13.915 14.095 14.365 14.517 14.567 14.595 14.63 14.763 15.123 15.698 16.465 17.192 17.289 16.41 15.716 15.773 15.855 15.955 16.08 16.207 16.292 16.322 16.335 16.345 16.37 16.41 16.45 16.488 16.53 16.58 16.63 16.677 16.73 16.795 16.862 16.927 16.945 16.915 16.882 16.865 16.832 16.758 16.678 16.605 16.553 16.515 16.48 16.43 16.35 16.26 16.17 16.082 15.99 15.882 15.775 15.675 15.598 15.585 15.625 15.675 15.725 15.775 15.825 15.87 15.872 15.797 15.655 15.475 15.242 14.952 14.67 14.518 14.48 14.45 14.418 14.383 14.363 14.37 14.385 14.382 14.362 14.337 14.313 14.298 14.315 14.36 14.405 14.435 14.367 14.202 14.022 13.84 13.685 13.67 13.77 13.865 13.862 13.77 13.677 13.608 13.583 13.577 13.575 13.567 13.547 13.525 13.505 13.487 13.462 13.42 13.37 13.322 13.262 13.195 13.13 13.07 13.03 13 12.972 12.95 12.92 12.882 12.847 12.812 12.757 12.68 12.597 12.515 12.453 12.408 12.36 12.318 12.263 12.188 12.113 12.04 11.985 11.945 11.905 11.865 11.823 11.798 11.787 11.763 11.797 11.847 11.833 11.81 11.795 11.783 11.77 11.75 11.738 11.74 11.742 11.747 11.715 11.645 11.575 11.505 11.448 11.413 11.4 11.395 11.393 11.4 11.41 11.412 11.385 11.33 11.275 11.217 11.155 11.092 11.03 10.97 10.913 10.853 10.788 10.72 10.67 10.648 10.633 10.615 10.595 10.575 10.555 10.522 10.48 10.44 10.4 10.36 10.32 10.295 10.295 10.305 10.297 10.268
13.92 13.945 14.048 14.242 14.432 14.54 14.57 14.603 14.698 14.85 15.01 15.133 15.453 16.03 16.215 15.9 15.725 15.805 15.915 16.035 16.152 16.24 16.29 16.312 16.325 16.34 16.373 16.415 16.458 16.5 16.545 16.595 16.642 16.682 16.73 16.795 16.862 16.92 16.927 16.895 16.865 16.837 16.79 16.718 16.648 16.585 16.535 16.493 16.452 16.375 16.265 16.167 16.072 15.977 15.847 15.682 15.592 15.607 15.635 15.66 15.697 15.732 15.77 15.807 15.845 15.88 15.877 15.765 15.587 15.412 15.175 14.877 14.615 14.488 14.46 14.438 14.41 14.383 14.365 14.373 14.395 14.392 14.358 14.323 14.298 14.285 14.305 14.35 14.387 14.402 14.362 14.237 14.062 13.88 13.758 13.77 13.852 13.887 13.835 13.737 13.643 13.573 13.543 13.535 13.532 13.527 13.505 13.467 13.437 13.412 13.38 13.337 13.298 13.265 13.217 13.155 13.095 13.04 12.998 12.962 12.932 12.902 12.865 12.827 12.792 12.755 12.705 12.64 12.565 12.493 12.445 12.407 12.36 12.315 12.26 12.19 12.118 12.045 11.988 11.945 11.905 11.865 11.838 11.825 11.815 11.805 11.795 11.788 11.783 11.775 11.765 11.75 11.735 11.733 11.72 11.705 11.705 11.707 11.692 11.642 11.575 11.508 11.453 11.43 11.43 11.43 11.43 11.435 11.442 11.425 11.38 11.325 11.267 11.212 11.157 11.095 11.03 10.965 10.895 10.825 10.755 10.68 10.625 10.6 10.583 10.565 10.545 10.525 10.505 10.485 10.457 10.422 10.385 10.345 10.308 10.288 10.288 10.295 10.295 10.275
13.995 14.035 14.133 14.28 14.422 14.527 14.57 14.64 14.778 14.935 15.095 15.227 15.333 15.488 15.66 15.78 15.865 15.948 16.052 16.15 16.215 16.25 16.27 16.288 16.31 16.348 16.393 16.435 16.478 16.523 16.57 16.615 16.647 16.67 16.71 16.775 16.835 16.88 16.882 16.853 16.828 16.807 16.765 16.698 16.635 16.578 16.525 16.477 16.427 16.34 16.195 16.035 15.908 15.805 15.615 15.32 15.133 15.34 15.59 15.615 15.64 15.66 15.685 15.712 15.743 15.775 15.76 15.592 15.383 15.202 14.965 14.745 14.598 14.523 14.498 14.48 14.46 14.437 14.415 14.413 14.427 14.425 14.375 14.315 14.283 14.273 14.295 14.332 14.35 14.345 14.317 14.235 14.09 13.915 13.83 13.865 13.892 13.857 13.775 13.675 13.588 13.533 13.503 13.485 13.478 13.472 13.445 13.395 13.35 13.318 13.285 13.248 13.223 13.202 13.162 13.105 13.058 13.023 12.97 12.913 12.873 12.837 12.8 12.763 12.727 12.69 12.64 12.575 12.508 12.45 12.425 12.412 12.375 12.328 12.275 12.212 12.142 12.07 12.015 11.975 11.935 11.895 11.865 11.848 11.835 11.825 11.8 11.77 11.76 11.755 11.743 11.73 11.728 11.74 11.718 11.67 11.655 11.655 11.65 11.625 11.572 11.508 11.468 11.47 11.48 11.485 11.49 11.492 11.48 11.432 11.373 11.315 11.255 11.198 11.145 11.09 11.03 10.965 10.895 10.822 10.747 10.665 10.605 10.58 10.56 10.538 10.515 10.493 10.473 10.455 10.43 10.402 10.37 10.33 10.293 10.28 10.287 10.295 10.3 10.292
14.09 14.148 14.215 14.298 14.408 14.515 14.593 14.705 14.865 15.025 15.182 15.323 15.463 15.632 15.787 15.9 15.995 16.08 16.162 16.212 16.225 16.238 16.255 16.28 16.323 16.378 16.425 16.465 16.505 16.547 16.59 16.62 16.635 16.65 16.69 16.747 16.795 16.835 16.837 16.813 16.798 16.785 16.745 16.683 16.625 16.57 16.515 16.462 16.4 16.32 16.19 15.99 15.793 15.635 15.387 15.012 14.658 14.94 15.43 15.492 15.518 15.543 15.573 15.605 15.638 15.672 15.65 15.447 15.18 14.993 14.835 14.725 14.655 14.595 14.563 14.542 14.515 14.485 14.463 14.46 14.467 14.467 14.415 14.328 14.273 14.26 14.277 14.292 14.29 14.28 14.26 14.2 14.092 13.953 13.888 13.89 13.845 13.78 13.702 13.61 13.545 13.505 13.47 13.445 13.43 13.417 13.385 13.335 13.283 13.235 13.2 13.175 13.165 13.15 13.108 13.06 13.033 13.02 12.967 12.885 12.82 12.773 12.735 12.698 12.663 12.625 12.575 12.515 12.458 12.405 12.39 12.402 12.387 12.345 12.29 12.227 12.162 12.098 12.043 12.003 11.965 11.925 11.895 11.875 11.858 11.842 11.81 11.768 11.743 11.73 11.723 11.725 11.74 11.762 11.74 11.665 11.615 11.603 11.595 11.585 11.557 11.503 11.48 11.505 11.53 11.542 11.547 11.535 11.487 11.425 11.365 11.305 11.245 11.185 11.13 11.08 11.027 10.965 10.892 10.812 10.73 10.645 10.585 10.558 10.535 10.512 10.488 10.463 10.44 10.42 10.398 10.372 10.345 10.31 10.28 10.275 10.285 10.295 10.302 10.302
14.218 14.282 14.34 14.39 14.455 14.538 14.648 14.795 14.955 15.115 15.273 15.425 15.59 15.77 15.915 16.02 16.107 16.18 16.245 16.28 16.285 16.29 16.305 16.335 16.378 16.42 16.455 16.49 16.527 16.565 16.595 16.61 16.62 16.633 16.663 16.705 16.745 16.782 16.792 16.78 16.77 16.762 16.73 16.673 16.615 16.56 16.505 16.442 16.367 16.282 16.185 16.025 15.787 15.442 15.012 14.638 14.455 14.76 15.225 15.372 15.402 15.435 15.468 15.502 15.535 15.567 15.537 15.327 15.06 14.92 14.852 14.787 14.722 14.66 14.62 14.595 14.562 14.53 14.51 14.51 14.512 14.507 14.46 14.365 14.283 14.245 14.24 14.235 14.223 14.21 14.197 14.147 14.065 13.975 13.905 13.848 13.773 13.703 13.63 13.56 13.513 13.475 13.44 13.415 13.393 13.37 13.335 13.288 13.243 13.193 13.153 13.13 13.118 13.097 13.06 13.035 13.025 13.017 12.977 12.895 12.805 12.728 12.675 12.638 12.603 12.565 12.518 12.465 12.415 12.365 12.348 12.365 12.377 12.357 12.305 12.243 12.18 12.12 12.068 12.028 11.992 11.955 11.925 11.905 11.885 11.86 11.822 11.777 11.735 11.715 11.723 11.74 11.763 11.787 11.767 11.685 11.6 11.555 11.54 11.533 11.52 11.495 11.495 11.525 11.56 11.587 11.587 11.547 11.48 11.415 11.355 11.295 11.235 11.175 11.118 11.065 11.015 10.957 10.882 10.795 10.71 10.63 10.573 10.538 10.508 10.485 10.46 10.435 10.413 10.39 10.37 10.345 10.32 10.293 10.275 10.28 10.29 10.3 10.31 10.313
14.355 14.392 14.43 14.49 14.54 14.608 14.735 14.903 15.065 15.223 15.38 15.545 15.725 15.907 16.042 16.13 16.2 16.258 16.322 16.377 16.397 16.403 16.418 16.445 16.475 16.505 16.518 16.518 16.538 16.573 16.597 16.61 16.63 16.648 16.643 16.65 16.685 16.722 16.737 16.73 16.72 16.717 16.707 16.665 16.605 16.55 16.49 16.385 16.277 16.202 16.127 15.977 15.612 15.04 14.56 14.37 14.505 14.85 15.16 15.275 15.283 15.325 15.362 15.397 15.432 15.465 15.425 15.243 15.033 14.92 14.86 14.8 14.742 14.685 14.64 14.612 14.585 14.557 14.535 14.525 14.52 14.51 14.462 14.372 14.285 14.233 14.215 14.203 14.188 14.173 14.158 14.12 14.058 13.993 13.92 13.84 13.76 13.685 13.62 13.55 13.493 13.455 13.415 13.383 13.358 13.332 13.302 13.265 13.223 13.178 13.14 13.108 13.08 13.055 13.035 13.027 13.02 13.01 12.98 12.91 12.815 12.72 12.648 12.6 12.563 12.525 12.48 12.43 12.38 12.33 12.313 12.33 12.352 12.352 12.315 12.26 12.2 12.14 12.09 12.05 12.015 11.982 11.953 11.93 11.907 11.865 11.812 11.767 11.733 11.73 11.75 11.772 11.792 11.8 11.765 11.68 11.588 11.533 11.515 11.505 11.495 11.493 11.503 11.525 11.557 11.592 11.587 11.532 11.465 11.397 11.335 11.275 11.215 11.163 11.108 11.05 10.998 10.94 10.867 10.78 10.7 10.64 10.595 10.555 10.518 10.485 10.455 10.43 10.413 10.395 10.375 10.35 10.325 10.303 10.298 10.31 10.32 10.33 10.35 10.383
14.467 14.443 14.463 14.55 14.61 14.69 14.835 15.015 15.187 15.347 15.505 15.675 15.86 16.032 16.147 16.215 16.275 16.333 16.397 16.465 16.505 16.518 16.538 16.567 16.595 16.625 16.625 16.595 16.583 16.59 16.61 16.64 16.682 16.697 16.655 16.615 16.62 16.652 16.667 16.66 16.655 16.66 16.662 16.642 16.595 16.54 16.46 16.305 16.145 16.055 15.995 15.73 15.1 14.563 14.395 14.42 14.62 14.955 15.237 15.3 15.248 15.213 15.213 15.25 15.292 15.335 15.33 15.215 15.035 14.91 14.845 14.785 14.728 14.673 14.63 14.605 14.58 14.552 14.527 14.508 14.493 14.48 14.43 14.345 14.27 14.225 14.212 14.205 14.195 14.18 14.16 14.13 14.082 14.025 13.957 13.88 13.805 13.748 13.695 13.595 13.493 13.443 13.4 13.355 13.323 13.298 13.275 13.25 13.21 13.165 13.13 13.095 13.06 13.035 13.022 13.015 13.005 12.992 12.965 12.907 12.822 12.73 12.65 12.585 12.538 12.5 12.455 12.405 12.355 12.305 12.29 12.307 12.325 12.332 12.315 12.275 12.22 12.158 12.108 12.073 12.038 12.005 11.977 11.952 11.912 11.845 11.78 11.74 11.738 11.767 11.792 11.802 11.797 11.777 11.727 11.64 11.568 11.533 11.515 11.505 11.5 11.508 11.51 11.513 11.535 11.567 11.56 11.505 11.442 11.375 11.31 11.25 11.195 11.155 11.105 11.043 10.985 10.925 10.853 10.775 10.718 10.68 10.645 10.605 10.568 10.533 10.493 10.458 10.438 10.422 10.405 10.382 10.358 10.338 10.34 10.357 10.37 10.38 10.415 10.49
14.52 14.455 14.48 14.595 14.677 14.77 14.928 15.112 15.295 15.47 15.635 15.807 15.982 16.127 16.222 16.285 16.345 16.405 16.47 16.542 16.602 16.635 16.66 16.687 16.715 16.745 16.745 16.715 16.683 16.65 16.655 16.703 16.752 16.747 16.688 16.625 16.585 16.585 16.595 16.595 16.6 16.608 16.608 16.6 16.575 16.53 16.42 16.235 16.045 15.908 15.812 15.367 14.653 14.385 14.48 14.57 14.748 15.035 15.3 15.42 15.37 15.25 15.168 15.128 15.115 15.143 15.17 15.13 15.02 14.908 14.83 14.77 14.713 14.66 14.62 14.592 14.565 14.538 14.513 14.49 14.47 14.452 14.405 14.333 14.265 14.218 14.205 14.207 14.207 14.197 14.177 14.145 14.102 14.055 13.992 13.928 13.878 13.845 13.795 13.675 13.53 13.44 13.39 13.34 13.295 13.265 13.245 13.225 13.195 13.155 13.12 13.085 13.05 13.023 13.005 12.995 12.982 12.962 12.93 12.885 12.82 12.735 12.655 12.583 12.52 12.475 12.43 12.38 12.33 12.28 12.265 12.28 12.295 12.305 12.295 12.27 12.232 12.177 12.128 12.095 12.062 12.028 12 11.967 11.902 11.82 11.753 11.733 11.765 11.8 11.805 11.787 11.76 11.73 11.68 11.61 11.563 11.535 11.515 11.508 11.515 11.535 11.537 11.525 11.525 11.54 11.525 11.472 11.415 11.352 11.29 11.235 11.19 11.152 11.102 11.04 10.977 10.915 10.853 10.8 10.765 10.735 10.7 10.66 10.628 10.6 10.555 10.503 10.468 10.448 10.43 10.41 10.388 10.375 10.385 10.403 10.417 10.43 10.475 10.57
14.568 14.478 14.5 14.625 14.735 14.855 15.023 15.207 15.392 15.575 15.75 15.917 16.07 16.197 16.287 16.35 16.413 16.475 16.54 16.615 16.69 16.73 16.757 16.8 16.832 16.86 16.862 16.83 16.787 16.74 16.725 16.767 16.807 16.785 16.722 16.658 16.595 16.565 16.563 16.563 16.568 16.57 16.565 16.555 16.543 16.502 16.367 16.168 15.973 15.793 15.565 15.028 14.488 14.423 14.577 14.705 14.89 15.147 15.377 15.52 15.525 15.43 15.305 15.173 15.06 15.005 14.99 14.978 14.945 14.885 14.82 14.763 14.71 14.65 14.602 14.575 14.547 14.522 14.5 14.48 14.46 14.437 14.392 14.327 14.263 14.213 14.195 14.2 14.205 14.205 14.19 14.155 14.115 14.075 14.022 13.975 13.945 13.917 13.857 13.735 13.585 13.46 13.383 13.33 13.28 13.238 13.21 13.19 13.168 13.14 13.11 13.077 13.045 13.013 12.988 12.973 12.955 12.93 12.895 12.855 12.807 12.737 12.66 12.59 12.52 12.458 12.405 12.355 12.305 12.255 12.24 12.255 12.268 12.275 12.265 12.245 12.222 12.187 12.147 12.115 12.082 12.047 12.017 11.97 11.895 11.815 11.755 11.76 11.805 11.81 11.777 11.745 11.713 11.68 11.64 11.598 11.567 11.54 11.518 11.518 11.537 11.562 11.57 11.555 11.535 11.517 11.485 11.435 11.38 11.323 11.27 11.227 11.19 11.15 11.1 11.037 10.967 10.9 10.857 10.837 10.817 10.79 10.757 10.722 10.695 10.67 10.627 10.568 10.513 10.478 10.455 10.438 10.423 10.423 10.438 10.45 10.465 10.483 10.538 10.64
14.665 14.553 14.558 14.673 14.795 14.935 15.105 15.287 15.472 15.655 15.827 15.982 16.127 16.267 16.365 16.425 16.488 16.55 16.615 16.688 16.767 16.802 16.805 16.837 16.882 16.93 16.955 16.93 16.88 16.83 16.795 16.82 16.85 16.815 16.755 16.693 16.648 16.633 16.628 16.625 16.625 16.613 16.593 16.58 16.565 16.505 16.35 16.148 15.948 15.745 15.365 14.763 14.41 14.468 14.665 14.863 15.048 15.258 15.48 15.637 15.655 15.55 15.402 15.255 15.105 14.988 14.935 14.915 14.898 14.878 14.838 14.782 14.717 14.63 14.568 14.542 14.52 14.5 14.49 14.48 14.46 14.435 14.387 14.323 14.258 14.205 14.185 14.19 14.195 14.192 14.185 14.16 14.12 14.077 14.03 13.982 13.945 13.915 13.847 13.725 13.59 13.48 13.41 13.358 13.305 13.253 13.218 13.2 13.175 13.13 13.085 13.055 13.025 13 12.978 12.955 12.935 12.913 12.88 12.84 12.798 12.737 12.663 12.587 12.515 12.443 12.39 12.352 12.305 12.255 12.238 12.25 12.257 12.25 12.23 12.21 12.19 12.172 12.137 12.092 12.057 12.022 11.997 11.97 11.915 11.84 11.793 11.81 11.832 11.8 11.745 11.705 11.673 11.64 11.613 11.585 11.56 11.535 11.513 11.518 11.54 11.565 11.57 11.547 11.52 11.487 11.442 11.39 11.338 11.29 11.245 11.202 11.165 11.127 11.082 11.02 10.947 10.878 10.84 10.835 10.827 10.815 10.795 10.765 10.737 10.707 10.675 10.627 10.565 10.518 10.493 10.48 10.478 10.49 10.505 10.515 10.53 10.545 10.598 10.7
14.78 14.67 14.67 14.768 14.878 15.008 15.17 15.352 15.537 15.72 15.885 16.035 16.188 16.34 16.45 16.515 16.575 16.633 16.693 16.765 16.85 16.885 16.86 16.845 16.865 16.92 16.967 16.975 16.957 16.92 16.873 16.878 16.89 16.845 16.793 16.755 16.745 16.75 16.75 16.75 16.74 16.705 16.675 16.665 16.625 16.53 16.372 16.175 15.97 15.765 15.342 14.675 14.448 14.678 14.923 15.148 15.31 15.46 15.625 15.782 15.785 15.62 15.438 15.275 15.125 15.003 14.945 14.928 14.915 14.902 14.87 14.805 14.705 14.593 14.525 14.5 14.483 14.468 14.47 14.475 14.46 14.432 14.382 14.318 14.253 14.198 14.178 14.182 14.18 14.16 14.155 14.15 14.115 14.07 14.02 13.965 13.915 13.88 13.805 13.685 13.585 13.52 13.472 13.422 13.37 13.318 13.283 13.26 13.207 13.118 13.05 13.02 12.998 12.993 12.977 12.948 12.925 12.905 12.88 12.847 12.805 12.747 12.665 12.573 12.493 12.418 12.375 12.355 12.32 12.275 12.255 12.262 12.255 12.225 12.193 12.173 12.16 12.152 12.11 12.043 11.995 11.958 11.943 11.952 11.94 11.88 11.838 11.847 11.835 11.78 11.72 11.67 11.635 11.608 11.585 11.563 11.54 11.518 11.503 11.505 11.518 11.54 11.537 11.503 11.47 11.44 11.397 11.343 11.295 11.26 11.215 11.163 11.12 11.082 11.04 10.982 10.917 10.85 10.81 10.805 10.805 10.81 10.802 10.775 10.742 10.705 10.68 10.657 10.61 10.563 10.54 10.538 10.55 10.567 10.582 10.595 10.605 10.613 10.66 10.755
14.898 14.793 14.795 14.885 14.98 15.09 15.235 15.415 15.6 15.78 15.945 16.098 16.255 16.41 16.53 16.605 16.662 16.715 16.767 16.842 16.935 16.972 16.947 16.913 16.888 16.89 16.915 16.948 16.972 16.975 16.955 16.947 16.932 16.893 16.868 16.863 16.868 16.87 16.87 16.865 16.835 16.785 16.755 16.73 16.652 16.535 16.39 16.205 16 15.795 15.398 14.908 14.83 15.078 15.317 15.5 15.65 15.787 15.902 15.957 15.872 15.695 15.502 15.313 15.148 15.018 14.955 14.943 14.937 14.93 14.892 14.8 14.67 14.55 14.488 14.465 14.448 14.433 14.438 14.455 14.455 14.43 14.377 14.313 14.248 14.19 14.17 14.167 14.145 14.115 14.115 14.13 14.11 14.062 14.01 13.955 13.898 13.85 13.78 13.693 13.632 13.585 13.537 13.49 13.44 13.39 13.35 13.297 13.205 13.095 13.023 13 12.995 13 12.982 12.943 12.915 12.895 12.875 12.852 12.82 12.772 12.685 12.573 12.475 12.395 12.355 12.34 12.32 12.288 12.268 12.26 12.23 12.19 12.158 12.143 12.143 12.14 12.095 12.018 11.948 11.9 11.893 11.913 11.927 11.907 11.88 11.86 11.815 11.755 11.695 11.64 11.6 11.575 11.558 11.54 11.52 11.503 11.495 11.495 11.498 11.512 11.502 11.46 11.423 11.39 11.35 11.303 11.265 11.235 11.19 11.133 11.08 11.038 10.992 10.938 10.88 10.818 10.783 10.783 10.79 10.802 10.802 10.777 10.74 10.7 10.673 10.66 10.637 10.608 10.598 10.61 10.628 10.643 10.658 10.67 10.675 10.68 10.73 10.823
15.02 14.92 14.92 15.01 15.1 15.195 15.313 15.478 15.67 15.858 16.025 16.175 16.328 16.48 16.61 16.692 16.737 16.775 16.818 16.895 17.002 17.05 17.025 16.985 16.945 16.908 16.903 16.93 16.958 16.982 16.997 17 16.992 16.983 16.982 16.987 16.99 16.992 16.99 16.967 16.92 16.865 16.83 16.77 16.66 16.54 16.407 16.235 16.035 15.838 15.588 15.428 15.435 15.52 15.67 15.825 15.975 16.115 16.165 16.052 15.87 15.705 15.532 15.35 15.18 15.038 14.97 14.963 14.96 14.955 14.897 14.775 14.638 14.528 14.475 14.458 14.443 14.423 14.415 14.43 14.445 14.427 14.373 14.308 14.243 14.183 14.153 14.133 14.1 14.075 14.078 14.1 14.097 14.055 14 13.948 13.89 13.828 13.767 13.715 13.667 13.62 13.572 13.527 13.48 13.432 13.38 13.295 13.185 13.075 13.008 13 13.005 13.007 12.985 12.94 12.908 12.885 12.865 12.845 12.822 12.792 12.715 12.595 12.48 12.383 12.338 12.328 12.315 12.295 12.27 12.24 12.2 12.16 12.133 12.128 12.133 12.132 12.09 12.013 11.935 11.888 11.888 11.9 11.913 11.92 11.902 11.862 11.818 11.773 11.73 11.69 11.65 11.61 11.575 11.543 11.51 11.493 11.49 11.49 11.488 11.487 11.467 11.425 11.383 11.343 11.305 11.27 11.24 11.207 11.162 11.105 11.045 10.998 10.953 10.9 10.848 10.793 10.765 10.77 10.783 10.797 10.802 10.78 10.74 10.698 10.668 10.66 10.658 10.658 10.67 10.69 10.708 10.723 10.735 10.74 10.74 10.75 10.805 10.897
15.145 15.048 15.045 15.135 15.225 15.318 15.425 15.573 15.76 15.957 16.127 16.273 16.418 16.562 16.682 16.752 16.785 16.81 16.843 16.92 17.027 17.075 17.065 17.032 16.99 16.95 16.938 16.955 16.975 16.992 16.997 17.005 17.04 17.067 17.075 17.085 17.092 17.092 17.077 17.047 17 16.947 16.887 16.79 16.675 16.563 16.45 16.305 16.123 15.935 15.833 15.85 15.887 15.907 15.99 16.14 16.247 16.29 16.215 16.02 15.823 15.655 15.495 15.335 15.18 15.045 14.985 14.98 14.972 14.967 14.9 14.765 14.635 14.55 14.515 14.5 14.49 14.453 14.415 14.42 14.432 14.422 14.392 14.338 14.268 14.205 14.165 14.143 14.115 14.083 14.075 14.093 14.092 14.055 14 13.95 13.89 13.81 13.745 13.702 13.657 13.612 13.565 13.517 13.472 13.427 13.365 13.27 13.163 13.068 13.018 13.015 13.02 13.007 12.972 12.93 12.892 12.865 12.845 12.825 12.805 12.785 12.737 12.64 12.523 12.415 12.363 12.355 12.343 12.315 12.273 12.23 12.19 12.153 12.13 12.128 12.133 12.135 12.097 12.023 11.96 11.938 11.945 11.95 11.955 11.96 11.925 11.863 11.82 11.79 11.762 11.737 11.705 11.657 11.605 11.555 11.515 11.498 11.495 11.495 11.49 11.472 11.435 11.39 11.345 11.3 11.265 11.232 11.2 11.167 11.125 11.07 11.01 10.963 10.935 10.9 10.85 10.8 10.768 10.763 10.775 10.79 10.8 10.792 10.76 10.718 10.69 10.69 10.703 10.728 10.755 10.773 10.79 10.807 10.817 10.818 10.815 10.823 10.875 10.965
15.275 15.175 15.17 15.26 15.355 15.46 15.58 15.713 15.87 16.06 16.232 16.377 16.515 16.635 16.722 16.775 16.81 16.84 16.87 16.942 17.022 17.047 17.05 17.042 17.022 16.99 16.975 16.987 16.992 16.985 16.965 16.978 17.045 17.105 17.13 17.132 17.12 17.095 17.06 17.03 17 16.957 16.91 16.832 16.73 16.625 16.525 16.415 16.26 16.075 16 16.07 16.155 16.21 16.28 16.35 16.347 16.277 16.145 15.965 15.778 15.605 15.453 15.305 15.163 15.045 14.993 14.985 14.978 14.972 14.905 14.77 14.665 14.613 14.588 14.572 14.545 14.482 14.425 14.417 14.417 14.407 14.405 14.387 14.332 14.268 14.23 14.207 14.172 14.125 14.108 14.117 14.105 14.062 14.01 13.955 13.88 13.785 13.715 13.675 13.632 13.587 13.542 13.495 13.448 13.402 13.34 13.245 13.148 13.08 13.045 13.037 13.027 12.987 12.937 12.895 12.86 12.83 12.803 12.78 12.76 12.74 12.72 12.677 12.59 12.483 12.425 12.412 12.385 12.335 12.28 12.235 12.195 12.158 12.135 12.133 12.14 12.147 12.112 12.048 12.015 12.015 12.022 12.027 12.032 12.03 11.977 11.878 11.8 11.76 11.733 11.71 11.687 11.65 11.6 11.555 11.525 11.51 11.505 11.502 11.49 11.46 11.41 11.353 11.303 11.26 11.225 11.19 11.155 11.125 11.082 11.028 10.975 10.935 10.925 10.917 10.88 10.833 10.795 10.773 10.77 10.78 10.795 10.807 10.797 10.765 10.743 10.75 10.775 10.81 10.84 10.858 10.875 10.892 10.9 10.9 10.903 10.905 10.945 11.03
15.405 15.305 15.298 15.395 15.507 15.627 15.752 15.877 16.01 16.168 16.332 16.467 16.575 16.667 16.737 16.785 16.825 16.865 16.9 16.955 17.002 17.01 17.013 17.017 17.017 17.007 16.995 16.985 16.965 16.935 16.915 16.953 17.035 17.11 17.137 17.11 17.065 17.018 16.973 16.938 16.905 16.853 16.835 16.837 16.792 16.707 16.61 16.52 16.392 16.22 16.175 16.27 16.37 16.435 16.432 16.38 16.307 16.207 16.06 15.893 15.73 15.578 15.438 15.303 15.17 15.053 14.995 14.988 14.982 14.975 14.905 14.79 14.723 14.688 14.662 14.635 14.577 14.498 14.433 14.408 14.395 14.38 14.38 14.39 14.377 14.337 14.3 14.262 14.215 14.165 14.143 14.14 14.115 14.07 14.017 13.947 13.855 13.755 13.685 13.645 13.605 13.562 13.518 13.472 13.425 13.38 13.32 13.233 13.155 13.103 13.07 13.047 13.007 12.95 12.895 12.85 12.82 12.792 12.758 12.728 12.705 12.685 12.67 12.66 12.625 12.542 12.483 12.455 12.405 12.345 12.29 12.245 12.202 12.16 12.138 12.14 12.15 12.16 12.132 12.095 12.09 12.093 12.097 12.102 12.102 12.097 12.042 11.925 11.808 11.735 11.705 11.688 11.67 11.637 11.595 11.563 11.538 11.52 11.512 11.5 11.475 11.44 11.39 11.328 11.268 11.22 11.185 11.15 11.115 11.085 11.04 10.99 10.95 10.915 10.903 10.907 10.897 10.865 10.83 10.8 10.778 10.773 10.785 10.805 10.82 10.81 10.8 10.823 10.855 10.89 10.922 10.945 10.962 10.975 10.98 10.983 10.99 10.995 11.023 11.095
15.525 15.425 15.42 15.525 15.64 15.755 15.877 16.007 16.14 16.277 16.415 16.522 16.605 16.69 16.752 16.792 16.835 16.877 16.917 16.952 16.973 16.975 16.983 16.993 17 17.012 17 16.958 16.913 16.875 16.878 16.943 17.035 17.095 17.095 17.057 17.008 16.953 16.9 16.855 16.8 16.728 16.708 16.745 16.765 16.747 16.692 16.615 16.51 16.378 16.363 16.455 16.515 16.53 16.467 16.35 16.253 16.137 15.985 15.838 15.7 15.57 15.437 15.305 15.175 15.058 15 14.993 14.985 14.977 14.92 14.84 14.797 14.762 14.727 14.677 14.605 14.525 14.458 14.413 14.378 14.353 14.35 14.365 14.387 14.382 14.345 14.302 14.255 14.205 14.175 14.155 14.12 14.077 14.015 13.925 13.828 13.73 13.658 13.615 13.575 13.538 13.495 13.448 13.402 13.357 13.302 13.238 13.18 13.13 13.088 13.04 12.978 12.915 12.858 12.813 12.785 12.758 12.72 12.685 12.655 12.633 12.62 12.61 12.602 12.572 12.525 12.475 12.415 12.355 12.3 12.252 12.207 12.163 12.143 12.15 12.16 12.167 12.157 12.152 12.162 12.167 12.17 12.167 12.162 12.157 12.095 11.967 11.83 11.725 11.68 11.665 11.65 11.627 11.6 11.575 11.552 11.53 11.51 11.485 11.455 11.42 11.37 11.31 11.245 11.185 11.145 11.11 11.075 11.045 11.005 10.963 10.928 10.895 10.88 10.883 10.887 10.882 10.86 10.83 10.8 10.78 10.788 10.81 10.833 10.845 10.86 10.895 10.932 10.967 11.002 11.03 11.047 11.06 11.068 11.073 11.08 11.088 11.103 11.158
15.577 15.488 15.505 15.615 15.72 15.825 15.945 16.08 16.217 16.355 16.472 16.56 16.645 16.735 16.78 16.798 16.837 16.88 16.92 16.952 16.968 16.97 16.98 16.995 17.01 17.03 17.017 16.963 16.9 16.848 16.865 16.955 17.032 17.055 17.04 17.017 16.975 16.915 16.858 16.808 16.753 16.683 16.66 16.69 16.72 16.732 16.712 16.672 16.61 16.54 16.535 16.572 16.577 16.565 16.51 16.375 16.223 16.085 15.95 15.82 15.688 15.557 15.43 15.3 15.17 15.073 15.028 15.01 15 14.99 14.95 14.895 14.857 14.817 14.772 14.72 14.653 14.578 14.51 14.455 14.408 14.373 14.365 14.385 14.417 14.415 14.367 14.32 14.277 14.232 14.197 14.167 14.13 14.087 14.015 13.915 13.823 13.74 13.673 13.62 13.57 13.523 13.475 13.425 13.378 13.333 13.29 13.252 13.21 13.16 13.113 13.063 13 12.93 12.863 12.813 12.778 12.738 12.695 12.66 12.628 12.605 12.595 12.588 12.585 12.575 12.535 12.475 12.415 12.355 12.3 12.252 12.207 12.16 12.14 12.15 12.16 12.15 12.13 12.132 12.145 12.187 12.2 12.165 12.152 12.145 12.082 11.952 11.815 11.71 11.66 11.645 11.63 11.62 11.605 11.58 11.56 11.52 11.475 11.445 11.415 11.38 11.335 11.28 11.215 11.15 11.105 11.07 11.035 11.008 10.978 10.943 10.91 10.885 10.875 10.878 10.885 10.895 10.882 10.85 10.823 10.803 10.813 10.84 10.863 10.885 10.918 10.96 11 11.035 11.07 11.102 11.125 11.145 11.162 11.172 11.18 11.19 11.2 11.23
15.583 15.515 15.545 15.665 15.782 15.89 16.01 16.142 16.275 16.407 16.522 16.615 16.708 16.797 16.83 16.82 16.838 16.878 16.917 16.952 16.977 16.987 16.998 17.013 17.03 17.05 17.042 16.99 16.923 16.863 16.885 16.967 17 16.992 16.978 16.965 16.937 16.887 16.833 16.788 16.752 16.698 16.675 16.702 16.712 16.687 16.66 16.65 16.627 16.61 16.617 16.62 16.61 16.6 16.555 16.427 16.21 16.03 15.925 15.805 15.672 15.543 15.415 15.288 15.183 15.13 15.098 15.063 15.045 15.027 14.987 14.935 14.887 14.842 14.8 14.76 14.71 14.642 14.575 14.523 14.483 14.453 14.433 14.44 14.467 14.45 14.388 14.328 14.28 14.24 14.207 14.182 14.15 14.102 14.025 13.933 13.855 13.79 13.73 13.67 13.61 13.543 13.473 13.41 13.355 13.31 13.275 13.252 13.227 13.187 13.145 13.112 13.067 12.995 12.925 12.87 12.813 12.745 12.693 12.658 12.63 12.613 12.603 12.6 12.595 12.575 12.53 12.468 12.405 12.345 12.293 12.247 12.2 12.15 12.128 12.137 12.135 12.095 12.05 12.04 12.068 12.172 12.207 12.13 12.085 12.067 12.017 11.898 11.775 11.69 11.645 11.628 11.615 11.612 11.602 11.58 11.545 11.475 11.415 11.385 11.352 11.315 11.277 11.235 11.175 11.11 11.065 11.03 11 10.983 10.96 10.93 10.905 10.895 10.895 10.898 10.903 10.91 10.897 10.868 10.845 10.83 10.843 10.877 10.907 10.933 10.97 11.015 11.055 11.093 11.13 11.165 11.192 11.217 11.245 11.272 11.29 11.3 11.31 11.328
15.61 15.555 15.578 15.7 15.837 15.955 16.075 16.205 16.332 16.455 16.57 16.68 16.78 16.86 16.885 16.865 16.855 16.875 16.913 16.95 16.982 17 17.013 17.03 17.05 17.07 17.067 17.02 16.948 16.888 16.905 16.947 16.945 16.93 16.915 16.903 16.885 16.855 16.808 16.768 16.745 16.708 16.69 16.692 16.665 16.623 16.593 16.575 16.547 16.545 16.577 16.602 16.617 16.625 16.597 16.452 16.17 15.958 15.865 15.765 15.652 15.53 15.4 15.295 15.243 15.225 15.2 15.153 15.113 15.08 15.03 14.97 14.913 14.863 14.82 14.785 14.75 14.7 14.645 14.605 14.575 14.55 14.523 14.508 14.51 14.477 14.412 14.348 14.288 14.24 14.21 14.19 14.167 14.122 14.048 13.973 13.91 13.85 13.79 13.73 13.662 13.572 13.483 13.41 13.348 13.293 13.253 13.235 13.225 13.205 13.172 13.15 13.122 13.065 13 12.932 12.855 12.77 12.705 12.668 12.645 12.63 12.618 12.612 12.597 12.57 12.525 12.462 12.4 12.34 12.288 12.24 12.19 12.14 12.115 12.112 12.082 12.028 11.975 11.953 12.04 12.202 12.232 12.14 12.058 12.005 11.95 11.853 11.755 11.68 11.633 11.615 11.61 11.61 11.602 11.572 11.505 11.415 11.355 11.323 11.285 11.248 11.213 11.175 11.127 11.07 11.025 10.998 10.98 10.968 10.948 10.925 10.913 10.915 10.92 10.92 10.92 10.925 10.915 10.893 10.878 10.863 10.87 10.907 10.945 10.975 11.015 11.063 11.108 11.15 11.187 11.222 11.255 11.282 11.315 11.355 11.387 11.405 11.417 11.44
15.65 15.595 15.61 15.725 15.873 16.01 16.135 16.255 16.372 16.485 16.6 16.72 16.835 16.915 16.93 16.912 16.895 16.888 16.91 16.95 16.988 17.013 17.03 17.05 17.07 17.087 17.09 17.05 16.975 16.91 16.895 16.898 16.885 16.873 16.858 16.843 16.83 16.813 16.783 16.753 16.73 16.705 16.68 16.647 16.603 16.558 16.518 16.478 16.438 16.44 16.48 16.517 16.555 16.585 16.58 16.427 16.12 15.89 15.785 15.695 15.602 15.5 15.403 15.345 15.322 15.31 15.29 15.24 15.177 15.122 15.067 15.01 14.952 14.895 14.84 14.8 14.772 14.737 14.707 14.692 14.672 14.65 14.625 14.59 14.55 14.5 14.435 14.37 14.305 14.245 14.208 14.188 14.172 14.137 14.08 14.022 13.967 13.91 13.85 13.78 13.687 13.578 13.485 13.417 13.352 13.285 13.233 13.21 13.202 13.195 13.18 13.165 13.147 13.11 13.047 12.965 12.88 12.795 12.715 12.672 12.66 12.647 12.632 12.615 12.592 12.562 12.515 12.455 12.395 12.335 12.28 12.23 12.18 12.13 12.097 12.07 12.02 11.963 11.905 11.903 12.062 12.242 12.245 12.155 12.062 11.978 11.905 11.828 11.748 11.673 11.62 11.605 11.607 11.61 11.595 11.54 11.453 11.36 11.3 11.265 11.228 11.195 11.16 11.123 11.085 11.04 11.005 10.99 10.978 10.96 10.945 10.938 10.935 10.94 10.945 10.945 10.948 10.953 10.943 10.923 10.91 10.895 10.9 10.935 10.978 11.02 11.065 11.115 11.163 11.205 11.24 11.272 11.305 11.335 11.37 11.412 11.455 11.49 11.512 11.532
15.69 15.635 15.645 15.76 15.917 16.055 16.172 16.287 16.4 16.51 16.623 16.743 16.867 16.945 16.955 16.942 16.925 16.91 16.93 16.975 17.015 17.045 17.06 17.073 17.09 17.105 17.112 17.08 17.005 16.92 16.873 16.863 16.85 16.84 16.828 16.813 16.8 16.783 16.757 16.73 16.705 16.685 16.65 16.603 16.558 16.528 16.495 16.435 16.38 16.355 16.358 16.38 16.415 16.452 16.437 16.272 16.01 15.82 15.718 15.63 15.545 15.468 15.408 15.372 15.35 15.332 15.312 15.272 15.21 15.145 15.087 15.032 14.977 14.92 14.863 14.808 14.762 14.727 14.72 14.73 14.725 14.715 14.7 14.657 14.587 14.517 14.45 14.385 14.323 14.265 14.218 14.183 14.16 14.132 14.09 14.04 13.99 13.937 13.88 13.79 13.672 13.568 13.485 13.417 13.35 13.283 13.223 13.183 13.165 13.16 13.155 13.142 13.125 13.095 13.042 12.965 12.88 12.795 12.693 12.642 12.645 12.635 12.617 12.592 12.567 12.535 12.487 12.43 12.37 12.31 12.252 12.2 12.152 12.107 12.075 12.04 11.988 11.933 11.878 11.885 12.045 12.222 12.222 12.127 12.04 11.95 11.88 11.822 11.753 11.675 11.618 11.598 11.598 11.602 11.577 11.505 11.415 11.328 11.268 11.233 11.2 11.168 11.14 11.115 11.08 11.043 11.025 11.02 11.005 10.988 10.983 10.993 11 11.003 11 10.995 11 11.005 10.995 10.975 10.958 10.94 10.943 10.98 11.03 11.083 11.135 11.185 11.23 11.26 11.282 11.31 11.34 11.37 11.405 11.447 11.49 11.535 11.565 11.58
15.732 15.678 15.698 15.828 15.972 16.08 16.185 16.305 16.422 16.535 16.648 16.767 16.88 16.94 16.955 16.952 16.935 16.93 16.965 17.017 17.06 17.092 17.105 17.108 17.115 17.125 17.137 17.11 17.022 16.908 16.848 16.847 16.84 16.83 16.82 16.805 16.787 16.767 16.737 16.705 16.678 16.655 16.62 16.573 16.545 16.55 16.542 16.48 16.398 16.33 16.283 16.258 16.258 16.285 16.23 16.055 15.883 15.76 15.673 15.598 15.525 15.46 15.405 15.363 15.333 15.31 15.29 15.26 15.212 15.152 15.093 15.038 14.985 14.945 14.912 14.838 14.738 14.683 14.685 14.71 14.725 14.73 14.722 14.687 14.612 14.53 14.46 14.398 14.348 14.305 14.253 14.193 14.148 14.118 14.08 14.03 13.98 13.935 13.877 13.762 13.63 13.538 13.472 13.412 13.345 13.278 13.218 13.168 13.133 13.12 13.115 13.097 13.07 13.037 13 12.942 12.862 12.772 12.65 12.568 12.58 12.595 12.572 12.542 12.515 12.477 12.432 12.385 12.33 12.27 12.208 12.148 12.1 12.06 12.042 12.032 11.995 11.945 11.903 11.903 11.998 12.165 12.187 12.075 11.985 11.898 11.845 11.817 11.765 11.69 11.63 11.598 11.585 11.587 11.557 11.482 11.395 11.31 11.253 11.22 11.187 11.153 11.135 11.127 11.102 11.068 11.055 11.06 11.055 11.043 11.043 11.07 11.095 11.097 11.085 11.07 11.068 11.072 11.065 11.045 11.025 11.005 11.005 11.043 11.1 11.16 11.215 11.262 11.297 11.307 11.315 11.34 11.37 11.4 11.433 11.47 11.51 11.552 11.583 11.605
15.757 15.723 15.763 15.895 16.005 16.095 16.195 16.313 16.437 16.557 16.673 16.79 16.88 16.92 16.94 16.952 16.948 16.953 16.995 17.05 17.097 17.137 17.155 17.155 17.155 17.157 17.162 17.122 17.015 16.885 16.818 16.82 16.825 16.82 16.81 16.792 16.77 16.75 16.72 16.685 16.653 16.623 16.59 16.565 16.57 16.592 16.6 16.545 16.445 16.358 16.29 16.23 16.18 16.152 16.068 15.928 15.81 15.718 15.65 15.59 15.527 15.465 15.41 15.362 15.323 15.293 15.267 15.237 15.2 15.152 15.103 15.063 15.03 15.008 14.99 14.892 14.725 14.638 14.645 14.675 14.702 14.722 14.715 14.68 14.615 14.538 14.478 14.428 14.388 14.35 14.295 14.225 14.16 14.113 14.07 14.023 13.978 13.94 13.87 13.733 13.588 13.493 13.44 13.395 13.337 13.27 13.21 13.16 13.113 13.085 13.07 13.045 13.01 12.975 12.945 12.907 12.845 12.745 12.605 12.473 12.468 12.532 12.53 12.49 12.453 12.41 12.368 12.33 12.282 12.225 12.163 12.1 12.045 12.003 11.995 12.012 12.005 11.965 11.94 11.96 12.013 12.135 12.16 12.033 11.925 11.848 11.81 11.797 11.767 11.707 11.648 11.608 11.583 11.572 11.532 11.455 11.373 11.293 11.238 11.205 11.173 11.14 11.125 11.125 11.117 11.093 11.08 11.09 11.097 11.095 11.1 11.138 11.182 11.195 11.18 11.16 11.143 11.14 11.135 11.115 11.095 11.075 11.075 11.113 11.173 11.235 11.29 11.33 11.345 11.343 11.348 11.37 11.4 11.427 11.458 11.495 11.533 11.57 11.608 11.653
15.735 15.758 15.82 15.927 16.02 16.11 16.203 16.315 16.445 16.572 16.695 16.807 16.875 16.9 16.92 16.94 16.952 16.975 17.017 17.06 17.102 17.137 17.15 17.147 17.142 17.14 17.157 17.13 17.015 16.875 16.793 16.788 16.803 16.812 16.805 16.783 16.758 16.735 16.713 16.683 16.643 16.603 16.583 16.59 16.612 16.637 16.655 16.612 16.51 16.397 16.285 16.197 16.127 16.055 15.96 15.843 15.745 15.683 15.632 15.575 15.517 15.462 15.402 15.35 15.31 15.275 15.242 15.207 15.17 15.14 15.12 15.105 15.095 15.082 15.067 14.947 14.715 14.593 14.605 14.638 14.678 14.72 14.715 14.668 14.61 14.55 14.505 14.465 14.425 14.385 14.33 14.257 14.185 14.12 14.068 14.025 13.985 13.95 13.862 13.71 13.553 13.448 13.4 13.36 13.315 13.26 13.205 13.155 13.102 13.058 13.02 12.983 12.948 12.913 12.882 12.855 12.812 12.71 12.557 12.403 12.353 12.43 12.46 12.427 12.395 12.348 12.305 12.27 12.23 12.18 12.123 12.065 12.005 11.963 11.958 11.975 11.987 11.98 11.985 12.02 12.065 12.135 12.132 12.01 11.88 11.808 11.783 11.77 11.755 11.715 11.663 11.625 11.595 11.568 11.515 11.438 11.36 11.29 11.24 11.203 11.168 11.133 11.115 11.115 11.118 11.113 11.11 11.12 11.13 11.138 11.155 11.2 11.255 11.285 11.28 11.257 11.232 11.215 11.202 11.185 11.165 11.145 11.148 11.19 11.25 11.31 11.362 11.387 11.385 11.38 11.383 11.4 11.428 11.453 11.485 11.525 11.563 11.6 11.645 11.707
15.74 15.8 15.86 15.938 16.032 16.125 16.215 16.32 16.445 16.575 16.705 16.815 16.872 16.895 16.918 16.94 16.95 16.96 16.985 17.017 17.052 17.075 17.077 17.07 17.063 17.08 17.142 17.155 17.05 16.898 16.803 16.788 16.8 16.817 16.812 16.79 16.768 16.748 16.738 16.722 16.685 16.64 16.615 16.62 16.647 16.677 16.7 16.672 16.572 16.437 16.283 16.138 16.035 15.957 15.86 15.763 15.7 15.655 15.607 15.55 15.495 15.447 15.385 15.318 15.27 15.235 15.2 15.16 15.13 15.12 15.125 15.125 15.117 15.112 15.09 14.97 14.73 14.58 14.59 14.635 14.688 14.735 14.725 14.67 14.613 14.555 14.505 14.462 14.425 14.385 14.327 14.252 14.18 14.123 14.08 14.04 14 13.955 13.855 13.7 13.538 13.423 13.37 13.328 13.285 13.247 13.2 13.143 13.085 13.03 12.98 12.935 12.895 12.853 12.818 12.792 12.757 12.655 12.5 12.353 12.268 12.305 12.347 12.353 12.362 12.33 12.283 12.248 12.21 12.163 12.108 12.05 11.995 11.96 11.958 11.97 11.985 12.02 12.065 12.105 12.15 12.165 12.1 11.97 11.843 11.78 11.763 11.748 11.735 11.713 11.68 11.65 11.62 11.587 11.53 11.453 11.38 11.32 11.275 11.235 11.195 11.168 11.16 11.16 11.16 11.15 11.145 11.155 11.165 11.175 11.203 11.255 11.305 11.335 11.34 11.322 11.297 11.272 11.265 11.26 11.24 11.22 11.228 11.275 11.335 11.39 11.427 11.437 11.433 11.428 11.428 11.44 11.463 11.488 11.52 11.56 11.6 11.643 11.685 11.74
15.805 15.867 15.913 15.953 16.03 16.127 16.222 16.325 16.445 16.575 16.7 16.805 16.877 16.915 16.937 16.952 16.94 16.913 16.91 16.94 16.972 16.99 16.99 16.983 17.003 17.065 17.15 17.185 17.1 16.95 16.863 16.843 16.835 16.838 16.83 16.813 16.795 16.78 16.777 16.78 16.762 16.722 16.68 16.655 16.665 16.697 16.727 16.712 16.615 16.47 16.31 16.135 15.98 15.868 15.78 15.718 15.673 15.628 15.582 15.53 15.48 15.44 15.377 15.295 15.223 15.173 15.14 15.113 15.098 15.095 15.107 15.12 15.115 15.105 15.052 14.935 14.745 14.61 14.618 14.668 14.72 14.755 14.735 14.677 14.615 14.55 14.488 14.433 14.39 14.35 14.292 14.22 14.163 14.13 14.1 14.06 14.012 13.942 13.832 13.692 13.54 13.413 13.345 13.303 13.265 13.24 13.197 13.133 13.068 13.005 12.95 12.902 12.855 12.805 12.76 12.728 12.69 12.585 12.438 12.32 12.24 12.223 12.25 12.29 12.335 12.337 12.3 12.26 12.215 12.165 12.11 12.055 12.013 11.985 11.985 12 12.035 12.113 12.18 12.22 12.23 12.162 12.035 11.9 11.808 11.77 11.755 11.74 11.728 11.723 11.707 11.68 11.65 11.62 11.565 11.49 11.428 11.375 11.33 11.29 11.26 11.253 11.257 11.257 11.24 11.205 11.19 11.2 11.21 11.22 11.25 11.297 11.33 11.345 11.35 11.345 11.33 11.31 11.315 11.33 11.32 11.303 11.315 11.365 11.417 11.452 11.472 11.482 11.485 11.483 11.485 11.495 11.51 11.53 11.56 11.603 11.645 11.69 11.73 11.77
15.878 15.942 15.992 16.01 16.035 16.11 16.213 16.323 16.445 16.575 16.69 16.782 16.867 16.93 16.955 16.947 16.918 16.88 16.853 16.86 16.885 16.9 16.905 16.925 16.99 17.075 17.16 17.215 17.147 17.008 16.935 16.915 16.892 16.872 16.858 16.843 16.828 16.813 16.81 16.82 16.822 16.8 16.76 16.72 16.695 16.705 16.732 16.712 16.625 16.495 16.337 16.165 15.97 15.815 15.743 15.695 15.65 15.605 15.558 15.51 15.475 15.44 15.372 15.287 15.2 15.13 15.095 15.083 15.075 15.07 15.083 15.105 15.112 15.082 14.992 14.865 14.723 14.648 14.665 14.703 14.752 14.777 14.745 14.682 14.615 14.55 14.485 14.418 14.36 14.315 14.26 14.203 14.17 14.15 14.12 14.072 14.002 13.912 13.8 13.67 13.532 13.4 13.32 13.288 13.265 13.245 13.202 13.135 13.062 12.985 12.918 12.865 12.815 12.767 12.718 12.67 12.622 12.523 12.405 12.325 12.258 12.205 12.208 12.25 12.293 12.325 12.315 12.27 12.22 12.167 12.113 12.07 12.043 12.018 12.013 12.048 12.125 12.225 12.297 12.302 12.225 12.092 11.95 11.845 11.798 11.773 11.755 11.748 11.748 11.755 11.745 11.712 11.68 11.65 11.597 11.533 11.483 11.435 11.39 11.355 11.343 11.347 11.35 11.337 11.302 11.26 11.24 11.245 11.255 11.265 11.29 11.32 11.335 11.343 11.347 11.35 11.35 11.345 11.355 11.38 11.39 11.385 11.405 11.447 11.475 11.49 11.505 11.522 11.535 11.54 11.545 11.555 11.565 11.58 11.608 11.65 11.695 11.74 11.78 11.815
15.955 16.02 16.077 16.102 16.098 16.12 16.203 16.323 16.448 16.57 16.678 16.768 16.855 16.94 16.975 16.95 16.915 16.88 16.843 16.825 16.833 16.845 16.863 16.915 17 17.085 17.17 17.242 17.19 17.065 17.005 16.972 16.935 16.905 16.89 16.877 16.862 16.848 16.843 16.85 16.86 16.852 16.82 16.785 16.752 16.73 16.717 16.672 16.595 16.497 16.362 16.165 15.92 15.775 15.73 15.683 15.638 15.59 15.54 15.5 15.477 15.437 15.36 15.27 15.185 15.123 15.088 15.068 15.055 15.048 15.058 15.085 15.097 15.045 14.933 14.81 14.705 14.668 14.695 14.74 14.79 14.797 14.75 14.685 14.615 14.55 14.485 14.418 14.353 14.293 14.243 14.21 14.19 14.17 14.13 14.06 13.973 13.877 13.765 13.635 13.505 13.38 13.308 13.288 13.272 13.255 13.207 13.13 13.047 12.96 12.883 12.828 12.78 12.732 12.68 12.625 12.57 12.49 12.408 12.343 12.275 12.21 12.195 12.23 12.273 12.315 12.315 12.27 12.22 12.17 12.128 12.098 12.075 12.053 12.063 12.135 12.235 12.335 12.367 12.287 12.15 12.005 11.888 11.828 11.803 11.778 11.765 11.77 11.78 11.79 11.78 11.745 11.71 11.68 11.637 11.585 11.537 11.49 11.45 11.433 11.435 11.44 11.427 11.395 11.355 11.315 11.293 11.298 11.31 11.32 11.333 11.343 11.348 11.345 11.345 11.353 11.36 11.367 11.385 11.412 11.437 11.455 11.477 11.5 11.51 11.52 11.535 11.555 11.575 11.592 11.605 11.615 11.625 11.64 11.665 11.703 11.745 11.79 11.83 11.865
16.032 16.097 16.16 16.195 16.19 16.175 16.233 16.358 16.475 16.583 16.69 16.793 16.885 16.977 17.017 16.995 16.963 16.928 16.895 16.87 16.863 16.87 16.883 16.928 17.01 17.095 17.18 17.24 17.192 17.1 17.045 16.992 16.95 16.93 16.92 16.91 16.897 16.883 16.875 16.88 16.89 16.88 16.825 16.772 16.747 16.712 16.642 16.542 16.452 16.382 16.29 16.055 15.808 15.74 15.722 15.677 15.63 15.583 15.535 15.5 15.472 15.415 15.327 15.238 15.17 15.13 15.102 15.075 15.05 15.03 15.03 15.052 15.067 15.015 14.903 14.795 14.715 14.67 14.685 14.747 14.802 14.802 14.75 14.685 14.615 14.55 14.485 14.417 14.352 14.285 14.24 14.222 14.205 14.187 14.135 14.045 13.953 13.855 13.743 13.618 13.493 13.38 13.31 13.283 13.27 13.252 13.195 13.107 13.02 12.93 12.85 12.793 12.745 12.69 12.637 12.587 12.538 12.492 12.442 12.382 12.315 12.248 12.223 12.255 12.3 12.32 12.3 12.255 12.208 12.178 12.167 12.152 12.13 12.108 12.138 12.23 12.322 12.38 12.337 12.207 12.063 11.928 11.853 11.832 11.81 11.785 11.78 11.79 11.802 11.815 11.805 11.772 11.74 11.712 11.68 11.635 11.585 11.538 11.508 11.505 11.512 11.512 11.49 11.45 11.408 11.368 11.355 11.37 11.387 11.4 11.405 11.403 11.398 11.378 11.36 11.363 11.37 11.38 11.4 11.43 11.462 11.495 11.52 11.535 11.545 11.558 11.573 11.593 11.612 11.627 11.652 11.675 11.685 11.7 11.728 11.765 11.805 11.832 11.855 11.887
16.107 16.172 16.227 16.262 16.265 16.245 16.298 16.415 16.515 16.608 16.717 16.837 16.942 17.032 17.07 17.057 17.035 17.005 16.978 16.953 16.938 16.94 16.94 16.955 17.018 17.102 17.187 17.21 17.155 17.097 17.045 16.998 16.973 16.96 16.95 16.94 16.93 16.917 16.908 16.91 16.917 16.9 16.815 16.718 16.672 16.617 16.505 16.365 16.243 16.143 16.055 15.873 15.725 15.725 15.712 15.67 15.623 15.577 15.533 15.497 15.452 15.375 15.288 15.218 15.175 15.145 15.118 15.09 15.062 15.025 15 15.008 15.025 14.99 14.89 14.798 14.735 14.683 14.67 14.72 14.775 14.775 14.727 14.67 14.61 14.547 14.482 14.415 14.348 14.283 14.24 14.222 14.207 14.195 14.15 14.065 13.97 13.863 13.745 13.625 13.513 13.415 13.335 13.283 13.26 13.237 13.17 13.078 12.99 12.9 12.818 12.755 12.695 12.628 12.587 12.55 12.505 12.482 12.462 12.43 12.38 12.318 12.285 12.307 12.33 12.317 12.282 12.235 12.203 12.2 12.21 12.212 12.202 12.183 12.215 12.292 12.332 12.317 12.245 12.12 11.983 11.873 11.825 11.825 11.815 11.795 11.79 11.803 11.82 11.837 11.827 11.795 11.77 11.75 11.717 11.672 11.625 11.58 11.555 11.557 11.565 11.565 11.545 11.505 11.465 11.43 11.425 11.447 11.47 11.485 11.49 11.482 11.46 11.423 11.395 11.385 11.385 11.395 11.415 11.445 11.48 11.517 11.547 11.57 11.587 11.602 11.618 11.635 11.645 11.643 11.673 11.722 11.745 11.76 11.79 11.827 11.85 11.842 11.845 11.875
16.167 16.212 16.247 16.277 16.302 16.305 16.355 16.455 16.54 16.625 16.733 16.86 16.982 17.082 17.12 17.11 17.095 17.077 17.06 17.037 17.018 17.013 17.01 17.003 17.033 17.11 17.182 17.175 17.12 17.08 17.043 17.02 17.007 16.995 16.982 16.97 16.96 16.95 16.94 16.94 16.945 16.922 16.83 16.7 16.6 16.5 16.375 16.245 16.115 15.985 15.873 15.76 15.698 15.708 15.7 15.662 15.617 15.57 15.527 15.482 15.415 15.335 15.268 15.225 15.195 15.165 15.135 15.105 15.07 15.015 14.975 14.973 14.98 14.957 14.885 14.813 14.758 14.705 14.668 14.69 14.732 14.722 14.68 14.63 14.58 14.525 14.47 14.412 14.345 14.278 14.238 14.22 14.205 14.195 14.17 14.102 14 13.88 13.755 13.64 13.54 13.45 13.37 13.305 13.26 13.22 13.147 13.055 12.962 12.87 12.783 12.705 12.625 12.555 12.53 12.507 12.47 12.45 12.44 12.43 12.41 12.375 12.345 12.34 12.33 12.302 12.265 12.23 12.225 12.235 12.245 12.252 12.255 12.25 12.267 12.285 12.257 12.212 12.147 12.035 11.918 11.833 11.798 11.803 11.805 11.8 11.803 11.82 11.84 11.86 11.852 11.823 11.803 11.787 11.755 11.71 11.665 11.618 11.593 11.6 11.612 11.615 11.597 11.563 11.527 11.495 11.493 11.52 11.55 11.57 11.57 11.547 11.505 11.46 11.435 11.42 11.41 11.413 11.433 11.468 11.505 11.542 11.573 11.6 11.625 11.645 11.662 11.67 11.665 11.655 11.68 11.745 11.795 11.82 11.845 11.86 11.85 11.828 11.828 11.855
16.18 16.205 16.233 16.265 16.308 16.345 16.405 16.488 16.563 16.643 16.748 16.875 17.002 17.1 17.142 17.142 17.125 17.115 17.112 17.107 17.1 17.09 17.08 17.068 17.068 17.118 17.162 17.138 17.11 17.1 17.07 17.043 17.03 17.022 17.012 17 16.99 16.98 16.97 16.962 16.96 16.95 16.88 16.758 16.635 16.515 16.395 16.275 16.155 16.033 15.908 15.8 15.735 15.708 15.688 15.655 15.61 15.563 15.518 15.46 15.39 15.32 15.273 15.245 15.215 15.185 15.155 15.12 15.065 14.995 14.955 14.95 14.947 14.93 14.887 14.835 14.782 14.73 14.68 14.672 14.685 14.665 14.627 14.58 14.53 14.48 14.435 14.387 14.33 14.27 14.235 14.22 14.205 14.195 14.182 14.127 14.017 13.892 13.773 13.668 13.575 13.485 13.405 13.338 13.277 13.207 13.117 13.02 12.92 12.825 12.745 12.66 12.558 12.488 12.47 12.46 12.438 12.42 12.41 12.4 12.39 12.38 12.365 12.342 12.315 12.285 12.258 12.25 12.257 12.262 12.267 12.27 12.272 12.28 12.272 12.23 12.173 12.118 12.055 11.968 11.875 11.803 11.775 11.785 11.798 11.808 11.815 11.832 11.855 11.877 11.877 11.857 11.84 11.822 11.792 11.748 11.703 11.655 11.63 11.64 11.655 11.662 11.65 11.62 11.587 11.555 11.558 11.59 11.625 11.65 11.637 11.595 11.545 11.503 11.478 11.463 11.448 11.438 11.455 11.495 11.535 11.57 11.6 11.63 11.658 11.685 11.7 11.695 11.685 11.673 11.685 11.748 11.822 11.865 11.872 11.857 11.835 11.813 11.81 11.827
16.215 16.213 16.233 16.28 16.333 16.39 16.46 16.535 16.603 16.67 16.768 16.892 17.017 17.08 17.11 17.142 17.137 17.128 17.13 17.137 17.142 17.14 17.135 17.132 17.123 17.138 17.16 17.16 17.168 17.17 17.13 17.073 17.045 17.038 17.03 17.02 17.01 17.008 17 16.97 16.95 16.955 16.937 16.872 16.775 16.66 16.54 16.42 16.297 16.167 16.038 15.933 15.85 15.775 15.71 15.66 15.62 15.58 15.533 15.475 15.413 15.345 15.293 15.26 15.23 15.2 15.17 15.122 15.05 14.975 14.935 14.93 14.92 14.887 14.847 14.807 14.762 14.717 14.672 14.635 14.612 14.59 14.55 14.497 14.445 14.392 14.34 14.29 14.237 14.187 14.17 14.17 14.157 14.145 14.135 14.09 13.995 13.895 13.8 13.705 13.615 13.525 13.445 13.372 13.282 13.167 13.055 12.952 12.855 12.775 12.715 12.64 12.533 12.468 12.453 12.433 12.41 12.395 12.388 12.38 12.368 12.355 12.342 12.322 12.295 12.265 12.245 12.242 12.245 12.245 12.245 12.245 12.253 12.27 12.257 12.205 12.143 12.078 12.01 11.935 11.855 11.793 11.778 11.795 11.815 11.827 11.828 11.835 11.855 11.88 11.89 11.877 11.86 11.842 11.83 11.8 11.753 11.708 11.68 11.683 11.695 11.705 11.695 11.665 11.635 11.62 11.638 11.673 11.705 11.717 11.69 11.64 11.593 11.555 11.533 11.518 11.503 11.488 11.498 11.535 11.575 11.615 11.65 11.68 11.71 11.74 11.745 11.725 11.71 11.698 11.7 11.75 11.83 11.872 11.857 11.832 11.817 11.797 11.79 11.79
16.4 16.37 16.328 16.333 16.39 16.45 16.52 16.592 16.655 16.715 16.798 16.91 17.017 17.035 17.043 17.107 17.14 17.137 17.135 17.142 17.147 17.147 17.147 17.152 17.158 17.185 17.228 17.252 17.255 17.242 17.202 17.125 17.07 17.055 17.045 17.035 17.035 17.05 17.035 16.968 16.928 16.935 16.945 16.937 16.892 16.802 16.685 16.56 16.427 16.29 16.165 16.07 15.97 15.825 15.708 15.672 15.655 15.62 15.575 15.52 15.455 15.385 15.32 15.273 15.24 15.21 15.172 15.11 15.03 14.955 14.915 14.902 14.87 14.81 14.76 14.727 14.69 14.65 14.61 14.557 14.505 14.475 14.427 14.358 14.3 14.245 14.187 14.132 14.08 14.038 14.03 14.05 14.055 14.045 14.032 13.987 13.915 13.857 13.797 13.722 13.645 13.56 13.472 13.372 13.242 13.098 12.973 12.878 12.803 12.745 12.695 12.627 12.545 12.508 12.495 12.455 12.408 12.38 12.372 12.365 12.35 12.332 12.315 12.295 12.272 12.247 12.22 12.203 12.2 12.2 12.2 12.208 12.228 12.252 12.245 12.2 12.145 12.082 12.01 11.933 11.868 11.823 11.81 11.825 11.842 11.852 11.848 11.84 11.85 11.872 11.885 11.877 11.862 11.848 11.85 11.852 11.82 11.775 11.745 11.733 11.735 11.745 11.735 11.705 11.69 11.705 11.735 11.767 11.785 11.775 11.74 11.693 11.653 11.62 11.598 11.58 11.562 11.545 11.553 11.588 11.63 11.68 11.72 11.75 11.78 11.805 11.8 11.77 11.748 11.733 11.733 11.768 11.835 11.875 11.838 11.79 11.775 11.763 11.773 11.788
16.67 16.65 16.553 16.45 16.453 16.51 16.577 16.642 16.7 16.76 16.828 16.927 16.995 16.965 16.968 17.042 17.107 17.135 17.14 17.147 17.147 17.14 17.135 17.153 17.198 17.27 17.332 17.342 17.325 17.31 17.275 17.193 17.11 17.075 17.068 17.068 17.085 17.107 17.067 16.968 16.918 16.925 16.935 16.943 16.942 16.915 16.827 16.695 16.555 16.415 16.297 16.172 15.992 15.773 15.653 15.662 15.672 15.655 15.617 15.562 15.495 15.425 15.355 15.293 15.25 15.22 15.17 15.092 15.01 14.935 14.89 14.855 14.792 14.72 14.67 14.64 14.607 14.57 14.527 14.467 14.395 14.343 14.287 14.208 14.135 14.075 14.02 13.968 13.923 13.89 13.88 13.903 13.93 13.937 13.922 13.878 13.83 13.8 13.757 13.7 13.635 13.562 13.465 13.33 13.183 13.035 12.91 12.83 12.775 12.725 12.677 12.618 12.568 12.565 12.552 12.497 12.433 12.383 12.358 12.342 12.325 12.305 12.285 12.268 12.25 12.23 12.2 12.17 12.16 12.16 12.165 12.185 12.212 12.237 12.232 12.19 12.142 12.087 12.018 11.955 11.913 11.878 11.853 11.855 11.87 11.877 11.872 11.858 11.853 11.865 11.875 11.87 11.862 11.853 11.855 11.875 11.875 11.845 11.815 11.795 11.783 11.785 11.775 11.76 11.773 11.8 11.83 11.847 11.842 11.825 11.79 11.75 11.72 11.69 11.662 11.64 11.62 11.598 11.605 11.645 11.695 11.75 11.79 11.82 11.847 11.862 11.85 11.82 11.793 11.77 11.77 11.8 11.853 11.895 11.85 11.758 11.713 11.713 11.758 11.82
16.882 16.912 16.827 16.675 16.573 16.57 16.627 16.687 16.745 16.805 16.865 16.94 16.955 16.888 16.89 16.968 17.043 17.107 17.145 17.153 17.148 17.143 17.143 17.18 17.257 17.34 17.39 17.392 17.38 17.37 17.34 17.265 17.168 17.105 17.093 17.1 17.115 17.125 17.06 16.965 16.935 16.94 16.95 16.955 16.96 16.955 16.875 16.747 16.632 16.517 16.372 16.162 15.915 15.698 15.615 15.638 15.66 15.67 15.655 15.605 15.535 15.465 15.395 15.325 15.268 15.222 15.16 15.075 14.99 14.91 14.845 14.783 14.708 14.633 14.58 14.55 14.52 14.488 14.44 14.373 14.298 14.228 14.163 14.08 13.99 13.913 13.853 13.808 13.77 13.74 13.733 13.755 13.788 13.813 13.815 13.795 13.775 13.752 13.702 13.635 13.572 13.517 13.43 13.295 13.145 12.995 12.885 12.825 12.773 12.718 12.665 12.61 12.593 12.617 12.597 12.53 12.462 12.398 12.348 12.32 12.3 12.28 12.26 12.243 12.227 12.21 12.183 12.148 12.125 12.125 12.143 12.17 12.197 12.222 12.217 12.177 12.135 12.087 12.035 11.995 11.96 11.925 11.895 11.885 11.895 11.902 11.897 11.883 11.868 11.863 11.865 11.863 11.86 11.863 11.873 11.888 11.903 11.902 11.885 11.865 11.845 11.833 11.828 11.84 11.865 11.89 11.91 11.905 11.887 11.87 11.84 11.807 11.78 11.747 11.717 11.695 11.675 11.653 11.663 11.71 11.765 11.82 11.86 11.89 11.915 11.92 11.9 11.87 11.84 11.813 11.808 11.837 11.882 11.92 11.877 11.763 11.675 11.675 11.748 11.832
16.965 17.042 17.015 16.912 16.77 16.663 16.665 16.725 16.785 16.845 16.905 16.947 16.915 16.825 16.825 16.915 17.005 17.098 17.167 17.185 17.18 17.18 17.185 17.223 17.292 17.367 17.412 17.415 17.41 17.402 17.37 17.297 17.2 17.123 17.1 17.105 17.11 17.102 17.033 16.97 16.965 16.97 16.977 16.982 16.982 16.947 16.825 16.69 16.597 16.512 16.39 16.173 15.913 15.705 15.62 15.63 15.655 15.675 15.687 15.665 15.603 15.53 15.46 15.387 15.297 15.215 15.142 15.057 14.973 14.888 14.808 14.733 14.658 14.595 14.553 14.518 14.48 14.443 14.39 14.323 14.253 14.18 14.113 14.038 13.948 13.85 13.758 13.695 13.663 13.638 13.638 13.673 13.71 13.74 13.748 13.723 13.7 13.677 13.617 13.548 13.5 13.455 13.382 13.267 13.125 12.975 12.88 12.842 12.795 12.735 12.678 12.62 12.605 12.63 12.615 12.552 12.48 12.41 12.35 12.308 12.28 12.263 12.245 12.225 12.208 12.195 12.18 12.15 12.118 12.11 12.128 12.155 12.182 12.207 12.205 12.168 12.125 12.08 12.04 12.007 11.972 11.945 11.928 11.923 11.928 11.93 11.923 11.91 11.895 11.88 11.875 11.875 11.878 11.9 11.928 11.94 11.953 11.96 11.95 11.93 11.91 11.893 11.885 11.897 11.92 11.945 11.955 11.942 11.925 11.905 11.882 11.855 11.825 11.79 11.76 11.74 11.72 11.703 11.718 11.767 11.825 11.877 11.912 11.94 11.962 11.962 11.942 11.915 11.885 11.855 11.84 11.86 11.9 11.935 11.89 11.775 11.678 11.67 11.75 11.835
16.902 16.965 16.975 16.942 16.872 16.79 16.735 16.753 16.812 16.87 16.93 16.957 16.912 16.823 16.823 16.92 17.023 17.125 17.212 17.245 17.243 17.245 17.248 17.27 17.323 17.395 17.437 17.435 17.43 17.407 17.355 17.285 17.2 17.12 17.09 17.095 17.1 17.075 17.02 16.995 16.995 16.998 17.003 17.007 16.985 16.922 16.78 16.613 16.503 16.43 16.377 16.247 16.015 15.8 15.695 15.673 15.673 15.685 15.712 15.732 15.705 15.64 15.567 15.445 15.265 15.15 15.1 15.035 14.957 14.873 14.79 14.715 14.653 14.618 14.592 14.553 14.508 14.465 14.413 14.348 14.28 14.213 14.15 14.093 14.025 13.93 13.81 13.703 13.628 13.585 13.59 13.64 13.695 13.73 13.722 13.668 13.618 13.578 13.525 13.478 13.442 13.4 13.33 13.23 13.102 12.955 12.87 12.85 12.817 12.767 12.712 12.65 12.605 12.608 12.605 12.56 12.495 12.425 12.363 12.308 12.268 12.248 12.23 12.21 12.195 12.19 12.185 12.162 12.133 12.123 12.13 12.145 12.168 12.192 12.195 12.162 12.117 12.07 12.028 11.993 11.968 11.96 11.963 11.97 11.972 11.965 11.953 11.94 11.925 11.91 11.905 11.905 11.923 11.973 12.015 12.027 12.03 12.025 12.01 11.99 11.973 11.96 11.945 11.935 11.945 11.967 11.975 11.965 11.952 11.935 11.915 11.89 11.86 11.828 11.8 11.78 11.763 11.753 11.768 11.808 11.86 11.912 11.945 11.967 11.985 11.987 11.975 11.952 11.925 11.895 11.875 11.878 11.903 11.935 11.892 11.788 11.708 11.695 11.76 11.845
16.755 16.795 16.8 16.79 16.777 16.765 16.74 16.762 16.832 16.89 16.95 16.97 16.93 16.86 16.868 16.965 17.065 17.16 17.247 17.297 17.307 17.31 17.31 17.325 17.363 17.422 17.46 17.455 17.437 17.392 17.327 17.262 17.192 17.115 17.08 17.085 17.09 17.065 17.033 17.03 17.028 17.025 17.03 17.02 16.965 16.89 16.782 16.583 16.415 16.355 16.317 16.257 16.105 15.913 15.808 15.765 15.733 15.715 15.73 15.77 15.787 15.735 15.597 15.38 15.148 15.035 15.01 14.975 14.927 14.857 14.775 14.708 14.67 14.655 14.637 14.6 14.555 14.515 14.47 14.407 14.335 14.267 14.207 14.16 14.112 14.04 13.932 13.805 13.68 13.583 13.548 13.59 13.662 13.715 13.707 13.642 13.57 13.5 13.448 13.417 13.387 13.345 13.275 13.182 13.072 12.94 12.865 12.852 12.832 12.797 12.742 12.675 12.613 12.593 12.582 12.547 12.505 12.445 12.38 12.32 12.268 12.233 12.21 12.195 12.19 12.19 12.185 12.168 12.15 12.148 12.15 12.155 12.165 12.18 12.185 12.157 12.11 12.06 12.018 11.995 11.993 12 12.01 12.015 12.01 12 11.985 11.97 11.957 11.943 11.935 11.945 11.99 12.06 12.102 12.105 12.095 12.085 12.07 12.053 12.04 12.03 12.015 11.995 11.985 11.993 11.995 11.985 11.975 11.962 11.942 11.917 11.892 11.865 11.838 11.82 11.813 11.81 11.825 11.855 11.893 11.94 11.972 11.99 12.005 12.012 12.005 11.985 11.962 11.935 11.918 11.913 11.918 11.937 11.9 11.815 11.753 11.728 11.773 11.858
16.587 16.622 16.625 16.615 16.618 16.638 16.658 16.728 16.83 16.905 16.97 16.982 16.94 16.888 16.903 16.99 17.08 17.165 17.247 17.317 17.35 17.36 17.37 17.387 17.415 17.457 17.472 17.445 17.405 17.35 17.29 17.23 17.167 17.1 17.07 17.075 17.08 17.075 17.062 17.06 17.057 17.052 17.045 17.005 16.933 16.858 16.782 16.553 16.33 16.283 16.245 16.21 16.14 16.015 15.92 15.87 15.817 15.76 15.723 15.735 15.772 15.722 15.517 15.245 15.043 14.96 14.928 14.895 14.863 14.815 14.76 14.72 14.7 14.69 14.677 14.647 14.605 14.565 14.522 14.46 14.385 14.315 14.25 14.192 14.137 14.075 13.972 13.842 13.715 13.588 13.515 13.545 13.622 13.682 13.672 13.6 13.52 13.44 13.368 13.328 13.312 13.282 13.215 13.125 13.03 12.925 12.865 12.855 12.84 12.817 12.77 12.7 12.633 12.588 12.558 12.525 12.493 12.45 12.398 12.34 12.28 12.228 12.198 12.19 12.19 12.187 12.182 12.175 12.17 12.17 12.17 12.175 12.18 12.182 12.18 12.15 12.1 12.05 12.025 12.03 12.04 12.05 12.057 12.055 12.043 12.03 12.018 12.003 11.99 11.978 11.975 12.008 12.072 12.145 12.18 12.17 12.155 12.145 12.132 12.12 12.11 12.1 12.082 12.06 12.04 12.028 12.02 12.01 12 11.99 11.97 11.945 11.922 11.898 11.878 11.868 11.865 11.868 11.885 11.915 11.945 11.98 12.005 12.018 12.028 12.038 12.035 12.015 11.995 11.975 11.963 11.957 11.953 11.952 11.922 11.86 11.805 11.768 11.798 11.883
