ncols         200
nrows         71
xllcorner     549000
yllcorner     254235
cellsize      5
NODATA_value  -9999.0
63.045 62.92 62.83 62.825 62.83 62.855 62.895 62.935 63.003 63.16 63.395 63.648 63.903 64.145 64.35 64.532 64.717 64.897 65.065 65.202 65.318 65.435 65.603 65.818 66.038 66.27 66.493 66.695 66.89 67.085 67.25 67.375 67.493 67.61 67.707 67.75 67.758 67.768 67.818 67.923 68.05 68.177 68.29 68.385 68.475 68.565 68.635 68.693 68.765 68.845 68.885 68.875 68.83 68.753 68.7 68.677 68.655 68.632 68.62 68.615 68.592 68.55 68.558 68.625 68.695 68.76 68.797 68.81 68.818 68.827 68.835 68.835 68.83 68.792 68.69 68.555 68.43 68.32 68.235 68.178 68.13 68.08 67.987 67.855 67.735 67.62 67.493 67.357 67.22 67.078 66.94 66.815 66.695 66.575 66.438 66.283 66.133 65.988 65.84 65.69 65.54 65.403 65.303 65.228 65.152 65.052 64.935 64.847 64.782 64.715 64.627 64.51 64.372 64.222 64.095 64.005 63.928 63.85 63.765 63.66 63.525 63.4 63.3 63.2 63.1 63.003 62.907 62.792 62.652 62.505 62.362 62.22 62.067 61.91 61.755 61.597 61.425 61.24 61.045 60.84 60.635 60.425 60.222 60.037 59.852 59.672 59.5 59.33 59.162 58.992 58.795 58.572 58.35 58.14 57.93 57.71 57.487 57.255 57.053 56.9 56.76 56.602 56.4 56.173 55.95 55.75 55.598 55.472 55.347 55.215 55.055 54.877 54.7 54.522 54.342 54.16 53.975 53.78 53.55 53.285 53.018 52.763 52.498 52.22 51.998 51.858 51.758 51.665 51.583 51.505 51.402 51.27 51.132 50.995 50.855 50.707 50.563 50.55 50.57 50.43
62.755 62.595 62.493 62.493 62.52 62.575 62.628 62.683 62.828 63.078 63.337 63.585 63.835 64.077 64.287 64.472 64.652 64.825 65.002 65.177 65.325 65.45 65.618 65.84 66.08 66.34 66.577 66.783 66.98 67.175 67.345 67.475 67.592 67.705 67.792 67.842 67.87 67.893 67.923 67.98 68.08 68.2 68.315 68.42 68.515 68.605 68.67 68.713 68.765 68.835 68.877 68.855 68.787 68.7 68.643 68.62 68.6 68.593 68.605 68.62 68.622 68.6 68.605 68.67 68.747 68.822 68.875 68.902 68.92 68.933 68.942 68.94 68.922 68.885 68.79 68.66 68.55 68.438 68.315 68.213 68.145 68.095 67.997 67.853 67.72 67.6 67.47 67.333 67.195 67.052 66.908 66.77 66.645 66.525 66.39 66.238 66.093 65.955 65.812 65.665 65.513 65.375 65.278 65.202 65.102 64.955 64.8 64.685 64.605 64.535 64.445 64.335 64.22 64.09 63.98 63.9 63.825 63.75 63.665 63.547 63.398 63.265 63.16 63.06 62.963 62.873 62.782 62.662 62.512 62.355 62.215 62.085 61.942 61.79 61.635 61.485 61.327 61.15 60.955 60.75 60.532 60.307 60.105 59.92 59.732 59.548 59.37 59.203 59.045 58.895 58.71 58.488 58.278 58.095 57.907 57.692 57.46 57.21 57 56.857 56.725 56.57 56.37 56.14 55.915 55.7 55.498 55.333 55.197 55.06 54.905 54.738 54.575 54.42 54.262 54.092 53.912 53.72 53.49 53.225 52.98 52.778 52.558 52.32 52.125 51.973 51.85 51.743 51.638 51.525 51.395 51.248 51.097 50.942 50.782 50.625 50.468 50.405 50.372 50.22
62.412 62.253 62.158 62.175 62.235 62.307 62.363 62.483 62.73 63.02 63.282 63.528 63.775 64.015 64.22 64.397 64.57 64.74 64.918 65.107 65.292 65.453 65.643 65.893 66.16 66.43 66.665 66.868 67.068 67.265 67.435 67.57 67.7 67.822 67.907 67.96 68.002 68.035 68.065 68.095 68.148 68.233 68.335 68.445 68.55 68.642 68.707 68.75 68.79 68.84 68.865 68.817 68.733 68.645 68.588 68.57 68.57 68.595 68.622 68.632 68.64 68.64 68.655 68.715 68.798 68.88 68.94 68.98 69.012 69.035 69.045 69.032 69.003 68.967 68.89 68.78 68.682 68.577 68.445 68.303 68.185 68.113 68.012 67.86 67.715 67.583 67.45 67.31 67.17 67.027 66.882 66.738 66.603 66.477 66.34 66.195 66.06 65.925 65.785 65.64 65.488 65.35 65.252 65.152 65.005 64.835 64.678 64.543 64.435 64.353 64.26 64.15 64.043 63.94 63.855 63.785 63.717 63.647 63.56 63.43 63.275 63.135 63.02 62.925 62.838 62.755 62.657 62.522 62.365 62.205 62.065 61.94 61.81 61.667 61.515 61.365 61.217 61.055 60.862 60.647 60.41 60.175 59.973 59.788 59.605 59.42 59.243 59.085 58.943 58.805 58.625 58.418 58.235 58.07 57.89 57.665 57.41 57.15 56.943 56.808 56.685 56.537 56.34 56.115 55.9 55.69 55.458 55.23 55.053 54.905 54.75 54.59 54.445 54.305 54.16 54.005 53.84 53.657 53.43 53.193 53 52.832 52.64 52.44 52.267 52.105 51.963 51.847 51.73 51.577 51.41 51.24 51.062 50.877 50.698 50.538 50.383 50.273 50.178 50.045
61.947 61.892 61.84 61.89 61.965 62.043 62.148 62.365 62.667 62.96 63.225 63.472 63.717 63.95 64.145 64.315 64.485 64.655 64.833 65.028 65.243 65.458 65.693 65.967 66.247 66.517 66.75 66.952 67.155 67.355 67.525 67.662 67.797 67.925 68.01 68.062 68.115 68.162 68.205 68.24 68.275 68.315 68.375 68.468 68.575 68.675 68.74 68.78 68.817 68.855 68.855 68.787 68.69 68.593 68.545 68.555 68.585 68.62 68.64 68.645 68.653 68.668 68.698 68.765 68.855 68.94 68.997 69.035 69.072 69.102 69.12 69.11 69.077 69.042 68.982 68.897 68.81 68.712 68.585 68.435 68.28 68.15 68.022 67.87 67.717 67.57 67.43 67.287 67.145 67.003 66.857 66.713 66.57 66.432 66.295 66.16 66.03 65.895 65.757 65.612 65.46 65.327 65.205 65.055 64.885 64.715 64.553 64.41 64.285 64.18 64.09 64 63.913 63.835 63.76 63.685 63.615 63.542 63.447 63.312 63.16 63.013 62.895 62.813 62.735 62.647 62.53 62.38 62.218 62.058 61.917 61.79 61.662 61.53 61.387 61.24 61.095 60.945 60.752 60.517 60.273 60.045 59.845 59.66 59.478 59.293 59.125 58.98 58.842 58.707 58.542 58.36 58.19 58.022 57.84 57.612 57.352 57.09 56.888 56.755 56.635 56.5 56.315 56.102 55.895 55.687 55.46 55.205 54.968 54.773 54.608 54.465 54.335 54.2 54.052 53.9 53.747 53.585 53.39 53.195 53.027 52.857 52.677 52.515 52.377 52.235 52.085 51.947 51.79 51.587 51.387 51.195 50.995 50.79 50.605 50.45 50.295 50.155 50.033 49.935
61.463 61.525 61.585 61.678 61.765 61.855 62.025 62.3 62.602 62.897 63.157 63.392 63.632 63.872 64.085 64.262 64.43 64.598 64.793 65.02 65.258 65.503 65.753 66.022 66.31 66.585 66.815 67.017 67.22 67.42 67.602 67.755 67.89 68.015 68.102 68.158 68.21 68.262 68.33 68.387 68.423 68.448 68.465 68.513 68.603 68.705 68.765 68.792 68.827 68.862 68.855 68.78 68.678 68.59 68.563 68.583 68.613 68.638 68.655 68.67 68.685 68.71 68.753 68.82 68.902 68.985 69.04 69.072 69.102 69.125 69.152 69.167 69.15 69.117 69.062 68.985 68.905 68.802 68.657 68.497 68.337 68.175 68.017 67.865 67.712 67.557 67.41 67.268 67.122 66.978 66.83 66.685 66.542 66.387 66.235 66.097 65.962 65.827 65.692 65.55 65.405 65.265 65.105 64.93 64.76 64.59 64.433 64.303 64.185 64.075 63.988 63.915 63.845 63.775 63.7 63.62 63.54 63.45 63.337 63.202 63.057 62.91 62.795 62.715 62.63 62.532 62.405 62.247 62.08 61.91 61.757 61.625 61.492 61.36 61.227 61.09 60.947 60.8 60.602 60.355 60.13 59.94 59.758 59.575 59.39 59.193 59.015 58.87 58.73 58.592 58.437 58.26 58.085 57.912 57.722 57.505 57.267 57.023 56.83 56.7 56.577 56.437 56.27 56.077 55.87 55.66 55.432 55.18 54.923 54.695 54.515 54.375 54.25 54.112 53.95 53.785 53.635 53.485 53.325 53.152 52.98 52.805 52.625 52.47 52.347 52.23 52.102 51.955 51.757 51.517 51.295 51.095 50.895 50.71 50.568 50.44 50.295 50.145 49.983 49.85
61.078 61.193 61.367 61.535 61.667 61.77 61.955 62.24 62.53 62.805 63.05 63.27 63.515 63.785 64.027 64.23 64.407 64.57 64.795 65.072 65.325 65.57 65.815 66.068 66.348 66.625 66.855 67.055 67.255 67.455 67.652 67.832 67.98 68.105 68.195 68.25 68.298 68.345 68.428 68.52 68.57 68.592 68.598 68.605 68.65 68.735 68.79 68.805 68.833 68.865 68.855 68.78 68.695 68.648 68.638 68.645 68.658 68.673 68.693 68.717 68.74 68.773 68.825 68.885 68.95 69.02 69.067 69.092 69.115 69.138 69.17 69.205 69.215 69.192 69.137 69.057 68.96 68.83 68.662 68.485 68.32 68.16 68 67.845 67.695 67.542 67.393 67.25 67.102 66.95 66.8 66.655 66.502 66.322 66.148 65.998 65.857 65.722 65.585 65.448 65.327 65.195 65.005 64.798 64.615 64.448 64.32 64.23 64.133 64.03 63.938 63.858 63.785 63.715 63.64 63.56 63.47 63.357 63.227 63.092 62.955 62.815 62.7 62.607 62.51 62.41 62.282 62.12 61.945 61.745 61.568 61.437 61.305 61.17 61.042 60.915 60.777 60.627 60.428 60.203 60.023 59.868 59.702 59.525 59.335 59.115 58.913 58.755 58.608 58.465 58.307 58.125 57.943 57.767 57.572 57.355 57.138 56.928 56.76 56.63 56.487 56.322 56.17 56.012 55.815 55.605 55.375 55.123 54.883 54.675 54.485 54.318 54.18 54.037 53.86 53.678 53.52 53.368 53.212 53.052 52.887 52.715 52.535 52.363 52.218 52.1 51.982 51.837 51.645 51.413 51.19 50.99 50.81 50.68 50.61 50.525 50.39 50.225 50.008 49.798
60.745 60.908 61.123 61.34 61.53 61.685 61.888 62.153 62.417 62.67 62.908 63.143 63.41 63.697 63.95 64.17 64.375 64.553 64.795 65.112 65.392 65.64 65.885 66.13 66.393 66.657 66.885 67.088 67.29 67.49 67.688 67.88 68.055 68.197 68.287 68.338 68.382 68.43 68.515 68.627 68.707 68.74 68.742 68.738 68.743 68.783 68.82 68.83 68.845 68.87 68.857 68.793 68.74 68.723 68.723 68.728 68.73 68.735 68.75 68.772 68.798 68.838 68.895 68.955 69.012 69.06 69.09 69.108 69.128 69.153 69.185 69.225 69.257 69.26 69.21 69.112 68.982 68.835 68.667 68.483 68.305 68.14 67.982 67.827 67.675 67.525 67.377 67.23 67.075 66.92 66.77 66.612 66.432 66.238 66.06 65.903 65.755 65.615 65.478 65.358 65.265 65.157 64.96 64.708 64.48 64.313 64.225 64.17 64.09 63.99 63.895 63.81 63.73 63.655 63.582 63.492 63.375 63.245 63.11 62.975 62.842 62.71 62.593 62.49 62.39 62.29 62.157 61.982 61.782 61.55 61.363 61.24 61.113 60.98 60.855 60.73 60.598 60.455 60.283 60.108 59.952 59.8 59.645 59.475 59.267 59.028 58.82 58.653 58.493 58.343 58.185 58 57.805 57.62 57.423 57.215 57.018 56.833 56.677 56.527 56.355 56.173 56.028 55.907 55.747 55.547 55.315 55.08 54.873 54.68 54.485 54.29 54.12 53.962 53.78 53.583 53.408 53.25 53.095 52.94 52.78 52.617 52.445 52.265 52.098 51.965 51.835 51.68 51.51 51.305 51.09 50.913 50.785 50.703 50.665 50.61 50.487 50.302 50.065 49.82
60.458 60.68 60.903 61.125 61.345 61.58 61.833 62.078 62.313 62.548 62.78 63.035 63.32 63.608 63.865 64.09 64.31 64.523 64.793 65.132 65.445 65.71 65.955 66.2 66.45 66.695 66.915 67.12 67.325 67.525 67.722 67.915 68.105 68.277 68.377 68.422 68.47 68.518 68.6 68.717 68.825 68.882 68.882 68.87 68.857 68.86 68.87 68.873 68.878 68.885 68.873 68.838 68.81 68.8 68.802 68.805 68.805 68.805 68.81 68.827 68.858 68.905 68.963 69.02 69.07 69.1 69.118 69.132 69.15 69.168 69.195 69.238 69.28 69.307 69.26 69.132 68.987 68.84 68.672 68.488 68.303 68.125 67.965 67.813 67.658 67.505 67.357 67.205 67.045 66.887 66.727 66.548 66.35 66.153 65.975 65.818 65.663 65.513 65.388 65.295 65.215 65.122 64.937 64.675 64.42 64.24 64.155 64.103 64.04 63.95 63.857 63.772 63.685 63.602 63.515 63.397 63.262 63.127 62.993 62.86 62.73 62.6 62.48 62.373 62.27 62.167 62.022 61.817 61.585 61.348 61.173 61.058 60.94 60.813 60.688 60.568 60.443 60.308 60.16 60.012 59.865 59.72 59.577 59.412 59.182 58.93 58.73 58.56 58.393 58.232 58.065 57.877 57.68 57.485 57.293 57.105 56.925 56.745 56.57 56.392 56.208 56.023 55.875 55.767 55.65 55.485 55.275 55.067 54.875 54.682 54.485 54.28 54.08 53.892 53.7 53.498 53.303 53.133 52.978 52.82 52.663 52.508 52.347 52.175 51.995 51.835 51.683 51.52 51.36 51.183 51.01 50.89 50.805 50.738 50.705 50.68 50.575 50.367 50.122 49.877
60.223 60.52 60.763 60.988 61.223 61.518 61.825 62.078 62.305 62.525 62.753 63.01 63.288 63.56 63.815 64.05 64.28 64.518 64.81 65.152 65.465 65.727 65.97 66.212 66.457 66.695 66.912 67.12 67.327 67.54 67.74 67.922 68.11 68.295 68.407 68.455 68.505 68.573 68.675 68.795 68.912 68.982 68.987 68.97 68.955 68.955 68.958 68.953 68.95 68.948 68.935 68.913 68.887 68.872 68.865 68.857 68.85 68.842 68.842 68.86 68.907 68.97 69.025 69.075 69.112 69.135 69.152 69.168 69.183 69.198 69.223 69.265 69.305 69.32 69.255 69.115 68.97 68.837 68.677 68.488 68.302 68.118 67.95 67.8 67.642 67.467 67.3 67.145 66.987 66.835 66.677 66.495 66.295 66.095 65.908 65.745 65.593 65.443 65.33 65.247 65.165 65.075 64.91 64.673 64.428 64.23 64.12 64.055 63.99 63.902 63.805 63.715 63.622 63.527 63.417 63.285 63.147 63.01 62.878 62.75 62.62 62.493 62.375 62.265 62.158 62.045 61.885 61.673 61.45 61.235 61.075 60.965 60.84 60.695 60.565 60.45 60.322 60.177 60.023 59.873 59.732 59.597 59.462 59.307 59.087 58.835 58.63 58.46 58.292 58.125 57.947 57.76 57.568 57.373 57.185 57.005 56.825 56.632 56.433 56.245 56.06 55.875 55.723 55.61 55.507 55.38 55.21 55.015 54.817 54.62 54.42 54.215 54.007 53.802 53.602 53.405 53.208 53.04 52.895 52.745 52.595 52.433 52.26 52.085 51.905 51.73 51.56 51.395 51.233 51.068 50.945 50.872 50.807 50.742 50.705 50.692 50.587 50.36 50.102 49.845
60.04 60.387 60.657 60.883 61.158 61.515 61.845 62.107 62.35 62.575 62.808 63.065 63.325 63.575 63.82 64.063 64.305 64.55 64.845 65.167 65.442 65.685 65.925 66.165 66.41 66.652 66.875 67.083 67.305 67.55 67.75 67.905 68.08 68.265 68.382 68.435 68.505 68.618 68.745 68.865 68.977 69.05 69.062 69.05 69.048 69.055 69.06 69.058 69.052 69.05 69.035 69.005 68.962 68.92 68.893 68.875 68.862 68.848 68.845 68.873 68.94 69.022 69.082 69.12 69.147 69.17 69.188 69.203 69.22 69.24 69.265 69.295 69.307 69.29 69.212 69.075 68.943 68.835 68.685 68.488 68.298 68.11 67.94 67.782 67.6 67.39 67.205 67.052 66.897 66.753 66.622 66.472 66.285 66.085 65.888 65.705 65.545 65.4 65.288 65.202 65.107 64.982 64.84 64.672 64.455 64.238 64.108 64.04 63.947 63.827 63.715 63.62 63.522 63.415 63.3 63.172 63.037 62.9 62.768 62.64 62.513 62.388 62.27 62.16 62.047 61.925 61.777 61.605 61.415 61.215 61.058 60.935 60.78 60.605 60.465 60.342 60.2 60.045 59.885 59.728 59.58 59.443 59.305 59.152 58.97 58.742 58.525 58.35 58.182 58.012 57.835 57.65 57.46 57.268 57.078 56.895 56.707 56.5 56.29 56.098 55.913 55.733 55.575 55.45 55.34 55.225 55.08 54.897 54.7 54.5 54.298 54.092 53.89 53.688 53.488 53.305 53.145 53.008 52.875 52.722 52.552 52.37 52.18 51.998 51.82 51.643 51.47 51.305 51.14 50.975 50.865 50.805 50.732 50.637 50.575 50.55 50.45 50.23 49.96 49.69
59.88 60.25 60.547 60.808 61.145 61.535 61.862 62.125 62.382 62.623 62.863 63.115 63.36 63.6 63.84 64.085 64.333 64.58 64.86 65.142 65.39 65.63 65.873 66.115 66.36 66.605 66.83 67.053 67.305 67.57 67.77 67.913 68.068 68.237 68.36 68.44 68.55 68.682 68.812 68.932 69.037 69.115 69.14 69.138 69.145 69.157 69.162 69.16 69.158 69.155 69.137 69.092 69.025 68.96 68.918 68.888 68.868 68.85 68.848 68.893 68.973 69.057 69.122 69.157 69.182 69.205 69.223 69.24 69.26 69.28 69.292 69.29 69.27 69.24 69.165 69.045 68.94 68.847 68.7 68.5 68.3 68.105 67.922 67.732 67.518 67.293 67.105 66.955 66.8 66.658 66.545 66.435 66.285 66.095 65.895 65.695 65.513 65.358 65.242 65.142 65.007 64.84 64.705 64.6 64.452 64.25 64.098 64.012 63.89 63.743 63.615 63.51 63.405 63.295 63.18 63.055 62.927 62.797 62.665 62.535 62.408 62.283 62.163 62.05 61.927 61.795 61.667 61.535 61.382 61.2 61.035 60.885 60.702 60.513 60.357 60.22 60.067 59.912 59.755 59.595 59.435 59.288 59.14 58.978 58.815 58.63 58.425 58.24 58.07 57.897 57.72 57.537 57.35 57.16 56.972 56.782 56.577 56.36 56.153 55.958 55.768 55.595 55.44 55.3 55.175 55.055 54.92 54.76 54.577 54.377 54.173 53.97 53.77 53.573 53.39 53.24 53.115 52.99 52.845 52.67 52.475 52.28 52.093 51.912 51.735 51.555 51.38 51.215 51.053 50.888 50.77 50.687 50.58 50.455 50.365 50.307 50.212 50.03 49.775 49.523
59.72 60.1 60.448 60.793 61.175 61.565 61.893 62.16 62.43 62.69 62.933 63.16 63.385 63.62 63.86 64.108 64.365 64.623 64.878 65.123 65.358 65.593 65.833 66.075 66.318 66.56 66.8 67.055 67.327 67.59 67.785 67.927 68.072 68.222 68.357 68.48 68.612 68.745 68.875 68.99 69.085 69.167 69.21 69.222 69.237 69.257 69.267 69.262 69.26 69.257 69.225 69.155 69.075 69.008 68.96 68.92 68.888 68.86 68.86 68.915 68.992 69.07 69.132 69.175 69.21 69.237 69.26 69.277 69.295 69.312 69.31 69.28 69.24 69.202 69.13 69.032 68.945 68.855 68.702 68.487 68.272 68.072 67.895 67.695 67.465 67.233 67.033 66.87 66.708 66.565 66.455 66.36 66.25 66.095 65.905 65.7 65.5 65.323 65.178 65.032 64.86 64.683 64.548 64.455 64.36 64.23 64.09 63.96 63.815 63.665 63.523 63.398 63.285 63.175 63.06 62.938 62.818 62.695 62.563 62.43 62.303 62.178 62.055 61.932 61.798 61.66 61.535 61.415 61.292 61.15 60.987 60.807 60.61 60.413 60.238 60.085 59.93 59.775 59.622 59.465 59.3 59.14 58.98 58.815 58.653 58.487 58.31 58.127 57.955 57.78 57.6 57.42 57.235 57.047 56.86 56.657 56.44 56.223 56.018 55.82 55.625 55.458 55.31 55.165 55.025 54.89 54.75 54.6 54.438 54.253 54.058 53.863 53.67 53.48 53.315 53.185 53.065 52.925 52.752 52.567 52.38 52.19 52.005 51.825 51.645 51.468 51.298 51.135 50.975 50.808 50.67 50.553 50.42 50.288 50.168 50.063 49.955 49.813 49.613 49.408
59.66 60.09 60.513 60.908 61.3 61.69 62.02 62.293 62.565 62.835 63.078 63.29 63.503 63.718 63.94 64.188 64.453 64.715 64.96 65.19 65.418 65.638 65.865 66.108 66.35 66.575 66.813 67.082 67.352 67.587 67.77 67.92 68.065 68.21 68.36 68.51 68.65 68.785 68.912 69.015 69.097 69.18 69.235 69.26 69.28 69.302 69.337 69.36 69.36 69.352 69.305 69.225 69.143 69.065 69.01 68.97 68.935 68.9 68.885 68.925 68.995 69.07 69.13 69.175 69.22 69.255 69.285 69.307 69.323 69.337 69.332 69.295 69.248 69.197 69.1 68.97 68.867 68.78 68.622 68.397 68.188 68.005 67.857 67.7 67.485 67.248 67.04 66.865 66.688 66.528 66.408 66.308 66.207 66.075 65.892 65.685 65.477 65.288 65.115 64.943 64.768 64.595 64.455 64.353 64.26 64.17 64.05 63.897 63.745 63.595 63.445 63.308 63.188 63.075 62.965 62.853 62.738 62.618 62.485 62.348 62.215 62.083 61.947 61.81 61.67 61.533 61.405 61.285 61.165 61.032 60.877 60.697 60.5 60.3 60.113 59.945 59.787 59.632 59.48 59.327 59.165 59 58.84 58.678 58.513 58.348 58.18 58.007 57.835 57.665 57.48 57.29 57.107 56.922 56.735 56.532 56.315 56.098 55.893 55.695 55.498 55.328 55.182 55.037 54.893 54.763 54.633 54.485 54.328 54.153 53.967 53.78 53.593 53.408 53.245 53.117 52.985 52.82 52.638 52.455 52.273 52.095 51.925 51.753 51.575 51.403 51.24 51.08 50.92 50.738 50.583 50.468 50.335 50.193 50.05 49.915 49.793 49.668 49.515 49.343
59.778 60.29 60.745 61.125 61.51 61.897 62.225 62.495 62.765 63.035 63.282 63.5 63.705 63.898 64.1 64.333 64.588 64.85 65.095 65.322 65.537 65.74 65.96 66.202 66.432 66.63 66.848 67.112 67.355 67.545 67.72 67.89 68.042 68.188 68.348 68.515 68.667 68.805 68.925 69.012 69.085 69.165 69.222 69.252 69.275 69.298 69.355 69.425 69.452 69.447 69.4 69.317 69.225 69.133 69.07 69.03 68.995 68.96 68.93 68.94 68.995 69.07 69.13 69.175 69.215 69.243 69.28 69.325 69.35 69.365 69.357 69.315 69.265 69.197 69.065 68.893 68.745 68.63 68.478 68.278 68.1 67.943 67.81 67.687 67.52 67.305 67.1 66.92 66.728 66.545 66.41 66.302 66.182 66.03 65.84 65.63 65.433 65.258 65.088 64.915 64.745 64.578 64.43 64.318 64.22 64.115 63.985 63.835 63.685 63.533 63.383 63.243 63.115 62.998 62.893 62.795 62.685 62.565 62.435 62.295 62.155 61.992 61.822 61.68 61.545 61.408 61.28 61.157 61.025 60.87 60.712 60.557 60.375 60.178 59.99 59.81 59.643 59.487 59.333 59.18 59.022 58.86 58.705 58.55 58.39 58.225 58.055 57.885 57.718 57.555 57.372 57.165 56.97 56.785 56.6 56.41 56.202 55.985 55.78 55.585 55.385 55.208 55.058 54.913 54.78 54.678 54.567 54.425 54.257 54.067 53.885 53.707 53.52 53.335 53.178 53.042 52.885 52.705 52.522 52.34 52.165 52.013 51.865 51.697 51.525 51.36 51.2 51.04 50.872 50.668 50.505 50.407 50.292 50.157 50.015 49.873 49.735 49.607 49.465 49.297
60.023 60.55 60.987 61.353 61.725 62.105 62.427 62.695 62.965 63.235 63.485 63.702 63.897 64.08 64.28 64.5 64.733 64.985 65.227 65.445 65.645 65.838 66.055 66.282 66.482 66.665 66.882 67.12 67.315 67.485 67.66 67.84 68.01 68.168 68.333 68.505 68.672 68.822 68.935 69.01 69.078 69.152 69.205 69.238 69.268 69.295 69.355 69.442 69.51 69.535 69.492 69.4 69.297 69.198 69.13 69.093 69.058 69.02 68.993 68.985 69.008 69.07 69.13 69.17 69.2 69.22 69.258 69.315 69.36 69.387 69.38 69.332 69.275 69.185 69.035 68.86 68.685 68.533 68.373 68.193 68.035 67.885 67.755 67.642 67.517 67.347 67.152 66.96 66.757 66.563 66.415 66.292 66.14 65.965 65.77 65.573 65.4 65.24 65.07 64.897 64.73 64.563 64.408 64.287 64.182 64.062 63.925 63.775 63.622 63.468 63.32 63.18 63.045 62.923 62.82 62.727 62.627 62.517 62.39 62.242 62.072 61.865 61.67 61.533 61.412 61.282 61.155 61.022 60.867 60.698 60.538 60.395 60.237 60.055 59.87 59.685 59.505 59.342 59.188 59.035 58.88 58.72 58.565 58.415 58.262 58.102 57.935 57.768 57.605 57.445 57.275 57.07 56.848 56.645 56.46 56.275 56.082 55.875 55.668 55.47 55.27 55.088 54.933 54.798 54.69 54.605 54.505 54.362 54.177 53.975 53.793 53.622 53.445 53.265 53.105 52.95 52.775 52.592 52.408 52.23 52.08 51.955 51.812 51.645 51.48 51.32 51.16 51 50.815 50.588 50.42 50.327 50.23 50.115 49.98 49.835 49.69 49.555 49.41 49.247
60.315 60.812 61.222 61.588 61.953 62.317 62.632 62.9 63.17 63.437 63.682 63.89 64.075 64.26 64.465 64.683 64.9 65.128 65.348 65.548 65.74 65.933 66.135 66.333 66.515 66.698 66.898 67.09 67.26 67.43 67.608 67.793 67.978 68.158 68.33 68.5 68.67 68.832 68.947 69.015 69.075 69.137 69.188 69.223 69.257 69.29 69.35 69.438 69.525 69.59 69.56 69.457 69.352 69.253 69.19 69.157 69.12 69.082 69.058 69.045 69.043 69.075 69.125 69.157 69.177 69.195 69.23 69.285 69.34 69.385 69.39 69.345 69.282 69.172 69.008 68.845 68.7 68.555 68.373 68.173 67.995 67.833 67.7 67.593 67.487 67.352 67.172 66.975 66.775 66.577 66.408 66.25 66.075 65.895 65.713 65.54 65.38 65.22 65.052 64.882 64.715 64.545 64.38 64.245 64.13 64.005 63.865 63.715 63.56 63.405 63.26 63.12 62.978 62.85 62.747 62.652 62.56 62.465 62.332 62.15 61.938 61.713 61.515 61.375 61.265 61.147 61.015 60.865 60.7 60.525 60.36 60.212 60.067 59.905 59.725 59.545 59.365 59.197 59.043 58.89 58.737 58.58 58.425 58.275 58.125 57.975 57.817 57.653 57.49 57.33 57.167 56.985 56.755 56.525 56.333 56.143 55.953 55.757 55.555 55.355 55.155 54.968 54.815 54.703 54.615 54.535 54.442 54.292 54.09 53.88 53.692 53.525 53.357 53.187 53.015 52.84 52.66 52.477 52.3 52.148 52.022 51.905 51.762 51.6 51.44 51.28 51.12 50.952 50.745 50.503 50.335 50.243 50.15 50.052 49.935 49.795 49.647 49.502 49.35 49.19
60.62 61.075 61.455 61.82 62.185 62.527 62.825 63.095 63.365 63.63 63.867 64.065 64.248 64.46 64.69 64.905 65.118 65.318 65.505 65.695 65.885 66.073 66.243 66.41 66.59 66.775 66.953 67.12 67.29 67.463 67.635 67.813 68 68.19 68.37 68.54 68.705 68.862 68.97 69.027 69.083 69.135 69.18 69.215 69.25 69.288 69.35 69.44 69.53 69.607 69.587 69.482 69.382 69.295 69.238 69.205 69.172 69.143 69.123 69.11 69.1 69.1 69.118 69.14 69.158 69.175 69.203 69.248 69.302 69.355 69.372 69.345 69.282 69.168 69.028 68.905 68.79 68.645 68.442 68.213 68 67.815 67.678 67.575 67.462 67.322 67.147 66.952 66.757 66.573 66.393 66.21 66.03 65.853 65.683 65.52 65.36 65.192 65.025 64.86 64.69 64.52 64.35 64.198 64.07 63.945 63.802 63.647 63.492 63.338 63.19 63.05 62.907 62.765 62.647 62.555 62.462 62.367 62.23 62.03 61.81 61.59 61.383 61.215 61.09 60.982 60.86 60.707 60.54 60.368 60.188 60.018 59.867 59.71 59.537 59.362 59.193 59.042 58.897 58.743 58.59 58.437 58.283 58.13 57.98 57.835 57.69 57.532 57.37 57.21 57.05 56.877 56.662 56.428 56.22 56.028 55.833 55.635 55.437 55.24 55.04 54.85 54.708 54.612 54.527 54.442 54.34 54.172 53.957 53.743 53.567 53.417 53.255 53.09 52.897 52.7 52.52 52.34 52.175 52.042 51.927 51.81 51.67 51.51 51.35 51.19 51.03 50.865 50.66 50.42 50.253 50.158 50.065 49.975 49.867 49.732 49.585 49.435 49.275 49.107
60.92 61.32 61.687 62.05 62.397 62.717 63.005 63.275 63.542 63.802 64.035 64.23 64.44 64.7 64.95 65.162 65.357 65.53 65.705 65.895 66.08 66.255 66.405 66.545 66.71 66.895 67.07 67.235 67.405 67.577 67.74 67.898 68.073 68.26 68.44 68.61 68.77 68.91 69 69.05 69.113 69.175 69.208 69.228 69.26 69.303 69.368 69.45 69.535 69.612 69.592 69.493 69.408 69.335 69.273 69.233 69.205 69.198 69.198 69.183 69.17 69.155 69.14 69.138 69.15 69.17 69.19 69.218 69.26 69.312 69.337 69.325 69.295 69.228 69.13 69.032 68.902 68.727 68.515 68.275 68.043 67.835 67.688 67.572 67.435 67.28 67.102 66.908 66.723 66.558 66.387 66.2 66.015 65.838 65.667 65.502 65.332 65.147 64.975 64.822 64.66 64.49 64.32 64.153 64.01 63.88 63.732 63.575 63.418 63.263 63.113 62.97 62.82 62.65 62.515 62.425 62.327 62.22 62.08 61.902 61.705 61.49 61.275 61.075 60.915 60.798 60.685 60.55 60.39 60.22 60.03 59.833 59.663 59.502 59.333 59.165 59.015 58.883 58.747 58.597 58.445 58.292 58.138 57.985 57.835 57.688 57.545 57.402 57.25 57.09 56.927 56.75 56.552 56.33 56.113 55.92 55.722 55.515 55.313 55.115 54.923 54.748 54.608 54.503 54.41 54.32 54.195 54.002 53.78 53.568 53.41 53.287 53.142 52.98 52.768 52.543 52.355 52.18 52.028 51.898 51.78 51.665 51.525 51.365 51.205 51.045 50.885 50.73 50.557 50.34 50.168 50.07 49.98 49.89 49.782 49.647 49.5 49.35 49.187 49.013
61.175 61.552 61.917 62.26 62.58 62.89 63.182 63.452 63.713 63.965 64.198 64.418 64.673 64.957 65.207 65.402 65.57 65.73 65.903 66.087 66.265 66.435 66.585 66.71 66.845 67.015 67.19 67.353 67.52 67.69 67.85 68 68.158 68.333 68.51 68.672 68.817 68.945 69.03 69.09 69.17 69.25 69.28 69.275 69.288 69.325 69.39 69.468 69.545 69.617 69.602 69.52 69.45 69.38 69.313 69.26 69.235 69.268 69.292 69.265 69.243 69.225 69.2 69.175 69.165 69.173 69.19 69.213 69.24 69.275 69.297 69.302 69.317 69.317 69.262 69.152 68.99 68.8 68.585 68.345 68.105 67.875 67.693 67.543 67.39 67.235 67.058 66.875 66.71 66.555 66.39 66.202 66.01 65.825 65.65 65.472 65.285 65.09 64.915 64.768 64.617 64.457 64.29 64.115 63.955 63.81 63.658 63.502 63.345 63.188 63.037 62.885 62.712 62.525 62.38 62.282 62.177 62.057 61.91 61.745 61.572 61.38 61.177 60.97 60.773 60.618 60.495 60.372 60.235 60.075 59.882 59.67 59.473 59.3 59.138 58.988 58.857 58.73 58.595 58.45 58.3 58.147 57.993 57.84 57.69 57.54 57.395 57.26 57.122 56.97 56.802 56.617 56.425 56.222 56.01 55.807 55.605 55.393 55.188 55 54.828 54.668 54.523 54.395 54.283 54.185 54.04 53.827 53.603 53.393 53.24 53.132 53.015 52.867 52.65 52.398 52.19 52.025 51.885 51.758 51.635 51.515 51.377 51.217 51.053 50.89 50.733 50.58 50.43 50.247 50.085 49.985 49.895 49.805 49.697 49.56 49.413 49.265 49.102 48.925
61.405 61.782 62.132 62.45 62.763 63.075 63.37 63.638 63.89 64.14 64.383 64.64 64.922 65.21 65.45 65.622 65.778 65.935 66.1 66.273 66.448 66.62 66.768 66.893 67.015 67.153 67.31 67.47 67.635 67.803 67.96 68.11 68.26 68.418 68.577 68.72 68.85 68.975 69.073 69.155 69.245 69.335 69.375 69.363 69.353 69.368 69.428 69.51 69.588 69.65 69.642 69.575 69.505 69.433 69.36 69.295 69.29 69.36 69.39 69.357 69.325 69.298 69.27 69.24 69.213 69.195 69.198 69.217 69.24 69.26 69.263 69.267 69.295 69.32 69.312 69.227 69.065 68.872 68.655 68.415 68.185 67.963 67.755 67.57 67.393 67.213 67.033 66.868 66.713 66.557 66.39 66.205 66.012 65.82 65.63 65.435 65.238 65.04 64.863 64.713 64.568 64.42 64.263 64.093 63.92 63.758 63.598 63.438 63.28 63.12 62.958 62.783 62.595 62.405 62.248 62.133 62.02 61.892 61.74 61.578 61.42 61.255 61.067 60.862 60.653 60.465 60.32 60.193 60.065 59.922 59.737 59.525 59.318 59.125 58.965 58.83 58.703 58.577 58.445 58.3 58.15 58 57.848 57.695 57.545 57.393 57.245 57.11 56.98 56.842 56.675 56.482 56.287 56.095 55.897 55.69 55.48 55.268 55.073 54.907 54.752 54.595 54.45 54.315 54.18 54.052 53.877 53.652 53.428 53.22 53.073 52.968 52.862 52.74 52.537 52.273 52.043 51.878 51.748 51.623 51.495 51.37 51.235 51.075 50.905 50.738 50.58 50.433 50.287 50.132 49.995 49.897 49.81 49.72 49.612 49.475 49.327 49.177 49.01 48.83
61.63 62.002 62.342 62.655 62.97 63.285 63.585 63.858 64.11 64.36 64.605 64.86 65.137 65.425 65.675 65.862 66.02 66.175 66.323 66.473 66.643 66.817 66.965 67.09 67.215 67.33 67.465 67.623 67.783 67.932 68.073 68.22 68.37 68.52 68.658 68.78 68.903 69.025 69.132 69.225 69.325 69.437 69.495 69.49 69.473 69.463 69.508 69.593 69.67 69.72 69.712 69.66 69.595 69.52 69.443 69.373 69.37 69.44 69.465 69.432 69.397 69.368 69.34 69.31 69.28 69.25 69.225 69.223 69.24 69.26 69.245 69.203 69.195 69.217 69.225 69.18 69.08 68.935 68.738 68.515 68.303 68.095 67.89 67.69 67.488 67.27 67.063 66.89 66.73 66.557 66.38 66.202 66.012 65.818 65.62 65.42 65.22 65.02 64.843 64.693 64.548 64.405 64.265 64.115 63.945 63.773 63.608 63.445 63.285 63.113 62.92 62.723 62.528 62.328 62.14 61.995 61.873 61.738 61.585 61.43 61.28 61.125 60.94 60.735 60.535 60.348 60.193 60.058 59.925 59.775 59.6 59.405 59.2 58.998 58.825 58.688 58.555 58.43 58.3 58.155 58.008 57.863 57.718 57.57 57.42 57.265 57.115 56.98 56.85 56.697 56.52 56.335 56.14 55.945 55.757 55.562 55.355 55.145 54.955 54.792 54.637 54.482 54.337 54.2 54.055 53.897 53.7 53.473 53.255 53.07 52.938 52.833 52.725 52.592 52.385 52.123 51.905 51.755 51.63 51.505 51.375 51.24 51.097 50.942 50.775 50.605 50.443 50.293 50.145 50 49.868 49.762 49.675 49.587 49.492 49.37 49.225 49.07 48.902 48.725
61.85 62.22 62.56 62.875 63.19 63.505 63.81 64.1 64.362 64.61 64.85 65.083 65.333 65.61 65.88 66.107 66.29 66.447 66.58 66.705 66.855 67.025 67.177 67.302 67.42 67.525 67.655 67.812 67.955 68.072 68.193 68.333 68.48 68.627 68.755 68.865 68.98 69.098 69.203 69.305 69.428 69.56 69.635 69.637 69.61 69.583 69.615 69.695 69.757 69.792 69.785 69.745 69.697 69.635 69.56 69.49 69.458 69.497 69.522 69.488 69.458 69.435 69.408 69.375 69.348 69.32 69.28 69.243 69.24 69.26 69.235 69.155 69.09 69.08 69.073 69.033 68.995 68.945 68.83 68.65 68.445 68.235 68.03 67.83 67.612 67.367 67.125 66.92 66.735 66.535 66.35 66.185 66.005 65.815 65.62 65.42 65.22 65.023 64.85 64.7 64.555 64.413 64.283 64.157 64.007 63.84 63.675 63.512 63.337 63.137 62.927 62.725 62.515 62.29 62.078 61.908 61.77 61.623 61.458 61.298 61.145 60.992 60.81 60.608 60.42 60.248 60.1 59.965 59.81 59.627 59.455 59.287 59.097 58.898 58.715 58.56 58.42 58.292 58.16 58.018 57.875 57.737 57.6 57.457 57.31 57.155 57.005 56.87 56.717 56.522 56.338 56.17 55.98 55.785 55.6 55.417 55.227 55.025 54.828 54.653 54.488 54.33 54.182 54.035 53.88 53.715 53.515 53.295 53.105 52.955 52.835 52.725 52.595 52.422 52.195 51.96 51.79 51.66 51.535 51.41 51.265 51.097 50.942 50.805 50.652 50.485 50.318 50.158 50.005 49.86 49.723 49.598 49.495 49.408 49.32 49.22 49.095 48.947 48.785 48.61
62.07 62.435 62.775 63.093 63.41 63.725 64.03 64.332 64.612 64.862 65.097 65.322 65.553 65.805 66.067 66.315 66.537 66.717 66.85 66.963 67.088 67.238 67.387 67.51 67.615 67.718 67.845 67.985 68.1 68.2 68.315 68.45 68.59 68.732 68.86 68.962 69.065 69.177 69.295 69.42 69.555 69.692 69.777 69.78 69.74 69.7 69.725 69.79 69.83 69.857 69.85 69.81 69.77 69.725 69.67 69.613 69.563 69.568 69.577 69.548 69.522 69.5 69.472 69.44 69.415 69.39 69.35 69.295 69.258 69.257 69.222 69.135 69.045 68.988 68.96 68.935 68.92 68.913 68.88 68.77 68.585 68.375 68.17 67.955 67.712 67.455 67.2 66.953 66.715 66.495 66.308 66.148 65.988 65.813 65.62 65.42 65.223 65.03 64.858 64.707 64.563 64.418 64.29 64.175 64.05 63.905 63.74 63.56 63.357 63.143 62.93 62.715 62.485 62.245 62.033 61.855 61.703 61.545 61.365 61.188 61.018 60.86 60.682 60.493 60.32 60.155 60.007 59.852 59.66 59.463 59.293 59.137 58.972 58.792 58.613 58.448 58.298 58.16 58.025 57.885 57.748 57.612 57.475 57.335 57.192 57.045 56.897 56.737 56.542 56.33 56.15 55.995 55.817 55.628 55.445 55.265 55.085 54.897 54.703 54.52 54.35 54.185 54.023 53.858 53.695 53.53 53.34 53.148 52.99 52.853 52.727 52.592 52.425 52.232 52.02 51.838 51.7 51.57 51.442 51.295 51.11 50.923 50.773 50.65 50.517 50.362 50.195 50.03 49.873 49.723 49.585 49.453 49.328 49.225 49.135 49.042 48.94 48.817 48.665 48.49
62.315 62.663 63.003 63.328 63.643 63.955 64.255 64.555 64.853 65.113 65.342 65.568 65.793 66.023 66.262 66.502 66.74 66.962 67.12 67.23 67.343 67.468 67.595 67.708 67.81 67.91 68.02 68.128 68.225 68.325 68.44 68.573 68.708 68.845 68.965 69.055 69.14 69.247 69.382 69.527 69.672 69.817 69.912 69.915 69.87 69.825 69.828 69.868 69.9 69.925 69.917 69.88 69.84 69.803 69.765 69.722 69.68 69.655 69.638 69.615 69.59 69.568 69.545 69.515 69.488 69.46 69.423 69.37 69.315 69.275 69.22 69.143 69.065 68.995 68.96 68.95 68.94 68.93 68.9 68.825 68.697 68.515 68.297 68.057 67.805 67.553 67.295 67.02 66.74 66.483 66.278 66.123 65.978 65.818 65.625 65.422 65.23 65.037 64.863 64.715 64.57 64.425 64.3 64.188 64.075 63.947 63.775 63.57 63.355 63.14 62.92 62.68 62.435 62.198 61.99 61.81 61.645 61.478 61.295 61.11 60.923 60.745 60.568 60.393 60.227 60.062 59.895 59.705 59.495 59.3 59.133 58.98 58.825 58.665 58.5 58.338 58.182 58.033 57.892 57.755 57.62 57.485 57.345 57.205 57.067 56.925 56.765 56.57 56.353 56.138 55.955 55.805 55.645 55.47 55.293 55.115 54.935 54.758 54.575 54.395 54.225 54.055 53.883 53.705 53.53 53.358 53.183 53.022 52.88 52.737 52.59 52.422 52.24 52.055 51.883 51.74 51.61 51.475 51.317 51.127 50.92 50.743 50.61 50.488 50.362 50.23 50.075 49.91 49.748 49.59 49.45 49.32 49.188 49.068 48.968 48.873 48.778 48.675 48.542 48.375
62.54 62.903 63.355 63.698 63.945 64.25 64.543 64.825 65.148 65.4 65.59 65.815 66.04 66.265 66.463 66.653 66.875 67.12 67.345 67.5 67.61 67.725 67.835 67.94 68.042 68.125 68.208 68.3 68.395 68.498 68.615 68.748 68.883 69 69.073 69.123 69.19 69.295 69.435 69.587 69.742 69.897 70.007 70.025 69.985 69.94 69.928 69.953 69.985 70.007 70 69.965 69.925 69.89 69.855 69.815 69.78 69.747 69.718 69.695 69.675 69.665 69.648 69.613 69.58 69.553 69.518 69.465 69.402 69.333 69.26 69.195 69.13 69.063 69.025 69.018 69.01 68.98 68.907 68.822 68.74 68.61 68.402 68.155 67.905 67.655 67.392 67.11 66.825 66.56 66.35 66.193 66.05 65.877 65.635 65.4 65.212 65.035 64.878 64.735 64.593 64.45 64.32 64.202 64.09 63.967 63.78 63.555 63.34 63.125 62.897 62.645 62.393 62.155 61.95 61.778 61.615 61.425 61.223 61.035 60.845 60.658 60.473 60.293 60.125 59.96 59.775 59.57 59.353 59.15 58.995 58.853 58.698 58.545 58.388 58.223 58.065 57.91 57.758 57.618 57.485 57.352 57.215 57.07 56.922 56.77 56.602 56.415 56.205 55.985 55.8 55.65 55.488 55.32 55.162 54.997 54.82 54.643 54.465 54.283 54.105 53.938 53.767 53.588 53.405 53.228 53.043 52.873 52.73 52.585 52.42 52.24 52.065 51.905 51.763 51.63 51.497 51.35 51.162 50.953 50.753 50.59 50.465 50.343 50.22 50.1 49.955 49.79 49.63 49.475 49.335 49.205 49.078 48.96 48.855 48.76 48.665 48.55 48.415 48.265
62.733 63.175 63.72 64.167 64.413 64.633 64.915 65.38 65.737 65.768 65.853 66.065 66.29 66.515 66.68 66.798 66.973 67.21 67.48 67.725 67.88 67.992 68.103 68.207 68.295 68.357 68.425 68.512 68.61 68.718 68.842 68.975 69.09 69.175 69.207 69.215 69.248 69.335 69.475 69.628 69.785 69.945 70.06 70.097 70.08 70.04 70.03 70.055 70.08 70.095 70.085 70.052 70.015 69.98 69.945 69.908 69.872 69.84 69.813 69.79 69.783 69.793 69.78 69.738 69.698 69.667 69.63 69.567 69.488 69.405 69.33 69.265 69.2 69.13 69.09 69.082 69.055 68.982 68.888 68.805 68.712 68.59 68.435 68.237 68.005 67.755 67.49 67.213 66.953 66.718 66.508 66.338 66.192 65.985 65.67 65.373 65.173 65.035 64.912 64.772 64.63 64.49 64.355 64.225 64.105 63.982 63.787 63.545 63.32 63.105 62.875 62.62 62.365 62.133 61.943 61.785 61.63 61.425 61.183 60.965 60.77 60.583 60.39 60.195 60.015 59.847 59.665 59.455 59.212 58.99 58.852 58.737 58.595 58.442 58.28 58.11 57.948 57.79 57.63 57.48 57.345 57.212 57.07 56.912 56.747 56.585 56.427 56.267 56.085 55.875 55.69 55.527 55.338 55.165 55.027 54.887 54.732 54.56 54.377 54.185 53.995 53.822 53.65 53.47 53.293 53.12 52.92 52.715 52.553 52.405 52.237 52.065 51.91 51.77 51.635 51.497 51.355 51.197 51.007 50.803 50.62 50.468 50.34 50.22 50.1 49.98 49.837 49.675 49.523 49.375 49.235 49.108 48.99 48.885 48.785 48.69 48.582 48.427 48.268 48.14
63.01 63.485 63.995 64.592 65.005 65.273 65.803 66.327 66.39 66.163 66.148 66.335 66.545 66.765 66.922 67.003 67.105 67.3 67.57 67.862 68.107 68.26 68.37 68.462 68.527 68.585 68.648 68.728 68.83 68.947 69.07 69.18 69.265 69.332 69.362 69.358 69.36 69.418 69.535 69.678 69.835 69.995 70.102 70.145 70.157 70.137 70.13 70.15 70.165 70.175 70.167 70.14 70.105 70.07 70.035 70 69.965 69.93 69.908 69.9 69.91 69.93 69.922 69.88 69.83 69.785 69.73 69.65 69.563 69.478 69.4 69.335 69.27 69.2 69.16 69.13 69.057 68.96 68.865 68.77 68.64 68.495 68.372 68.24 68.075 67.857 67.6 67.348 67.115 66.893 66.67 66.485 66.335 66.092 65.735 65.383 65.163 65.065 64.957 64.817 64.675 64.533 64.395 64.26 64.13 64 63.802 63.55 63.308 63.085 62.852 62.6 62.36 62.145 61.97 61.82 61.667 61.467 61.205 60.94 60.71 60.51 60.313 60.11 59.915 59.738 59.552 59.32 59.048 58.81 58.678 58.595 58.482 58.337 58.175 58.003 57.833 57.67 57.51 57.353 57.205 57.067 56.915 56.743 56.568 56.4 56.245 56.095 55.937 55.755 55.567 55.377 55.173 54.995 54.857 54.732 54.602 54.46 54.292 54.1 53.9 53.71 53.533 53.355 53.182 53.012 52.812 52.59 52.393 52.225 52.063 51.913 51.775 51.64 51.505 51.36 51.205 51.042 50.858 50.67 50.505 50.353 50.22 50.1 49.98 49.86 49.722 49.568 49.42 49.275 49.138 49.02 48.915 48.815 48.715 48.61 48.465 48.27 48.105 47.992
63.398 63.835 64.303 64.918 65.613 66.312 66.952 67.1 66.855 66.578 66.495 66.64 66.828 67.025 67.165 67.235 67.3 67.425 67.66 67.955 68.248 68.487 68.627 68.697 68.752 68.807 68.862 68.94 69.05 69.167 69.267 69.347 69.42 69.487 69.517 69.518 69.528 69.573 69.665 69.788 69.923 70.06 70.15 70.185 70.21 70.22 70.228 70.24 70.25 70.26 70.252 70.225 70.192 70.16 70.125 70.09 70.055 70.025 70.018 70.03 70.047 70.065 70.062 70.02 69.955 69.885 69.805 69.717 69.632 69.548 69.47 69.403 69.338 69.273 69.21 69.132 69.035 68.935 68.835 68.707 68.545 68.395 68.275 68.163 68.055 67.907 67.712 67.505 67.285 67.065 66.84 66.638 66.462 66.187 65.808 65.428 65.198 65.107 64.99 64.853 64.715 64.575 64.437 64.302 64.167 64.022 63.817 63.563 63.31 63.07 62.835 62.6 62.383 62.178 62 61.85 61.702 61.512 61.255 60.97 60.698 60.455 60.238 60.035 59.835 59.643 59.43 59.168 58.888 58.645 58.5 58.423 58.338 58.222 58.07 57.895 57.72 57.552 57.39 57.23 57.075 56.925 56.76 56.578 56.395 56.223 56.063 55.91 55.762 55.607 55.422 55.215 55.008 54.823 54.678 54.55 54.422 54.297 54.15 53.972 53.782 53.595 53.417 53.24 53.065 52.887 52.685 52.465 52.25 52.063 51.913 51.777 51.642 51.507 51.367 51.215 51.055 50.893 50.723 50.555 50.395 50.238 50.1 49.98 49.86 49.74 49.607 49.46 49.315 49.175 49.05 48.945 48.845 48.745 48.64 48.5 48.31 48.1 47.943 47.838
63.8 64.228 64.77 65.46 66.36 67.144 67.417 67.35 67.167 66.942 66.845 66.948 67.12 67.282 67.397 67.465 67.53 67.643 67.908 68.245 68.505 68.67 68.752 68.807 68.867 68.942 69.027 69.125 69.237 69.347 69.435 69.505 69.575 69.642 69.68 69.695 69.715 69.758 69.845 69.96 70.073 70.172 70.232 70.26 70.288 70.313 70.33 70.34 70.35 70.352 70.342 70.32 70.29 70.258 70.223 70.19 70.155 70.125 70.115 70.127 70.15 70.17 70.17 70.12 70.037 69.952 69.865 69.78 69.695 69.618 69.55 69.483 69.42 69.357 69.27 69.155 69.035 68.915 68.785 68.63 68.46 68.313 68.2 68.1 68.005 67.887 67.735 67.565 67.385 67.207 67.01 66.795 66.572 66.265 65.88 65.495 65.255 65.142 65.012 64.878 64.743 64.607 64.473 64.338 64.202 64.057 63.852 63.595 63.338 63.09 62.865 62.653 62.443 62.235 62.04 61.875 61.73 61.547 61.292 61.007 60.728 60.463 60.223 60.01 59.81 59.61 59.375 59.1 58.83 58.59 58.415 58.305 58.22 58.115 57.942 57.745 57.567 57.395 57.23 57.07 56.935 56.815 56.643 56.44 56.25 56.065 55.89 55.733 55.59 55.447 55.27 55.06 54.85 54.655 54.488 54.345 54.215 54.085 53.94 53.777 53.607 53.432 53.26 53.092 52.92 52.735 52.53 52.313 52.103 51.92 51.773 51.637 51.502 51.365 51.225 51.077 50.92 50.76 50.597 50.437 50.28 50.12 49.978 49.855 49.735 49.615 49.485 49.342 49.2 49.08 48.98 48.88 48.78 48.677 48.56 48.392 48.185 47.975 47.808 47.695
64.16 64.815 65.59 66.422 67.082 67.337 67.367 67.372 67.285 67.138 67.1 67.223 67.385 67.525 67.622 67.692 67.76 67.918 68.297 68.642 68.755 68.75 68.763 68.848 68.94 69.05 69.168 69.28 69.39 69.5 69.592 69.665 69.73 69.785 69.832 69.875 69.905 69.943 70.025 70.132 70.227 70.305 70.35 70.373 70.4 70.427 70.445 70.455 70.457 70.442 70.433 70.427 70.405 70.372 70.338 70.302 70.268 70.233 70.203 70.193 70.208 70.232 70.23 70.177 70.095 70.007 69.923 69.84 69.765 69.705 69.647 69.583 69.518 69.452 69.362 69.24 69.105 68.963 68.808 68.643 68.475 68.318 68.183 68.075 67.98 67.847 67.68 67.515 67.36 67.22 67.067 66.89 66.67 66.34 65.948 65.565 65.308 65.17 65.035 64.902 64.768 64.633 64.5 64.365 64.235 64.107 63.91 63.65 63.398 63.16 62.945 62.74 62.527 62.313 62.103 61.91 61.75 61.572 61.32 61.038 60.775 60.533 60.29 60.053 59.838 59.635 59.397 59.128 58.873 58.638 58.44 58.29 58.17 58.037 57.823 57.568 57.36 57.188 57.04 56.92 56.833 56.765 56.6 56.358 56.148 55.953 55.758 55.58 55.43 55.29 55.117 54.91 54.705 54.51 54.318 54.143 53.998 53.865 53.72 53.562 53.4 53.228 53.063 52.915 52.755 52.57 52.365 52.153 51.958 51.78 51.628 51.492 51.355 51.215 51.08 50.947 50.8 50.64 50.475 50.313 50.155 49.998 49.855 49.73 49.61 49.49 49.36 49.218 49.093 49.005 48.92 48.82 48.717 48.607 48.48 48.312 48.11 47.9 47.72 47.583
64.433 65.132 65.992 66.772 67.162 67.192 67.205 67.272 67.29 67.268 67.325 67.477 67.635 67.762 67.845 67.917 67.99 68.193 68.537 68.715 68.712 68.71 68.803 68.962 69.09 69.21 69.325 69.435 69.545 69.655 69.747 69.815 69.865 69.905 69.957 70.02 70.072 70.12 70.192 70.282 70.36 70.427 70.472 70.495 70.518 70.542 70.562 70.567 70.552 70.525 70.515 70.522 70.52 70.497 70.46 70.42 70.382 70.347 70.315 70.285 70.268 70.277 70.267 70.215 70.147 70.065 69.98 69.908 69.853 69.807 69.752 69.685 69.615 69.547 69.455 69.335 69.21 69.07 68.912 68.745 68.577 68.41 68.238 68.08 67.948 67.8 67.63 67.46 67.293 67.138 66.998 66.9 66.81 66.55 66.138 65.703 65.375 65.198 65.06 64.93 64.795 64.66 64.53 64.4 64.278 64.16 63.97 63.718 63.48 63.253 63.037 62.827 62.607 62.388 62.178 61.973 61.785 61.595 61.353 61.09 60.85 60.617 60.375 60.128 59.89 59.668 59.428 59.173 58.93 58.693 58.49 58.325 58.17 57.998 57.755 57.465 57.203 57.023 56.92 56.85 56.793 56.737 56.585 56.33 56.088 55.873 55.663 55.458 55.28 55.13 54.962 54.763 54.565 54.375 54.178 53.98 53.8 53.648 53.5 53.345 53.188 53.02 52.863 52.725 52.58 52.405 52.203 52.003 51.822 51.645 51.485 51.345 51.205 51.063 50.928 50.802 50.67 50.52 50.355 50.19 50.03 49.875 49.735 49.61 49.488 49.365 49.235 49.108 49.015 48.947 48.865 48.76 48.647 48.53 48.397 48.23 48.037 47.835 47.653 47.5
64.763 65.193 65.77 66.283 66.633 66.848 66.985 67.12 67.243 67.367 67.515 67.685 67.847 67.972 68.06 68.14 68.217 68.382 68.557 68.603 68.62 68.67 68.825 69.05 69.23 69.367 69.48 69.59 69.7 69.807 69.892 69.945 69.98 70.015 70.07 70.138 70.205 70.267 70.335 70.412 70.485 70.552 70.597 70.62 70.64 70.66 70.672 70.662 70.635 70.605 70.595 70.608 70.62 70.612 70.58 70.54 70.5 70.463 70.43 70.398 70.365 70.348 70.315 70.253 70.19 70.12 70.05 69.998 69.955 69.912 69.855 69.785 69.715 69.642 69.547 69.43 69.31 69.175 69.015 68.848 68.682 68.515 68.337 68.148 67.968 67.798 67.623 67.448 67.275 67.105 66.973 66.93 66.937 66.835 66.46 65.91 65.498 65.288 65.14 65 64.855 64.71 64.585 64.465 64.335 64.21 64.032 63.797 63.565 63.337 63.12 62.905 62.683 62.465 62.258 62.053 61.848 61.638 61.408 61.17 60.937 60.702 60.46 60.215 59.973 59.73 59.485 59.238 58.99 58.745 58.54 58.378 58.22 58.035 57.785 57.495 57.22 57.038 56.943 56.86 56.78 56.705 56.565 56.33 56.07 55.823 55.59 55.365 55.158 54.98 54.808 54.618 54.425 54.24 54.055 53.858 53.655 53.473 53.31 53.15 52.99 52.825 52.668 52.528 52.393 52.235 52.05 51.865 51.688 51.513 51.345 51.195 51.058 50.913 50.775 50.65 50.525 50.39 50.232 50.07 49.91 49.755 49.615 49.49 49.365 49.238 49.12 49.027 48.955 48.885 48.797 48.687 48.57 48.45 48.312 48.142 47.957 47.765 47.588 47.435
65.13 65.447 65.75 66.065 66.383 66.69 66.92 67.078 67.235 67.403 67.587 67.777 67.922 68.03 68.135 68.235 68.332 68.437 68.517 68.56 68.603 68.653 68.805 69.055 69.282 69.437 69.542 69.647 69.755 69.87 69.977 70.047 70.085 70.12 70.18 70.255 70.325 70.39 70.46 70.535 70.607 70.677 70.717 70.735 70.755 70.777 70.782 70.758 70.725 70.695 70.688 70.703 70.717 70.72 70.695 70.655 70.615 70.583 70.553 70.52 70.49 70.46 70.41 70.343 70.278 70.213 70.16 70.118 70.075 70.03 69.963 69.883 69.81 69.737 69.642 69.525 69.405 69.272 69.115 68.95 68.785 68.62 68.44 68.24 68.045 67.858 67.675 67.498 67.323 67.14 67.025 67.01 67.018 67.012 66.71 66.103 65.65 65.43 65.275 65.122 64.947 64.765 64.663 64.615 64.49 64.29 64.067 63.832 63.608 63.397 63.193 62.98 62.763 62.555 62.355 62.15 61.938 61.718 61.488 61.255 61.022 60.79 60.557 60.32 60.08 59.835 59.585 59.333 59.078 58.83 58.615 58.443 58.29 58.122 57.885 57.595 57.348 57.183 57.068 56.963 56.858 56.737 56.565 56.33 56.07 55.813 55.563 55.323 55.093 54.875 54.673 54.488 54.31 54.138 53.967 53.778 53.575 53.38 53.203 53.038 52.873 52.698 52.53 52.383 52.24 52.095 51.933 51.758 51.58 51.403 51.228 51.073 50.935 50.775 50.625 50.5 50.375 50.245 50.095 49.935 49.778 49.628 49.493 49.368 49.243 49.115 49.003 48.917 48.845 48.77 48.675 48.567 48.457 48.342 48.215 48.055 47.87 47.68 47.515 47.367
65.402 65.64 65.865 66.202 66.545 66.822 67 67.12 67.265 67.43 67.615 67.785 67.882 67.96 68.068 68.182 68.292 68.392 68.477 68.537 68.585 68.635 68.785 69.03 69.25 69.402 69.505 69.61 69.728 69.86 69.997 70.112 70.18 70.22 70.285 70.37 70.445 70.512 70.583 70.655 70.727 70.795 70.83 70.845 70.868 70.895 70.897 70.865 70.83 70.8 70.793 70.805 70.82 70.83 70.81 70.77 70.738 70.72 70.698 70.66 70.623 70.59 70.542 70.478 70.412 70.348 70.295 70.253 70.208 70.16 70.085 69.988 69.905 69.832 69.735 69.615 69.495 69.367 69.215 69.05 68.888 68.73 68.545 68.328 68.125 67.935 67.75 67.572 67.39 67.2 67.103 67.105 67.115 67.125 66.895 66.325 65.82 65.563 65.38 65.19 64.982 64.81 64.763 64.785 64.67 64.378 64.075 63.838 63.64 63.455 63.267 63.06 62.853 62.663 62.467 62.26 62.04 61.808 61.573 61.34 61.107 60.875 60.652 60.432 60.2 59.955 59.703 59.45 59.205 58.965 58.738 58.535 58.365 58.207 57.982 57.71 57.488 57.33 57.213 57.107 56.977 56.79 56.565 56.327 56.075 55.82 55.57 55.325 55.085 54.833 54.593 54.4 54.23 54.065 53.897 53.717 53.525 53.33 53.15 52.982 52.807 52.615 52.44 52.29 52.145 52.01 51.857 51.685 51.51 51.32 51.133 50.975 50.82 50.635 50.475 50.35 50.225 50.097 49.95 49.79 49.64 49.5 49.368 49.243 49.118 48.993 48.875 48.773 48.688 48.61 48.517 48.412 48.3 48.177 48.06 47.937 47.775 47.588 47.428 47.287
65.612 65.725 65.925 66.317 66.695 66.937 67.07 67.18 67.308 67.463 67.637 67.767 67.83 67.893 67.99 68.105 68.205 68.295 68.392 68.485 68.557 68.615 68.763 68.99 69.192 69.35 69.465 69.585 69.72 69.86 70 70.135 70.247 70.317 70.385 70.475 70.56 70.635 70.705 70.775 70.842 70.902 70.94 70.96 70.985 71.015 71.012 70.975 70.938 70.905 70.895 70.908 70.925 70.94 70.925 70.895 70.88 70.872 70.852 70.813 70.768 70.728 70.677 70.613 70.55 70.485 70.43 70.387 70.34 70.29 70.212 70.107 70.01 69.925 69.825 69.705 69.585 69.462 69.315 69.153 68.998 68.842 68.655 68.432 68.215 68.013 67.825 67.64 67.445 67.268 67.195 67.205 67.215 67.225 67.09 66.597 65.998 65.633 65.402 65.18 64.98 64.883 64.89 64.915 64.792 64.475 64.143 63.9 63.713 63.53 63.345 63.148 62.958 62.777 62.58 62.362 62.132 61.895 61.66 61.427 61.193 60.96 60.738 60.527 60.31 60.072 59.825 59.583 59.35 59.118 58.89 58.67 58.468 58.292 58.077 57.84 57.643 57.483 57.36 57.22 57.02 56.782 56.545 56.315 56.077 55.827 55.577 55.33 55.072 54.798 54.548 54.345 54.163 53.993 53.823 53.647 53.467 53.28 53.097 52.917 52.725 52.525 52.35 52.205 52.07 51.94 51.792 51.622 51.435 51.225 51.033 50.862 50.68 50.488 50.328 50.2 50.075 49.95 49.807 49.655 49.513 49.377 49.245 49.118 48.993 48.868 48.75 48.643 48.543 48.453 48.357 48.242 48.115 47.98 47.863 47.77 47.655 47.492 47.333 47.2
65.692 65.715 65.928 66.357 66.75 66.992 67.13 67.25 67.365 67.5 67.64 67.73 67.78 67.833 67.915 68.025 68.117 68.198 68.29 68.395 68.497 68.583 68.73 68.935 69.13 69.302 69.442 69.58 69.72 69.862 70.002 70.132 70.26 70.37 70.46 70.55 70.64 70.73 70.807 70.875 70.94 71.005 71.055 71.08 71.105 71.13 71.122 71.085 71.045 71.008 70.998 71.015 71.033 71.048 71.045 71.035 71.033 71.027 71.007 70.968 70.923 70.88 70.825 70.758 70.693 70.625 70.568 70.52 70.47 70.42 70.34 70.233 70.125 70.025 69.92 69.8 69.683 69.563 69.417 69.26 69.11 68.955 68.765 68.545 68.32 68.1 67.898 67.698 67.495 67.323 67.24 67.222 67.205 67.185 67.1 66.667 66.05 65.645 65.383 65.155 65.013 64.993 65.018 65.042 64.92 64.618 64.295 64.025 63.813 63.623 63.438 63.253 63.072 62.892 62.687 62.455 62.217 61.982 61.747 61.512 61.277 61.043 60.82 60.615 60.41 60.19 59.96 59.73 59.5 59.27 59.045 58.825 58.605 58.398 58.188 57.983 57.798 57.63 57.465 57.252 57.005 56.76 56.525 56.295 56.065 55.828 55.575 55.308 55.028 54.748 54.508 54.305 54.11 53.925 53.75 53.575 53.4 53.225 53.038 52.838 52.635 52.435 52.265 52.13 52 51.87 51.725 51.545 51.338 51.12 50.918 50.728 50.533 50.34 50.18 50.05 49.925 49.802 49.667 49.528 49.39 49.255 49.125 48.995 48.87 48.745 48.625 48.52 48.415 48.308 48.193 48.058 47.918 47.78 47.665 47.575 47.487 47.375 47.237 47.107
65.61 65.583 65.77 66.207 66.582 66.83 67.002 67.155 67.295 67.445 67.577 67.667 67.73 67.78 67.848 67.94 68.025 68.098 68.188 68.295 68.405 68.513 68.665 68.86 69.05 69.222 69.375 69.52 69.665 69.817 69.957 70.082 70.212 70.352 70.47 70.557 70.655 70.777 70.875 70.938 71.01 71.1 71.167 71.2 71.227 71.242 71.23 71.198 71.168 71.143 71.128 71.135 71.153 71.168 71.19 71.207 71.205 71.195 71.173 71.135 71.095 71.055 71 70.93 70.86 70.79 70.728 70.675 70.625 70.567 70.482 70.375 70.268 70.152 70.033 69.918 69.803 69.68 69.53 69.368 69.215 69.06 68.87 68.65 68.425 68.2 67.985 67.778 67.575 67.385 67.228 67.103 67.02 66.97 66.912 66.535 66.003 65.665 65.378 65.165 65.098 65.12 65.145 65.17 65.06 64.782 64.475 64.178 63.933 63.735 63.55 63.37 63.172 62.945 62.702 62.46 62.22 62.005 61.8 61.575 61.345 61.13 60.93 60.723 60.515 60.307 60.087 59.862 59.638 59.423 59.213 58.998 58.78 58.55 58.323 58.123 57.937 57.752 57.535 57.288 57.03 56.775 56.54 56.31 56.08 55.853 55.6 55.318 55.035 54.778 54.548 54.33 54.123 53.918 53.723 53.545 53.378 53.21 53.023 52.818 52.61 52.403 52.235 52.105 51.975 51.837 51.675 51.475 51.26 51.055 50.84 50.615 50.395 50.19 50.03 49.903 49.78 49.66 49.535 49.405 49.27 49.135 49.005 48.875 48.75 48.64 48.528 48.41 48.303 48.19 48.06 47.915 47.768 47.625 47.51 47.42 47.335 47.242 47.125 46.997
65.412 65.343 65.513 65.92 66.255 66.505 66.692 66.867 67.042 67.222 67.375 67.49 67.587 67.672 67.762 67.85 67.922 67.988 68.08 68.197 68.31 68.42 68.573 68.762 68.94 69.102 69.255 69.403 69.558 69.72 69.863 69.995 70.148 70.31 70.435 70.53 70.655 70.81 70.92 70.99 71.088 71.2 71.275 71.312 71.345 71.365 71.36 71.34 71.325 71.312 71.293 71.278 71.285 71.303 71.338 71.382 71.397 71.39 71.363 71.323 71.285 71.245 71.19 71.118 71.045 70.978 70.915 70.857 70.8 70.732 70.645 70.54 70.422 70.287 70.16 70.05 69.937 69.812 69.655 69.48 69.318 69.157 68.967 68.75 68.525 68.3 68.085 67.883 67.688 67.493 67.283 67.068 66.895 66.76 66.685 66.413 65.998 65.723 65.45 65.245 65.2 65.222 65.245 65.262 65.187 64.955 64.652 64.345 64.068 63.853 63.66 63.442 63.19 62.907 62.625 62.373 62.163 62.003 61.833 61.625 61.425 61.25 61.07 60.855 60.633 60.423 60.205 59.983 59.778 59.593 59.405 59.2 58.982 58.72 58.46 58.25 58.057 57.86 57.63 57.375 57.1 56.83 56.59 56.36 56.133 55.912 55.667 55.39 55.125 54.898 54.673 54.433 54.208 53.99 53.773 53.575 53.405 53.242 53.06 52.857 52.65 52.44 52.265 52.13 51.987 51.825 51.635 51.425 51.22 51.03 50.817 50.57 50.323 50.09 49.9 49.76 49.64 49.523 49.405 49.282 49.152 49.017 48.885 48.758 48.648 48.565 48.46 48.325 48.203 48.088 47.96 47.815 47.665 47.52 47.405 47.315 47.222 47.115 46.995 46.87
65.17 65.078 65.24 65.6 65.902 66.172 66.38 66.558 66.74 66.925 67.082 67.205 67.327 67.452 67.58 67.695 67.787 67.86 67.953 68.082 68.212 68.33 68.478 68.655 68.82 68.977 69.135 69.295 69.457 69.622 69.773 69.923 70.098 70.27 70.402 70.528 70.685 70.852 70.97 71.063 71.185 71.307 71.385 71.42 71.457 71.492 71.507 71.507 71.5 71.487 71.467 71.44 71.425 71.435 71.473 71.527 71.572 71.592 71.57 71.52 71.475 71.435 71.377 71.302 71.23 71.165 71.102 71.037 70.967 70.895 70.812 70.7 70.557 70.41 70.288 70.18 70.07 69.945 69.785 69.605 69.427 69.253 69.06 68.845 68.623 68.4 68.188 67.99 67.803 67.615 67.407 67.183 66.955 66.73 66.57 66.42 66.165 65.885 65.62 65.383 65.283 65.29 65.31 65.31 65.265 65.1 64.82 64.518 64.22 63.955 63.708 63.435 63.148 62.86 62.57 62.33 62.173 62.05 61.9 61.723 61.555 61.395 61.212 60.995 60.765 60.543 60.33 60.13 59.95 59.78 59.605 59.41 59.162 58.86 58.595 58.385 58.18 57.972 57.73 57.452 57.165 56.888 56.64 56.413 56.19 55.975 55.737 55.478 55.243 55.033 54.817 54.565 54.315 54.092 53.865 53.643 53.448 53.277 53.095 52.893 52.69 52.487 52.3 52.135 51.965 51.785 51.588 51.385 51.198 51.012 50.8 50.555 50.308 50.065 49.848 49.67 49.518 49.388 49.27 49.152 49.032 48.9 48.768 48.658 48.578 48.507 48.4 48.26 48.123 47.993 47.86 47.715 47.565 47.42 47.305 47.21 47.102 46.985 46.865 46.745
64.735 64.753 64.938 65.252 65.547 65.837 66.07 66.255 66.442 66.63 66.792 66.925 67.058 67.193 67.328 67.463 67.59 67.697 67.808 67.942 68.087 68.222 68.365 68.52 68.67 68.82 68.98 69.155 69.332 69.512 69.697 69.88 70.065 70.24 70.39 70.547 70.72 70.89 71.03 71.152 71.287 71.415 71.495 71.535 71.578 71.618 71.643 71.655 71.66 71.658 71.643 71.615 71.588 71.578 71.608 71.66 71.712 71.76 71.765 71.722 71.67 71.625 71.565 71.49 71.417 71.345 71.275 71.205 71.13 71.055 70.97 70.84 70.68 70.533 70.412 70.305 70.195 70.072 69.912 69.727 69.54 69.365 69.173 68.948 68.723 68.5 68.295 68.11 67.933 67.747 67.53 67.295 67.065 66.833 66.653 66.557 66.382 66.095 65.823 65.573 65.393 65.345 65.36 65.345 65.302 65.205 64.98 64.683 64.385 64.085 63.783 63.483 63.193 62.905 62.615 62.398 62.265 62.148 62.018 61.865 61.705 61.545 61.36 61.137 60.905 60.673 60.46 60.282 60.117 59.952 59.787 59.585 59.292 58.98 58.735 58.525 58.315 58.085 57.813 57.52 57.23 56.948 56.695 56.47 56.253 56.04 55.815 55.588 55.375 55.17 54.965 54.717 54.443 54.193 53.96 53.73 53.51 53.318 53.13 52.927 52.725 52.522 52.323 52.128 51.935 51.745 51.553 51.363 51.18 50.997 50.782 50.538 50.3 50.07 49.853 49.65 49.458 49.285 49.143 49.02 48.9 48.775 48.663 48.583 48.52 48.447 48.337 48.197 48.052 47.905 47.76 47.615 47.465 47.32 47.198 47.087 46.97 46.85 46.733 46.638
64.07 64.365 64.703 64.873 65.013 65.225 65.61 65.95 66.14 66.33 66.51 66.665 66.805 66.945 67.088 67.23 67.368 67.5 67.637 67.782 67.927 68.072 68.21 68.342 68.48 68.625 68.788 68.97 69.163 69.382 69.508 69.762 70.11 70.285 70.41 70.538 70.707 70.88 71.035 71.175 71.32 71.485 71.61 71.67 71.715 71.757 71.79 71.808 71.82 71.827 71.82 71.798 71.77 71.745 71.748 71.785 71.835 71.887 71.91 71.887 71.85 71.805 71.735 71.647 71.562 71.48 71.405 71.335 71.26 71.19 71.107 70.972 70.81 70.658 70.525 70.41 70.3 70.177 70.017 69.83 69.658 69.518 69.337 69.103 68.873 68.66 68.47 68.295 68.117 67.9 67.643 67.388 67.155 66.943 66.805 66.69 66.495 66.26 66.02 65.782 65.555 65.428 65.402 65.372 65.325 65.267 65.117 64.852 64.558 64.26 63.95 63.635 63.328 63.03 62.74 62.525 62.398 62.285 62.165 62.02 61.857 61.68 61.487 61.277 61.047 60.813 60.59 60.398 60.23 60.07 59.907 59.675 59.368 59.095 58.875 58.665 58.452 58.21 57.92 57.613 57.308 57.01 56.753 56.535 56.328 56.123 55.913 55.702 55.495 55.29 55.085 54.86 54.577 54.298 54.065 53.833 53.6 53.38 53.17 52.96 52.755 52.55 52.345 52.145 51.943 51.738 51.543 51.353 51.163 50.98 50.77 50.533 50.3 50.07 49.853 49.65 49.453 49.26 49.09 48.95 48.823 48.7 48.603 48.535 48.472 48.387 48.265 48.117 47.965 47.81 47.66 47.515 47.368 47.228 47.093 46.965 46.845 46.725 46.61 46.528
63.493 64.098 64.622 64.738 64.675 64.698 65.028 65.505 65.825 66.015 66.212 66.4 66.555 66.695 66.848 67.007 67.155 67.29 67.438 67.6 67.75 67.893 68.027 68.152 68.285 68.428 68.59 68.783 69.005 69.27 69.298 69.35 69.91 70.385 70.482 70.54 70.663 70.825 70.98 71.13 71.323 71.547 71.712 71.805 71.867 71.912 71.952 71.982 72 72.01 72.005 71.982 71.957 71.93 71.913 71.923 71.958 72.005 72.025 72.01 71.982 71.935 71.855 71.757 71.668 71.585 71.507 71.435 71.363 71.32 71.252 71.11 70.96 70.813 70.653 70.505 70.385 70.262 70.103 69.928 69.8 69.702 69.532 69.3 69.085 68.895 68.715 68.527 68.305 68.032 67.75 67.5 67.508 67.583 67.223 66.813 66.615 66.41 66.19 65.962 65.733 65.548 65.448 65.39 65.34 65.292 65.22 65.025 64.735 64.44 64.13 63.81 63.49 63.178 62.873 62.655 62.535 62.428 62.317 62.17 61.982 61.775 61.577 61.395 61.185 60.955 60.725 60.505 60.318 60.155 59.97 59.715 59.445 59.223 59.015 58.802 58.582 58.347 58.065 57.745 57.425 57.118 56.85 56.63 56.43 56.23 56.022 55.805 55.593 55.388 55.18 54.962 54.697 54.423 54.185 53.95 53.712 53.47 53.225 52.995 52.783 52.577 52.372 52.17 51.962 51.75 51.55 51.355 51.16 50.975 50.767 50.533 50.295 50.06 49.845 49.65 49.463 49.28 49.105 48.948 48.81 48.683 48.583 48.512 48.435 48.325 48.18 48.02 47.865 47.71 47.56 47.415 47.273 47.142 47.003 46.858 46.73 46.61 46.498 46.408
63.153 63.942 64.62 64.827 64.66 64.573 64.71 65.05 65.442 65.7 65.9 66.105 66.29 66.447 66.605 66.775 66.937 67.083 67.235 67.407 67.57 67.713 67.845 67.97 68.095 68.23 68.4 68.628 68.895 69.172 69.185 68.96 69.373 70.157 70.477 70.572 70.665 70.783 70.94 71.14 71.398 71.637 71.792 71.907 72.005 72.067 72.11 72.15 72.182 72.197 72.19 72.167 72.142 72.117 72.1 72.095 72.103 72.13 72.142 72.117 72.075 72.02 71.942 71.852 71.77 71.69 71.61 71.535 71.478 71.467 71.405 71.26 71.13 71 70.827 70.638 70.48 70.348 70.195 70.055 69.975 69.895 69.727 69.51 69.32 69.132 68.932 68.705 68.43 68.145 67.89 67.818 68.27 68.672 68.227 67.323 66.765 66.563 66.34 66.128 65.933 65.748 65.575 65.433 65.35 65.308 65.267 65.15 64.91 64.617 64.31 63.99 63.67 63.35 63.053 62.86 62.748 62.63 62.485 62.29 62.07 61.85 61.655 61.485 61.302 61.092 60.865 60.638 60.425 60.242 60.035 59.79 59.57 59.367 59.157 58.937 58.71 58.477 58.21 57.9 57.588 57.293 57.02 56.775 56.555 56.35 56.14 55.915 55.693 55.483 55.272 55.05 54.807 54.55 54.303 54.062 53.817 53.567 53.31 53.055 52.818 52.603 52.397 52.19 51.975 51.76 51.56 51.368 51.178 50.995 50.782 50.54 50.298 50.058 49.845 49.66 49.48 49.3 49.128 48.963 48.808 48.67 48.568 48.485 48.377 48.245 48.095 47.933 47.77 47.61 47.46 47.32 47.185 47.06 46.92 46.763 46.62 46.495 46.388 46.298
62.79 63.52 64.205 64.587 64.557 64.485 64.627 64.843 65.118 65.385 65.588 65.792 65.995 66.185 66.36 66.53 66.7 66.865 67.032 67.21 67.382 67.532 67.665 67.795 67.923 68.055 68.25 68.52 68.805 69.067 69.065 68.87 69.018 69.703 70.25 70.41 70.55 70.718 70.95 71.22 71.505 71.727 71.87 71.99 72.107 72.202 72.26 72.297 72.332 72.357 72.352 72.325 72.292 72.26 72.242 72.24 72.237 72.245 72.23 72.182 72.137 72.082 72.007 71.93 71.862 71.792 71.715 71.637 71.612 71.627 71.562 71.435 71.312 71.187 71.02 70.815 70.62 70.45 70.315 70.222 70.16 70.085 69.925 69.705 69.497 69.285 69.055 68.795 68.523 68.29 68.09 68.253 68.85 69.187 69.042 68.417 67.388 66.728 66.51 66.305 66.13 65.967 65.772 65.565 65.405 65.315 65.257 65.185 65.042 64.795 64.49 64.17 63.847 63.518 63.275 63.15 63.012 62.832 62.622 62.388 62.158 61.94 61.758 61.593 61.418 61.225 61.002 60.772 60.545 60.335 60.128 59.913 59.71 59.51 59.297 59.07 58.837 58.602 58.352 58.065 57.762 57.475 57.207 56.955 56.71 56.48 56.257 56.032 55.805 55.582 55.362 55.135 54.902 54.66 54.412 54.165 53.915 53.662 53.405 53.142 52.883 52.64 52.423 52.208 51.985 51.77 51.573 51.387 51.205 51.025 50.81 50.565 50.323 50.08 49.868 49.685 49.503 49.323 49.153 48.987 48.823 48.668 48.543 48.427 48.295 48.155 48.013 47.857 47.688 47.52 47.37 47.235 47.105 46.98 46.842 46.685 46.53 46.388 46.278 46.193
62.435 62.985 63.453 63.895 64.155 64.282 64.46 64.65 64.845 65.058 65.272 65.478 65.685 65.9 66.095 66.265 66.44 66.625 66.81 66.99 67.167 67.342 67.512 67.662 67.798 67.933 68.143 68.43 68.715 68.962 68.988 68.945 69.08 69.503 69.93 70.148 70.39 70.67 70.977 71.28 71.572 71.787 71.917 72.032 72.147 72.257 72.33 72.367 72.4 72.43 72.437 72.412 72.377 72.34 72.317 72.315 72.32 72.327 72.275 72.195 72.15 72.092 71.982 71.877 71.82 71.762 71.697 71.647 71.662 71.7 71.667 71.572 71.457 71.342 71.177 70.965 70.752 70.553 70.423 70.35 70.285 70.212 70.057 69.825 69.59 69.36 69.115 68.855 68.628 68.453 68.293 68.373 68.82 69.147 69.19 69.127 68.035 66.855 66.615 66.435 66.267 66.102 65.912 65.707 65.513 65.37 65.273 65.183 65.092 64.935 64.667 64.345 64.01 63.703 63.502 63.38 63.195 62.955 62.72 62.485 62.253 62.028 61.878 61.77 61.605 61.372 61.112 60.87 60.645 60.438 60.24 60.04 59.837 59.62 59.395 59.17 58.935 58.7 58.462 58.192 57.895 57.605 57.342 57.097 56.85 56.607 56.363 56.122 55.895 55.662 55.43 55.2 54.97 54.735 54.485 54.23 53.98 53.727 53.47 53.21 52.947 52.69 52.453 52.228 52.005 51.788 51.585 51.397 51.215 51.035 50.832 50.6 50.357 50.115 49.903 49.717 49.533 49.35 49.178 49.012 48.845 48.678 48.513 48.36 48.22 48.08 47.938 47.79 47.63 47.463 47.313 47.178 47.045 46.912 46.762 46.6 46.44 46.295 46.19 46.108
62.18 62.555 62.858 63.208 63.573 63.902 64.127 64.297 64.495 64.728 64.955 65.163 65.383 65.617 65.82 65.993 66.18 66.382 66.572 66.75 66.933 67.13 67.345 67.545 67.702 67.838 68.048 68.335 68.622 68.882 69.02 69.125 69.297 69.515 69.775 70.06 70.37 70.682 70.992 71.292 71.58 71.792 71.92 72.03 72.14 72.25 72.327 72.37 72.407 72.44 72.455 72.447 72.427 72.395 72.373 72.373 72.387 72.392 72.315 72.198 72.128 72.067 71.925 71.75 71.65 71.592 71.543 71.543 71.6 71.65 71.657 71.617 71.535 71.43 71.265 71.045 70.833 70.638 70.503 70.423 70.353 70.275 70.12 69.893 69.66 69.427 69.18 68.95 68.77 68.61 68.46 68.338 68.42 68.715 69.032 69.004 67.952 66.923 66.685 66.537 66.38 66.202 66.007 65.808 65.635 65.493 65.365 65.248 65.143 65.027 64.817 64.5 64.155 63.865 63.64 63.477 63.312 63.083 62.833 62.585 62.348 62.113 61.973 61.92 61.785 61.507 61.193 60.94 60.733 60.545 60.355 60.155 59.932 59.68 59.445 59.227 59 58.77 58.535 58.272 57.982 57.698 57.438 57.193 56.955 56.725 56.467 56.195 55.948 55.713 55.48 55.25 55.02 54.787 54.535 54.27 54.013 53.76 53.507 53.25 52.993 52.743 52.498 52.26 52.035 51.818 51.608 51.405 51.213 51.03 50.84 50.627 50.392 50.15 49.938 49.75 49.565 49.38 49.203 49.035 48.865 48.695 48.51 48.323 48.163 48.02 47.878 47.737 47.59 47.428 47.278 47.142 47 46.837 46.662 46.495 46.345 46.228 46.14 46.058
61.865 62.08 62.345 62.698 63.08 63.452 63.717 63.915 64.153 64.408 64.64 64.858 65.095 65.34 65.545 65.728 65.93 66.14 66.333 66.513 66.703 66.903 67.125 67.362 67.572 67.738 67.953 68.235 68.512 68.782 69.015 69.215 69.405 69.575 69.795 70.083 70.385 70.698 71.002 71.29 71.562 71.775 71.91 72.02 72.132 72.242 72.32 72.367 72.41 72.447 72.465 72.465 72.46 72.442 72.43 72.44 72.465 72.457 72.365 72.23 72.123 72.045 71.905 71.695 71.52 71.423 71.393 71.433 71.515 71.577 71.597 71.59 71.557 71.477 71.317 71.105 70.905 70.72 70.585 70.5 70.42 70.335 70.18 69.957 69.73 69.495 69.273 69.09 68.93 68.77 68.617 68.44 68.233 68.208 68.41 68.277 67.603 67.045 66.82 66.655 66.482 66.297 66.103 65.92 65.768 65.625 65.493 65.37 65.25 65.13 64.932 64.63 64.308 63.98 63.675 63.498 63.415 63.242 62.978 62.715 62.463 62.215 62.048 61.977 61.88 61.645 61.308 61.03 60.833 60.65 60.46 60.242 59.985 59.718 59.485 59.27 59.052 58.832 58.602 58.347 58.067 57.79 57.535 57.298 57.07 56.845 56.585 56.293 56.01 55.76 55.53 55.3 55.073 54.845 54.597 54.328 54.058 53.795 53.54 53.29 53.04 52.795 52.55 52.303 52.068 51.85 51.64 51.43 51.225 51.03 50.835 50.632 50.417 50.185 49.97 49.783 49.597 49.41 49.23 49.057 48.885 48.715 48.53 48.325 48.13 47.965 47.82 47.685 47.545 47.393 47.245 47.097 46.927 46.735 46.55 46.393 46.27 46.183 46.105 46.02
61.593 61.738 61.975 62.318 62.69 63.06 63.358 63.595 63.848 64.103 64.34 64.57 64.815 65.06 65.275 65.475 65.685 65.895 66.092 66.283 66.478 66.678 66.9 67.14 67.38 67.597 67.835 68.107 68.37 68.63 68.882 69.127 69.365 69.582 69.83 70.12 70.412 70.71 71 71.272 71.537 71.757 71.9 72.01 72.122 72.23 72.302 72.347 72.392 72.435 72.457 72.46 72.46 72.457 72.465 72.495 72.537 72.522 72.417 72.283 72.153 72.04 71.885 71.675 71.47 71.313 71.275 71.338 71.423 71.497 71.53 71.527 71.52 71.485 71.365 71.177 70.982 70.798 70.665 70.58 70.495 70.405 70.25 70.028 69.803 69.595 69.415 69.25 69.09 68.928 68.767 68.575 68.345 68.143 67.98 67.74 67.443 67.177 66.945 66.752 66.57 66.387 66.208 66.048 65.903 65.758 65.62 65.495 65.375 65.255 65.06 64.777 64.482 64.143 63.768 63.523 63.47 63.377 63.145 62.88 62.615 62.355 62.135 62.008 61.93 61.797 61.53 61.25 61.035 60.818 60.608 60.33 60.015 59.753 59.525 59.313 59.098 58.883 58.662 58.417 58.148 57.885 57.645 57.415 57.19 56.965 56.705 56.41 56.11 55.833 55.588 55.355 55.128 54.9 54.657 54.39 54.112 53.84 53.578 53.33 53.09 52.85 52.605 52.355 52.107 51.877 51.665 51.455 51.242 51.032 50.827 50.625 50.422 50.21 50.002 49.815 49.63 49.44 49.257 49.08 48.905 48.732 48.547 48.345 48.135 47.938 47.773 47.633 47.495 47.352 47.197 47.02 46.825 46.625 46.445 46.313 46.22 46.145 46.07 45.96
61.417 61.57 61.798 62.128 62.483 62.815 63.1 63.355 63.605 63.845 64.075 64.31 64.553 64.798 65.025 65.235 65.445 65.658 65.865 66.063 66.258 66.46 66.69 66.938 67.18 67.42 67.675 67.94 68.202 68.473 68.74 68.995 69.25 69.507 69.787 70.09 70.382 70.65 70.907 71.17 71.43 71.66 71.825 71.945 72.055 72.157 72.23 72.277 72.322 72.365 72.402 72.422 72.425 72.425 72.447 72.495 72.555 72.557 72.46 72.327 72.195 72.098 71.973 71.78 71.585 71.39 71.303 71.335 71.38 71.425 71.452 71.445 71.412 71.377 71.3 71.17 71.025 70.87 70.745 70.655 70.565 70.485 70.34 70.115 69.923 69.78 69.623 69.443 69.268 69.093 68.912 68.702 68.467 68.245 68.027 67.753 67.468 67.228 67.003 66.802 66.62 66.478 66.35 66.2 66.055 65.91 65.765 65.63 65.507 65.39 65.202 64.937 64.66 64.345 63.975 63.688 63.553 63.478 63.315 63.053 62.792 62.527 62.248 62.053 61.96 61.882 61.727 61.507 61.28 61.027 60.817 60.552 60.178 59.835 59.58 59.368 59.153 58.94 58.725 58.487 58.225 57.973 57.742 57.52 57.3 57.077 56.822 56.53 56.228 55.93 55.668 55.433 55.2 54.96 54.705 54.437 54.16 53.882 53.615 53.363 53.125 52.89 52.645 52.392 52.132 51.888 51.667 51.455 51.24 51.025 50.81 50.597 50.395 50.195 50.007 49.83 49.645 49.455 49.27 49.095 48.925 48.75 48.565 48.365 48.155 47.943 47.758 47.61 47.468 47.315 47.137 46.938 46.735 46.535 46.36 46.245 46.165 46.087 46.007 45.885
61.255 61.44 61.67 62.002 62.34 62.635 62.902 63.16 63.407 63.625 63.835 64.07 64.31 64.553 64.783 64.995 65.213 65.443 65.66 65.855 66.05 66.253 66.488 66.747 66.995 67.237 67.493 67.758 68.03 68.32 68.61 68.882 69.145 69.403 69.683 69.985 70.26 70.49 70.72 70.972 71.215 71.44 71.647 71.812 71.935 72.035 72.11 72.167 72.217 72.26 72.31 72.357 72.377 72.38 72.405 72.46 72.535 72.57 72.495 72.368 72.27 72.235 72.175 72.02 71.807 71.58 71.47 71.47 71.475 71.432 71.357 71.3 71.242 71.19 71.117 71.025 70.935 70.867 70.805 70.715 70.638 70.58 70.44 70.24 70.11 70.017 69.87 69.68 69.487 69.282 69.05 68.802 68.56 68.322 68.067 67.788 67.515 67.263 67.025 66.83 66.698 66.63 66.537 66.378 66.225 66.08 65.93 65.78 65.645 65.525 65.335 65.075 64.812 64.535 64.25 64.01 63.805 63.653 63.482 63.232 62.98 62.7 62.385 62.133 62 61.91 61.785 61.61 61.4 61.175 60.985 60.81 60.455 59.978 59.65 59.438 59.225 59.015 58.797 58.56 58.303 58.048 57.818 57.602 57.38 57.147 56.897 56.625 56.335 56.035 55.765 55.527 55.28 55.002 54.725 54.465 54.197 53.92 53.65 53.393 53.148 52.91 52.662 52.402 52.138 51.888 51.658 51.438 51.22 51.005 50.785 50.563 50.353 50.15 49.975 49.817 49.642 49.455 49.273 49.105 48.942 48.77 48.585 48.385 48.172 47.955 47.765 47.612 47.46 47.287 47.095 46.893 46.688 46.485 46.308 46.175 46.08 46 45.915 45.81
61.07 61.293 61.54 61.862 62.162 62.435 62.705 62.965 63.2 63.397 63.598 63.83 64.07 64.31 64.543 64.768 65.003 65.247 65.465 65.655 65.848 66.045 66.28 66.545 66.802 67.052 67.308 67.58 67.87 68.175 68.475 68.76 69.035 69.3 69.58 69.857 70.09 70.298 70.515 70.748 70.97 71.185 71.412 71.63 71.8 71.912 71.985 72.045 72.102 72.152 72.205 72.265 72.312 72.332 72.365 72.438 72.527 72.585 72.535 72.445 72.412 72.41 72.385 72.247 71.99 71.748 71.65 71.62 71.545 71.4 71.238 71.13 71.053 70.995 70.923 70.84 70.8 70.823 70.832 70.775 70.73 70.687 70.558 70.415 70.33 70.255 70.12 69.917 69.695 69.452 69.177 68.89 68.62 68.37 68.115 67.84 67.568 67.31 67.088 66.943 66.875 66.842 66.745 66.568 66.4 66.25 66.098 65.942 65.793 65.657 65.465 65.208 64.958 64.713 64.485 64.28 64.067 63.842 63.627 63.41 63.16 62.862 62.54 62.238 62.043 61.925 61.79 61.627 61.437 61.242 61.058 60.92 60.65 60.17 59.763 59.513 59.305 59.095 58.87 58.627 58.377 58.125 57.89 57.662 57.422 57.175 56.925 56.672 56.407 56.132 55.865 55.6 55.315 55.008 54.725 54.478 54.225 53.957 53.688 53.428 53.175 52.93 52.677 52.41 52.143 51.89 51.655 51.428 51.203 50.985 50.765 50.54 50.32 50.108 49.933 49.785 49.63 49.457 49.278 49.11 48.95 48.785 48.605 48.402 48.185 47.965 47.773 47.61 47.442 47.26 47.065 46.865 46.662 46.46 46.278 46.123 45.995 45.9 45.815 45.72
60.865 61.125 61.397 61.69 61.965 62.235 62.505 62.762 62.98 63.165 63.38 63.635 63.893 64.133 64.353 64.578 64.818 65.055 65.265 65.455 65.645 65.838 66.07 66.335 66.6 66.86 67.128 67.42 67.725 68.035 68.335 68.625 68.912 69.192 69.46 69.695 69.905 70.113 70.328 70.545 70.748 70.948 71.16 71.39 71.612 71.767 71.852 71.915 71.977 72.037 72.095 72.155 72.215 72.262 72.322 72.412 72.507 72.587 72.585 72.545 72.532 72.517 72.495 72.362 72.12 71.9 71.757 71.63 71.452 71.258 71.1 70.988 70.888 70.808 70.748 70.723 70.753 70.807 70.85 70.85 70.835 70.802 70.715 70.617 70.532 70.447 70.3 70.072 69.82 69.572 69.305 69.005 68.71 68.433 68.163 67.888 67.625 67.418 67.28 67.198 67.143 67.07 66.937 66.757 66.582 66.422 66.265 66.107 65.952 65.8 65.602 65.36 65.122 64.887 64.655 64.43 64.197 63.955 63.748 63.565 63.325 63.017 62.695 62.373 62.118 61.95 61.8 61.643 61.465 61.28 61.103 60.96 60.73 60.34 59.908 59.588 59.382 59.172 58.94 58.69 58.437 58.185 57.94 57.695 57.445 57.195 56.945 56.695 56.442 56.19 55.927 55.635 55.323 55.018 54.743 54.493 54.243 53.985 53.722 53.462 53.205 52.95 52.69 52.42 52.148 51.893 51.66 51.43 51.2 50.973 50.748 50.523 50.298 50.078 49.895 49.745 49.6 49.447 49.28 49.112 48.95 48.787 48.61 48.407 48.192 47.975 47.775 47.597 47.417 47.23 47.035 46.835 46.635 46.438 46.255 46.095 45.948 45.818 45.715 45.62
60.758 60.99 61.235 61.505 61.773 62.04 62.31 62.56 62.767 62.953 63.205 63.537 63.827 64.027 64.21 64.427 64.652 64.852 65.04 65.23 65.42 65.623 65.865 66.132 66.397 66.663 66.95 67.26 67.57 67.88 68.182 68.475 68.765 69.052 69.305 69.52 69.73 69.94 70.162 70.387 70.588 70.773 70.95 71.148 71.38 71.575 71.682 71.747 71.812 71.885 71.965 72.035 72.095 72.155 72.235 72.33 72.425 72.52 72.56 72.542 72.517 72.49 72.445 72.31 72.12 71.99 71.823 71.573 71.328 71.115 70.963 70.885 70.86 70.783 70.673 70.663 70.717 70.772 70.817 70.822 70.815 70.817 70.797 70.73 70.632 70.535 70.37 70.13 69.895 69.685 69.435 69.135 68.84 68.57 68.303 68.02 67.79 67.66 67.588 67.525 67.44 67.282 67.095 66.922 66.747 66.58 66.42 66.26 66.102 65.937 65.742 65.522 65.29 65.055 64.812 64.56 64.308 64.063 63.86 63.692 63.472 63.17 62.845 62.538 62.265 62.045 61.87 61.7 61.515 61.333 61.155 61 60.76 60.41 60.025 59.685 59.445 59.217 58.972 58.715 58.457 58.202 57.95 57.702 57.455 57.208 56.965 56.72 56.47 56.22 55.955 55.66 55.35 55.063 54.8 54.545 54.29 54.028 53.755 53.485 53.225 52.965 52.697 52.425 52.16 51.915 51.685 51.455 51.22 50.975 50.74 50.515 50.29 50.07 49.873 49.71 49.563 49.417 49.26 49.09 48.925 48.76 48.577 48.375 48.165 47.952 47.75 47.565 47.385 47.21 47.025 46.825 46.628 46.435 46.255 46.095 45.943 45.788 45.65 45.545
60.687 60.86 61.068 61.33 61.597 61.863 62.122 62.362 62.572 62.765 63.048 63.42 63.717 63.902 64.075 64.277 64.462 64.617 64.783 64.97 65.175 65.41 65.67 65.937 66.2 66.463 66.758 67.08 67.4 67.715 68.017 68.31 68.598 68.882 69.132 69.348 69.56 69.77 69.995 70.237 70.46 70.65 70.803 70.948 71.145 71.352 71.475 71.54 71.615 71.71 71.815 71.9 71.965 72.025 72.105 72.2 72.295 72.387 72.437 72.44 72.422 72.397 72.335 72.188 72.07 72.07 71.975 71.705 71.44 71.255 71.173 71.175 71.135 70.96 70.733 70.63 70.658 70.71 70.727 70.688 70.655 70.675 70.712 70.717 70.657 70.56 70.397 70.17 69.978 69.81 69.57 69.275 69.005 68.775 68.527 68.268 68.09 67.988 67.912 67.827 67.67 67.442 67.235 67.062 66.888 66.717 66.555 66.395 66.232 66.06 65.87 65.667 65.447 65.212 64.965 64.708 64.448 64.19 63.978 63.807 63.605 63.32 63.003 62.718 62.455 62.205 61.99 61.795 61.595 61.398 61.208 61.04 60.79 60.437 60.075 59.73 59.457 59.22 58.965 58.708 58.452 58.198 57.945 57.698 57.455 57.217 56.982 56.742 56.497 56.247 55.982 55.69 55.395 55.133 54.882 54.627 54.367 54.085 53.785 53.498 53.23 52.97 52.702 52.435 52.188 51.955 51.725 51.49 51.237 50.975 50.735 50.515 50.292 50.07 49.865 49.688 49.53 49.382 49.22 49.043 48.873 48.705 48.52 48.318 48.11 47.9 47.7 47.515 47.355 47.21 47.035 46.835 46.64 46.453 46.278 46.117 45.957 45.79 45.633 45.513
60.535 60.7 60.903 61.16 61.43 61.69 61.93 62.16 62.382 62.588 62.87 63.202 63.475 63.71 63.91 64.075 64.22 64.36 64.52 64.72 64.958 65.215 65.478 65.74 66 66.26 66.555 66.885 67.217 67.545 67.85 68.14 68.425 68.707 68.955 69.17 69.385 69.598 69.828 70.08 70.325 70.525 70.67 70.793 70.94 71.13 71.267 71.343 71.44 71.555 71.665 71.755 71.83 71.897 71.978 72.072 72.167 72.255 72.302 72.317 72.32 72.302 72.223 72.123 72.12 72.175 72.152 72.045 71.952 71.867 71.777 71.672 71.457 71.165 70.88 70.66 70.6 70.642 70.635 70.563 70.495 70.488 70.54 70.605 70.627 70.575 70.425 70.235 70.085 69.94 69.712 69.443 69.213 68.997 68.76 68.555 68.423 68.317 68.217 68.062 67.83 67.58 67.375 67.2 67.025 66.853 66.688 66.525 66.355 66.18 65.99 65.795 65.592 65.367 65.12 64.86 64.595 64.328 64.105 63.927 63.737 63.475 63.177 62.905 62.627 62.342 62.085 61.87 61.67 61.47 61.272 61.085 60.807 60.433 60.05 59.685 59.41 59.205 58.968 58.703 58.448 58.195 57.945 57.698 57.46 57.23 56.995 56.755 56.515 56.27 56.01 55.73 55.458 55.207 54.962 54.71 54.432 54.125 53.815 53.52 53.238 52.97 52.71 52.46 52.225 51.995 51.762 51.512 51.24 50.968 50.728 50.512 50.292 50.07 49.865 49.678 49.505 49.347 49.18 49 48.823 48.647 48.46 48.26 48.055 47.845 47.648 47.478 47.345 47.217 47.045 46.848 46.655 46.47 46.3 46.135 45.962 45.785 45.628 45.505
60.348 60.528 60.74 61.008 61.288 61.543 61.765 61.98 62.198 62.408 62.67 62.965 63.233 63.5 63.707 63.847 63.982 64.113 64.285 64.52 64.775 65.033 65.288 65.545 65.805 66.063 66.355 66.688 67.023 67.357 67.67 67.96 68.245 68.527 68.78 68.998 69.213 69.428 69.663 69.92 70.175 70.385 70.532 70.657 70.78 70.928 71.062 71.168 71.285 71.405 71.515 71.605 71.687 71.767 71.85 71.945 72.04 72.125 72.17 72.185 72.2 72.2 72.158 72.132 72.157 72.18 72.172 72.137 72.095 72.077 71.967 71.717 71.458 71.248 71.045 70.788 70.603 70.563 70.53 70.448 70.365 70.325 70.36 70.43 70.5 70.532 70.462 70.332 70.205 70.07 69.872 69.64 69.43 69.217 69.01 68.85 68.727 68.607 68.45 68.222 67.965 67.718 67.513 67.338 67.163 66.988 66.82 66.65 66.475 66.3 66.11 65.912 65.715 65.51 65.272 65.005 64.735 64.465 64.235 64.052 63.872 63.625 63.325 63.032 62.73 62.42 62.15 61.93 61.725 61.53 61.335 61.13 60.832 60.438 60.038 59.658 59.39 59.235 59.03 58.758 58.488 58.22 57.955 57.708 57.472 57.24 57.002 56.76 56.52 56.282 56.035 55.777 55.525 55.275 55.027 54.77 54.475 54.155 53.847 53.552 53.26 52.982 52.727 52.49 52.26 52.027 51.785 51.52 51.24 50.965 50.723 50.505 50.285 50.068 49.865 49.678 49.495 49.32 49.145 48.965 48.785 48.6 48.403 48.2 47.995 47.788 47.605 47.463 47.345 47.22 47.052 46.862 46.675 46.49 46.315 46.137 45.955 45.775 45.62 45.503
60.245 60.415 60.623 60.903 61.187 61.45 61.675 61.878 62.08 62.31 62.578 62.818 63.053 63.307 63.495 63.62 63.74 63.885 64.103 64.363 64.618 64.872 65.12 65.365 65.62 65.878 66.168 66.497 66.83 67.157 67.465 67.755 68.042 68.327 68.602 68.845 69.063 69.278 69.515 69.772 70.022 70.232 70.382 70.507 70.63 70.755 70.872 70.988 71.11 71.23 71.337 71.427 71.517 71.61 71.702 71.797 71.892 71.967 72 72.012 72.025 72.05 72.085 72.1 72.095 72.09 72.07 71.98 71.838 71.763 71.7 71.57 71.438 71.355 71.23 70.985 70.723 70.57 70.513 70.458 70.365 70.253 70.238 70.305 70.375 70.445 70.467 70.412 70.305 70.175 70.002 69.79 69.58 69.372 69.19 69.045 68.915 68.78 68.582 68.327 68.078 67.853 67.663 67.488 67.313 67.137 66.95 66.763 66.587 66.41 66.22 66.02 65.82 65.622 65.39 65.12 64.853 64.593 64.368 64.185 63.992 63.732 63.42 63.105 62.795 62.495 62.228 61.993 61.778 61.58 61.38 61.17 60.887 60.505 60.103 59.71 59.445 59.307 59.13 58.877 58.593 58.298 57.995 57.728 57.485 57.227 56.972 56.73 56.492 56.257 56.015 55.767 55.52 55.27 55.022 54.755 54.452 54.137 53.832 53.537 53.247 52.972 52.712 52.47 52.237 52.005 51.772 51.517 51.24 50.965 50.723 50.508 50.293 50.078 49.875 49.69 49.508 49.325 49.145 48.965 48.778 48.575 48.368 48.163 47.958 47.753 47.583 47.455 47.335 47.197 47.027 46.842 46.657 46.48 46.305 46.122 45.938 45.768 45.623 45.5
60.227 60.353 60.545 60.825 61.1 61.37 61.615 61.825 62.038 62.315 62.625 62.863 63.05 63.167 63.247 63.358 63.485 63.685 63.945 64.212 64.472 64.727 64.97 65.205 65.448 65.7 65.988 66.31 66.635 66.95 67.25 67.537 67.825 68.11 68.4 68.682 68.925 69.145 69.382 69.632 69.867 70.07 70.217 70.338 70.463 70.587 70.698 70.798 70.91 71.03 71.135 71.228 71.328 71.43 71.53 71.625 71.702 71.75 71.77 71.78 71.808 71.868 71.935 71.98 71.992 71.99 71.967 71.875 71.733 71.62 71.595 71.62 71.617 71.585 71.45 71.2 70.938 70.745 70.665 70.59 70.4 70.205 70.17 70.233 70.3 70.37 70.412 70.407 70.357 70.255 70.087 69.88 69.673 69.473 69.29 69.14 69.01 68.87 68.667 68.42 68.198 68.005 67.827 67.653 67.478 67.302 67.095 66.878 66.693 66.512 66.32 66.118 65.915 65.717 65.485 65.218 64.963 64.72 64.505 64.312 64.085 63.807 63.5 63.185 62.888 62.613 62.345 62.083 61.84 61.63 61.43 61.227 60.967 60.605 60.208 59.81 59.53 59.378 59.222 59 58.717 58.402 58.05 57.738 57.467 57.18 56.905 56.665 56.435 56.2 55.955 55.702 55.45 55.2 54.95 54.677 54.377 54.07 53.765 53.473 53.2 52.943 52.668 52.4 52.163 51.935 51.72 51.495 51.237 50.965 50.73 50.527 50.317 50.103 49.9 49.715 49.535 49.357 49.177 48.99 48.785 48.563 48.35 48.145 47.94 47.735 47.568 47.442 47.305 47.145 46.97 46.787 46.608 46.44 46.27 46.09 45.92 45.78 45.648 45.51
60.042 60.232 60.465 60.74 61.01 61.282 61.547 61.775 62.025 62.348 62.68 62.98 63.062 62.842 62.85 63.085 63.265 63.518 63.79 64.06 64.325 64.58 64.823 65.058 65.292 65.533 65.805 66.115 66.428 66.735 67.035 67.323 67.608 67.893 68.183 68.48 68.762 69.007 69.242 69.477 69.697 69.902 70.057 70.173 70.293 70.415 70.522 70.615 70.715 70.83 70.935 71.033 71.143 71.252 71.35 71.425 71.47 71.5 71.523 71.553 71.615 71.695 71.765 71.825 71.87 71.887 71.865 71.768 71.66 71.62 71.645 71.715 71.77 71.787 71.675 71.437 71.195 70.988 70.835 70.632 70.325 70.115 70.105 70.165 70.23 70.297 70.335 70.34 70.337 70.302 70.172 69.975 69.775 69.578 69.39 69.233 69.1 68.96 68.763 68.54 68.35 68.17 67.993 67.817 67.643 67.467 67.255 67.013 66.803 66.615 66.42 66.215 66.01 65.812 65.585 65.333 65.093 64.858 64.642 64.422 64.162 63.882 63.583 63.283 63.01 62.75 62.482 62.205 61.923 61.69 61.503 61.31 61.067 60.717 60.313 59.913 59.62 59.45 59.305 59.11 58.835 58.497 58.113 57.755 57.433 57.118 56.833 56.59 56.367 56.137 55.892 55.637 55.383 55.13 54.872 54.595 54.3 53.998 53.698 53.42 53.173 52.93 52.643 52.343 52.09 51.868 51.653 51.44 51.215 50.963 50.735 50.54 50.337 50.13 49.93 49.745 49.565 49.39 49.21 49.005 48.777 48.545 48.33 48.128 47.923 47.718 47.55 47.412 47.255 47.087 46.912 46.735 46.568 46.405 46.235 46.07 45.933 45.815 45.685 45.538
59.798 60.062 60.322 60.602 60.885 61.17 61.457 61.73 62.04 62.39 62.58 62.612 62.445 62.233 62.463 62.837 63.088 63.362 63.635 63.905 64.172 64.43 64.675 64.91 65.142 65.375 65.638 65.935 66.235 66.535 66.83 67.118 67.4 67.683 67.973 68.27 68.572 68.852 69.09 69.308 69.522 69.735 69.9 70.015 70.128 70.243 70.348 70.44 70.533 70.635 70.74 70.845 70.957 71.07 71.155 71.203 71.235 71.268 71.303 71.36 71.44 71.53 71.61 71.668 71.72 71.762 71.76 71.7 71.66 71.66 71.693 71.765 71.837 71.892 71.817 71.607 71.377 71.187 70.985 70.663 70.28 70.048 70.038 70.1 70.162 70.225 70.26 70.283 70.318 70.357 70.282 70.088 69.89 69.69 69.495 69.333 69.198 69.058 68.883 68.69 68.51 68.333 68.157 67.982 67.807 67.627 67.412 67.165 66.93 66.72 66.523 66.323 66.123 65.925 65.705 65.467 65.23 64.995 64.762 64.51 64.238 63.963 63.683 63.41 63.15 62.89 62.61 62.31 62.003 61.76 61.585 61.4 61.17 60.83 60.423 60.02 59.705 59.518 59.375 59.207 58.937 58.57 58.178 57.805 57.453 57.108 56.78 56.505 56.28 56.055 55.812 55.562 55.315 55.065 54.797 54.51 54.217 53.925 53.648 53.395 53.158 52.917 52.63 52.31 52.03 51.8 51.588 51.375 51.165 50.943 50.73 50.537 50.345 50.15 49.957 49.775 49.595 49.417 49.225 49 48.76 48.525 48.31 48.11 47.905 47.703 47.525 47.363 47.195 47.03 46.86 46.69 46.533 46.375 46.218 46.082 45.967 45.855 45.722 45.57
59.612 59.845 60.09 60.375 60.67 60.965 61.305 61.685 62.057 62.285 62.217 61.985 61.753 61.83 62.25 62.627 62.925 63.212 63.483 63.75 64.02 64.28 64.52 64.745 64.97 65.218 65.498 65.79 66.085 66.38 66.67 66.955 67.235 67.515 67.803 68.1 68.403 68.695 68.932 69.138 69.353 69.567 69.74 69.863 69.978 70.09 70.193 70.288 70.38 70.473 70.57 70.67 70.775 70.885 70.965 71.01 71.045 71.078 71.12 71.185 71.265 71.385 71.492 71.543 71.588 71.635 71.665 71.677 71.695 71.705 71.737 71.8 71.855 71.9 71.842 71.655 71.443 71.318 71.237 70.965 70.503 70.158 70.008 69.97 70.018 70.1 70.228 70.34 70.405 70.482 70.427 70.223 70.02 69.82 69.625 69.463 69.328 69.19 69.03 68.85 68.67 68.493 68.31 68.127 67.95 67.767 67.552 67.308 67.073 66.855 66.65 66.453 66.257 66.06 65.845 65.61 65.372 65.135 64.875 64.6 64.328 64.055 63.79 63.532 63.27 62.987 62.685 62.372 62.063 61.825 61.655 61.482 61.27 60.942 60.537 60.128 59.783 59.573 59.43 59.275 59.01 58.63 58.238 57.868 57.515 57.157 56.783 56.435 56.168 55.94 55.702 55.46 55.22 54.98 54.71 54.415 54.13 53.868 53.625 53.385 53.145 52.905 52.622 52.3 52.003 51.76 51.55 51.34 51.13 50.925 50.723 50.525 50.335 50.145 49.957 49.775 49.595 49.415 49.212 48.98 48.74 48.508 48.293 48.09 47.888 47.688 47.505 47.335 47.163 46.993 46.823 46.655 46.5 46.345 46.198 46.072 45.96 45.85 45.717 45.565
59.383 59.598 59.83 60.105 60.423 60.783 61.208 61.657 62.02 62.09 61.91 61.72 61.603 61.713 62.072 62.435 62.753 63.067 63.342 63.61 63.872 64.115 64.337 64.553 64.793 65.075 65.372 65.665 65.958 66.252 66.542 66.825 67.105 67.382 67.665 67.96 68.26 68.547 68.782 68.98 69.188 69.4 69.58 69.717 69.84 69.957 70.06 70.155 70.25 70.34 70.43 70.52 70.615 70.713 70.795 70.85 70.885 70.915 70.95 71.01 71.113 71.27 71.39 71.438 71.482 71.527 71.572 71.615 71.655 71.667 71.712 71.79 71.835 71.875 71.835 71.665 71.503 71.45 71.535 71.42 70.92 70.483 70.205 69.995 69.875 69.895 70.21 70.49 70.56 70.64 70.577 70.365 70.158 69.955 69.77 69.618 69.482 69.345 69.187 69.01 68.827 68.645 68.455 68.26 68.075 67.892 67.677 67.44 67.228 67.027 66.815 66.603 66.403 66.205 65.987 65.75 65.51 65.267 65 64.715 64.435 64.16 63.895 63.63 63.34 63.02 62.705 62.403 62.113 61.888 61.717 61.552 61.36 61.047 60.637 60.217 59.843 59.608 59.455 59.282 59.04 58.687 58.298 57.933 57.575 57.202 56.81 56.418 56.078 55.813 55.578 55.343 55.105 54.87 54.607 54.323 54.068 53.845 53.62 53.38 53.137 52.892 52.615 52.305 52.01 51.758 51.54 51.33 51.128 50.932 50.722 50.508 50.31 50.12 49.932 49.75 49.57 49.39 49.187 48.958 48.723 48.493 48.278 48.073 47.87 47.673 47.493 47.327 47.157 46.983 46.805 46.63 46.47 46.315 46.168 46.038 45.918 45.805 45.675 45.525
59.17 59.375 59.585 59.883 60.283 60.73 61.2 61.652 61.942 61.95 61.79 61.653 61.59 61.628 61.888 62.25 62.592 62.925 63.207 63.465 63.702 63.92 64.133 64.37 64.65 64.95 65.247 65.542 65.835 66.127 66.415 66.695 66.972 67.245 67.525 67.82 68.12 68.402 68.635 68.83 69.028 69.232 69.415 69.565 69.7 69.822 69.927 70.022 70.118 70.21 70.3 70.39 70.493 70.605 70.703 70.75 70.758 70.765 70.785 70.848 70.988 71.167 71.28 71.33 71.378 71.423 71.467 71.495 71.505 71.498 71.55 71.67 71.775 71.847 71.827 71.71 71.62 71.608 71.717 71.715 71.305 70.87 70.595 70.315 70.043 69.898 70.173 70.567 70.727 70.805 70.722 70.507 70.295 70.09 69.913 69.77 69.637 69.5 69.342 69.165 68.98 68.792 68.6 68.4 68.208 68.02 67.81 67.593 67.398 67.21 67 66.77 66.553 66.35 66.13 65.887 65.64 65.392 65.125 64.835 64.548 64.268 63.99 63.692 63.362 63.028 62.72 62.44 62.183 61.963 61.782 61.585 61.345 61.03 60.645 60.255 59.883 59.623 59.445 59.252 59.045 58.737 58.355 57.992 57.622 57.23 56.832 56.437 56.043 55.72 55.475 55.235 54.998 54.763 54.513 54.265 54.048 53.842 53.62 53.377 53.13 52.88 52.607 52.315 52.03 51.763 51.53 51.325 51.135 50.945 50.73 50.503 50.288 50.093 49.908 49.725 49.545 49.365 49.162 48.935 48.705 48.478 48.263 48.057 47.853 47.658 47.48 47.313 47.147 46.977 46.8 46.62 46.448 46.285 46.14 46.01 45.885 45.765 45.632 45.488
59.02 59.215 59.425 59.73 60.17 60.667 61.165 61.625 61.847 61.807 61.703 61.63 61.59 61.568 61.735 62.085 62.445 62.782 63.057 63.285 63.5 63.713 63.95 64.23 64.53 64.83 65.125 65.417 65.71 66 66.282 66.557 66.832 67.105 67.387 67.682 67.98 68.257 68.485 68.68 68.875 69.07 69.242 69.397 69.55 69.685 69.795 69.89 69.988 70.105 70.23 70.348 70.478 70.623 70.73 70.757 70.74 70.723 70.708 70.743 70.883 71.062 71.17 71.223 71.275 71.325 71.353 71.343 71.32 71.298 71.33 71.455 71.615 71.745 71.81 71.797 71.755 71.735 71.767 71.787 71.582 71.262 70.993 70.72 70.455 70.235 70.338 70.68 70.905 70.977 70.867 70.652 70.437 70.228 70.055 69.917 69.782 69.652 69.497 69.315 69.13 68.943 68.75 68.55 68.353 68.158 67.958 67.763 67.575 67.39 67.187 66.958 66.725 66.508 66.28 66.028 65.773 65.52 65.255 64.975 64.695 64.39 64.063 63.728 63.38 63.053 62.77 62.52 62.28 62.04 61.8 61.527 61.223 60.898 60.548 60.197 59.85 59.585 59.402 59.217 59.03 58.767 58.415 58.04 57.65 57.245 56.837 56.427 56.008 55.68 55.44 55.19 54.943 54.685 54.443 54.235 54.032 53.83 53.61 53.362 53.11 52.86 52.6 52.327 52.05 51.775 51.53 51.328 51.145 50.955 50.74 50.51 50.283 50.073 49.882 49.697 49.515 49.335 49.14 48.92 48.69 48.463 48.248 48.042 47.835 47.643 47.47 47.3 47.135 46.97 46.795 46.615 46.435 46.26 46.113 45.985 45.858 45.733 45.6 45.46
58.9 59.105 59.345 59.628 60.02 60.54 61.087 61.582 61.787 61.71 61.64 61.61 61.567 61.525 61.623 61.92 62.28 62.622 62.895 63.11 63.323 63.538 63.795 64.097 64.402 64.705 65 65.287 65.57 65.852 66.122 66.385 66.657 66.932 67.22 67.515 67.812 68.095 68.322 68.517 68.712 68.9 69.068 69.225 69.382 69.535 69.673 69.788 69.898 70.045 70.237 70.412 70.557 70.705 70.797 70.81 70.797 70.765 70.71 70.71 70.815 70.977 71.09 71.145 71.203 71.265 71.27 71.223 71.193 71.165 71.173 71.265 71.413 71.568 71.725 71.817 71.815 71.785 71.77 71.77 71.725 71.612 71.41 71.145 70.883 70.67 70.74 70.95 71.08 71.122 70.98 70.757 70.542 70.33 70.155 70.015 69.885 69.787 69.657 69.473 69.288 69.103 68.91 68.71 68.51 68.308 68.115 67.935 67.75 67.562 67.37 67.155 66.92 66.695 66.485 66.263 66.015 65.758 65.495 65.225 64.917 64.542 64.163 63.81 63.46 63.138 62.87 62.63 62.385 62.112 61.808 61.493 61.17 60.82 60.45 60.095 59.753 59.495 59.327 59.157 58.98 58.772 58.455 58.05 57.64 57.225 56.802 56.377 55.963 55.665 55.447 55.2 54.947 54.65 54.38 54.182 53.985 53.785 53.557 53.3 53.045 52.795 52.55 52.307 52.047 51.772 51.523 51.323 51.145 50.955 50.742 50.515 50.285 50.06 49.85 49.658 49.475 49.295 49.11 48.902 48.677 48.45 48.233 48.028 47.823 47.633 47.46 47.29 47.125 46.965 46.795 46.615 46.435 46.26 46.105 45.97 45.843 45.718 45.585 45.445
58.78 59.01 59.28 59.56 59.908 60.415 61.007 61.565 61.752 61.577 61.51 61.535 61.507 61.475 61.56 61.795 62.108 62.45 62.732 62.955 63.175 63.393 63.645 63.945 64.255 64.56 64.852 65.135 65.412 65.687 65.945 66.193 66.455 66.73 67.018 67.313 67.617 67.912 68.147 68.342 68.537 68.725 68.895 69.053 69.213 69.385 69.562 69.717 69.848 70.005 70.232 70.467 70.64 70.777 70.855 70.862 70.835 70.755 70.693 70.718 70.793 70.918 71.032 71.095 71.16 71.232 71.23 71.163 71.118 71.085 71.083 71.135 71.245 71.395 71.572 71.737 71.802 71.785 71.77 71.77 71.77 71.767 71.697 71.537 71.31 71.105 71.145 71.237 71.252 71.242 71.075 70.828 70.6 70.388 70.208 70.073 69.978 69.927 69.82 69.635 69.45 69.268 69.075 68.872 68.667 68.463 68.275 68.1 67.917 67.73 67.542 67.345 67.12 66.895 66.71 66.537 66.34 66.105 65.835 65.517 65.127 64.7 64.3 63.94 63.593 63.265 62.99 62.745 62.475 62.17 61.853 61.532 61.185 60.802 60.403 60.018 59.66 59.398 59.23 59.065 58.887 58.675 58.345 57.945 57.565 57.167 56.747 56.325 55.93 55.653 55.45 55.212 54.942 54.61 54.313 54.107 53.91 53.71 53.475 53.205 52.945 52.693 52.455 52.237 52.007 51.745 51.498 51.302 51.11 50.897 50.7 50.502 50.28 50.05 49.823 49.613 49.425 49.245 49.062 48.87 48.66 48.435 48.218 48.013 47.813 47.625 47.45 47.283 47.123 46.967 46.8 46.62 46.448 46.285 46.123 45.968 45.835 45.71 45.575 45.435
58.678 58.938 59.22 59.5 59.813 60.293 60.877 61.332 61.48 61.342 61.288 61.375 61.412 61.43 61.545 61.75 61.99 62.29 62.567 62.795 63.02 63.243 63.493 63.783 64.088 64.39 64.682 64.965 65.245 65.52 65.775 66.015 66.263 66.528 66.813 67.113 67.425 67.73 67.972 68.165 68.36 68.552 68.723 68.885 69.063 69.253 69.447 69.632 69.792 69.965 70.198 70.462 70.695 70.845 70.9 70.89 70.817 70.705 70.675 70.732 70.798 70.88 70.973 71.05 71.125 71.197 71.192 71.118 71.05 71.008 71.01 71.045 71.108 71.233 71.413 71.605 71.75 71.785 71.77 71.77 71.77 71.77 71.77 71.742 71.647 71.525 71.49 71.475 71.43 71.37 71.187 70.923 70.67 70.438 70.263 70.165 70.115 70.085 69.98 69.795 69.61 69.43 69.24 69.035 68.823 68.618 68.432 68.257 68.083 67.9 67.71 67.52 67.312 67.095 66.91 66.75 66.59 66.39 66.1 65.712 65.28 64.847 64.438 64.07 63.725 63.39 63.105 62.84 62.535 62.215 61.895 61.555 61.18 60.79 60.385 59.973 59.583 59.303 59.122 58.942 58.75 58.477 58.097 57.707 57.355 56.997 56.617 56.235 55.888 55.635 55.445 55.217 54.907 54.517 54.2 54.015 53.835 53.635 53.4 53.123 52.848 52.588 52.355 52.147 51.94 51.705 51.47 51.26 51.03 50.788 50.6 50.442 50.257 50.042 49.81 49.585 49.378 49.19 49.007 48.825 48.632 48.417 48.203 48 47.805 47.618 47.44 47.278 47.125 46.972 46.805 46.63 46.468 46.312 46.15 45.985 45.835 45.7 45.565 45.417
58.593 58.872 59.155 59.437 59.728 60.092 60.475 60.725 60.893 60.983 61.06 61.188 61.285 61.383 61.54 61.745 61.953 62.183 62.423 62.653 62.883 63.113 63.365 63.645 63.935 64.225 64.51 64.792 65.075 65.35 65.605 65.845 66.085 66.333 66.613 66.923 67.24 67.55 67.795 67.987 68.182 68.378 68.56 68.743 68.938 69.135 69.333 69.528 69.715 69.915 70.155 70.42 70.685 70.845 70.865 70.83 70.745 70.665 70.68 70.745 70.807 70.868 70.938 71.02 71.1 71.167 71.157 71.083 71.008 70.95 70.953 70.998 71.043 71.133 71.288 71.463 71.64 71.75 71.77 71.767 71.765 71.768 71.77 71.772 71.775 71.75 71.705 71.66 71.61 71.515 71.315 71.055 70.793 70.553 70.398 70.328 70.283 70.243 70.137 69.958 69.778 69.6 69.408 69.195 68.978 68.773 68.588 68.418 68.255 68.075 67.88 67.69 67.495 67.292 67.107 66.925 66.725 66.51 66.202 65.802 65.387 64.967 64.562 64.197 63.855 63.515 63.205 62.905 62.585 62.262 61.922 61.552 61.167 60.78 60.383 59.975 59.575 59.233 58.988 58.79 58.58 58.265 57.848 57.433 57.053 56.705 56.363 56.06 55.81 55.6 55.42 55.165 54.787 54.34 53.943 53.757 53.695 53.56 53.327 53.045 52.76 52.49 52.258 52.053 51.85 51.64 51.42 51.185 50.928 50.673 50.48 50.338 50.19 50.015 49.8 49.57 49.345 49.14 48.955 48.772 48.587 48.392 48.188 47.99 47.8 47.61 47.433 47.275 47.125 46.975 46.817 46.655 46.495 46.337 46.177 46.015 45.853 45.698 45.547 45.385
58.508 58.79 59.072 59.352 59.625 59.865 60.063 60.25 60.448 60.698 60.963 61.128 61.235 61.37 61.553 61.76 61.962 62.143 62.328 62.548 62.78 63.015 63.27 63.545 63.825 64.087 64.343 64.618 64.9 65.172 65.425 65.665 65.905 66.153 66.438 66.755 67.072 67.37 67.607 67.803 68 68.228 68.45 68.645 68.845 69.053 69.26 69.458 69.648 69.85 70.09 70.352 70.595 70.73 70.737 70.702 70.655 70.638 70.68 70.737 70.792 70.85 70.92 71 71.08 71.16 71.16 71.085 71.013 70.948 70.948 71.003 71.048 71.105 71.228 71.39 71.555 71.695 71.747 71.743 71.75 71.767 71.775 71.777 71.78 71.775 71.765 71.747 71.715 71.647 71.487 71.245 70.988 70.795 70.688 70.615 70.555 70.48 70.355 70.188 70.015 69.84 69.653 69.45 69.233 69.023 68.845 68.688 68.505 68.278 68.058 67.865 67.675 67.46 67.232 67.005 66.765 66.525 66.215 65.827 65.43 65.027 64.637 64.28 63.94 63.6 63.267 62.942 62.62 62.297 61.94 61.548 61.158 60.773 60.405 60.04 59.675 59.32 58.935 58.63 58.39 58.035 57.605 57.178 56.765 56.423 56.15 55.928 55.733 55.545 55.37 55.112 54.678 54.143 53.648 53.375 53.347 53.325 53.182 52.932 52.643 52.39 52.17 51.958 51.753 51.55 51.347 51.122 50.868 50.61 50.415 50.275 50.133 49.977 49.78 49.55 49.318 49.098 48.905 48.72 48.535 48.357 48.172 47.977 47.785 47.595 47.415 47.253 47.102 46.955 46.802 46.647 46.492 46.34 46.185 46.022 45.857 45.697 45.533 45.36
58.45 58.688 58.962 59.225 59.472 59.675 59.858 60.053 60.285 60.628 60.982 61.175 61.275 61.403 61.58 61.785 61.962 62.105 62.263 62.465 62.69 62.925 63.183 63.46 63.72 63.94 64.17 64.442 64.72 64.982 65.23 65.47 65.72 65.988 66.285 66.602 66.905 67.182 67.412 67.608 67.838 68.125 68.377 68.575 68.785 69.01 69.225 69.42 69.597 69.778 70.008 70.255 70.452 70.57 70.59 70.563 70.563 70.602 70.655 70.703 70.758 70.825 70.9 70.98 71.065 71.172 71.197 71.125 71.05 70.983 70.983 71.03 71.06 71.095 71.203 71.365 71.52 71.652 71.705 71.71 71.74 71.772 71.785 71.785 71.782 71.775 71.77 71.765 71.745 71.717 71.65 71.472 71.268 71.15 71.075 70.992 70.9 70.777 70.632 70.48 70.312 70.137 69.96 69.777 69.582 69.38 69.195 69.012 68.777 68.498 68.25 68.05 67.85 67.595 67.29 67.015 66.775 66.535 66.225 65.84 65.448 65.05 64.668 64.315 63.978 63.64 63.303 62.97 62.645 62.322 61.96 61.555 61.155 60.773 60.43 60.113 59.815 59.54 59.103 58.59 58.193 57.803 57.385 56.965 56.57 56.273 56.07 55.88 55.678 55.488 55.307 55.092 54.675 54.078 53.508 53.045 52.86 52.873 52.843 52.713 52.508 52.32 52.11 51.87 51.655 51.45 51.262 51.075 50.847 50.595 50.4 50.257 50.107 49.945 49.747 49.52 49.283 49.053 48.855 48.673 48.495 48.33 48.155 47.96 47.765 47.575 47.39 47.218 47.06 46.91 46.755 46.603 46.458 46.317 46.17 46.005 45.845 45.697 45.532 45.35
58.475 58.628 58.84 59.06 59.295 59.508 59.683 59.878 60.188 60.603 61.01 61.235 61.323 61.438 61.605 61.782 61.922 62.05 62.203 62.395 62.61 62.838 63.095 63.355 63.572 63.768 63.995 64.263 64.53 64.787 65.035 65.285 65.555 65.835 66.132 66.435 66.715 66.985 67.218 67.443 67.73 68.045 68.302 68.515 68.743 68.977 69.192 69.372 69.535 69.703 69.917 70.13 70.287 70.407 70.442 70.443 70.49 70.555 70.61 70.663 70.73 70.807 70.883 70.96 71.063 71.197 71.235 71.162 71.088 71.018 71.01 71.045 71.065 71.088 71.18 71.332 71.472 71.602 71.67 71.695 71.737 71.777 71.795 71.792 71.785 71.775 71.77 71.77 71.765 71.75 71.73 71.652 71.537 71.452 71.365 71.255 71.127 70.99 70.855 70.715 70.557 70.397 70.24 70.052 69.835 69.607 69.395 69.192 68.967 68.707 68.45 68.232 68.005 67.717 67.375 67.05 66.785 66.545 66.235 65.85 65.463 65.07 64.693 64.348 64.012 63.675 63.338 63.003 62.673 62.347 61.982 61.57 61.16 60.778 60.455 60.187 59.95 59.72 59.38 58.805 58.155 57.648 57.223 56.82 56.493 56.24 56.028 55.828 55.623 55.43 55.242 55.04 54.677 54.115 53.518 52.968 52.675 52.643 52.653 52.595 52.448 52.29 52.077 51.808 51.563 51.353 51.168 50.995 50.805 50.575 50.38 50.23 50.07 49.905 49.712 49.487 49.245 49.008 48.808 48.635 48.47 48.31 48.135 47.94 47.745 47.555 47.373 47.198 47.028 46.865 46.71 46.568 46.43 46.292 46.147 45.99 45.84 45.7 45.537 45.35
