ncols         200
nrows         75
xllcorner     549000
yllcorner     258565
cellsize      5
NODATA_value  -9999.0
11.863 11.84 11.8 11.745 11.7 11.66 11.633 11.618 11.613 11.625 11.64 11.645 11.637 11.605 11.57 11.55 11.532 11.515 11.528 11.572 11.607 11.625 11.64 11.66 11.688 11.72 11.762 11.812 11.85 11.877 11.887 11.867 11.822 11.768 11.745 11.752 11.757 11.762 11.75 11.725 11.71 11.703 11.72 11.76 11.795 11.82 11.85 11.882 11.91 11.94 11.965 11.98 11.995 12.002 11.98 11.937 11.89 11.84 11.785 11.722 11.652 11.578 11.535 11.527 11.52 11.51 11.487 11.455 11.43 11.42 11.398 11.365 11.353 11.345 11.325 11.295 11.257 11.212 11.165 11.123 11.098 11.085 11.085 11.09 11.09 11.085 11.08 11.07 11.045 11.01 10.975 10.945 10.91 10.863 10.833 10.822 10.802 10.77 10.725 10.683 10.648 10.615 10.598 10.59 10.58 10.57 10.542 10.485 10.405 10.315 10.253 10.238 10.26 10.295 10.345 10.425 10.515 10.61 10.667 10.635 10.522 10.37 10.21 10.105 10.05 9.98 9.91 9.865 10 10.297 10.47 10.5 10.487 10.453 10.425 10.42 10.445 10.505 10.575 10.607 10.595 10.56 10.598 10.71 10.815 10.91 10.94 10.91 10.883 10.89 10.968 11.077 11.18 11.282 11.322 11.292 11.252 11.205 11.233 11.345 11.48 11.63 11.707 11.708 11.713 11.763 11.858 11.96 12.063 12.17 12.275 12.38 12.508 12.637 12.737 12.807 12.863 12.918 13.02 13.215 13.48 13.725 13.83 13.84 13.852 13.865 13.857 13.827 13.79 13.75 13.738 13.76 13.795 13.84 13.87 13.883 13.895 13.91 13.907 13.882
11.8 11.777 11.737 11.685 11.633 11.585 11.558 11.543 11.53 11.528 11.533 11.535 11.54 11.532 11.51 11.492 11.477 11.463 11.478 11.525 11.57 11.613 11.645 11.665 11.69 11.715 11.737 11.765 11.792 11.817 11.822 11.782 11.718 11.663 11.645 11.65 11.655 11.665 11.662 11.65 11.643 11.64 11.66 11.7 11.74 11.775 11.808 11.838 11.865 11.89 11.91 11.925 11.94 11.942 11.912 11.865 11.817 11.77 11.71 11.64 11.565 11.49 11.45 11.44 11.43 11.42 11.4 11.37 11.338 11.313 11.293 11.278 11.273 11.265 11.24 11.2 11.16 11.118 11.075 11.048 11.032 11.02 11.015 11.013 11.01 11.003 10.987 10.962 10.928 10.893 10.863 10.833 10.8 10.763 10.738 10.73 10.72 10.702 10.668 10.63 10.6 10.57 10.55 10.54 10.527 10.515 10.48 10.408 10.323 10.238 10.195 10.21 10.243 10.285 10.353 10.443 10.535 10.63 10.685 10.622 10.473 10.31 10.15 10.035 9.95 9.85 9.75 9.675 9.823 10.205 10.455 10.48 10.447 10.41 10.383 10.398 10.458 10.532 10.585 10.58 10.533 10.488 10.528 10.64 10.75 10.855 10.892 10.865 10.835 10.848 10.925 11.025 11.125 11.227 11.267 11.24 11.212 11.18 11.228 11.37 11.522 11.675 11.745 11.735 11.725 11.763 11.86 11.965 12.07 12.18 12.285 12.383 12.485 12.58 12.65 12.71 12.768 12.828 12.94 13.153 13.43 13.695 13.82 13.83 13.842 13.847 13.83 13.795 13.755 13.715 13.695 13.71 13.74 13.77 13.793 13.808 13.82 13.825 13.812 13.792
11.738 11.712 11.672 11.62 11.568 11.52 11.49 11.475 11.465 11.453 11.448 11.45 11.453 11.455 11.445 11.43 11.418 11.418 11.45 11.498 11.545 11.608 11.657 11.683 11.707 11.717 11.7 11.695 11.717 11.745 11.74 11.685 11.618 11.573 11.565 11.573 11.58 11.58 11.58 11.585 11.582 11.58 11.6 11.64 11.683 11.73 11.77 11.8 11.827 11.837 11.843 11.857 11.872 11.87 11.835 11.785 11.74 11.697 11.637 11.563 11.488 11.418 11.375 11.36 11.35 11.343 11.325 11.293 11.263 11.238 11.22 11.213 11.205 11.19 11.157 11.113 11.07 11.03 10.995 10.975 10.963 10.953 10.945 10.94 10.938 10.927 10.898 10.86 10.828 10.795 10.775 10.753 10.72 10.688 10.668 10.663 10.655 10.645 10.62 10.585 10.555 10.525 10.5 10.485 10.472 10.46 10.427 10.363 10.285 10.205 10.175 10.2 10.238 10.308 10.403 10.495 10.585 10.667 10.682 10.592 10.44 10.275 10.08 9.925 9.825 9.713 9.635 9.6 9.753 10.122 10.377 10.42 10.4 10.365 10.35 10.39 10.465 10.54 10.572 10.547 10.498 10.455 10.495 10.605 10.713 10.807 10.845 10.825 10.793 10.803 10.878 10.975 11.075 11.175 11.22 11.202 11.178 11.153 11.218 11.375 11.532 11.677 11.735 11.72 11.713 11.758 11.862 11.972 12.078 12.185 12.29 12.387 12.475 12.545 12.61 12.675 12.738 12.803 12.923 13.138 13.4 13.667 13.805 13.807 13.802 13.795 13.78 13.757 13.727 13.688 13.655 13.658 13.682 13.707 13.73 13.745 13.755 13.732 13.695 13.68
11.675 11.647 11.607 11.555 11.505 11.46 11.433 11.417 11.403 11.388 11.383 11.385 11.385 11.385 11.377 11.363 11.365 11.395 11.438 11.483 11.54 11.617 11.677 11.707 11.72 11.712 11.675 11.635 11.635 11.66 11.645 11.585 11.535 11.508 11.505 11.515 11.515 11.492 11.485 11.507 11.52 11.523 11.545 11.588 11.638 11.695 11.74 11.77 11.785 11.775 11.77 11.782 11.792 11.787 11.755 11.705 11.663 11.627 11.572 11.498 11.428 11.365 11.32 11.298 11.285 11.277 11.26 11.228 11.2 11.18 11.165 11.157 11.142 11.115 11.08 11.035 10.99 10.95 10.918 10.9 10.893 10.89 10.888 10.882 10.875 10.865 10.83 10.78 10.743 10.71 10.695 10.687 10.667 10.64 10.623 10.618 10.612 10.605 10.58 10.545 10.518 10.49 10.458 10.43 10.415 10.405 10.382 10.337 10.272 10.195 10.165 10.198 10.263 10.365 10.477 10.575 10.665 10.667 10.587 10.53 10.432 10.1 9.835 9.787 9.698 9.618 9.59 9.59 9.74 10.045 10.237 10.3 10.327 10.312 10.318 10.378 10.455 10.527 10.552 10.527 10.487 10.453 10.495 10.6 10.69 10.757 10.787 10.777 10.748 10.758 10.833 10.93 11.03 11.127 11.177 11.172 11.152 11.128 11.188 11.35 11.517 11.645 11.685 11.678 11.688 11.743 11.852 11.972 12.082 12.19 12.292 12.387 12.47 12.538 12.602 12.665 12.73 12.795 12.92 13.143 13.397 13.612 13.725 13.745 13.73 13.715 13.705 13.697 13.685 13.66 13.63 13.615 13.623 13.643 13.665 13.682 13.677 13.622 13.57 13.555
11.62 11.583 11.54 11.493 11.448 11.403 11.375 11.36 11.34 11.323 11.318 11.32 11.32 11.317 11.31 11.31 11.338 11.382 11.425 11.475 11.548 11.632 11.697 11.722 11.715 11.7 11.667 11.613 11.573 11.57 11.55 11.503 11.473 11.453 11.447 11.445 11.422 11.385 11.378 11.41 11.44 11.463 11.5 11.55 11.605 11.662 11.71 11.732 11.725 11.705 11.698 11.702 11.705 11.7 11.67 11.628 11.595 11.562 11.507 11.438 11.375 11.318 11.273 11.245 11.228 11.213 11.193 11.168 11.145 11.125 11.11 11.097 11.07 11.035 11 10.955 10.91 10.87 10.843 10.833 10.833 10.835 10.832 10.825 10.815 10.802 10.767 10.713 10.663 10.625 10.61 10.61 10.605 10.587 10.575 10.572 10.567 10.562 10.542 10.51 10.482 10.455 10.423 10.39 10.365 10.348 10.325 10.292 10.247 10.183 10.16 10.22 10.323 10.437 10.552 10.655 10.68 10.55 10.418 10.41 10.245 9.755 9.568 9.662 9.613 9.59 9.59 9.59 9.728 9.94 10.052 10.13 10.2 10.24 10.285 10.36 10.44 10.507 10.525 10.5 10.467 10.445 10.487 10.57 10.635 10.692 10.725 10.72 10.7 10.715 10.788 10.885 10.985 11.082 11.132 11.13 11.12 11.103 11.155 11.315 11.495 11.612 11.645 11.653 11.67 11.725 11.835 11.96 12.08 12.195 12.295 12.382 12.462 12.532 12.597 12.66 12.722 12.785 12.92 13.137 13.335 13.462 13.547 13.612 13.64 13.637 13.625 13.62 13.615 13.605 13.585 13.575 13.58 13.585 13.6 13.61 13.575 13.5 13.448 13.433
11.58 11.53 11.483 11.438 11.395 11.35 11.32 11.305 11.285 11.265 11.255 11.255 11.255 11.253 11.258 11.285 11.328 11.373 11.415 11.475 11.56 11.647 11.71 11.722 11.705 11.69 11.66 11.605 11.543 11.498 11.468 11.44 11.415 11.392 11.375 11.35 11.315 11.275 11.275 11.315 11.353 11.393 11.445 11.505 11.565 11.622 11.667 11.675 11.655 11.635 11.623 11.62 11.62 11.615 11.59 11.558 11.53 11.497 11.447 11.388 11.33 11.273 11.228 11.198 11.175 11.155 11.135 11.115 11.095 11.075 11.052 11.025 10.993 10.96 10.925 10.883 10.84 10.8 10.778 10.775 10.778 10.78 10.775 10.765 10.758 10.742 10.705 10.65 10.593 10.548 10.53 10.533 10.535 10.527 10.52 10.52 10.517 10.512 10.497 10.472 10.445 10.417 10.387 10.355 10.325 10.298 10.268 10.235 10.202 10.163 10.178 10.275 10.392 10.507 10.625 10.68 10.577 10.368 10.197 10.092 9.783 9.495 9.538 9.597 9.59 9.59 9.59 9.59 9.673 9.797 9.885 9.975 10.068 10.142 10.217 10.315 10.415 10.485 10.492 10.465 10.432 10.413 10.445 10.507 10.565 10.625 10.657 10.652 10.638 10.66 10.738 10.835 10.935 11.035 11.085 11.082 11.077 11.07 11.123 11.273 11.455 11.575 11.617 11.637 11.653 11.705 11.815 11.94 12.065 12.19 12.292 12.375 12.455 12.527 12.592 12.655 12.715 12.775 12.89 13.05 13.175 13.268 13.343 13.42 13.495 13.537 13.545 13.54 13.535 13.525 13.493 13.477 13.497 13.517 13.54 13.525 13.46 13.383 13.33 13.318
11.552 11.498 11.445 11.398 11.353 11.308 11.283 11.273 11.255 11.235 11.22 11.215 11.215 11.228 11.263 11.308 11.353 11.387 11.408 11.445 11.52 11.61 11.662 11.657 11.637 11.622 11.602 11.562 11.502 11.44 11.39 11.358 11.332 11.31 11.28 11.243 11.21 11.185 11.193 11.233 11.275 11.32 11.375 11.437 11.502 11.562 11.6 11.602 11.585 11.565 11.553 11.55 11.547 11.535 11.512 11.485 11.452 11.42 11.385 11.337 11.28 11.223 11.18 11.153 11.128 11.105 11.085 11.065 11.045 11.022 10.993 10.96 10.928 10.895 10.87 10.84 10.8 10.76 10.74 10.74 10.74 10.74 10.735 10.725 10.715 10.69 10.642 10.588 10.533 10.485 10.468 10.473 10.472 10.462 10.455 10.455 10.455 10.452 10.437 10.415 10.392 10.367 10.337 10.305 10.275 10.25 10.22 10.185 10.158 10.153 10.21 10.317 10.432 10.55 10.645 10.62 10.45 10.2 9.865 9.565 9.41 9.465 9.58 9.59 9.59 9.59 9.59 9.59 9.608 9.675 9.775 9.878 9.972 10.03 10.1 10.215 10.335 10.422 10.432 10.4 10.367 10.345 10.365 10.417 10.475 10.535 10.565 10.558 10.558 10.598 10.68 10.78 10.88 10.982 11.035 11.035 11.03 11.025 11.078 11.22 11.395 11.52 11.575 11.602 11.625 11.683 11.795 11.922 12.05 12.177 12.28 12.362 12.445 12.522 12.587 12.645 12.702 12.758 12.84 12.948 13.058 13.145 13.183 13.225 13.303 13.382 13.44 13.457 13.45 13.44 13.395 13.343 13.35 13.392 13.432 13.427 13.365 13.29 13.243 13.23
11.528 11.475 11.42 11.365 11.318 11.275 11.255 11.255 11.245 11.225 11.213 11.208 11.22 11.263 11.315 11.362 11.395 11.402 11.395 11.4 11.445 11.525 11.565 11.538 11.508 11.49 11.48 11.467 11.43 11.375 11.318 11.268 11.233 11.21 11.18 11.145 11.125 11.12 11.133 11.165 11.205 11.25 11.305 11.365 11.427 11.487 11.522 11.527 11.517 11.5 11.49 11.487 11.472 11.445 11.42 11.397 11.367 11.335 11.307 11.272 11.222 11.168 11.128 11.105 11.082 11.06 11.04 11.017 10.995 10.97 10.94 10.907 10.873 10.84 10.822 10.807 10.775 10.738 10.72 10.72 10.72 10.72 10.715 10.702 10.677 10.635 10.58 10.528 10.48 10.435 10.42 10.422 10.412 10.395 10.385 10.387 10.387 10.385 10.372 10.348 10.325 10.302 10.273 10.243 10.22 10.205 10.182 10.153 10.148 10.18 10.24 10.333 10.45 10.567 10.587 10.487 10.33 10.025 9.54 9.273 9.4 9.555 9.59 9.59 9.59 9.59 9.59 9.59 9.59 9.625 9.71 9.812 9.88 9.905 9.97 10.085 10.208 10.317 10.347 10.313 10.283 10.265 10.28 10.323 10.373 10.43 10.455 10.458 10.488 10.54 10.62 10.72 10.823 10.93 10.985 10.985 10.98 10.973 11.02 11.158 11.322 11.452 11.517 11.545 11.575 11.64 11.765 11.905 12.035 12.16 12.262 12.347 12.427 12.495 12.557 12.62 12.675 12.725 12.8 12.905 13.007 13.07 13.075 13.073 13.115 13.193 13.285 13.352 13.365 13.35 13.302 13.23 13.203 13.23 13.272 13.302 13.285 13.223 13.178 13.155
11.502 11.452 11.398 11.34 11.285 11.243 11.225 11.23 11.23 11.215 11.205 11.215 11.258 11.32 11.372 11.402 11.405 11.39 11.375 11.375 11.395 11.447 11.472 11.43 11.38 11.353 11.345 11.345 11.335 11.302 11.252 11.198 11.148 11.11 11.085 11.07 11.065 11.065 11.078 11.105 11.138 11.18 11.235 11.295 11.355 11.412 11.445 11.45 11.447 11.437 11.427 11.412 11.38 11.345 11.32 11.3 11.277 11.25 11.222 11.195 11.16 11.112 11.073 11.053 11.035 11.015 10.995 10.97 10.945 10.92 10.887 10.853 10.818 10.785 10.768 10.76 10.742 10.715 10.7 10.7 10.7 10.7 10.692 10.667 10.625 10.575 10.523 10.475 10.432 10.39 10.373 10.365 10.342 10.32 10.313 10.317 10.32 10.32 10.307 10.283 10.26 10.237 10.21 10.188 10.175 10.165 10.148 10.143 10.175 10.225 10.275 10.355 10.47 10.535 10.455 10.312 10.187 9.922 9.545 9.425 9.537 9.59 9.59 9.59 9.59 9.59 9.59 9.59 9.59 9.6 9.653 9.732 9.765 9.77 9.84 9.963 10.09 10.212 10.257 10.228 10.2 10.183 10.195 10.235 10.28 10.328 10.358 10.388 10.432 10.48 10.558 10.662 10.77 10.88 10.935 10.932 10.925 10.915 10.96 11.09 11.245 11.385 11.46 11.485 11.513 11.573 11.708 11.87 12.015 12.145 12.247 12.32 12.377 12.427 12.49 12.565 12.63 12.685 12.758 12.855 12.945 12.987 12.982 12.965 12.963 13.005 13.095 13.202 13.267 13.262 13.21 13.135 13.075 13.073 13.11 13.147 13.17 13.145 13.105 13.065
11.475 11.43 11.378 11.32 11.26 11.213 11.195 11.2 11.205 11.2 11.21 11.252 11.312 11.372 11.407 11.407 11.39 11.368 11.353 11.355 11.365 11.39 11.387 11.333 11.27 11.225 11.213 11.218 11.225 11.222 11.187 11.132 11.078 11.035 11.02 11.02 11.018 11.015 11.023 11.045 11.075 11.113 11.165 11.223 11.28 11.335 11.362 11.368 11.37 11.367 11.352 11.32 11.28 11.245 11.22 11.2 11.18 11.16 11.137 11.11 11.08 11.047 11.017 11 10.985 10.967 10.947 10.92 10.895 10.87 10.835 10.8 10.765 10.733 10.718 10.71 10.7 10.688 10.68 10.68 10.68 10.677 10.657 10.615 10.565 10.515 10.468 10.425 10.385 10.345 10.318 10.298 10.27 10.245 10.238 10.243 10.248 10.252 10.242 10.22 10.198 10.175 10.158 10.145 10.138 10.13 10.135 10.17 10.217 10.265 10.315 10.385 10.46 10.425 10.277 10.102 9.942 9.825 9.68 9.587 9.59 9.59 9.59 9.59 9.59 9.59 9.59 9.59 9.59 9.59 9.608 9.638 9.645 9.655 9.73 9.85 9.975 10.102 10.162 10.145 10.12 10.1 10.11 10.153 10.198 10.24 10.285 10.33 10.375 10.415 10.488 10.6 10.71 10.817 10.87 10.867 10.86 10.853 10.895 11.015 11.165 11.312 11.397 11.425 11.45 11.503 11.633 11.807 11.975 12.117 12.21 12.26 12.3 12.343 12.405 12.485 12.562 12.632 12.707 12.792 12.872 12.902 12.888 12.87 12.85 12.848 12.903 13.015 13.125 13.162 13.12 13.045 12.968 12.93 12.95 12.988 13.025 13.045 13.022 12.965
11.45 11.415 11.37 11.31 11.253 11.21 11.195 11.198 11.2 11.205 11.225 11.27 11.327 11.382 11.402 11.385 11.365 11.343 11.33 11.335 11.345 11.347 11.315 11.25 11.185 11.133 11.11 11.118 11.133 11.142 11.12 11.065 11.018 10.995 10.988 10.985 10.983 10.98 10.983 10.995 11.02 11.055 11.105 11.16 11.215 11.265 11.287 11.293 11.295 11.292 11.27 11.23 11.19 11.155 11.128 11.105 11.085 11.067 11.045 11.017 10.99 10.963 10.952 10.95 10.938 10.922 10.902 10.875 10.848 10.823 10.793 10.758 10.723 10.698 10.688 10.68 10.67 10.665 10.665 10.665 10.662 10.65 10.61 10.555 10.505 10.455 10.41 10.37 10.33 10.293 10.263 10.238 10.213 10.188 10.178 10.183 10.188 10.193 10.185 10.165 10.143 10.13 10.133 10.13 10.125 10.12 10.145 10.2 10.25 10.3 10.352 10.41 10.402 10.285 10.09 9.758 9.543 9.625 9.647 9.59 9.59 9.59 9.59 9.59 9.59 9.59 9.59 9.59 9.59 9.59 9.59 9.59 9.59 9.608 9.68 9.79 9.908 10.025 10.087 10.083 10.06 10.04 10.045 10.083 10.128 10.173 10.22 10.267 10.307 10.33 10.395 10.515 10.63 10.737 10.79 10.787 10.782 10.778 10.823 10.945 11.095 11.245 11.335 11.365 11.39 11.438 11.558 11.728 11.902 12.055 12.14 12.18 12.22 12.263 12.325 12.405 12.485 12.56 12.635 12.717 12.792 12.817 12.803 12.785 12.768 12.758 12.783 12.868 12.988 13.06 13.032 12.958 12.888 12.843 12.85 12.89 12.93 12.962 12.945 12.88
11.438 11.41 11.37 11.31 11.263 11.233 11.22 11.22 11.228 11.248 11.255 11.263 11.303 11.357 11.377 11.36 11.34 11.32 11.31 11.315 11.312 11.29 11.242 11.178 11.12 11.078 11.055 11.053 11.06 11.07 11.05 11.003 10.975 10.968 10.962 10.958 10.955 10.958 10.96 10.96 10.975 11.008 11.055 11.11 11.16 11.202 11.222 11.225 11.222 11.215 11.19 11.15 11.113 11.08 11.048 11.018 10.995 10.975 10.95 10.923 10.895 10.868 10.87 10.892 10.895 10.88 10.858 10.833 10.808 10.783 10.755 10.723 10.693 10.675 10.67 10.667 10.663 10.658 10.655 10.652 10.64 10.615 10.565 10.503 10.448 10.395 10.35 10.31 10.273 10.24 10.215 10.192 10.167 10.143 10.133 10.137 10.142 10.145 10.135 10.115 10.103 10.105 10.117 10.127 10.132 10.13 10.155 10.21 10.262 10.312 10.357 10.392 10.322 10.165 9.92 9.478 9.273 9.473 9.597 9.59 9.59 9.59 9.59 9.59 9.59 9.59 9.59 9.59 9.59 9.59 9.59 9.59 9.59 9.603 9.67 9.78 9.887 9.982 10.035 10.04 10.025 10.003 9.998 10.023 10.063 10.108 10.152 10.192 10.217 10.225 10.28 10.405 10.537 10.655 10.71 10.705 10.698 10.69 10.748 10.888 11.04 11.19 11.277 11.305 11.34 11.395 11.5 11.648 11.815 11.972 12.06 12.1 12.143 12.19 12.253 12.33 12.405 12.47 12.54 12.627 12.715 12.75 12.74 12.728 12.72 12.73 12.755 12.803 12.895 12.97 12.947 12.883 12.838 12.808 12.813 12.85 12.882 12.897 12.872 12.81
11.435 11.407 11.367 11.318 11.283 11.258 11.245 11.253 11.275 11.302 11.307 11.293 11.298 11.335 11.352 11.337 11.32 11.3 11.29 11.282 11.255 11.22 11.173 11.115 11.07 11.033 11.01 11.003 11 11.002 10.985 10.958 10.948 10.943 10.938 10.933 10.93 10.935 10.937 10.933 10.938 10.96 11.003 11.052 11.095 11.135 11.155 11.152 11.145 11.135 11.11 11.073 11.04 11.01 10.975 10.94 10.91 10.885 10.86 10.83 10.8 10.775 10.78 10.812 10.837 10.837 10.815 10.79 10.77 10.745 10.715 10.69 10.673 10.66 10.655 10.655 10.655 10.65 10.642 10.63 10.605 10.575 10.525 10.458 10.395 10.34 10.295 10.255 10.22 10.19 10.165 10.145 10.122 10.098 10.088 10.092 10.095 10.097 10.09 10.075 10.075 10.083 10.093 10.11 10.127 10.137 10.162 10.205 10.245 10.282 10.315 10.335 10.247 10.072 9.785 9.448 9.328 9.443 9.567 9.59 9.59 9.59 9.59 9.59 9.59 9.59 9.59 9.59 9.59 9.59 9.59 9.59 9.59 9.598 9.66 9.762 9.852 9.935 9.982 9.99 9.985 9.968 9.958 9.97 10 10.042 10.08 10.1 10.11 10.115 10.163 10.285 10.432 10.567 10.627 10.62 10.612 10.608 10.678 10.83 10.985 11.135 11.225 11.26 11.31 11.373 11.468 11.595 11.738 11.887 11.98 12.023 12.07 12.12 12.18 12.247 12.31 12.37 12.443 12.535 12.635 12.692 12.693 12.688 12.7 12.725 12.755 12.785 12.835 12.885 12.875 12.833 12.805 12.783 12.778 12.802 12.822 12.825 12.8 12.75
11.435 11.405 11.37 11.337 11.31 11.283 11.278 11.3 11.33 11.35 11.347 11.332 11.32 11.325 11.325 11.307 11.29 11.27 11.252 11.225 11.185 11.15 11.113 11.07 11.03 10.99 10.965 10.96 10.955 10.948 10.938 10.928 10.922 10.917 10.913 10.91 10.91 10.912 10.913 10.91 10.91 10.918 10.945 10.985 11.025 11.065 11.082 11.075 11.065 11.055 11.033 11 10.97 10.94 10.905 10.867 10.83 10.798 10.77 10.74 10.708 10.68 10.688 10.72 10.755 10.78 10.772 10.75 10.727 10.702 10.68 10.665 10.655 10.645 10.64 10.64 10.64 10.635 10.62 10.595 10.565 10.535 10.485 10.415 10.347 10.288 10.243 10.205 10.17 10.14 10.115 10.095 10.075 10.053 10.043 10.045 10.048 10.053 10.05 10.048 10.052 10.057 10.065 10.075 10.087 10.092 10.115 10.16 10.195 10.225 10.257 10.275 10.18 9.992 9.765 9.605 9.555 9.547 9.577 9.59 9.59 9.59 9.59 9.59 9.593 9.595 9.593 9.59 9.59 9.59 9.59 9.59 9.59 9.593 9.64 9.725 9.805 9.885 9.93 9.935 9.935 9.927 9.92 9.925 9.942 9.967 9.987 9.995 10 10.008 10.048 10.16 10.31 10.455 10.522 10.517 10.515 10.52 10.6 10.752 10.905 11.057 11.157 11.207 11.262 11.322 11.42 11.547 11.675 11.81 11.9 11.945 11.992 12.04 12.097 12.155 12.21 12.27 12.348 12.445 12.547 12.627 12.655 12.667 12.695 12.725 12.755 12.782 12.802 12.817 12.815 12.792 12.772 12.755 12.742 12.747 12.752 12.75 12.73 12.69
11.42 11.39 11.362 11.337 11.31 11.295 11.31 11.34 11.37 11.382 11.355 11.323 11.31 11.3 11.282 11.26 11.24 11.22 11.195 11.16 11.12 11.088 11.062 11.032 10.995 10.955 10.93 10.925 10.92 10.913 10.908 10.902 10.898 10.893 10.888 10.885 10.885 10.887 10.892 10.898 10.9 10.898 10.895 10.915 10.955 10.992 11.01 11.005 10.995 10.985 10.968 10.943 10.913 10.88 10.838 10.79 10.75 10.713 10.68 10.65 10.62 10.6 10.6 10.62 10.655 10.69 10.7 10.685 10.662 10.637 10.62 10.612 10.607 10.607 10.607 10.605 10.605 10.6 10.58 10.55 10.52 10.482 10.427 10.36 10.29 10.233 10.193 10.158 10.125 10.095 10.07 10.05 10.03 10.01 10.005 10.013 10.018 10.023 10.02 10.018 10.02 10.025 10.02 10.012 10.017 10 10.008 10.065 10.122 10.167 10.202 10.212 10.11 9.928 9.787 9.71 9.66 9.602 9.59 9.615 9.618 9.615 9.615 9.618 9.623 9.63 9.618 9.593 9.585 9.587 9.592 9.595 9.595 9.595 9.618 9.678 9.755 9.835 9.87 9.86 9.852 9.842 9.837 9.845 9.862 9.87 9.87 9.877 9.882 9.89 9.928 10.03 10.175 10.32 10.392 10.392 10.39 10.398 10.48 10.63 10.782 10.942 11.055 11.112 11.17 11.235 11.333 11.46 11.595 11.737 11.82 11.855 11.9 11.945 12 12.058 12.115 12.18 12.263 12.363 12.467 12.555 12.602 12.63 12.66 12.692 12.72 12.732 12.737 12.737 12.73 12.717 12.702 12.677 12.657 12.67 12.682 12.68 12.647 12.582
11.39 11.363 11.337 11.31 11.295 11.31 11.34 11.37 11.397 11.405 11.36 11.295 11.265 11.252 11.23 11.203 11.18 11.16 11.132 11.097 11.063 11.033 11.012 10.992 10.962 10.925 10.9 10.895 10.89 10.885 10.88 10.875 10.872 10.87 10.865 10.858 10.855 10.858 10.87 10.887 10.895 10.892 10.873 10.86 10.883 10.915 10.935 10.94 10.935 10.925 10.912 10.895 10.867 10.832 10.78 10.72 10.673 10.63 10.595 10.568 10.55 10.545 10.535 10.528 10.548 10.58 10.595 10.59 10.575 10.553 10.535 10.53 10.538 10.557 10.565 10.558 10.555 10.55 10.53 10.497 10.46 10.412 10.355 10.29 10.228 10.185 10.15 10.113 10.08 10.05 10.028 10.01 9.99 9.973 9.975 9.992 10.002 10.007 10 9.985 9.98 9.985 9.963 9.938 9.935 9.903 9.888 9.938 10.015 10.082 10.135 10.15 10.052 9.89 9.753 9.665 9.615 9.553 9.573 9.647 9.667 9.67 9.67 9.675 9.683 9.695 9.68 9.618 9.58 9.583 9.592 9.602 9.605 9.605 9.615 9.645 9.705 9.78 9.795 9.758 9.735 9.72 9.715 9.728 9.76 9.772 9.755 9.753 9.755 9.76 9.808 9.91 10.04 10.182 10.257 10.257 10.253 10.253 10.33 10.483 10.643 10.812 10.935 10.998 11.06 11.133 11.228 11.353 11.505 11.67 11.75 11.765 11.803 11.848 11.9 11.963 12.028 12.1 12.188 12.287 12.385 12.465 12.515 12.545 12.577 12.617 12.645 12.643 12.635 12.633 12.625 12.605 12.57 12.525 12.508 12.557 12.607 12.615 12.565 12.455
11.357 11.335 11.31 11.295 11.31 11.34 11.37 11.397 11.422 11.427 11.38 11.3 11.238 11.208 11.182 11.15 11.123 11.1 11.07 11.035 11.005 10.978 10.958 10.942 10.922 10.893 10.87 10.865 10.863 10.858 10.852 10.848 10.848 10.85 10.845 10.835 10.828 10.825 10.84 10.865 10.882 10.89 10.872 10.84 10.825 10.84 10.86 10.87 10.875 10.87 10.857 10.84 10.817 10.785 10.732 10.668 10.605 10.553 10.518 10.5 10.495 10.497 10.487 10.465 10.455 10.47 10.485 10.485 10.48 10.465 10.453 10.458 10.483 10.515 10.525 10.513 10.503 10.497 10.477 10.437 10.39 10.34 10.283 10.225 10.18 10.145 10.11 10.07 10.035 10.005 9.983 9.967 9.95 9.935 9.943 9.965 9.982 9.992 9.985 9.965 9.948 9.945 9.915 9.87 9.845 9.8 9.768 9.795 9.865 9.94 10.01 10.042 9.99 9.87 9.73 9.628 9.555 9.513 9.57 9.657 9.702 9.725 9.73 9.738 9.753 9.767 9.76 9.68 9.595 9.578 9.59 9.605 9.612 9.618 9.628 9.64 9.668 9.717 9.717 9.663 9.623 9.6 9.595 9.618 9.665 9.69 9.668 9.64 9.63 9.638 9.698 9.803 9.915 10.047 10.12 10.12 10.117 10.113 10.185 10.343 10.513 10.687 10.815 10.887 10.955 11.028 11.12 11.258 11.435 11.612 11.695 11.695 11.713 11.753 11.808 11.875 11.945 12.02 12.11 12.207 12.292 12.365 12.415 12.445 12.483 12.53 12.56 12.557 12.545 12.532 12.507 12.458 12.398 12.345 12.34 12.415 12.505 12.542 12.492 12.363
11.325 11.308 11.295 11.305 11.332 11.36 11.39 11.42 11.45 11.45 11.395 11.315 11.235 11.175 11.135 11.1 11.07 11.043 11.013 10.98 10.95 10.923 10.903 10.89 10.878 10.86 10.845 10.84 10.838 10.83 10.825 10.825 10.828 10.83 10.825 10.815 10.805 10.798 10.81 10.835 10.86 10.88 10.87 10.832 10.793 10.78 10.79 10.798 10.805 10.81 10.8 10.78 10.763 10.735 10.685 10.62 10.553 10.49 10.453 10.448 10.45 10.452 10.442 10.417 10.39 10.378 10.378 10.375 10.375 10.37 10.373 10.397 10.435 10.47 10.48 10.467 10.455 10.445 10.417 10.37 10.32 10.27 10.218 10.175 10.14 10.105 10.07 10.03 9.995 9.965 9.94 9.925 9.91 9.898 9.908 9.933 9.958 9.975 9.972 9.952 9.928 9.912 9.875 9.813 9.768 9.733 9.708 9.703 9.72 9.755 9.805 9.85 9.867 9.825 9.71 9.587 9.47 9.465 9.577 9.66 9.717 9.76 9.782 9.802 9.825 9.84 9.84 9.767 9.645 9.585 9.59 9.605 9.618 9.63 9.64 9.653 9.665 9.675 9.647 9.585 9.53 9.488 9.478 9.512 9.57 9.602 9.587 9.55 9.52 9.525 9.595 9.7 9.805 9.922 9.985 9.983 9.98 9.978 10.05 10.213 10.388 10.56 10.695 10.78 10.85 10.923 11.023 11.18 11.37 11.552 11.64 11.637 11.638 11.663 11.723 11.795 11.868 11.943 12.03 12.12 12.192 12.26 12.312 12.35 12.395 12.442 12.472 12.465 12.435 12.417 12.4 12.348 12.273 12.2 12.19 12.265 12.368 12.45 12.422 12.287
11.328 11.313 11.3 11.305 11.327 11.355 11.385 11.417 11.442 11.427 11.365 11.282 11.2 11.128 11.078 11.045 11.013 10.99 10.973 10.948 10.92 10.888 10.865 10.855 10.845 10.835 10.83 10.83 10.828 10.82 10.813 10.813 10.818 10.82 10.815 10.805 10.792 10.775 10.775 10.797 10.822 10.845 10.84 10.8 10.758 10.735 10.735 10.74 10.745 10.758 10.755 10.735 10.72 10.695 10.642 10.575 10.51 10.445 10.408 10.408 10.41 10.4 10.38 10.357 10.33 10.303 10.283 10.273 10.27 10.27 10.288 10.325 10.362 10.397 10.41 10.4 10.387 10.372 10.34 10.29 10.24 10.2 10.165 10.13 10.097 10.068 10.04 10.008 9.973 9.94 9.915 9.9 9.888 9.88 9.893 9.918 9.942 9.955 9.952 9.94 9.918 9.895 9.85 9.785 9.735 9.713 9.71 9.7 9.678 9.663 9.673 9.72 9.785 9.787 9.69 9.515 9.36 9.43 9.602 9.685 9.742 9.77 9.777 9.802 9.835 9.862 9.882 9.835 9.708 9.615 9.605 9.623 9.638 9.653 9.665 9.677 9.677 9.65 9.595 9.53 9.47 9.41 9.368 9.375 9.42 9.452 9.442 9.407 9.385 9.408 9.488 9.592 9.697 9.792 9.845 9.852 9.85 9.85 9.925 10.093 10.27 10.44 10.577 10.667 10.74 10.813 10.928 11.1 11.292 11.485 11.58 11.577 11.573 11.585 11.64 11.715 11.79 11.865 11.945 12.025 12.093 12.157 12.202 12.237 12.282 12.322 12.35 12.335 12.298 12.293 12.3 12.282 12.22 12.13 12.108 12.175 12.268 12.337 12.317 12.195
11.36 11.345 11.32 11.303 11.308 11.33 11.36 11.382 11.382 11.352 11.287 11.203 11.125 11.06 11.013 10.98 10.958 10.958 10.955 10.932 10.905 10.87 10.845 10.837 10.83 10.82 10.82 10.827 10.83 10.825 10.818 10.815 10.818 10.82 10.815 10.805 10.782 10.75 10.74 10.755 10.775 10.797 10.79 10.75 10.718 10.7 10.698 10.703 10.713 10.73 10.727 10.705 10.69 10.665 10.61 10.538 10.47 10.405 10.37 10.37 10.357 10.322 10.293 10.277 10.257 10.23 10.203 10.183 10.173 10.173 10.193 10.23 10.267 10.302 10.317 10.31 10.295 10.28 10.25 10.2 10.16 10.14 10.115 10.08 10.053 10.03 10.012 9.995 9.967 9.933 9.908 9.893 9.883 9.88 9.895 9.92 9.932 9.93 9.925 9.922 9.91 9.887 9.842 9.788 9.743 9.715 9.715 9.717 9.71 9.693 9.68 9.725 9.785 9.767 9.652 9.435 9.295 9.44 9.647 9.735 9.767 9.747 9.725 9.74 9.773 9.81 9.845 9.84 9.755 9.655 9.633 9.655 9.672 9.687 9.697 9.692 9.662 9.612 9.552 9.49 9.427 9.36 9.29 9.243 9.233 9.248 9.24 9.223 9.238 9.285 9.37 9.475 9.57 9.637 9.687 9.72 9.73 9.728 9.8 9.97 10.155 10.33 10.462 10.55 10.625 10.698 10.825 11.013 11.21 11.412 11.515 11.512 11.508 11.515 11.563 11.637 11.712 11.782 11.855 11.93 12 12.062 12.09 12.1 12.125 12.158 12.187 12.175 12.165 12.182 12.185 12.185 12.165 12.1 12.07 12.132 12.19 12.175 12.135 12.062
11.385 11.375 11.35 11.325 11.308 11.308 11.322 11.322 11.3 11.265 11.203 11.125 11.06 11 10.95 10.923 10.923 10.94 10.942 10.917 10.882 10.848 10.825 10.82 10.815 10.805 10.808 10.82 10.827 10.827 10.823 10.82 10.82 10.82 10.815 10.797 10.762 10.72 10.705 10.718 10.733 10.752 10.742 10.708 10.685 10.668 10.66 10.67 10.69 10.707 10.702 10.68 10.662 10.635 10.58 10.505 10.433 10.365 10.328 10.315 10.28 10.23 10.198 10.188 10.177 10.155 10.128 10.103 10.083 10.078 10.098 10.133 10.17 10.207 10.222 10.215 10.202 10.187 10.158 10.12 10.1 10.087 10.062 10.033 10.01 9.993 9.98 9.97 9.955 9.927 9.903 9.89 9.885 9.885 9.897 9.912 9.91 9.903 9.898 9.895 9.892 9.88 9.842 9.795 9.755 9.723 9.715 9.72 9.725 9.725 9.718 9.745 9.77 9.737 9.613 9.46 9.418 9.533 9.697 9.765 9.747 9.7 9.678 9.688 9.705 9.735 9.765 9.78 9.76 9.69 9.658 9.68 9.702 9.707 9.69 9.66 9.617 9.567 9.507 9.445 9.38 9.31 9.24 9.17 9.11 9.078 9.065 9.08 9.118 9.168 9.25 9.342 9.415 9.472 9.522 9.565 9.595 9.603 9.67 9.838 10.03 10.212 10.342 10.425 10.505 10.59 10.733 10.932 11.135 11.34 11.445 11.445 11.443 11.445 11.485 11.558 11.63 11.695 11.765 11.843 11.915 11.967 11.982 11.978 11.98 11.995 12.02 12.028 12.048 12.075 12.075 12.075 12.075 12.05 12.032 12.047 12.02 11.948 11.905 11.88
11.4 11.4 11.38 11.352 11.325 11.298 11.275 11.25 11.218 11.183 11.133 11.068 11.005 10.943 10.895 10.885 10.902 10.925 10.927 10.9 10.86 10.825 10.805 10.8 10.795 10.788 10.793 10.805 10.815 10.825 10.827 10.825 10.822 10.82 10.807 10.775 10.732 10.688 10.67 10.682 10.695 10.707 10.7 10.675 10.655 10.635 10.628 10.645 10.67 10.685 10.677 10.655 10.635 10.607 10.552 10.478 10.403 10.328 10.275 10.238 10.193 10.145 10.11 10.098 10.09 10.075 10.053 10.028 10.005 9.99 10.005 10.04 10.075 10.112 10.125 10.115 10.108 10.098 10.078 10.06 10.047 10.032 10.013 9.993 9.975 9.958 9.945 9.938 9.93 9.915 9.9 9.895 9.892 9.89 9.892 9.89 9.88 9.875 9.872 9.87 9.87 9.867 9.845 9.805 9.765 9.728 9.715 9.722 9.727 9.735 9.74 9.742 9.74 9.72 9.66 9.625 9.642 9.682 9.74 9.745 9.7 9.653 9.63 9.635 9.642 9.657 9.675 9.687 9.7 9.687 9.665 9.657 9.655 9.632 9.575 9.517 9.475 9.435 9.397 9.367 9.325 9.26 9.19 9.117 9.045 8.993 8.98 8.995 9.015 9.053 9.12 9.188 9.245 9.305 9.355 9.395 9.435 9.465 9.54 9.705 9.903 10.092 10.225 10.305 10.388 10.485 10.643 10.85 11.057 11.265 11.372 11.375 11.375 11.375 11.41 11.48 11.553 11.623 11.69 11.76 11.83 11.87 11.875 11.872 11.868 11.865 11.875 11.908 11.945 11.96 11.96 11.96 11.963 11.965 11.95 11.89 11.793 11.705 11.668 11.66
11.405 11.41 11.395 11.365 11.332 11.287 11.238 11.198 11.16 11.125 11.095 11.05 10.99 10.925 10.87 10.855 10.875 10.9 10.902 10.877 10.84 10.805 10.788 10.782 10.775 10.77 10.775 10.785 10.798 10.815 10.827 10.827 10.822 10.805 10.77 10.727 10.682 10.64 10.625 10.635 10.645 10.657 10.657 10.64 10.62 10.6 10.598 10.617 10.64 10.657 10.65 10.625 10.608 10.587 10.535 10.46 10.385 10.305 10.24 10.19 10.143 10.09 10.055 10.048 10.04 10.028 10.008 9.985 9.963 9.94 9.948 9.98 10.013 10.037 10.043 10.035 10.028 10.023 10.012 10 9.988 9.978 9.967 9.952 9.935 9.925 9.92 9.915 9.91 9.903 9.9 9.9 9.895 9.877 9.86 9.852 9.845 9.84 9.847 9.855 9.858 9.86 9.85 9.825 9.79 9.75 9.728 9.725 9.728 9.735 9.745 9.74 9.722 9.7 9.682 9.685 9.695 9.707 9.705 9.677 9.635 9.587 9.555 9.542 9.542 9.547 9.557 9.572 9.587 9.6 9.585 9.547 9.515 9.472 9.395 9.308 9.248 9.21 9.195 9.2 9.2 9.182 9.135 9.06 8.998 8.973 8.97 8.97 8.97 8.968 8.993 9.048 9.103 9.158 9.203 9.24 9.28 9.32 9.413 9.585 9.785 9.98 10.115 10.195 10.283 10.393 10.543 10.735 10.945 11.152 11.265 11.275 11.275 11.268 11.33 11.437 11.513 11.588 11.655 11.712 11.752 11.762 11.76 11.76 11.755 11.763 11.79 11.828 11.855 11.86 11.863 11.865 11.87 11.877 11.842 11.75 11.648 11.578 11.545 11.528
11.41 11.415 11.4 11.365 11.322 11.27 11.213 11.163 11.123 11.09 11.07 11.047 11.005 10.945 10.88 10.838 10.838 10.86 10.865 10.847 10.817 10.783 10.765 10.762 10.757 10.753 10.758 10.77 10.785 10.807 10.822 10.822 10.807 10.765 10.713 10.665 10.62 10.58 10.563 10.573 10.588 10.605 10.61 10.597 10.58 10.56 10.56 10.58 10.602 10.622 10.617 10.598 10.588 10.575 10.527 10.452 10.375 10.293 10.225 10.175 10.122 10.06 10.025 10.027 10.025 10.012 9.995 9.972 9.945 9.918 9.92 9.95 9.972 9.977 9.975 9.972 9.965 9.958 9.948 9.935 9.928 9.928 9.922 9.905 9.898 9.908 9.912 9.908 9.903 9.9 9.9 9.9 9.885 9.845 9.815 9.807 9.8 9.795 9.812 9.84 9.855 9.86 9.855 9.842 9.82 9.785 9.758 9.743 9.735 9.735 9.74 9.737 9.71 9.665 9.625 9.605 9.598 9.603 9.602 9.582 9.55 9.505 9.465 9.435 9.418 9.415 9.423 9.437 9.45 9.457 9.437 9.395 9.357 9.31 9.23 9.13 9.043 8.985 8.973 9.003 9.055 9.097 9.075 9.01 8.973 8.965 8.965 8.965 8.955 8.918 8.898 8.935 8.993 9.045 9.08 9.105 9.14 9.183 9.29 9.473 9.67 9.867 10.005 10.09 10.195 10.323 10.46 10.618 10.805 11.007 11.127 11.145 11.14 11.12 11.213 11.392 11.5 11.572 11.637 11.67 11.665 11.648 11.64 11.643 11.658 11.695 11.745 11.775 11.783 11.785 11.79 11.795 11.8 11.802 11.757 11.675 11.613 11.58 11.553 11.52
11.43 11.42 11.402 11.357 11.302 11.247 11.19 11.135 11.09 11.055 11.035 11.022 11.002 10.96 10.902 10.848 10.815 10.82 10.822 10.805 10.785 10.758 10.74 10.74 10.74 10.738 10.743 10.758 10.778 10.802 10.817 10.807 10.77 10.715 10.66 10.61 10.563 10.52 10.503 10.515 10.538 10.56 10.565 10.555 10.542 10.525 10.525 10.545 10.568 10.587 10.587 10.578 10.575 10.565 10.52 10.442 10.36 10.278 10.208 10.152 10.092 10.028 9.995 10 10.005 10 9.982 9.955 9.925 9.893 9.89 9.912 9.917 9.91 9.905 9.905 9.902 9.895 9.885 9.878 9.878 9.882 9.875 9.868 9.883 9.902 9.907 9.903 9.9 9.903 9.905 9.892 9.855 9.805 9.773 9.76 9.747 9.74 9.763 9.805 9.84 9.857 9.855 9.845 9.832 9.812 9.792 9.772 9.752 9.737 9.725 9.715 9.68 9.625 9.585 9.555 9.527 9.51 9.498 9.48 9.458 9.423 9.385 9.35 9.318 9.295 9.29 9.3 9.308 9.312 9.292 9.248 9.205 9.153 9.07 8.97 8.888 8.84 8.838 8.888 8.968 9.03 9.017 8.975 8.963 8.958 8.955 8.95 8.922 8.872 8.825 8.83 8.89 8.945 8.972 8.988 9.01 9.05 9.17 9.36 9.555 9.755 9.897 9.998 10.123 10.258 10.398 10.54 10.693 10.872 10.995 11.012 10.992 10.97 11.07 11.285 11.457 11.555 11.59 11.58 11.553 11.53 11.533 11.56 11.603 11.657 11.702 11.72 11.72 11.72 11.722 11.725 11.727 11.725 11.695 11.653 11.625 11.605 11.58 11.545
11.47 11.43 11.392 11.34 11.28 11.223 11.168 11.113 11.06 11.02 11 10.99 10.98 10.96 10.92 10.867 10.818 10.79 10.778 10.76 10.745 10.73 10.72 10.72 10.72 10.72 10.728 10.745 10.77 10.795 10.8 10.77 10.717 10.66 10.607 10.56 10.51 10.463 10.445 10.462 10.49 10.515 10.52 10.51 10.5 10.49 10.495 10.515 10.535 10.555 10.562 10.56 10.56 10.555 10.51 10.427 10.345 10.265 10.193 10.128 10.06 9.995 9.968 9.975 9.985 9.985 9.965 9.935 9.903 9.868 9.855 9.86 9.855 9.848 9.843 9.84 9.84 9.835 9.833 9.835 9.84 9.845 9.843 9.853 9.878 9.892 9.895 9.897 9.9 9.905 9.9 9.865 9.815 9.763 9.725 9.708 9.69 9.683 9.708 9.753 9.797 9.835 9.837 9.805 9.767 9.73 9.697 9.672 9.65 9.627 9.597 9.577 9.57 9.56 9.527 9.472 9.427 9.418 9.42 9.405 9.383 9.35 9.313 9.278 9.243 9.205 9.19 9.19 9.18 9.173 9.15 9.105 9.063 9.023 8.97 8.91 8.865 8.845 8.85 8.883 8.93 8.973 8.975 8.958 8.955 8.952 8.947 8.927 8.882 8.825 8.768 8.745 8.793 8.845 8.865 8.883 8.903 8.935 9.053 9.247 9.445 9.645 9.802 9.925 10.057 10.192 10.332 10.475 10.615 10.765 10.865 10.868 10.835 10.82 10.93 11.145 11.352 11.485 11.5 11.47 11.442 11.413 11.433 11.507 11.57 11.622 11.655 11.66 11.66 11.66 11.652 11.642 11.632 11.617 11.615 11.632 11.645 11.635 11.61 11.575
11.49 11.437 11.383 11.325 11.265 11.205 11.148 11.09 11.038 11.003 10.985 10.975 10.965 10.94 10.895 10.847 10.8 10.765 10.753 10.743 10.73 10.72 10.715 10.715 10.715 10.715 10.715 10.725 10.747 10.772 10.762 10.71 10.65 10.593 10.547 10.505 10.455 10.408 10.388 10.4 10.425 10.452 10.46 10.45 10.44 10.435 10.45 10.475 10.495 10.515 10.527 10.53 10.53 10.53 10.492 10.412 10.33 10.25 10.183 10.125 10.06 9.995 9.968 9.975 9.977 9.962 9.94 9.915 9.882 9.848 9.828 9.825 9.82 9.813 9.808 9.805 9.803 9.788 9.79 9.817 9.842 9.855 9.858 9.87 9.88 9.85 9.835 9.855 9.862 9.867 9.852 9.81 9.76 9.708 9.678 9.668 9.65 9.645 9.665 9.705 9.753 9.797 9.775 9.678 9.592 9.528 9.478 9.45 9.427 9.397 9.363 9.345 9.352 9.377 9.357 9.305 9.298 9.343 9.375 9.357 9.327 9.288 9.248 9.212 9.178 9.15 9.15 9.16 9.145 9.12 9.093 9.053 9.023 9.01 8.993 8.97 8.945 8.923 8.925 8.945 8.965 8.98 8.98 8.968 8.955 8.948 8.932 8.893 8.84 8.788 8.735 8.71 8.743 8.783 8.805 8.833 8.86 8.893 8.973 9.133 9.33 9.53 9.697 9.832 9.97 10.115 10.257 10.395 10.535 10.67 10.76 10.765 10.728 10.713 10.803 10.998 11.21 11.36 11.39 11.362 11.322 11.273 11.303 11.405 11.492 11.557 11.58 11.567 11.555 11.545 11.527 11.512 11.5 11.478 11.475 11.52 11.577 11.615 11.615 11.572
11.482 11.43 11.375 11.315 11.252 11.19 11.13 11.073 11.028 11 10.985 10.975 10.95 10.897 10.84 10.793 10.755 10.74 10.742 10.745 10.74 10.73 10.725 10.725 10.725 10.725 10.715 10.705 10.713 10.735 10.717 10.648 10.578 10.518 10.477 10.445 10.4 10.355 10.335 10.34 10.353 10.375 10.385 10.375 10.368 10.365 10.385 10.422 10.45 10.47 10.482 10.488 10.492 10.495 10.462 10.39 10.31 10.23 10.17 10.13 10.082 10.023 9.993 9.99 9.967 9.93 9.905 9.89 9.865 9.833 9.815 9.812 9.807 9.8 9.795 9.792 9.777 9.745 9.743 9.785 9.835 9.872 9.895 9.91 9.822 9.715 9.725 9.765 9.785 9.792 9.78 9.742 9.695 9.645 9.63 9.64 9.63 9.628 9.645 9.673 9.715 9.76 9.702 9.54 9.4 9.313 9.26 9.227 9.197 9.155 9.123 9.113 9.108 9.115 9.133 9.165 9.225 9.3 9.332 9.307 9.27 9.225 9.183 9.148 9.123 9.125 9.148 9.172 9.177 9.155 9.123 9.093 9.085 9.092 9.077 9.048 9.023 9 9 9.02 9.032 9.035 9.025 9.005 8.985 8.955 8.917 8.873 8.825 8.78 8.735 8.733 8.765 8.788 8.81 8.84 8.87 8.905 8.955 9.048 9.21 9.407 9.572 9.713 9.865 10.025 10.172 10.31 10.445 10.57 10.667 10.702 10.678 10.663 10.73 10.873 11.06 11.232 11.285 11.245 11.17 11.108 11.148 11.253 11.36 11.455 11.462 11.418 11.392 11.37 11.355 11.348 11.342 11.327 11.318 11.355 11.425 11.52 11.567 11.522
11.472 11.42 11.365 11.302 11.238 11.173 11.113 11.065 11.03 11.003 10.982 10.957 10.907 10.843 10.785 10.745 10.728 10.725 10.73 10.74 10.745 10.74 10.735 10.735 10.735 10.735 10.725 10.705 10.69 10.697 10.672 10.595 10.515 10.445 10.403 10.377 10.345 10.305 10.285 10.29 10.295 10.303 10.308 10.3 10.293 10.29 10.313 10.36 10.402 10.43 10.44 10.445 10.455 10.46 10.425 10.357 10.287 10.21 10.153 10.12 10.087 10.042 10.01 9.982 9.935 9.89 9.865 9.855 9.84 9.815 9.8 9.797 9.792 9.787 9.782 9.765 9.73 9.69 9.685 9.725 9.78 9.835 9.872 9.79 9.613 9.555 9.605 9.655 9.695 9.715 9.705 9.67 9.627 9.583 9.578 9.607 9.615 9.618 9.635 9.655 9.683 9.72 9.647 9.455 9.268 9.123 9.04 9 8.96 8.908 8.88 8.878 8.893 8.96 9.058 9.138 9.198 9.26 9.282 9.25 9.208 9.163 9.12 9.09 9.09 9.12 9.15 9.175 9.195 9.19 9.165 9.153 9.163 9.175 9.162 9.13 9.103 9.08 9.08 9.092 9.092 9.087 9.075 9.05 9.012 8.955 8.905 8.87 8.832 8.79 8.76 8.767 8.792 8.815 8.835 8.858 8.885 8.92 8.97 9.03 9.125 9.285 9.452 9.605 9.77 9.935 10.085 10.22 10.345 10.465 10.56 10.615 10.622 10.628 10.7 10.81 10.948 11.112 11.172 11.1 10.995 10.943 10.998 11.11 11.23 11.345 11.345 11.26 11.218 11.198 11.188 11.183 11.178 11.17 11.163 11.195 11.285 11.42 11.49 11.452
11.457 11.41 11.352 11.287 11.222 11.155 11.1 11.065 11.032 11 10.965 10.915 10.852 10.788 10.738 10.718 10.715 10.713 10.715 10.728 10.74 10.742 10.742 10.745 10.745 10.745 10.735 10.712 10.687 10.672 10.63 10.548 10.46 10.38 10.33 10.305 10.28 10.25 10.235 10.24 10.245 10.248 10.248 10.24 10.228 10.22 10.245 10.293 10.34 10.38 10.397 10.405 10.415 10.42 10.387 10.322 10.255 10.188 10.138 10.102 10.07 10.037 10 9.95 9.895 9.85 9.825 9.815 9.805 9.79 9.78 9.78 9.777 9.77 9.752 9.717 9.675 9.635 9.628 9.665 9.72 9.745 9.587 9.34 9.348 9.472 9.515 9.558 9.603 9.635 9.627 9.592 9.555 9.52 9.525 9.565 9.592 9.607 9.625 9.642 9.66 9.67 9.572 9.377 9.182 8.995 8.848 8.768 8.715 8.665 8.645 8.678 8.778 8.948 9.092 9.16 9.205 9.25 9.262 9.225 9.173 9.12 9.073 9.058 9.083 9.12 9.15 9.172 9.197 9.212 9.215 9.225 9.242 9.257 9.25 9.22 9.19 9.162 9.152 9.15 9.145 9.14 9.115 9.07 9.013 8.948 8.898 8.865 8.835 8.8 8.78 8.78 8.79 8.817 8.85 8.877 8.905 8.937 8.985 9.045 9.105 9.2 9.345 9.51 9.68 9.845 9.99 10.115 10.235 10.355 10.45 10.51 10.548 10.59 10.675 10.782 10.893 11.017 11.047 10.953 10.84 10.8 10.87 10.985 11.105 11.225 11.245 11.148 11.063 11.033 11.028 11.023 11.018 11.015 11.013 11.06 11.185 11.34 11.41 11.375
11.427 11.377 11.317 11.252 11.187 11.122 11.072 11.037 11.002 10.97 10.925 10.862 10.798 10.74 10.713 10.71 10.71 10.705 10.708 10.723 10.737 10.742 10.735 10.73 10.73 10.73 10.712 10.682 10.657 10.63 10.585 10.512 10.425 10.34 10.285 10.258 10.23 10.203 10.19 10.193 10.198 10.202 10.2 10.19 10.178 10.173 10.198 10.243 10.288 10.327 10.35 10.36 10.37 10.377 10.347 10.28 10.215 10.163 10.118 10.075 10.04 10.007 9.965 9.913 9.86 9.818 9.795 9.788 9.78 9.768 9.758 9.755 9.752 9.735 9.702 9.665 9.625 9.585 9.573 9.605 9.61 9.465 9.185 9.03 9.13 9.342 9.472 9.51 9.545 9.56 9.542 9.507 9.475 9.46 9.48 9.523 9.567 9.59 9.595 9.607 9.622 9.592 9.452 9.247 9.05 8.857 8.673 8.538 8.46 8.423 8.463 8.595 8.78 8.982 9.125 9.19 9.235 9.27 9.277 9.247 9.195 9.135 9.08 9.063 9.085 9.12 9.145 9.16 9.185 9.21 9.23 9.25 9.272 9.3 9.292 9.252 9.22 9.19 9.17 9.16 9.152 9.162 9.152 9.1 9.04 8.98 8.928 8.89 8.86 8.83 8.798 8.78 8.783 8.805 8.842 8.877 8.91 8.94 8.985 9.042 9.097 9.163 9.28 9.445 9.615 9.755 9.862 9.975 10.098 10.24 10.368 10.44 10.488 10.543 10.627 10.73 10.835 10.94 10.952 10.858 10.745 10.72 10.803 10.91 11.02 11.125 11.152 11.065 10.953 10.905 10.905 10.903 10.898 10.898 10.905 10.97 11.105 11.25 11.317 11.29
11.377 11.322 11.262 11.198 11.135 11.078 11.028 10.985 10.95 10.917 10.87 10.808 10.753 10.713 10.7 10.707 10.71 10.708 10.713 10.727 10.742 10.745 10.723 10.698 10.69 10.69 10.665 10.623 10.59 10.562 10.53 10.477 10.4 10.318 10.265 10.235 10.203 10.17 10.153 10.148 10.15 10.155 10.15 10.14 10.135 10.138 10.16 10.205 10.245 10.275 10.295 10.305 10.315 10.325 10.297 10.233 10.18 10.14 10.095 10.048 10.008 9.972 9.93 9.88 9.835 9.8 9.78 9.772 9.762 9.745 9.73 9.725 9.712 9.682 9.647 9.61 9.572 9.535 9.517 9.417 9.28 9.138 9.03 9.03 9.03 9.133 9.352 9.482 9.495 9.48 9.448 9.418 9.403 9.41 9.443 9.49 9.545 9.572 9.565 9.563 9.57 9.497 9.31 9.09 8.878 8.675 8.488 8.33 8.235 8.263 8.413 8.613 8.815 9.017 9.157 9.217 9.257 9.285 9.292 9.28 9.245 9.19 9.135 9.095 9.093 9.122 9.14 9.148 9.168 9.19 9.21 9.233 9.263 9.3 9.29 9.233 9.185 9.15 9.13 9.123 9.135 9.182 9.2 9.157 9.1 9.04 8.985 8.943 8.908 8.875 8.833 8.79 8.775 8.793 8.828 8.863 8.895 8.925 8.967 9.02 9.073 9.14 9.25 9.405 9.555 9.642 9.705 9.805 9.95 10.158 10.337 10.417 10.458 10.495 10.56 10.653 10.753 10.855 10.877 10.797 10.69 10.68 10.777 10.882 10.972 11.042 11.057 10.98 10.87 10.818 10.815 10.815 10.818 10.828 10.845 10.9 11.022 11.142 11.19 11.185
11.32 11.265 11.207 11.145 11.088 11.035 10.985 10.94 10.9 10.862 10.815 10.763 10.725 10.698 10.69 10.7 10.71 10.715 10.72 10.733 10.747 10.75 10.725 10.688 10.66 10.65 10.625 10.575 10.53 10.498 10.465 10.422 10.365 10.295 10.245 10.212 10.177 10.143 10.12 10.11 10.105 10.108 10.105 10.098 10.1 10.105 10.123 10.16 10.192 10.217 10.237 10.25 10.26 10.27 10.247 10.195 10.155 10.12 10.075 10.025 9.978 9.938 9.895 9.85 9.815 9.785 9.767 9.755 9.735 9.715 9.7 9.687 9.66 9.625 9.59 9.55 9.515 9.48 9.36 9.145 9.03 9.03 9.03 9.03 9.03 9.03 9.228 9.425 9.412 9.387 9.36 9.348 9.358 9.375 9.41 9.463 9.52 9.562 9.565 9.548 9.547 9.455 9.248 9.03 8.81 8.595 8.425 8.305 8.223 8.288 8.47 8.655 8.85 9.052 9.19 9.242 9.272 9.295 9.305 9.3 9.282 9.242 9.19 9.143 9.115 9.123 9.137 9.143 9.153 9.17 9.19 9.22 9.26 9.3 9.287 9.223 9.16 9.108 9.088 9.108 9.16 9.23 9.25 9.21 9.157 9.1 9.045 9 8.958 8.92 8.877 8.823 8.783 8.783 8.815 8.85 8.877 8.905 8.94 8.988 9.05 9.125 9.223 9.355 9.46 9.505 9.548 9.658 9.865 10.135 10.332 10.4 10.43 10.458 10.508 10.588 10.675 10.767 10.79 10.727 10.643 10.648 10.745 10.827 10.89 10.937 10.95 10.887 10.785 10.73 10.73 10.74 10.755 10.775 10.795 10.833 10.935 11.025 11.042 11.05
11.265 11.21 11.155 11.098 11.045 10.992 10.943 10.898 10.853 10.813 10.773 10.738 10.71 10.685 10.678 10.688 10.705 10.717 10.728 10.74 10.755 10.757 10.73 10.69 10.653 10.625 10.59 10.538 10.485 10.44 10.4 10.36 10.318 10.268 10.223 10.188 10.153 10.118 10.095 10.085 10.073 10.065 10.063 10.063 10.067 10.07 10.083 10.11 10.138 10.163 10.182 10.197 10.21 10.22 10.205 10.167 10.135 10.1 10.055 10.005 9.955 9.908 9.865 9.83 9.8 9.77 9.75 9.73 9.705 9.685 9.665 9.637 9.603 9.568 9.533 9.495 9.362 9.24 9.13 9.03 9.03 9.03 9.03 9.03 9.13 9.23 9.275 9.317 9.307 9.298 9.295 9.305 9.325 9.345 9.383 9.44 9.5 9.555 9.58 9.58 9.587 9.515 9.328 9.11 8.893 8.688 8.553 8.485 8.418 8.445 8.59 8.755 8.93 9.11 9.222 9.26 9.285 9.307 9.317 9.31 9.302 9.285 9.245 9.2 9.158 9.135 9.138 9.14 9.145 9.155 9.178 9.218 9.263 9.302 9.288 9.23 9.178 9.125 9.11 9.153 9.218 9.285 9.305 9.263 9.21 9.158 9.108 9.063 9.018 8.978 8.928 8.868 8.815 8.788 8.803 8.832 8.857 8.885 8.913 8.96 9.033 9.11 9.195 9.283 9.345 9.388 9.433 9.57 9.833 10.125 10.317 10.375 10.4 10.425 10.468 10.538 10.615 10.69 10.7 10.645 10.593 10.608 10.675 10.728 10.775 10.823 10.845 10.795 10.698 10.653 10.663 10.68 10.7 10.72 10.74 10.77 10.837 10.89 10.898 10.905
11.218 11.163 11.105 11.05 10.997 10.943 10.897 10.855 10.81 10.77 10.74 10.72 10.697 10.673 10.663 10.675 10.695 10.718 10.738 10.753 10.765 10.76 10.73 10.69 10.655 10.623 10.58 10.525 10.47 10.42 10.375 10.333 10.29 10.248 10.208 10.173 10.138 10.11 10.095 10.083 10.068 10.045 10.028 10.028 10.03 10.033 10.045 10.068 10.092 10.112 10.127 10.145 10.16 10.17 10.16 10.13 10.1 10.072 10.032 9.98 9.932 9.885 9.843 9.81 9.78 9.745 9.712 9.687 9.665 9.645 9.617 9.583 9.548 9.512 9.477 9.35 9.135 9.03 9.03 9.03 9.03 9.03 9.03 9.13 9.332 9.375 9.247 9.18 9.19 9.228 9.265 9.285 9.305 9.333 9.38 9.44 9.5 9.565 9.617 9.645 9.662 9.625 9.472 9.255 9.043 8.855 8.743 8.697 8.643 8.638 8.75 8.91 9.07 9.195 9.247 9.27 9.295 9.32 9.335 9.333 9.328 9.322 9.295 9.25 9.21 9.183 9.168 9.16 9.163 9.168 9.193 9.238 9.285 9.33 9.342 9.313 9.27 9.23 9.218 9.25 9.305 9.367 9.387 9.35 9.298 9.245 9.2 9.158 9.113 9.068 9.013 8.948 8.888 8.833 8.795 8.798 8.822 8.85 8.885 8.948 9.025 9.1 9.177 9.238 9.285 9.338 9.398 9.53 9.78 10.077 10.262 10.315 10.347 10.38 10.425 10.49 10.56 10.622 10.625 10.57 10.535 10.548 10.59 10.635 10.68 10.73 10.76 10.725 10.638 10.598 10.613 10.63 10.648 10.665 10.685 10.715 10.753 10.775 10.785 10.795
11.173 11.117 11.058 10.998 10.943 10.89 10.85 10.812 10.77 10.728 10.703 10.695 10.68 10.658 10.65 10.665 10.693 10.73 10.755 10.767 10.772 10.76 10.73 10.693 10.66 10.63 10.587 10.533 10.48 10.428 10.38 10.337 10.292 10.245 10.203 10.168 10.14 10.125 10.112 10.097 10.075 10.035 10.005 9.995 9.99 9.995 10.01 10.03 10.05 10.06 10.07 10.092 10.11 10.12 10.11 10.08 10.058 10.047 10.015 9.958 9.908 9.86 9.818 9.785 9.747 9.698 9.658 9.635 9.615 9.595 9.565 9.53 9.495 9.362 9.24 9.13 9.03 9.03 9.03 9.03 9.03 9.13 9.233 9.335 9.417 9.242 9.063 9.048 9.098 9.192 9.255 9.275 9.303 9.345 9.4 9.46 9.525 9.6 9.665 9.707 9.735 9.735 9.617 9.403 9.203 9.033 8.93 8.895 8.86 8.833 8.91 9.07 9.202 9.26 9.268 9.28 9.303 9.33 9.352 9.365 9.365 9.36 9.335 9.29 9.263 9.252 9.233 9.208 9.203 9.208 9.233 9.278 9.325 9.375 9.42 9.437 9.412 9.37 9.358 9.378 9.418 9.475 9.492 9.462 9.42 9.37 9.323 9.28 9.235 9.185 9.13 9.065 9 8.927 8.82 8.76 8.775 8.805 8.863 8.943 9.025 9.102 9.172 9.23 9.28 9.33 9.403 9.525 9.728 10.002 10.177 10.225 10.265 10.31 10.365 10.43 10.497 10.562 10.567 10.52 10.495 10.503 10.533 10.568 10.61 10.66 10.685 10.665 10.6 10.555 10.565 10.585 10.602 10.62 10.64 10.667 10.692 10.708 10.72 10.73
11.138 11.073 11.012 10.95 10.893 10.838 10.795 10.762 10.727 10.685 10.66 10.66 10.655 10.64 10.64 10.665 10.703 10.745 10.77 10.775 10.77 10.757 10.732 10.7 10.67 10.637 10.592 10.54 10.487 10.433 10.385 10.34 10.29 10.24 10.198 10.17 10.155 10.142 10.127 10.105 10.065 10.015 9.985 9.97 9.958 9.958 9.97 9.985 9.995 10 10.01 10.035 10.057 10.07 10.06 10.04 10.035 10.035 10.005 9.943 9.883 9.83 9.79 9.755 9.705 9.645 9.603 9.583 9.565 9.545 9.515 9.48 9.352 9.135 9.03 9.03 9.03 9.03 9.03 9.03 9.13 9.332 9.44 9.447 9.345 9.07 8.908 8.953 9.053 9.172 9.242 9.27 9.313 9.365 9.42 9.483 9.558 9.64 9.705 9.755 9.795 9.822 9.745 9.555 9.375 9.218 9.118 9.085 9.062 9.03 9.08 9.21 9.28 9.29 9.293 9.3 9.315 9.338 9.362 9.385 9.397 9.4 9.377 9.343 9.33 9.33 9.31 9.275 9.255 9.25 9.275 9.323 9.37 9.42 9.467 9.51 9.53 9.512 9.505 9.52 9.54 9.582 9.595 9.565 9.532 9.492 9.445 9.397 9.352 9.305 9.25 9.185 9.117 9.042 8.905 8.76 8.723 8.77 8.85 8.937 9.022 9.102 9.17 9.225 9.275 9.325 9.408 9.543 9.71 9.935 10.092 10.138 10.185 10.24 10.3 10.363 10.43 10.5 10.515 10.485 10.47 10.475 10.495 10.518 10.548 10.59 10.607 10.587 10.547 10.513 10.515 10.535 10.555 10.575 10.595 10.617 10.637 10.653 10.665 10.675
11.115 11.033 10.97 10.91 10.848 10.788 10.743 10.71 10.68 10.643 10.62 10.623 10.625 10.62 10.635 10.675 10.715 10.757 10.78 10.775 10.765 10.755 10.735 10.705 10.675 10.64 10.595 10.545 10.492 10.437 10.387 10.337 10.285 10.235 10.2 10.185 10.172 10.157 10.135 10.095 10.045 9.995 9.965 9.953 9.94 9.93 9.933 9.94 9.943 9.945 9.955 9.978 10.003 10.022 10.023 10.018 10.02 10.02 9.99 9.927 9.865 9.807 9.757 9.708 9.653 9.595 9.55 9.53 9.515 9.492 9.372 9.25 9.133 9.03 9.03 9.03 9.03 9.03 9.13 9.232 9.335 9.44 9.42 9.41 9.215 8.888 8.808 8.905 9.028 9.15 9.233 9.278 9.33 9.385 9.443 9.515 9.597 9.68 9.745 9.795 9.842 9.882 9.852 9.717 9.555 9.403 9.308 9.277 9.255 9.23 9.247 9.3 9.315 9.31 9.315 9.325 9.335 9.348 9.368 9.393 9.415 9.432 9.427 9.412 9.407 9.405 9.387 9.355 9.323 9.3 9.32 9.37 9.42 9.47 9.515 9.555 9.6 9.627 9.637 9.652 9.667 9.687 9.682 9.647 9.615 9.58 9.537 9.495 9.455 9.412 9.36 9.295 9.222 9.145 9.01 8.82 8.708 8.738 8.83 8.92 9.01 9.097 9.17 9.225 9.272 9.32 9.413 9.557 9.712 9.887 10.007 10.058 10.115 10.175 10.235 10.295 10.357 10.42 10.445 10.435 10.425 10.43 10.45 10.472 10.495 10.522 10.53 10.505 10.475 10.463 10.473 10.49 10.51 10.528 10.545 10.565 10.585 10.6 10.61 10.618
11.075 11 10.94 10.88 10.818 10.758 10.718 10.688 10.655 10.623 10.603 10.603 10.605 10.608 10.633 10.675 10.715 10.747 10.752 10.74 10.73 10.72 10.71 10.69 10.66 10.627 10.585 10.532 10.48 10.432 10.385 10.335 10.285 10.238 10.208 10.195 10.182 10.165 10.13 10.08 10.03 9.993 9.97 9.953 9.94 9.928 9.923 9.925 9.925 9.923 9.925 9.94 9.965 9.99 9.995 9.99 9.99 9.99 9.96 9.9 9.84 9.777 9.717 9.665 9.613 9.558 9.513 9.488 9.47 9.35 9.143 9.038 9.03 9.03 9.03 9.03 9.03 9.13 9.332 9.407 9.312 9.18 9.098 9.185 9.11 8.86 8.848 8.97 9.103 9.2 9.255 9.305 9.36 9.415 9.473 9.547 9.63 9.702 9.762 9.815 9.865 9.912 9.92 9.84 9.7 9.55 9.467 9.445 9.417 9.392 9.38 9.38 9.37 9.35 9.345 9.355 9.363 9.37 9.385 9.41 9.435 9.455 9.465 9.465 9.462 9.457 9.447 9.425 9.39 9.358 9.37 9.42 9.47 9.52 9.568 9.613 9.658 9.7 9.727 9.745 9.76 9.76 9.735 9.695 9.66 9.625 9.587 9.552 9.515 9.477 9.427 9.36 9.29 9.217 9.085 8.895 8.728 8.683 8.755 8.847 8.92 9.012 9.117 9.185 9.24 9.298 9.4 9.54 9.685 9.825 9.92 9.977 10.035 10.095 10.155 10.212 10.27 10.325 10.35 10.347 10.335 10.332 10.35 10.375 10.405 10.44 10.45 10.425 10.408 10.42 10.442 10.458 10.475 10.493 10.51 10.53 10.55 10.565 10.573 10.578
11.028 10.975 10.92 10.86 10.8 10.74 10.705 10.687 10.657 10.625 10.605 10.6 10.6 10.603 10.625 10.665 10.695 10.702 10.69 10.673 10.66 10.65 10.652 10.655 10.635 10.602 10.56 10.508 10.46 10.427 10.387 10.335 10.288 10.243 10.213 10.198 10.182 10.16 10.12 10.07 10.033 10.02 10.002 9.973 9.953 9.94 9.935 9.937 9.935 9.923 9.918 9.925 9.943 9.967 9.97 9.958 9.955 9.952 9.92 9.862 9.8 9.73 9.668 9.62 9.575 9.527 9.487 9.457 9.44 9.233 9.03 9.03 9.03 9.03 9.03 9.12 9.187 9.222 9.247 9.147 8.978 8.77 8.738 8.965 9.107 9.082 9.095 9.167 9.247 9.28 9.3 9.35 9.42 9.465 9.5 9.57 9.642 9.697 9.75 9.805 9.855 9.9 9.912 9.872 9.772 9.63 9.555 9.552 9.535 9.505 9.488 9.477 9.447 9.403 9.385 9.392 9.395 9.4 9.415 9.44 9.462 9.475 9.482 9.485 9.485 9.48 9.477 9.472 9.447 9.413 9.42 9.47 9.523 9.578 9.628 9.675 9.72 9.76 9.79 9.807 9.812 9.797 9.765 9.725 9.688 9.653 9.617 9.582 9.548 9.512 9.46 9.393 9.333 9.275 9.15 8.958 8.765 8.633 8.64 8.685 8.72 8.86 9.012 9.095 9.17 9.253 9.35 9.47 9.602 9.73 9.825 9.887 9.947 10.007 10.065 10.12 10.173 10.225 10.25 10.24 10.215 10.2 10.21 10.24 10.298 10.357 10.37 10.358 10.368 10.392 10.415 10.432 10.448 10.468 10.49 10.51 10.53 10.545 10.55 10.555
11 10.957 10.905 10.843 10.78 10.723 10.69 10.68 10.66 10.63 10.61 10.603 10.598 10.595 10.615 10.645 10.652 10.645 10.63 10.61 10.593 10.583 10.588 10.6 10.6 10.575 10.53 10.488 10.455 10.427 10.387 10.338 10.293 10.248 10.218 10.2 10.177 10.15 10.113 10.075 10.06 10.06 10.04 10.005 9.975 9.955 9.95 9.947 9.937 9.92 9.915 9.92 9.928 9.947 9.95 9.935 9.925 9.917 9.885 9.825 9.755 9.68 9.615 9.565 9.525 9.485 9.355 9.245 9.237 9.13 9.03 9.03 9.03 9.03 9.13 9.312 9.342 9.213 9.063 8.915 8.768 8.633 8.675 8.9 9.122 9.207 9.177 9.192 9.207 9.232 9.297 9.385 9.49 9.515 9.525 9.585 9.637 9.68 9.73 9.787 9.84 9.867 9.86 9.835 9.785 9.68 9.608 9.612 9.617 9.605 9.587 9.555 9.5 9.445 9.425 9.43 9.428 9.43 9.445 9.465 9.48 9.49 9.497 9.497 9.492 9.485 9.488 9.497 9.495 9.47 9.475 9.525 9.58 9.64 9.69 9.735 9.782 9.825 9.852 9.857 9.85 9.832 9.8 9.758 9.715 9.68 9.645 9.61 9.58 9.545 9.493 9.435 9.385 9.335 9.215 9.02 8.825 8.64 8.485 8.42 8.518 8.735 8.915 9.015 9.102 9.197 9.29 9.39 9.51 9.632 9.725 9.792 9.857 9.92 9.977 10.03 10.08 10.127 10.145 10.125 10.095 10.07 10.075 10.13 10.225 10.292 10.305 10.315 10.34 10.365 10.385 10.405 10.425 10.448 10.472 10.493 10.51 10.525 10.53 10.533
10.98 10.94 10.89 10.828 10.765 10.708 10.675 10.665 10.653 10.635 10.62 10.61 10.6 10.593 10.595 10.6 10.595 10.585 10.57 10.55 10.533 10.52 10.52 10.533 10.545 10.54 10.51 10.48 10.455 10.425 10.387 10.345 10.3 10.252 10.22 10.197 10.17 10.14 10.115 10.1 10.095 10.092 10.072 10.04 10.007 9.977 9.962 9.95 9.932 9.917 9.915 9.92 9.923 9.932 9.932 9.918 9.903 9.89 9.85 9.78 9.705 9.63 9.563 9.51 9.42 9.292 9.133 9.038 9.038 9.03 9.03 9.03 9.113 9.197 9.307 9.412 9.352 9.232 9.102 8.963 8.82 8.698 8.695 8.855 9.085 9.16 9.075 9.02 8.953 8.96 9.148 9.38 9.515 9.53 9.538 9.58 9.62 9.66 9.708 9.77 9.82 9.825 9.803 9.778 9.752 9.7 9.655 9.658 9.675 9.685 9.662 9.607 9.545 9.488 9.463 9.465 9.463 9.463 9.473 9.485 9.495 9.505 9.51 9.505 9.498 9.49 9.493 9.505 9.517 9.518 9.535 9.585 9.64 9.7 9.75 9.795 9.845 9.89 9.907 9.897 9.883 9.865 9.835 9.793 9.748 9.708 9.673 9.643 9.615 9.583 9.538 9.488 9.44 9.392 9.275 9.085 8.9 8.715 8.423 8.218 8.273 8.448 8.682 8.87 9 9.127 9.235 9.325 9.425 9.535 9.625 9.695 9.763 9.83 9.882 9.92 9.962 10.002 10.01 9.985 9.957 9.938 9.965 10.055 10.167 10.235 10.252 10.27 10.292 10.315 10.335 10.362 10.397 10.427 10.455 10.477 10.492 10.507 10.515 10.515
10.948 10.917 10.875 10.813 10.75 10.703 10.68 10.668 10.655 10.64 10.618 10.6 10.59 10.58 10.562 10.545 10.535 10.527 10.512 10.49 10.475 10.46 10.455 10.47 10.485 10.492 10.48 10.452 10.425 10.395 10.36 10.32 10.277 10.235 10.2 10.17 10.14 10.11 10.09 10.08 10.075 10.07 10.05 10.02 9.99 9.967 9.95 9.932 9.915 9.9 9.902 9.912 9.915 9.918 9.922 9.92 9.908 9.892 9.843 9.76 9.675 9.59 9.512 9.36 9.185 9.078 9.03 9.03 9.03 9.03 9.03 9.11 9.23 9.29 9.332 9.357 9.325 9.237 9.13 9.035 8.932 8.815 8.773 8.85 9.032 9.14 9.07 8.968 8.87 8.84 9.058 9.375 9.51 9.518 9.533 9.568 9.605 9.645 9.675 9.722 9.772 9.775 9.75 9.725 9.703 9.685 9.69 9.707 9.725 9.742 9.717 9.655 9.595 9.543 9.52 9.518 9.515 9.508 9.505 9.515 9.528 9.532 9.525 9.515 9.508 9.508 9.518 9.533 9.55 9.575 9.62 9.678 9.735 9.795 9.828 9.853 9.897 9.94 9.952 9.938 9.925 9.918 9.895 9.853 9.808 9.765 9.725 9.693 9.665 9.638 9.6 9.55 9.5 9.44 9.337 9.182 9.01 8.835 8.553 8.298 8.203 8.19 8.325 8.583 8.815 9.015 9.172 9.265 9.355 9.45 9.538 9.61 9.683 9.757 9.78 9.773 9.8 9.835 9.84 9.815 9.793 9.808 9.883 9.99 10.067 10.102 10.132 10.16 10.18 10.2 10.222 10.265 10.317 10.355 10.387 10.422 10.452 10.477 10.492 10.495
10.91 10.895 10.86 10.798 10.745 10.72 10.71 10.695 10.677 10.655 10.615 10.578 10.56 10.55 10.527 10.498 10.48 10.472 10.457 10.433 10.415 10.4 10.395 10.41 10.425 10.432 10.422 10.395 10.365 10.335 10.3 10.26 10.223 10.19 10.155 10.12 10.09 10.06 10.035 10.015 10.003 9.997 9.98 9.95 9.93 9.933 9.925 9.903 9.885 9.87 9.875 9.892 9.9 9.903 9.915 9.927 9.925 9.915 9.865 9.775 9.683 9.593 9.51 9.25 9.03 9.03 9.03 9.03 9.03 9.083 9.14 9.172 9.165 9.088 9.113 9.225 9.262 9.212 9.13 9.082 9.035 8.938 8.89 8.918 9.015 9.12 9.092 9.035 9.025 9.01 9.163 9.41 9.497 9.503 9.525 9.562 9.592 9.612 9.615 9.635 9.7 9.73 9.708 9.683 9.668 9.675 9.71 9.75 9.777 9.797 9.772 9.71 9.655 9.615 9.6 9.595 9.582 9.56 9.55 9.56 9.567 9.56 9.543 9.53 9.53 9.553 9.58 9.598 9.625 9.673 9.738 9.807 9.87 9.925 9.935 9.92 9.943 9.985 9.997 9.985 9.985 9.997 9.985 9.943 9.9 9.86 9.813 9.763 9.728 9.702 9.665 9.615 9.55 9.46 9.367 9.262 9.127 8.965 8.74 8.54 8.395 8.233 8.14 8.325 8.633 8.902 9.107 9.2 9.292 9.385 9.47 9.548 9.623 9.7 9.705 9.643 9.628 9.655 9.66 9.638 9.643 9.705 9.805 9.895 9.897 9.873 9.917 9.982 10.02 10.04 10.068 10.123 10.19 10.237 10.275 10.317 10.36 10.4 10.422 10.427
10.89 10.88 10.845 10.795 10.765 10.75 10.74 10.722 10.7 10.675 10.63 10.578 10.54 10.52 10.495 10.46 10.435 10.418 10.4 10.378 10.358 10.34 10.335 10.348 10.36 10.367 10.357 10.333 10.305 10.275 10.24 10.203 10.17 10.14 10.107 10.073 10.038 10.005 9.98 9.958 9.938 9.928 9.913 9.893 9.893 9.91 9.905 9.878 9.855 9.838 9.843 9.865 9.88 9.887 9.9 9.917 9.93 9.932 9.887 9.805 9.723 9.643 9.557 9.318 9.078 9.03 9.03 9.03 9.115 9.2 9.152 9.04 8.923 8.808 8.83 9.013 9.17 9.202 9.153 9.125 9.107 9.045 9.008 9.03 9.068 9.125 9.138 9.133 9.16 9.158 9.278 9.442 9.477 9.493 9.515 9.54 9.55 9.545 9.535 9.538 9.608 9.675 9.67 9.655 9.66 9.683 9.72 9.772 9.82 9.847 9.827 9.775 9.733 9.7 9.682 9.667 9.64 9.608 9.595 9.6 9.592 9.575 9.558 9.553 9.575 9.62 9.655 9.683 9.73 9.79 9.86 9.935 10.002 10.055 10.057 10.023 10.008 10.03 10.042 10.043 10.06 10.08 10.072 10.035 9.995 9.957 9.91 9.85 9.803 9.767 9.722 9.655 9.56 9.455 9.36 9.275 9.182 9.06 8.895 8.717 8.537 8.342 8.16 8.21 8.5 8.825 9.04 9.133 9.23 9.322 9.407 9.49 9.567 9.645 9.655 9.57 9.49 9.478 9.48 9.485 9.543 9.63 9.722 9.752 9.687 9.63 9.665 9.757 9.832 9.872 9.91 9.975 10.052 10.115 10.16 10.203 10.245 10.29 10.323 10.343
10.875 10.865 10.84 10.813 10.795 10.777 10.762 10.742 10.717 10.692 10.65 10.595 10.543 10.5 10.465 10.43 10.4 10.37 10.345 10.325 10.305 10.285 10.28 10.29 10.3 10.308 10.298 10.273 10.245 10.215 10.185 10.153 10.12 10.09 10.06 10.025 9.985 9.95 9.925 9.905 9.885 9.868 9.855 9.855 9.87 9.887 9.882 9.855 9.828 9.805 9.808 9.83 9.85 9.865 9.877 9.895 9.912 9.922 9.9 9.85 9.785 9.71 9.617 9.452 9.255 9.098 9.055 9.117 9.187 9.115 8.923 8.798 8.715 8.683 8.76 8.905 9.078 9.177 9.175 9.16 9.15 9.125 9.115 9.135 9.152 9.175 9.205 9.237 9.272 9.292 9.362 9.44 9.46 9.477 9.49 9.495 9.493 9.488 9.483 9.483 9.535 9.612 9.64 9.648 9.67 9.695 9.73 9.785 9.84 9.882 9.88 9.842 9.81 9.782 9.757 9.725 9.69 9.655 9.635 9.628 9.61 9.59 9.58 9.598 9.643 9.695 9.74 9.79 9.85 9.912 9.982 10.055 10.127 10.182 10.18 10.145 10.11 10.093 10.098 10.115 10.14 10.162 10.162 10.127 10.082 10.042 9.992 9.93 9.875 9.825 9.757 9.66 9.55 9.445 9.352 9.262 9.167 9.067 8.93 8.755 8.57 8.385 8.203 8.173 8.41 8.755 8.972 9.07 9.17 9.26 9.342 9.425 9.507 9.59 9.605 9.525 9.415 9.338 9.325 9.378 9.468 9.56 9.61 9.563 9.463 9.388 9.408 9.508 9.61 9.695 9.768 9.845 9.925 9.99 10.045 10.1 10.15 10.2 10.245 10.288
10.87 10.86 10.845 10.827 10.81 10.79 10.762 10.735 10.71 10.685 10.647 10.595 10.54 10.483 10.438 10.405 10.372 10.335 10.308 10.29 10.27 10.25 10.245 10.255 10.265 10.267 10.253 10.225 10.198 10.17 10.145 10.118 10.085 10.055 10.028 9.995 9.958 9.923 9.9 9.885 9.865 9.845 9.828 9.825 9.84 9.857 9.855 9.83 9.8 9.775 9.775 9.798 9.817 9.827 9.835 9.85 9.865 9.877 9.875 9.85 9.81 9.758 9.67 9.552 9.437 9.295 9.183 9.142 9.032 8.833 8.708 8.675 8.695 8.755 8.85 8.975 9.09 9.162 9.175 9.162 9.155 9.167 9.187 9.205 9.22 9.235 9.265 9.307 9.35 9.385 9.405 9.42 9.44 9.455 9.468 9.475 9.475 9.475 9.475 9.483 9.528 9.592 9.63 9.65 9.672 9.695 9.738 9.797 9.852 9.905 9.915 9.882 9.855 9.847 9.832 9.795 9.758 9.715 9.69 9.68 9.66 9.643 9.645 9.683 9.738 9.79 9.845 9.907 9.97 10.025 10.082 10.145 10.207 10.26 10.27 10.242 10.207 10.173 10.168 10.192 10.215 10.235 10.227 10.185 10.135 10.09 10.027 9.952 9.892 9.837 9.755 9.645 9.538 9.435 9.333 9.227 9.125 9.02 8.882 8.712 8.537 8.365 8.213 8.173 8.373 8.68 8.87 8.98 9.09 9.185 9.265 9.345 9.427 9.512 9.542 9.475 9.363 9.275 9.268 9.335 9.428 9.52 9.53 9.443 9.345 9.283 9.293 9.375 9.485 9.593 9.69 9.775 9.842 9.865 9.92 10.017 10.082 10.135 10.185 10.237
10.88 10.87 10.855 10.833 10.81 10.792 10.757 10.713 10.68 10.655 10.62 10.57 10.517 10.46 10.415 10.382 10.342 10.3 10.278 10.267 10.25 10.233 10.23 10.237 10.24 10.237 10.22 10.19 10.163 10.137 10.112 10.087 10.06 10.03 10.005 9.982 9.952 9.915 9.898 9.895 9.88 9.86 9.835 9.813 9.81 9.825 9.825 9.8 9.773 9.75 9.75 9.77 9.78 9.775 9.775 9.788 9.805 9.822 9.82 9.828 10.07 10.19 9.868 9.595 9.515 9.447 9.31 9.125 8.938 8.725 8.648 8.72 8.785 8.845 8.938 9.055 9.132 9.155 9.15 9.143 9.155 9.198 9.235 9.252 9.267 9.283 9.313 9.355 9.392 9.422 9.418 9.408 9.422 9.435 9.452 9.472 9.482 9.485 9.485 9.5 9.547 9.597 9.625 9.647 9.67 9.69 9.738 9.805 9.865 9.92 9.93 9.9 9.893 9.917 9.917 9.882 9.84 9.785 9.76 9.762 9.75 9.735 9.75 9.798 9.85 9.9 9.955 10.02 10.08 10.12 10.148 10.183 10.23 10.28 10.31 10.307 10.282 10.245 10.24 10.265 10.282 10.292 10.27 10.213 10.155 10.11 10.04 9.945 9.87 9.812 9.732 9.625 9.538 9.46 9.335 9.19 9.073 8.967 8.835 8.668 8.498 8.35 8.24 8.19 8.343 8.585 8.73 8.852 8.977 9.085 9.17 9.25 9.333 9.425 9.47 9.41 9.315 9.285 9.308 9.35 9.423 9.512 9.512 9.423 9.363 9.345 9.35 9.383 9.463 9.567 9.662 9.727 9.742 9.708 9.76 9.915 10.02 10.075 10.127 10.182
10.887 10.88 10.862 10.837 10.813 10.792 10.757 10.705 10.66 10.628 10.59 10.54 10.49 10.438 10.393 10.352 10.308 10.263 10.24 10.237 10.227 10.215 10.212 10.215 10.21 10.202 10.187 10.16 10.13 10.103 10.078 10.053 10.027 10 9.978 9.962 9.94 9.908 9.893 9.895 9.89 9.875 9.85 9.82 9.798 9.795 9.792 9.77 9.745 9.725 9.722 9.73 9.725 9.715 9.715 9.725 9.74 9.76 9.918 10.405 10.93 10.925 10.415 9.84 9.573 9.5 9.362 9.205 9.005 8.773 8.703 8.785 8.865 8.935 9.02 9.102 9.13 9.13 9.13 9.145 9.188 9.245 9.285 9.3 9.313 9.328 9.358 9.397 9.43 9.455 9.44 9.408 9.405 9.418 9.433 9.452 9.475 9.487 9.49 9.513 9.555 9.587 9.613 9.64 9.665 9.685 9.73 9.802 9.872 9.932 9.945 9.935 9.963 10.005 10.005 9.962 9.91 9.85 9.825 9.84 9.845 9.838 9.86 9.91 9.96 10.013 10.07 10.127 10.172 10.205 10.218 10.223 10.248 10.29 10.325 10.342 10.342 10.318 10.313 10.33 10.34 10.345 10.317 10.253 10.185 10.13 10.055 9.953 9.86 9.79 9.708 9.623 9.578 9.527 9.392 9.208 9.043 8.913 8.785 8.63 8.488 8.38 8.29 8.21 8.288 8.467 8.598 8.723 8.85 8.97 9.065 9.15 9.245 9.35 9.402 9.353 9.308 9.335 9.37 9.395 9.438 9.505 9.502 9.445 9.433 9.437 9.442 9.445 9.473 9.548 9.615 9.622 9.58 9.523 9.578 9.757 9.922 10.017 10.067 10.102
10.89 10.885 10.867 10.842 10.817 10.792 10.755 10.705 10.653 10.605 10.56 10.513 10.465 10.415 10.368 10.323 10.278 10.23 10.205 10.205 10.2 10.193 10.188 10.182 10.175 10.167 10.153 10.125 10.098 10.07 10.045 10.02 9.995 9.973 9.953 9.938 9.92 9.898 9.885 9.885 9.887 9.882 9.86 9.83 9.8 9.778 9.76 9.738 9.715 9.695 9.685 9.678 9.665 9.655 9.655 9.665 9.675 9.928 10.665 11.58 11.862 11.525 11.1 10.37 9.743 9.548 9.41 9.29 9.102 8.865 8.8 8.873 8.953 9.025 9.08 9.107 9.11 9.113 9.133 9.178 9.232 9.29 9.332 9.35 9.36 9.373 9.398 9.43 9.46 9.485 9.472 9.423 9.395 9.403 9.415 9.428 9.45 9.475 9.49 9.515 9.55 9.575 9.6 9.63 9.655 9.678 9.725 9.797 9.872 9.942 9.977 10 10.042 10.085 10.082 10.03 9.97 9.91 9.888 9.908 9.925 9.938 9.97 10.022 10.075 10.127 10.177 10.217 10.252 10.285 10.3 10.297 10.298 10.313 10.335 10.355 10.37 10.372 10.375 10.382 10.387 10.39 10.36 10.295 10.225 10.155 10.07 9.97 9.868 9.778 9.708 9.665 9.645 9.572 9.417 9.235 9.052 8.89 8.755 8.633 8.533 8.448 8.363 8.26 8.25 8.355 8.473 8.598 8.725 8.85 8.96 9.062 9.17 9.277 9.335 9.333 9.35 9.397 9.432 9.457 9.482 9.512 9.515 9.502 9.505 9.51 9.515 9.515 9.517 9.545 9.558 9.505 9.428 9.35 9.395 9.58 9.78 9.927 9.982 9.987
10.902 10.885 10.86 10.835 10.81 10.79 10.755 10.702 10.65 10.608 10.555 10.5 10.455 10.405 10.355 10.31 10.265 10.218 10.188 10.18 10.178 10.173 10.163 10.153 10.145 10.137 10.127 10.108 10.083 10.058 10.033 10.008 9.985 9.965 9.945 9.928 9.913 9.893 9.88 9.88 9.882 9.88 9.86 9.83 9.8 9.773 9.745 9.72 9.698 9.675 9.66 9.648 9.635 9.625 9.618 9.62 9.673 10.485 11.805 12.437 12.362 12.012 11.617 11.045 10.148 9.56 9.448 9.377 9.242 9.015 8.933 9 9.065 9.1 9.107 9.11 9.11 9.115 9.15 9.207 9.262 9.32 9.362 9.38 9.392 9.413 9.44 9.47 9.5 9.512 9.51 9.48 9.44 9.425 9.415 9.41 9.42 9.448 9.49 9.528 9.553 9.578 9.605 9.633 9.655 9.673 9.715 9.787 9.862 9.937 9.997 10.042 10.085 10.125 10.125 10.075 10.02 9.97 9.955 9.978 10 10.028 10.075 10.132 10.185 10.235 10.265 10.28 10.31 10.345 10.36 10.357 10.352 10.345 10.35 10.368 10.383 10.4 10.407 10.41 10.415 10.415 10.382 10.312 10.24 10.167 10.08 9.977 9.875 9.8 9.765 9.745 9.692 9.542 9.35 9.177 9.005 8.85 8.753 8.692 8.62 8.54 8.46 8.34 8.235 8.26 8.365 8.48 8.605 8.73 8.85 8.965 9.077 9.192 9.28 9.34 9.397 9.45 9.48 9.49 9.5 9.51 9.52 9.525 9.527 9.532 9.535 9.535 9.535 9.545 9.562 9.53 9.443 9.345 9.325 9.458 9.663 9.827 9.887 9.88
10.915 10.875 10.838 10.813 10.793 10.782 10.752 10.698 10.658 10.635 10.582 10.51 10.455 10.405 10.358 10.312 10.265 10.22 10.188 10.168 10.16 10.157 10.145 10.13 10.12 10.11 10.107 10.105 10.087 10.062 10.037 10.013 9.993 9.975 9.955 9.935 9.917 9.898 9.883 9.878 9.875 9.872 9.855 9.825 9.798 9.773 9.745 9.718 9.693 9.668 9.65 9.64 9.63 9.622 9.61 9.595 10.008 11.425 12.639 12.782 12.617 12.372 12.025 11.562 10.477 9.59 9.505 9.452 9.357 9.168 9.068 9.125 9.152 9.137 9.125 9.13 9.133 9.138 9.17 9.225 9.28 9.337 9.372 9.39 9.418 9.455 9.492 9.522 9.54 9.522 9.527 9.55 9.527 9.495 9.462 9.435 9.418 9.445 9.515 9.555 9.57 9.595 9.625 9.647 9.645 9.65 9.7 9.773 9.847 9.922 9.985 10.035 10.082 10.127 10.145 10.118 10.075 10.038 10.03 10.052 10.075 10.105 10.162 10.23 10.285 10.335 10.352 10.343 10.353 10.382 10.397 10.392 10.385 10.373 10.373 10.385 10.4 10.42 10.425 10.423 10.425 10.425 10.387 10.31 10.235 10.162 10.075 9.978 9.903 9.87 9.855 9.815 9.677 9.445 9.235 9.063 8.903 8.788 8.75 8.757 8.72 8.64 8.56 8.42 8.228 8.183 8.28 8.383 8.493 8.613 8.733 8.853 8.978 9.108 9.227 9.312 9.377 9.442 9.475 9.472 9.47 9.478 9.497 9.515 9.522 9.525 9.525 9.525 9.523 9.533 9.585 9.632 9.592 9.495 9.41 9.43 9.588 9.747 9.802 9.795
10.905 10.855 10.815 10.793 10.783 10.777 10.747 10.703 10.68 10.665 10.617 10.538 10.463 10.405 10.36 10.315 10.268 10.223 10.19 10.168 10.15 10.142 10.13 10.11 10.093 10.083 10.083 10.087 10.085 10.065 10.04 10.018 9.998 9.98 9.962 9.942 9.92 9.9 9.885 9.878 9.873 9.87 9.855 9.825 9.8 9.777 9.748 9.715 9.688 9.663 9.645 9.635 9.625 9.62 9.613 9.693 10.683 12.334 13.057 12.952 12.797 12.627 12.305 11.58 10.458 9.72 9.608 9.547 9.442 9.288 9.198 9.212 9.19 9.155 9.143 9.148 9.155 9.163 9.193 9.245 9.297 9.35 9.385 9.415 9.458 9.502 9.545 9.57 9.557 9.51 9.51 9.55 9.562 9.545 9.505 9.468 9.443 9.49 9.57 9.592 9.595 9.615 9.637 9.632 9.608 9.628 9.693 9.76 9.833 9.907 9.97 10.02 10.075 10.14 10.185 10.18 10.145 10.11 10.105 10.125 10.145 10.175 10.235 10.312 10.38 10.432 10.445 10.425 10.41 10.42 10.432 10.425 10.412 10.398 10.395 10.408 10.422 10.437 10.442 10.438 10.435 10.435 10.395 10.315 10.237 10.16 10.078 10.01 9.975 9.96 9.937 9.825 9.587 9.323 9.115 8.958 8.84 8.763 8.74 8.782 8.797 8.74 8.652 8.49 8.258 8.143 8.198 8.308 8.43 8.543 8.643 8.765 8.903 9.04 9.165 9.25 9.315 9.387 9.43 9.435 9.435 9.445 9.47 9.497 9.512 9.515 9.515 9.512 9.503 9.515 9.578 9.662 9.7 9.647 9.555 9.493 9.545 9.667 9.717 9.712
10.885 10.835 10.798 10.782 10.777 10.77 10.75 10.725 10.71 10.695 10.65 10.572 10.49 10.415 10.36 10.315 10.27 10.228 10.193 10.17 10.15 10.133 10.115 10.093 10.07 10.058 10.058 10.063 10.067 10.062 10.045 10.025 10.005 9.985 9.967 9.947 9.925 9.905 9.89 9.882 9.875 9.867 9.852 9.827 9.802 9.78 9.752 9.72 9.688 9.658 9.64 9.632 9.625 9.62 9.615 10.046 11.438 12.834 13.195 13.035 12.87 12.702 12.22 11.238 10.378 9.942 9.745 9.637 9.502 9.363 9.28 9.247 9.205 9.173 9.16 9.165 9.175 9.182 9.21 9.26 9.31 9.365 9.415 9.458 9.503 9.55 9.595 9.597 9.55 9.488 9.47 9.49 9.522 9.555 9.537 9.49 9.483 9.557 9.627 9.637 9.635 9.64 9.627 9.58 9.568 9.62 9.688 9.753 9.82 9.893 9.963 10.033 10.11 10.195 10.252 10.247 10.212 10.18 10.175 10.195 10.215 10.242 10.297 10.372 10.445 10.502 10.515 10.497 10.477 10.465 10.462 10.452 10.437 10.422 10.42 10.432 10.445 10.455 10.457 10.45 10.445 10.44 10.395 10.312 10.23 10.155 10.078 10.02 9.987 9.957 9.915 9.747 9.465 9.2 9.008 8.89 8.813 8.748 8.73 8.78 8.835 8.827 8.732 8.547 8.32 8.183 8.223 8.365 8.497 8.565 8.593 8.685 8.832 8.975 9.1 9.19 9.26 9.335 9.382 9.395 9.403 9.418 9.443 9.47 9.495 9.505 9.503 9.495 9.48 9.498 9.57 9.655 9.735 9.765 9.71 9.62 9.573 9.603 9.632 9.63
10.865 10.815 10.778 10.762 10.755 10.745 10.737 10.727 10.715 10.7 10.662 10.595 10.515 10.43 10.365 10.32 10.275 10.233 10.198 10.173 10.15 10.13 10.11 10.088 10.065 10.048 10.045 10.05 10.053 10.055 10.047 10.03 10.01 9.99 9.97 9.95 9.93 9.91 9.895 9.885 9.875 9.862 9.845 9.825 9.8 9.778 9.755 9.725 9.693 9.66 9.638 9.63 9.625 9.618 9.613 10.583 12.267 13.152 13.217 13.013 12.825 12.567 11.852 10.793 10.163 9.95 9.8 9.675 9.537 9.4 9.31 9.267 9.223 9.183 9.163 9.162 9.167 9.17 9.195 9.245 9.3 9.37 9.442 9.497 9.545 9.592 9.625 9.595 9.523 9.458 9.42 9.42 9.448 9.51 9.557 9.537 9.548 9.63 9.68 9.685 9.685 9.677 9.638 9.583 9.585 9.643 9.71 9.778 9.843 9.918 10 10.09 10.185 10.275 10.325 10.312 10.277 10.24 10.223 10.235 10.255 10.28 10.33 10.4 10.47 10.53 10.545 10.53 10.515 10.492 10.472 10.46 10.447 10.432 10.43 10.44 10.45 10.455 10.44 10.42 10.415 10.405 10.355 10.272 10.193 10.14 10.07 9.975 9.895 9.835 9.785 9.62 9.343 9.095 8.943 8.865 8.8 8.735 8.72 8.77 8.842 8.89 8.815 8.625 8.423 8.318 8.39 8.537 8.615 8.612 8.588 8.623 8.745 8.892 9.027 9.13 9.205 9.277 9.33 9.353 9.395 9.445 9.473 9.498 9.52 9.522 9.503 9.485 9.473 9.49 9.558 9.64 9.72 9.767 9.735 9.655 9.577 9.548 9.555 9.553
10.847 10.795 10.755 10.73 10.715 10.705 10.7 10.7 10.692 10.677 10.647 10.592 10.522 10.44 10.375 10.33 10.283 10.235 10.2 10.177 10.155 10.133 10.11 10.09 10.07 10.05 10.045 10.05 10.05 10.05 10.042 10.027 10.01 9.99 9.97 9.952 9.935 9.915 9.9 9.89 9.877 9.857 9.835 9.815 9.795 9.78 9.76 9.73 9.7 9.668 9.643 9.633 9.625 9.615 9.736 11.215 12.949 13.315 13.195 12.98 12.77 12.37 11.58 10.621 10.011 9.845 9.787 9.687 9.552 9.418 9.33 9.29 9.242 9.188 9.153 9.14 9.135 9.135 9.16 9.213 9.28 9.365 9.45 9.52 9.577 9.627 9.637 9.577 9.493 9.428 9.385 9.363 9.365 9.418 9.5 9.555 9.612 9.69 9.73 9.735 9.732 9.722 9.683 9.645 9.653 9.698 9.765 9.833 9.905 9.995 10.088 10.175 10.265 10.357 10.4 10.377 10.332 10.283 10.258 10.258 10.268 10.29 10.34 10.41 10.482 10.542 10.557 10.54 10.517 10.49 10.468 10.455 10.442 10.425 10.418 10.425 10.432 10.432 10.405 10.365 10.348 10.337 10.287 10.21 10.155 10.135 10.075 9.955 9.838 9.74 9.657 9.492 9.243 9.02 8.9 8.847 8.787 8.723 8.708 8.763 8.837 8.905 8.89 8.752 8.568 8.493 8.577 8.662 8.667 8.64 8.613 8.6 8.66 8.795 8.935 9.045 9.132 9.212 9.275 9.313 9.408 9.537 9.597 9.602 9.515 9.51 9.557 9.51 9.483 9.488 9.54 9.612 9.657 9.66 9.617 9.553 9.503 9.485 9.485 9.482
10.825 10.775 10.735 10.705 10.68 10.665 10.66 10.665 10.665 10.655 10.625 10.575 10.52 10.448 10.385 10.34 10.29 10.24 10.203 10.18 10.16 10.137 10.113 10.09 10.07 10.05 10.043 10.045 10.045 10.045 10.035 10.02 10.007 9.99 9.97 9.955 9.94 9.92 9.905 9.892 9.875 9.852 9.828 9.808 9.795 9.785 9.765 9.735 9.705 9.673 9.65 9.637 9.625 9.615 9.986 11.702 13.364 13.545 13.25 12.975 12.72 12.405 11.965 11.25 10.521 10.048 9.81 9.703 9.565 9.435 9.353 9.305 9.247 9.19 9.153 9.128 9.11 9.105 9.13 9.193 9.275 9.365 9.45 9.525 9.595 9.657 9.652 9.567 9.47 9.4 9.36 9.328 9.305 9.33 9.408 9.517 9.637 9.735 9.78 9.782 9.775 9.765 9.735 9.715 9.725 9.76 9.825 9.898 9.985 10.085 10.182 10.267 10.348 10.44 10.477 10.437 10.375 10.323 10.303 10.295 10.293 10.305 10.35 10.42 10.495 10.555 10.567 10.545 10.515 10.485 10.465 10.452 10.435 10.413 10.403 10.407 10.41 10.41 10.385 10.335 10.293 10.27 10.225 10.168 10.148 10.142 10.082 9.965 9.842 9.718 9.59 9.413 9.185 8.963 8.84 8.805 8.765 8.71 8.698 8.755 8.82 8.877 8.9 8.85 8.718 8.66 8.712 8.72 8.693 8.667 8.64 8.61 8.61 8.698 8.827 8.935 9.035 9.13 9.213 9.29 9.433 9.625 9.71 9.61 9.35 9.44 9.662 9.595 9.535 9.498 9.51 9.543 9.54 9.52 9.483 9.44 9.422 9.417 9.415 9.412
10.795 10.755 10.718 10.685 10.655 10.63 10.623 10.628 10.63 10.63 10.605 10.555 10.505 10.447 10.393 10.345 10.295 10.245 10.208 10.183 10.16 10.14 10.117 10.093 10.07 10.05 10.04 10.04 10.038 10.035 10.027 10.013 10 9.987 9.97 9.955 9.94 9.92 9.903 9.885 9.865 9.845 9.825 9.81 9.8 9.787 9.765 9.735 9.708 9.68 9.658 9.638 9.62 9.608 10.203 12.125 13.802 13.927 13.477 12.87 12.453 12.357 12.385 12.28 11.948 11.29 10.538 10.078 9.675 9.453 9.37 9.31 9.245 9.19 9.155 9.128 9.103 9.085 9.11 9.185 9.275 9.365 9.45 9.525 9.6 9.672 9.66 9.562 9.458 9.388 9.355 9.328 9.3 9.28 9.333 9.462 9.607 9.74 9.812 9.82 9.81 9.8 9.79 9.792 9.805 9.83 9.892 9.982 10.077 10.175 10.275 10.362 10.44 10.52 10.537 10.48 10.41 10.363 10.345 10.335 10.33 10.333 10.37 10.44 10.513 10.57 10.575 10.545 10.515 10.485 10.463 10.445 10.422 10.398 10.388 10.39 10.39 10.39 10.365 10.315 10.26 10.215 10.18 10.157 10.152 10.147 10.087 9.965 9.835 9.702 9.565 9.38 9.15 8.918 8.778 8.745 8.725 8.695 8.693 8.74 8.798 8.855 8.877 8.865 8.812 8.775 8.772 8.745 8.717 8.692 8.665 8.637 8.61 8.633 8.723 8.84 8.98 9.13 9.275 9.39 9.54 9.722 9.695 9.427 9.103 9.373 9.775 9.71 9.637 9.54 9.515 9.535 9.505 9.475 9.408 9.328 9.303 9.302 9.297 9.287
10.78 10.743 10.705 10.67 10.64 10.608 10.593 10.598 10.6 10.602 10.585 10.542 10.495 10.445 10.395 10.345 10.295 10.248 10.213 10.188 10.165 10.142 10.12 10.095 10.07 10.048 10.038 10.04 10.038 10.033 10.025 10.013 10 9.987 9.972 9.957 9.94 9.922 9.903 9.88 9.86 9.843 9.83 9.82 9.81 9.797 9.78 9.758 9.733 9.7 9.67 9.645 9.623 9.606 10.551 12.887 14.372 14.222 13.345 12.315 11.96 11.943 12.188 13.085 13.662 13.092 12.118 11.3 10.555 9.978 9.55 9.328 9.265 9.223 9.205 9.198 9.185 9.145 9.133 9.19 9.275 9.362 9.445 9.523 9.6 9.667 9.65 9.555 9.458 9.415 9.433 9.44 9.423 9.378 9.33 9.388 9.532 9.675 9.782 9.82 9.815 9.815 9.83 9.847 9.86 9.88 9.933 10.032 10.152 10.262 10.365 10.457 10.537 10.58 10.555 10.495 10.435 10.393 10.372 10.36 10.353 10.378 10.435 10.498 10.568 10.622 10.623 10.588 10.555 10.513 10.463 10.428 10.403 10.38 10.37 10.37 10.37 10.365 10.335 10.282 10.227 10.175 10.135 10.115 10.11 10.11 10.062 9.947 9.812 9.675 9.535 9.347 9.115 8.908 8.798 8.773 8.758 8.743 8.728 8.738 8.785 8.845 8.872 8.86 8.84 8.82 8.795 8.765 8.74 8.715 8.685 8.66 8.635 8.638 8.72 8.9 9.14 9.377 9.575 9.68 9.767 9.78 9.537 9.18 8.878 9.26 9.807 9.815 9.73 9.562 9.483 9.582 9.637 9.587 9.463 9.293 9.168 9.1 9.075 9.065
10.775 10.735 10.698 10.663 10.627 10.59 10.57 10.573 10.578 10.58 10.565 10.532 10.492 10.445 10.393 10.343 10.298 10.255 10.22 10.195 10.172 10.14 10.112 10.092 10.07 10.045 10.033 10.037 10.04 10.037 10.028 10.015 10.005 9.99 9.975 9.96 9.94 9.925 9.907 9.885 9.865 9.85 9.84 9.83 9.82 9.81 9.807 9.8 9.775 9.732 9.678 9.652 9.643 9.803 11.353 13.744 14.709 13.982 12.583 11.798 11.73 11.833 12.648 14.134 14.824 14.422 13.687 12.83 11.96 11.16 10.388 9.708 9.395 9.355 9.36 9.357 9.317 9.245 9.208 9.228 9.28 9.358 9.44 9.52 9.592 9.647 9.635 9.55 9.468 9.465 9.532 9.59 9.617 9.59 9.46 9.365 9.438 9.572 9.69 9.772 9.805 9.825 9.855 9.877 9.893 9.918 9.958 10.028 10.147 10.282 10.405 10.517 10.58 10.572 10.532 10.49 10.45 10.415 10.385 10.363 10.38 10.46 10.54 10.59 10.652 10.707 10.707 10.67 10.622 10.555 10.48 10.42 10.383 10.358 10.345 10.345 10.34 10.325 10.29 10.238 10.185 10.138 10.09 10.045 10.023 10.02 9.99 9.907 9.785 9.647 9.505 9.312 9.083 8.94 8.905 8.89 8.872 8.855 8.818 8.78 8.788 8.837 8.872 8.863 8.848 8.837 8.815 8.788 8.762 8.735 8.705 8.68 8.658 8.67 8.737 8.855 9.05 9.307 9.54 9.65 9.747 9.727 9.447 9.09 8.79 8.925 9.29 9.447 9.542 9.495 9.36 9.493 9.74 9.747 9.572 9.342 9.1 8.903 8.85 8.895
10.768 10.725 10.69 10.655 10.615 10.575 10.555 10.555 10.557 10.557 10.542 10.515 10.482 10.44 10.39 10.345 10.305 10.265 10.23 10.2 10.165 10.118 10.088 10.077 10.062 10.042 10.03 10.032 10.037 10.04 10.032 10.017 10.005 9.992 9.977 9.96 9.943 9.927 9.91 9.893 9.878 9.863 9.85 9.84 9.83 9.818 9.822 9.832 9.817 9.77 9.69 9.64 9.643 10.393 12.632 14.446 14.359 13.028 11.906 11.748 11.845 12.373 13.597 14.812 15.244 15.027 14.227 13.442 13.057 12.554 11.77 10.77 9.978 9.625 9.548 9.497 9.395 9.318 9.303 9.305 9.32 9.368 9.44 9.515 9.575 9.625 9.622 9.555 9.498 9.52 9.597 9.675 9.742 9.747 9.637 9.47 9.403 9.473 9.585 9.692 9.782 9.84 9.877 9.907 9.93 9.963 10.005 10.045 10.113 10.23 10.37 10.465 10.487 10.493 10.497 10.477 10.445 10.415 10.383 10.38 10.458 10.572 10.647 10.693 10.743 10.792 10.792 10.737 10.665 10.585 10.51 10.44 10.38 10.338 10.32 10.315 10.297 10.272 10.24 10.195 10.148 10.105 10.057 10.003 9.958 9.93 9.895 9.84 9.747 9.62 9.475 9.278 9.09 9.023 9.02 9.005 8.987 8.965 8.922 8.868 8.83 8.843 8.872 8.87 8.858 8.852 8.837 8.812 8.785 8.755 8.725 8.7 8.688 8.695 8.71 8.715 8.763 8.885 9.053 9.23 9.447 9.55 9.407 9.135 8.823 8.67 8.733 8.855 9.03 9.192 9.19 9.31 9.54 9.497 9.267 9.007 8.83 8.755 8.76 8.817
10.763 10.72 10.68 10.64 10.6 10.56 10.538 10.535 10.535 10.53 10.512 10.485 10.455 10.422 10.385 10.347 10.31 10.27 10.23 10.187 10.138 10.083 10.055 10.05 10.043 10.033 10.025 10.025 10.027 10.032 10.03 10.017 10.005 9.995 9.98 9.96 9.945 9.93 9.912 9.9 9.89 9.877 9.863 9.85 9.84 9.825 9.828 9.85 9.855 9.807 9.72 9.643 9.771 11.326 13.754 14.561 13.568 12.248 11.73 11.8 12.068 12.875 13.88 14.745 15.197 14.827 13.568 12.71 12.869 13.039 12.827 12.075 11.115 10.603 10.175 9.675 9.468 9.398 9.395 9.398 9.403 9.415 9.45 9.503 9.555 9.605 9.615 9.573 9.543 9.575 9.642 9.707 9.767 9.775 9.677 9.517 9.395 9.403 9.505 9.615 9.727 9.825 9.89 9.932 9.967 10.008 10.05 10.09 10.133 10.2 10.292 10.35 10.378 10.423 10.465 10.462 10.43 10.4 10.373 10.418 10.55 10.68 10.755 10.8 10.837 10.865 10.85 10.777 10.695 10.615 10.54 10.47 10.4 10.338 10.3 10.278 10.253 10.225 10.195 10.158 10.115 10.075 10.027 9.973 9.92 9.863 9.803 9.752 9.692 9.59 9.442 9.263 9.15 9.138 9.135 9.12 9.102 9.072 9.025 8.972 8.918 8.883 8.878 8.878 8.87 8.865 8.857 8.835 8.805 8.78 8.758 8.735 8.725 8.728 8.733 8.738 8.745 8.753 8.78 8.933 9.18 9.292 9.227 9.072 8.832 8.68 8.673 8.678 8.72 8.863 8.975 9.002 8.96 8.805 8.665 8.588 8.608 8.715 8.747 8.73
10.763 10.72 10.678 10.635 10.595 10.555 10.513 10.488 10.485 10.482 10.465 10.435 10.408 10.387 10.362 10.327 10.29 10.262 10.23 10.18 10.125 10.075 10.05 10.043 10.04 10.035 10.023 10.013 10.01 10.012 10.012 10.002 9.99 9.982 9.97 9.952 9.937 9.92 9.905 9.895 9.885 9.88 9.875 9.862 9.85 9.838 9.84 9.862 9.867 9.832 9.777 9.753 10.508 12.735 14.384 14.227 13.195 12.138 11.813 11.933 12.313 12.988 13.8 14.662 15.029 14.177 12.708 11.701 11.653 12.32 12.882 12.907 12.45 12.022 11.132 9.993 9.558 9.488 9.485 9.49 9.495 9.49 9.485 9.5 9.54 9.59 9.61 9.582 9.563 9.59 9.637 9.685 9.735 9.725 9.608 9.47 9.383 9.375 9.455 9.565 9.675 9.792 9.885 9.94 9.997 10.052 10.095 10.138 10.182 10.212 10.238 10.283 10.338 10.39 10.437 10.445 10.415 10.385 10.383 10.47 10.625 10.747 10.777 10.777 10.792 10.805 10.81 10.767 10.69 10.615 10.56 10.507 10.44 10.37 10.308 10.265 10.238 10.213 10.178 10.133 10.09 10.048 10 9.947 9.885 9.805 9.73 9.673 9.617 9.542 9.41 9.288 9.25 9.252 9.247 9.22 9.18 9.14 9.102 9.06 9.007 8.955 8.915 8.898 8.89 8.885 8.888 8.89 8.88 8.865 8.85 8.825 8.79 8.773 8.778 8.785 8.795 8.795 8.768 8.78 8.918 9.032 8.99 8.88 8.758 8.685 8.682 8.678 8.685 8.745 8.812 8.682 8.21 7.878 8.05 8.422 8.665 8.765 8.722 8.637
10.768 10.725 10.682 10.64 10.6 10.56 10.503 10.445 10.423 10.417 10.4 10.373 10.355 10.347 10.327 10.29 10.263 10.26 10.24 10.19 10.14 10.1 10.078 10.065 10.06 10.055 10.035 10.008 9.993 9.99 9.987 9.978 9.968 9.962 9.95 9.935 9.92 9.903 9.888 9.878 9.875 9.88 9.882 9.872 9.86 9.85 9.855 9.865 9.847 9.82 9.798 10.178 11.845 13.746 14.052 13.55 13.04 12.295 11.938 12.17 12.57 13.115 13.808 14.575 14.539 13.288 12.2 11.195 10.648 11.285 12.035 12.594 12.814 12.594 11.552 10.203 9.655 9.588 9.575 9.58 9.577 9.56 9.54 9.525 9.538 9.58 9.597 9.568 9.548 9.57 9.608 9.648 9.695 9.675 9.563 9.463 9.4 9.365 9.415 9.525 9.638 9.77 9.875 9.94 10.015 10.087 10.145 10.192 10.227 10.222 10.215 10.25 10.303 10.357 10.41 10.425 10.4 10.37 10.41 10.542 10.677 10.76 10.717 10.628 10.605 10.618 10.692 10.72 10.648 10.585 10.555 10.532 10.485 10.42 10.35 10.293 10.255 10.227 10.182 10.12 10.07 10.025 9.975 9.915 9.832 9.74 9.668 9.61 9.548 9.482 9.395 9.335 9.322 9.315 9.307 9.27 9.21 9.165 9.14 9.115 9.075 9.025 8.978 8.948 8.93 8.92 8.935 8.97 9 9.005 8.99 8.957 8.88 8.828 8.835 8.845 8.847 8.827 8.782 8.725 8.735 8.785 8.77 8.718 8.685 8.688 8.692 8.683 8.67 8.697 8.685 8.527 8.13 7.851 7.953 8.083 8.028 8.08 8.255 8.362
10.773 10.73 10.687 10.645 10.603 10.56 10.505 10.435 10.38 10.355 10.338 10.318 10.31 10.31 10.29 10.263 10.26 10.27 10.25 10.205 10.165 10.13 10.11 10.095 10.083 10.075 10.055 10.02 9.988 9.973 9.965 9.955 9.95 9.945 9.93 9.915 9.9 9.885 9.873 9.868 9.875 9.885 9.887 9.88 9.87 9.86 9.857 9.845 9.81 9.778 9.803 10.815 12.911 13.597 12.833 12.345 12.275 12.17 12.12 12.47 12.88 13.373 13.977 14.347 13.675 12.558 11.767 10.653 9.953 10.173 10.75 11.407 11.94 11.984 11.022 10.03 9.758 9.692 9.665 9.66 9.642 9.62 9.597 9.573 9.558 9.575 9.585 9.548 9.528 9.553 9.588 9.623 9.662 9.645 9.563 9.488 9.423 9.365 9.385 9.485 9.608 9.752 9.865 9.943 10.025 10.105 10.18 10.237 10.247 10.208 10.19 10.223 10.27 10.323 10.375 10.4 10.385 10.378 10.46 10.59 10.687 10.755 10.69 10.533 10.443 10.425 10.53 10.635 10.605 10.558 10.54 10.53 10.51 10.462 10.397 10.335 10.283 10.242 10.187 10.11 10.05 10.005 9.947 9.867 9.768 9.673 9.603 9.547 9.49 9.425 9.37 9.342 9.33 9.325 9.32 9.287 9.23 9.185 9.16 9.145 9.122 9.082 9.043 9.013 8.988 8.975 8.995 9.04 9.09 9.125 9.13 9.092 8.978 8.893 8.893 8.897 8.885 8.85 8.8 8.743 8.695 8.673 8.668 8.66 8.665 8.695 8.715 8.708 8.688 8.678 8.635 8.563 8.53 8.502 8.402 8.18 7.903 7.878 8.033 8.023
10.78 10.733 10.69 10.65 10.607 10.565 10.51 10.437 10.365 10.313 10.288 10.278 10.273 10.27 10.263 10.26 10.27 10.28 10.265 10.23 10.197 10.163 10.14 10.127 10.113 10.1 10.077 10.04 10 9.968 9.95 9.94 9.933 9.925 9.91 9.895 9.88 9.865 9.86 9.865 9.877 9.89 9.892 9.885 9.875 9.865 9.845 9.81 9.77 9.733 10.053 11.395 13.181 12.909 11.6 11.125 11.058 11.925 12.67 12.853 13.208 13.658 14.052 13.852 13.005 12.162 11.025 9.948 9.648 9.615 9.83 10.205 10.695 10.76 10.153 9.818 9.795 9.76 9.732 9.712 9.687 9.67 9.652 9.628 9.603 9.59 9.572 9.525 9.508 9.537 9.57 9.595 9.63 9.645 9.597 9.523 9.45 9.383 9.373 9.455 9.59 9.74 9.86 9.947 10.027 10.102 10.18 10.235 10.225 10.178 10.165 10.193 10.238 10.29 10.34 10.372 10.365 10.403 10.505 10.59 10.675 10.75 10.685 10.505 10.35 10.26 10.333 10.502 10.56 10.54 10.53 10.52 10.51 10.487 10.44 10.38 10.317 10.257 10.19 10.105 10.035 9.977 9.9 9.805 9.703 9.608 9.538 9.483 9.427 9.368 9.33 9.325 9.328 9.332 9.327 9.3 9.25 9.203 9.178 9.165 9.15 9.128 9.108 9.09 9.073 9.063 9.08 9.123 9.168 9.212 9.245 9.217 9.093 8.975 8.948 8.94 8.91 8.867 8.818 8.765 8.715 8.675 8.65 8.63 8.633 8.715 8.795 8.793 8.765 8.73 8.71 8.705 8.697 8.685 8.647 8.582 8.507 8.435 8.332 8.058
10.778 10.735 10.688 10.638 10.595 10.555 10.5 10.427 10.355 10.293 10.263 10.258 10.25 10.24 10.245 10.262 10.275 10.285 10.275 10.245 10.218 10.195 10.175 10.158 10.142 10.127 10.102 10.065 10.025 9.985 9.96 9.95 9.94 9.925 9.9 9.88 9.865 9.85 9.848 9.855 9.867 9.88 9.88 9.872 9.867 9.865 9.83 9.775 9.735 9.76 10.503 11.94 12.829 11.802 10.456 10.166 10.403 11.977 13.399 13.632 13.805 14.037 13.987 13.477 12.697 11.535 10.206 9.62 9.615 9.63 9.65 9.67 9.865 9.935 9.813 9.795 9.78 9.77 9.752 9.73 9.708 9.705 9.707 9.687 9.662 9.625 9.57 9.505 9.475 9.495 9.52 9.54 9.6 9.672 9.655 9.575 9.495 9.418 9.37 9.428 9.565 9.705 9.832 9.93 10.005 10.077 10.152 10.187 10.165 10.138 10.143 10.168 10.205 10.257 10.31 10.35 10.37 10.425 10.5 10.573 10.67 10.745 10.68 10.5 10.323 10.165 10.188 10.382 10.502 10.52 10.515 10.505 10.495 10.485 10.45 10.39 10.325 10.25 10.17 10.09 10.012 9.932 9.837 9.735 9.635 9.543 9.473 9.417 9.363 9.32 9.315 9.33 9.335 9.34 9.335 9.31 9.267 9.22 9.195 9.182 9.168 9.17 9.188 9.187 9.175 9.165 9.18 9.223 9.265 9.305 9.34 9.32 9.205 9.063 8.993 8.965 8.928 8.89 8.85 8.81 8.768 8.723 8.65 8.59 8.633 8.79 8.912 8.915 8.882 8.84 8.815 8.815 8.802 8.77 8.737 8.695 8.625 8.542 8.455 8.277
10.773 10.74 10.692 10.628 10.573 10.53 10.475 10.405 10.338 10.28 10.255 10.25 10.235 10.213 10.218 10.25 10.272 10.285 10.275 10.25 10.238 10.237 10.222 10.19 10.17 10.155 10.13 10.095 10.055 10.015 9.99 9.98 9.965 9.942 9.908 9.873 9.853 9.84 9.835 9.838 9.845 9.855 9.855 9.85 9.855 9.867 9.83 9.755 9.705 10.023 11.055 12.139 11.952 10.418 9.618 9.773 10.075 11.213 12.827 13.976 14.354 14.237 13.87 13.269 12.062 10.538 9.748 9.643 9.655 9.67 9.69 9.707 9.723 9.768 9.8 9.788 9.775 9.765 9.75 9.73 9.723 9.743 9.76 9.75 9.715 9.65 9.575 9.493 9.428 9.42 9.438 9.485 9.598 9.715 9.72 9.64 9.558 9.488 9.445 9.433 9.5 9.63 9.76 9.877 9.965 10.04 10.115 10.132 10.105 10.105 10.127 10.15 10.173 10.212 10.267 10.32 10.367 10.412 10.473 10.563 10.667 10.742 10.675 10.497 10.32 10.14 10.135 10.302 10.412 10.457 10.482 10.485 10.475 10.465 10.43 10.37 10.297 10.21 10.128 10.055 9.95 9.845 9.765 9.67 9.568 9.475 9.408 9.352 9.298 9.28 9.307 9.335 9.345 9.35 9.345 9.32 9.282 9.24 9.213 9.198 9.203 9.243 9.285 9.292 9.28 9.27 9.285 9.327 9.37 9.405 9.427 9.4 9.29 9.15 9.068 9.033 9 8.97 8.948 8.928 8.898 8.845 8.715 8.61 8.7 8.902 9.027 9.032 8.992 8.948 8.922 8.907 8.867 8.818 8.788 8.767 8.725 8.65 8.552 8.39
10.78 10.75 10.705 10.635 10.565 10.51 10.453 10.388 10.325 10.273 10.248 10.235 10.21 10.18 10.183 10.22 10.255 10.28 10.282 10.275 10.28 10.29 10.275 10.235 10.203 10.183 10.157 10.122 10.085 10.045 10.02 10.005 9.982 9.957 9.92 9.873 9.843 9.83 9.825 9.825 9.828 9.835 9.838 9.84 9.855 9.875 9.84 9.753 9.775 10.353 11.28 11.694 11.047 9.871 9.553 9.757 9.745 10.041 11.098 12.609 13.686 13.932 13.399 12.275 10.83 9.863 9.678 9.687 9.695 9.708 9.725 9.74 9.748 9.775 9.792 9.78 9.77 9.762 9.748 9.74 9.76 9.79 9.812 9.802 9.745 9.657 9.57 9.475 9.375 9.34 9.378 9.473 9.613 9.75 9.78 9.705 9.645 9.625 9.627 9.513 9.435 9.54 9.67 9.8 9.912 10 10.067 10.077 10.068 10.087 10.107 10.122 10.13 10.148 10.195 10.257 10.317 10.375 10.455 10.552 10.652 10.727 10.665 10.495 10.32 10.14 10.12 10.232 10.3 10.352 10.405 10.44 10.45 10.445 10.41 10.342 10.257 10.165 10.082 9.98 9.825 9.713 9.66 9.592 9.502 9.408 9.34 9.288 9.245 9.25 9.29 9.325 9.347 9.36 9.352 9.325 9.295 9.26 9.23 9.233 9.278 9.34 9.387 9.397 9.385 9.375 9.39 9.43 9.465 9.487 9.502 9.475 9.373 9.253 9.183 9.152 9.125 9.097 9.087 9.085 9.067 8.992 8.845 8.73 8.793 8.997 9.137 9.145 9.1 9.053 9.012 8.968 8.913 8.863 8.833 8.82 8.8 8.75 8.65 8.472
10.787 10.76 10.715 10.645 10.567 10.498 10.438 10.38 10.32 10.268 10.235 10.21 10.18 10.153 10.153 10.185 10.225 10.262 10.287 10.302 10.32 10.337 10.327 10.29 10.25 10.215 10.182 10.147 10.11 10.07 10.042 10.02 9.995 9.97 9.932 9.885 9.843 9.82 9.815 9.815 9.815 9.818 9.823 9.835 9.855 9.875 9.852 9.78 9.978 10.61 11.175 11.09 10.418 9.88 9.755 9.743 9.73 9.72 9.938 10.586 11.725 12.529 11.987 10.731 9.898 9.693 9.705 9.72 9.73 9.742 9.755 9.765 9.77 9.782 9.787 9.775 9.765 9.758 9.755 9.773 9.805 9.835 9.86 9.835 9.755 9.66 9.56 9.453 9.338 9.288 9.358 9.49 9.63 9.772 9.835 9.81 9.802 9.82 9.827 9.66 9.443 9.453 9.58 9.71 9.837 9.95 10.015 10.03 10.043 10.062 10.077 10.085 10.08 10.078 10.105 10.157 10.215 10.285 10.382 10.485 10.58 10.665 10.625 10.467 10.3 10.133 10.08 10.138 10.19 10.24 10.293 10.347 10.39 10.412 10.385 10.305 10.215 10.122 10.025 9.857 9.665 9.568 9.523 9.475 9.413 9.338 9.275 9.228 9.208 9.23 9.27 9.305 9.337 9.362 9.357 9.33 9.302 9.273 9.265 9.308 9.375 9.44 9.49 9.502 9.49 9.48 9.492 9.525 9.547 9.562 9.577 9.557 9.475 9.37 9.295 9.257 9.227 9.2 9.192 9.197 9.197 9.127 8.99 8.858 8.838 8.997 9.19 9.247 9.205 9.157 9.103 9.04 8.983 8.923 8.883 8.87 8.855 8.827 8.737 8.55
10.792 10.762 10.712 10.64 10.562 10.488 10.428 10.38 10.325 10.27 10.23 10.2 10.17 10.148 10.138 10.153 10.19 10.23 10.265 10.292 10.32 10.347 10.345 10.31 10.27 10.232 10.197 10.16 10.12 10.077 10.045 10.022 9.997 9.972 9.937 9.89 9.848 9.825 9.82 9.82 9.82 9.815 9.808 9.813 9.83 9.85 9.852 9.828 10.23 10.897 11.055 10.585 9.983 9.753 9.74 9.73 9.72 9.71 9.655 9.676 10.113 10.553 10.333 9.88 9.715 9.71 9.718 9.735 9.752 9.765 9.77 9.775 9.78 9.785 9.785 9.775 9.765 9.758 9.768 9.795 9.825 9.857 9.877 9.837 9.75 9.655 9.55 9.435 9.33 9.283 9.33 9.452 9.595 9.737 9.842 9.88 9.895 9.907 9.875 9.68 9.45 9.415 9.508 9.63 9.758 9.882 9.965 9.995 10.012 10.028 10.042 10.045 10.032 10.02 10.01 10.02 10.06 10.125 10.227 10.345 10.455 10.557 10.545 10.408 10.26 10.13 10.058 10.06 10.103 10.155 10.205 10.258 10.31 10.37 10.37 10.285 10.185 10.082 9.935 9.7 9.523 9.465 9.428 9.393 9.363 9.32 9.253 9.195 9.178 9.2 9.24 9.275 9.31 9.345 9.347 9.32 9.29 9.27 9.317 9.405 9.475 9.54 9.592 9.607 9.595 9.572 9.557 9.562 9.565 9.57 9.575 9.567 9.512 9.415 9.332 9.282 9.245 9.215 9.207 9.212 9.217 9.17 9.052 8.917 8.843 8.928 9.14 9.297 9.31 9.262 9.207 9.145 9.075 8.993 8.94 8.925 8.91 8.897 8.812 8.612
10.79 10.747 10.69 10.62 10.547 10.47 10.413 10.377 10.332 10.278 10.238 10.21 10.183 10.165 10.145 10.133 10.155 10.195 10.23 10.258 10.288 10.322 10.325 10.288 10.253 10.23 10.202 10.165 10.12 10.07 10.035 10.015 9.992 9.967 9.932 9.888 9.858 9.848 9.845 9.842 9.835 9.82 9.8 9.788 9.793 9.81 9.825 9.848 10.342 10.87 10.65 10.115 9.798 9.738 9.725 9.717 9.707 9.695 9.663 9.655 9.693 9.718 9.725 9.728 9.727 9.725 9.73 9.745 9.762 9.772 9.775 9.778 9.78 9.782 9.78 9.773 9.768 9.765 9.775 9.8 9.83 9.862 9.87 9.82 9.737 9.645 9.54 9.435 9.365 9.335 9.33 9.378 9.493 9.64 9.767 9.84 9.862 9.867 9.785 9.593 9.465 9.453 9.495 9.578 9.688 9.812 9.91 9.957 9.977 9.992 10.002 9.997 9.983 9.97 9.935 9.893 9.898 9.953 10.053 10.18 10.305 10.422 10.457 10.378 10.268 10.17 10.098 10.065 10.068 10.098 10.145 10.195 10.253 10.342 10.38 10.305 10.18 10.015 9.785 9.555 9.455 9.448 9.433 9.42 9.423 9.4 9.308 9.203 9.153 9.16 9.2 9.237 9.273 9.31 9.317 9.29 9.258 9.248 9.33 9.462 9.562 9.637 9.695 9.712 9.685 9.607 9.535 9.51 9.492 9.485 9.48 9.482 9.462 9.385 9.303 9.245 9.2 9.168 9.16 9.165 9.162 9.125 9.032 8.925 8.863 8.905 9.06 9.265 9.38 9.367 9.312 9.245 9.155 9.055 9 8.985 8.978 8.98 8.892 8.677
10.775 10.722 10.662 10.597 10.527 10.45 10.395 10.365 10.33 10.283 10.245 10.223 10.203 10.187 10.167 10.143 10.135 10.16 10.195 10.225 10.26 10.3 10.302 10.27 10.248 10.23 10.205 10.167 10.117 10.063 10.025 10.005 9.985 9.962 9.93 9.898 9.88 9.873 9.87 9.86 9.84 9.82 9.8 9.78 9.768 9.773 9.795 9.875 10.307 10.54 10.155 9.818 9.73 9.722 9.71 9.702 9.692 9.678 9.668 9.68 9.71 9.732 9.74 9.738 9.735 9.735 9.74 9.753 9.765 9.775 9.78 9.78 9.78 9.78 9.778 9.775 9.775 9.778 9.79 9.813 9.838 9.865 9.862 9.805 9.725 9.637 9.538 9.465 9.44 9.427 9.403 9.383 9.418 9.528 9.647 9.737 9.8 9.822 9.73 9.598 9.54 9.52 9.538 9.58 9.645 9.748 9.847 9.905 9.937 9.955 9.957 9.945 9.93 9.917 9.88 9.818 9.773 9.785 9.875 10.013 10.158 10.305 10.417 10.422 10.345 10.255 10.175 10.128 10.1 10.088 10.1 10.138 10.218 10.337 10.4 10.307 10.11 9.862 9.613 9.475 9.45 9.455 9.47 9.505 9.535 9.52 9.417 9.265 9.155 9.128 9.16 9.197 9.233 9.27 9.282 9.26 9.233 9.223 9.3 9.452 9.595 9.715 9.797 9.802 9.72 9.575 9.47 9.435 9.405 9.383 9.375 9.383 9.39 9.35 9.28 9.218 9.16 9.12 9.11 9.112 9.107 9.08 9.008 8.943 8.925 8.945 9.043 9.218 9.387 9.455 9.415 9.33 9.223 9.118 9.063 9.055 9.06 9.07 8.975 8.75
10.75 10.695 10.635 10.573 10.505 10.433 10.38 10.35 10.32 10.288 10.26 10.24 10.225 10.21 10.19 10.165 10.14 10.138 10.163 10.2 10.24 10.28 10.285 10.265 10.25 10.23 10.202 10.16 10.11 10.055 10.015 9.995 9.975 9.957 9.935 9.915 9.905 9.895 9.885 9.868 9.845 9.823 9.8 9.78 9.76 9.748 9.81 9.97 10.192 10.14 9.835 9.71 9.71 9.708 9.7 9.69 9.68 9.668 9.673 9.695 9.72 9.745 9.755 9.752 9.747 9.745 9.75 9.76 9.767 9.775 9.78 9.78 9.783 9.785 9.785 9.785 9.788 9.793 9.805 9.825 9.845 9.87 9.857 9.79 9.71 9.63 9.563 9.535 9.53 9.52 9.497 9.463 9.438 9.46 9.535 9.623 9.708 9.762 9.725 9.658 9.62 9.59 9.595 9.63 9.665 9.72 9.788 9.843 9.89 9.912 9.907 9.893 9.88 9.865 9.822 9.76 9.698 9.678 9.758 9.908 10.075 10.243 10.4 10.482 10.445 10.358 10.275 10.218 10.185 10.153 10.125 10.125 10.2 10.335 10.39 10.24 9.96 9.675 9.493 9.45 9.45 9.45 9.475 9.545 9.622 9.64 9.542 9.378 9.223 9.125 9.12 9.158 9.198 9.243 9.275 9.28 9.278 9.278 9.308 9.415 9.57 9.725 9.837 9.822 9.685 9.518 9.413 9.373 9.343 9.323 9.318 9.323 9.33 9.318 9.268 9.2 9.133 9.08 9.06 9.058 9.058 9.053 9.025 9.01 9.015 9.015 9.08 9.22 9.382 9.512 9.51 9.408 9.295 9.19 9.14 9.143 9.15 9.16 9.055 8.817
10.725 10.67 10.618 10.567 10.505 10.435 10.385 10.355 10.325 10.298 10.277 10.26 10.242 10.225 10.202 10.177 10.155 10.14 10.155 10.195 10.235 10.27 10.272 10.25 10.232 10.215 10.187 10.145 10.092 10.038 10 9.98 9.96 9.942 9.927 9.915 9.905 9.9 9.895 9.88 9.86 9.835 9.81 9.79 9.77 9.725 9.815 10.02 9.965 9.743 9.678 9.7 9.7 9.7 9.695 9.685 9.675 9.67 9.683 9.705 9.73 9.755 9.762 9.76 9.757 9.753 9.755 9.765 9.77 9.77 9.782 9.795 9.798 9.8 9.8 9.803 9.807 9.81 9.82 9.84 9.86 9.885 9.865 9.79 9.71 9.635 9.598 9.592 9.585 9.577 9.572 9.55 9.515 9.493 9.525 9.605 9.69 9.76 9.767 9.732 9.695 9.66 9.658 9.687 9.715 9.735 9.758 9.798 9.85 9.872 9.86 9.843 9.83 9.812 9.768 9.71 9.66 9.655 9.735 9.873 10.033 10.198 10.362 10.485 10.515 10.462 10.38 10.32 10.285 10.25 10.197 10.155 10.198 10.32 10.35 10.18 9.898 9.598 9.45 9.45 9.45 9.45 9.46 9.503 9.632 9.74 9.667 9.5 9.325 9.165 9.125 9.178 9.223 9.27 9.325 9.37 9.392 9.402 9.383 9.408 9.533 9.667 9.752 9.75 9.632 9.463 9.358 9.325 9.313 9.31 9.31 9.31 9.315 9.32 9.285 9.215 9.145 9.098 9.085 9.088 9.095 9.103 9.108 9.112 9.107 9.075 9.105 9.235 9.385 9.497 9.547 9.505 9.395 9.29 9.243 9.248 9.252 9.237 9.105 8.865
