ncols         200
nrows         79
xllcorner     544000
yllcorner     257340
cellsize      5
NODATA_value  -9999.0
10.71 10.745 10.785 10.825 10.862 10.865 10.83 10.795 10.768 10.743 10.72 10.718 10.747 10.782 10.777 10.735 10.685 10.65 10.63 10.61 10.59 10.56 10.522 10.485 10.447 10.412 10.39 10.377 10.365 10.352 10.327 10.293 10.26 10.23 10.22 10.25 10.297 10.345 10.443 10.585 10.725 10.827 10.845 10.805 10.76 10.715 10.67 10.627 10.582 10.537 10.492 10.467 10.465 10.465 10.48 10.515 10.55 10.587 10.632 10.67 10.702 10.735 10.745 10.722 10.672 10.61 10.54 10.46 10.375 10.285 10.195 10.158 10.163 10.148 10.153 10.195 10.243 10.287 10.315 10.27 10.165 10.047 9.925 9.802 9.67 9.52 9.375 9.26 9.165 9.088 9.03 8.983 8.935 8.888 8.85 8.81 8.755 8.697 8.645 8.62 8.6 8.558 8.533 8.555 8.59 8.58 8.53 8.47 8.41 8.345 8.235 8.115 8.03 7.945 7.933 7.985 8.025 7.538 7.03 7.417 7.565 7.07 6.685 6.5 6.403 6.315 6.273 6.288 6.312 6.337 6.365 6.385 6.392 6.382 6.34 6.277 6.218 6.185 6.183 6.19 6.2 6.215 6.275 6.368 6.455 6.565 6.8 6.875 6.823 7.087 7.31 7.075 6.63 6.468 6.745 7.205 7.485 7.54 7.517 7.46 7.4 7.345 7.295 7.245 7.18 7.133 7.185 7.29 7.378 7.488 7.655 7.22 7.143 7.64 7.6 7.485 7.415 7.37 7.373 7.408 7.45 7.523 7.678 7.88 8.083 8.285 8.465 8.655 8.902 9.17 9.335 9.383 9.408 9.433 9.52 9.688 9.867 10.017 10.08 10.1
10.692 10.75 10.79 10.83 10.862 10.855 10.815 10.778 10.75 10.725 10.71 10.73 10.762 10.777 10.77 10.735 10.685 10.65 10.63 10.61 10.59 10.56 10.517 10.472 10.43 10.39 10.365 10.355 10.347 10.342 10.325 10.295 10.265 10.23 10.245 10.31 10.37 10.432 10.533 10.665 10.797 10.875 10.862 10.817 10.772 10.727 10.685 10.642 10.597 10.552 10.51 10.49 10.492 10.497 10.515 10.545 10.57 10.59 10.617 10.652 10.69 10.727 10.747 10.72 10.655 10.587 10.517 10.44 10.355 10.265 10.178 10.13 10.12 10.11 10.13 10.178 10.223 10.267 10.307 10.282 10.185 10.072 9.952 9.815 9.66 9.49 9.335 9.22 9.13 9.06 9.005 8.958 8.913 8.873 8.84 8.8 8.75 8.7 8.642 8.575 8.52 8.48 8.445 8.46 8.525 8.562 8.54 8.485 8.425 8.368 8.317 8.26 8.182 8.098 8.045 8.053 8.085 7.565 7.03 7.345 7.55 7.175 6.798 6.63 6.502 6.338 6.238 6.243 6.265 6.288 6.325 6.362 6.375 6.377 6.36 6.315 6.257 6.21 6.198 6.205 6.207 6.203 6.233 6.305 6.387 6.455 6.655 6.987 6.987 6.825 7.065 7.31 7.075 6.625 6.458 6.733 7.195 7.47 7.487 7.44 7.385 7.287 7.18 7.112 7.08 7.105 7.158 7.22 7.303 7.405 7.565 7.462 7.125 7.403 7.727 7.605 7.535 7.44 7.358 7.358 7.403 7.475 7.628 7.835 8.045 8.24 8.402 8.563 8.788 9.072 9.287 9.35 9.34 9.345 9.408 9.555 9.745 9.897 9.973 10.028
10.637 10.737 10.795 10.835 10.86 10.845 10.805 10.765 10.733 10.708 10.71 10.737 10.755 10.762 10.762 10.735 10.688 10.653 10.63 10.61 10.585 10.542 10.49 10.44 10.395 10.353 10.325 10.318 10.315 10.315 10.307 10.29 10.265 10.233 10.253 10.327 10.405 10.487 10.595 10.722 10.842 10.885 10.847 10.805 10.76 10.715 10.672 10.628 10.582 10.533 10.49 10.473 10.468 10.473 10.495 10.52 10.542 10.567 10.595 10.627 10.662 10.697 10.717 10.69 10.625 10.555 10.485 10.412 10.332 10.245 10.165 10.125 10.11 10.098 10.12 10.167 10.212 10.25 10.282 10.267 10.182 10.077 9.952 9.795 9.622 9.448 9.295 9.183 9.103 9.04 8.985 8.935 8.89 8.855 8.825 8.787 8.74 8.685 8.612 8.523 8.445 8.395 8.363 8.385 8.457 8.512 8.522 8.492 8.44 8.388 8.37 8.36 8.315 8.245 8.188 8.185 8.202 7.62 7.033 7.133 7.385 7.27 6.91 6.74 6.552 6.338 6.223 6.208 6.215 6.235 6.275 6.33 6.362 6.367 6.35 6.315 6.27 6.228 6.21 6.207 6.195 6.175 6.188 6.242 6.295 6.345 6.54 6.817 7.03 6.945 6.808 7.082 7.31 7.072 6.618 6.445 6.718 7.177 7.415 7.397 7.275 7.063 6.94 6.938 6.993 7.087 7.145 7.173 7.23 7.323 7.475 7.68 7.24 7.203 7.735 7.725 7.622 7.46 7.333 7.323 7.378 7.465 7.625 7.835 8.03 8.192 8.332 8.468 8.63 8.873 9.152 9.337 9.37 9.343 9.348 9.44 9.62 9.792 9.905 9.993
10.552 10.682 10.782 10.84 10.855 10.83 10.79 10.75 10.715 10.698 10.708 10.725 10.735 10.745 10.752 10.732 10.69 10.653 10.625 10.602 10.567 10.517 10.465 10.413 10.363 10.318 10.29 10.285 10.285 10.287 10.285 10.275 10.26 10.235 10.258 10.338 10.423 10.518 10.635 10.765 10.867 10.88 10.835 10.792 10.748 10.705 10.66 10.612 10.562 10.51 10.475 10.46 10.448 10.438 10.45 10.477 10.502 10.53 10.557 10.587 10.62 10.65 10.662 10.64 10.585 10.515 10.445 10.375 10.302 10.223 10.158 10.128 10.113 10.098 10.113 10.155 10.19 10.218 10.242 10.23 10.155 10.047 9.91 9.747 9.577 9.405 9.255 9.15 9.08 9.02 8.965 8.918 8.875 8.84 8.81 8.775 8.725 8.657 8.577 8.483 8.385 8.315 8.293 8.325 8.39 8.447 8.475 8.477 8.45 8.413 8.403 8.407 8.402 8.372 8.33 8.317 8.312 7.947 7.313 7.03 7.35 7.385 7 6.785 6.533 6.313 6.218 6.19 6.173 6.183 6.225 6.285 6.34 6.36 6.337 6.303 6.268 6.238 6.215 6.195 6.173 6.15 6.143 6.148 6.15 6.208 6.378 6.582 6.765 6.937 6.885 6.835 7.115 7.31 7.07 6.61 6.435 6.705 7.147 7.347 7.123 6.845 6.813 6.895 6.988 7.08 7.145 7.165 7.185 7.245 7.385 7.59 7.435 7.148 7.495 7.802 7.632 7.425 7.293 7.298 7.37 7.465 7.625 7.82 7.98 8.12 8.257 8.392 8.528 8.705 8.953 9.217 9.402 9.447 9.44 9.493 9.603 9.735 9.862 9.965
10.46 10.595 10.725 10.825 10.85 10.815 10.772 10.73 10.693 10.688 10.702 10.708 10.715 10.725 10.735 10.727 10.692 10.65 10.62 10.59 10.545 10.493 10.44 10.388 10.335 10.288 10.26 10.255 10.258 10.262 10.26 10.25 10.242 10.23 10.265 10.355 10.447 10.547 10.667 10.802 10.882 10.87 10.825 10.78 10.735 10.692 10.645 10.593 10.535 10.493 10.475 10.467 10.45 10.415 10.405 10.43 10.457 10.482 10.505 10.533 10.57 10.602 10.607 10.59 10.545 10.475 10.405 10.335 10.265 10.203 10.17 10.158 10.145 10.135 10.143 10.165 10.183 10.203 10.223 10.202 10.125 10.002 9.85 9.69 9.528 9.363 9.218 9.125 9.068 9.015 8.965 8.92 8.88 8.845 8.812 8.767 8.702 8.625 8.542 8.447 8.343 8.25 8.225 8.268 8.328 8.385 8.417 8.433 8.443 8.443 8.443 8.45 8.455 8.455 8.445 8.432 8.402 8.282 7.61 7.03 7.397 7.495 7.07 6.773 6.49 6.288 6.21 6.18 6.153 6.143 6.175 6.24 6.31 6.347 6.333 6.3 6.273 6.248 6.22 6.195 6.173 6.15 6.13 6.105 6.08 6.1 6.2 6.353 6.513 6.67 6.857 6.873 7.035 7.3 7.31 7.067 6.605 6.428 6.695 7.1 7.102 6.885 6.868 6.933 7.015 7.098 7.157 7.177 7.183 7.2 7.305 7.5 7.655 7.205 7.265 7.782 7.63 7.408 7.27 7.288 7.37 7.465 7.61 7.77 7.908 8.045 8.183 8.318 8.455 8.595 8.78 9.025 9.287 9.467 9.542 9.6 9.657 9.722 9.817 9.915
10.34 10.47 10.607 10.727 10.79 10.785 10.745 10.7 10.66 10.665 10.702 10.715 10.718 10.723 10.728 10.725 10.695 10.65 10.613 10.573 10.525 10.475 10.428 10.383 10.335 10.285 10.248 10.233 10.235 10.24 10.235 10.225 10.218 10.213 10.26 10.355 10.447 10.537 10.65 10.79 10.87 10.857 10.813 10.768 10.725 10.683 10.638 10.585 10.528 10.495 10.49 10.482 10.45 10.4 10.37 10.38 10.41 10.435 10.455 10.478 10.517 10.552 10.55 10.535 10.5 10.435 10.365 10.3 10.255 10.238 10.243 10.248 10.24 10.235 10.24 10.25 10.26 10.275 10.265 10.202 10.107 9.97 9.803 9.64 9.48 9.32 9.185 9.11 9.067 9.025 8.982 8.94 8.9 8.862 8.822 8.762 8.68 8.592 8.505 8.418 8.328 8.243 8.215 8.243 8.28 8.328 8.373 8.425 8.478 8.498 8.505 8.515 8.52 8.525 8.53 8.525 8.465 8.327 7.638 7.03 7.215 7.395 7.167 6.793 6.495 6.285 6.205 6.175 6.153 6.138 6.165 6.238 6.313 6.355 6.345 6.315 6.287 6.26 6.233 6.208 6.188 6.173 6.155 6.132 6.103 6.08 6.115 6.22 6.363 6.523 6.69 6.867 7.072 7.237 7.2 7.21 7.067 6.6 6.42 6.673 7.012 7.09 7.01 7.018 7.088 7.157 7.192 7.195 7.195 7.195 7.26 7.42 7.615 7.405 7.158 7.517 7.7 7.465 7.298 7.275 7.343 7.437 7.562 7.702 7.838 7.975 8.113 8.248 8.388 8.53 8.673 8.865 9.118 9.352 9.485 9.545 9.605 9.667 9.75 9.84
10.255 10.32 10.44 10.545 10.63 10.685 10.69 10.66 10.623 10.635 10.692 10.732 10.745 10.745 10.745 10.732 10.695 10.65 10.613 10.573 10.528 10.485 10.445 10.402 10.355 10.303 10.258 10.23 10.22 10.22 10.215 10.205 10.195 10.19 10.238 10.33 10.412 10.485 10.59 10.73 10.832 10.845 10.8 10.755 10.715 10.677 10.642 10.602 10.555 10.523 10.507 10.482 10.44 10.39 10.345 10.335 10.36 10.385 10.405 10.423 10.458 10.495 10.493 10.475 10.45 10.395 10.345 10.32 10.318 10.333 10.35 10.365 10.37 10.367 10.368 10.377 10.39 10.375 10.305 10.205 10.1 9.955 9.778 9.605 9.44 9.28 9.155 9.093 9.057 9.02 8.982 8.947 8.91 8.87 8.827 8.757 8.658 8.56 8.48 8.415 8.35 8.295 8.283 8.3 8.323 8.358 8.428 8.512 8.557 8.57 8.582 8.595 8.6 8.605 8.61 8.582 8.482 8.34 7.937 7.318 7.03 7.302 7.295 6.86 6.558 6.318 6.208 6.18 6.168 6.16 6.193 6.27 6.347 6.382 6.362 6.33 6.3 6.27 6.245 6.223 6.208 6.2 6.182 6.157 6.13 6.105 6.108 6.163 6.285 6.445 6.605 6.768 6.928 7.097 7.142 7.178 7.285 7.065 6.6 6.425 6.683 7.057 7.187 7.143 7.17 7.222 7.227 7.213 7.205 7.205 7.258 7.38 7.537 7.627 7.173 7.308 7.797 7.575 7.383 7.293 7.303 7.38 7.498 7.635 7.773 7.908 8.05 8.195 8.34 8.485 8.605 8.745 8.963 9.207 9.355 9.415 9.478 9.558 9.66 9.755
10.278 10.248 10.293 10.355 10.425 10.508 10.572 10.597 10.585 10.6 10.66 10.717 10.76 10.775 10.767 10.74 10.698 10.655 10.627 10.597 10.555 10.515 10.472 10.425 10.372 10.315 10.27 10.24 10.215 10.203 10.195 10.185 10.175 10.17 10.215 10.297 10.365 10.43 10.535 10.672 10.797 10.835 10.792 10.748 10.705 10.67 10.642 10.615 10.58 10.547 10.515 10.475 10.43 10.38 10.33 10.3 10.31 10.335 10.352 10.365 10.398 10.445 10.462 10.448 10.42 10.398 10.395 10.408 10.422 10.438 10.455 10.475 10.49 10.495 10.495 10.502 10.485 10.41 10.305 10.2 10.092 9.945 9.765 9.583 9.405 9.24 9.125 9.07 9.033 8.998 8.965 8.94 8.912 8.875 8.832 8.752 8.638 8.533 8.46 8.413 8.373 8.353 8.373 8.417 8.46 8.502 8.562 8.612 8.63 8.64 8.655 8.67 8.677 8.685 8.682 8.615 8.488 8.358 8.247 7.615 7.03 7.395 7.422 6.93 6.633 6.37 6.223 6.195 6.192 6.188 6.218 6.297 6.382 6.41 6.38 6.345 6.315 6.285 6.258 6.24 6.235 6.23 6.21 6.183 6.16 6.143 6.128 6.14 6.238 6.392 6.542 6.682 6.797 6.903 7.065 7.21 7.28 7.31 7.067 6.61 6.443 6.703 7.097 7.255 7.25 7.265 7.25 7.233 7.22 7.215 7.273 7.385 7.505 7.652 7.365 7.16 7.565 7.685 7.488 7.373 7.32 7.335 7.43 7.568 7.713 7.855 8.003 8.155 8.307 8.442 8.545 8.658 8.83 9.062 9.225 9.288 9.36 9.46 9.567 9.665
10.333 10.273 10.278 10.315 10.358 10.415 10.473 10.52 10.543 10.575 10.638 10.703 10.765 10.795 10.777 10.74 10.7 10.66 10.637 10.62 10.585 10.542 10.497 10.447 10.387 10.325 10.28 10.253 10.225 10.2 10.185 10.173 10.158 10.148 10.183 10.25 10.31 10.375 10.48 10.615 10.75 10.812 10.785 10.743 10.7 10.663 10.635 10.61 10.58 10.55 10.51 10.463 10.417 10.37 10.32 10.278 10.265 10.278 10.29 10.305 10.343 10.395 10.437 10.452 10.44 10.44 10.457 10.492 10.527 10.542 10.56 10.58 10.597 10.612 10.62 10.595 10.515 10.407 10.302 10.197 10.085 9.935 9.753 9.568 9.385 9.21 9.1 9.055 9.015 8.978 8.945 8.928 8.915 8.885 8.832 8.742 8.625 8.515 8.45 8.423 8.405 8.408 8.442 8.5 8.557 8.6 8.607 8.597 8.6 8.617 8.647 8.677 8.702 8.73 8.725 8.637 8.505 8.385 8.285 7.635 7.03 7.235 7.325 7.028 6.708 6.44 6.26 6.213 6.215 6.213 6.238 6.315 6.405 6.43 6.397 6.365 6.332 6.3 6.275 6.265 6.265 6.257 6.24 6.22 6.205 6.195 6.175 6.153 6.205 6.332 6.457 6.57 6.67 6.723 6.855 7.147 7.113 7.11 7.31 7.072 6.625 6.46 6.715 7.107 7.29 7.282 7.267 7.252 7.237 7.23 7.287 7.402 7.515 7.63 7.615 7.133 7.32 7.795 7.595 7.478 7.4 7.33 7.373 7.52 7.67 7.82 7.97 8.12 8.27 8.392 8.485 8.593 8.733 8.925 9.087 9.17 9.26 9.367 9.473 9.577
10.378 10.328 10.353 10.405 10.443 10.475 10.505 10.535 10.565 10.613 10.678 10.745 10.792 10.802 10.78 10.74 10.7 10.663 10.643 10.632 10.607 10.567 10.52 10.465 10.4 10.335 10.295 10.273 10.248 10.22 10.198 10.183 10.165 10.148 10.168 10.223 10.278 10.33 10.433 10.578 10.717 10.795 10.78 10.74 10.702 10.663 10.625 10.597 10.57 10.537 10.497 10.45 10.402 10.355 10.305 10.258 10.235 10.235 10.235 10.253 10.295 10.348 10.4 10.437 10.455 10.472 10.492 10.52 10.57 10.625 10.662 10.675 10.65 10.602 10.56 10.492 10.4 10.32 10.257 10.175 10.065 9.922 9.743 9.56 9.38 9.205 9.105 9.073 9.035 8.995 8.958 8.93 8.91 8.885 8.827 8.733 8.628 8.533 8.483 8.47 8.46 8.458 8.488 8.545 8.595 8.61 8.585 8.545 8.518 8.51 8.525 8.56 8.602 8.647 8.695 8.655 8.528 8.418 8.325 7.823 7.198 7.03 7.223 7.167 6.8 6.588 6.46 6.41 6.33 6.25 6.243 6.29 6.372 6.402 6.377 6.35 6.317 6.295 6.287 6.287 6.29 6.287 6.28 6.27 6.26 6.25 6.23 6.198 6.193 6.245 6.335 6.44 6.542 6.59 6.703 7.02 7.07 6.87 7.068 7.31 6.912 6.475 6.48 6.907 7.29 7.285 7.275 7.262 7.247 7.23 7.24 7.32 7.44 7.56 7.68 7.308 7.113 7.57 7.705 7.58 7.495 7.348 7.325 7.485 7.64 7.79 7.94 8.09 8.227 8.335 8.425 8.525 8.653 8.81 8.955 9.065 9.167 9.273 9.38 9.49
10.425 10.385 10.42 10.485 10.535 10.57 10.6 10.627 10.65 10.695 10.762 10.807 10.815 10.802 10.777 10.74 10.7 10.67 10.655 10.642 10.622 10.587 10.532 10.47 10.407 10.345 10.31 10.295 10.275 10.25 10.225 10.21 10.195 10.175 10.188 10.235 10.275 10.298 10.398 10.567 10.72 10.795 10.775 10.738 10.705 10.667 10.623 10.585 10.555 10.522 10.482 10.435 10.382 10.33 10.28 10.23 10.21 10.217 10.215 10.225 10.268 10.323 10.375 10.4 10.405 10.437 10.48 10.505 10.552 10.622 10.63 10.567 10.47 10.355 10.273 10.23 10.203 10.188 10.175 10.112 10.01 9.892 9.735 9.555 9.375 9.213 9.133 9.115 9.085 9.045 9.005 8.968 8.933 8.895 8.84 8.758 8.668 8.588 8.54 8.525 8.515 8.508 8.533 8.587 8.615 8.607 8.58 8.538 8.495 8.455 8.428 8.42 8.435 8.47 8.565 8.625 8.555 8.453 8.36 8.142 7.5 7.03 7.335 7.385 7.06 6.94 6.835 6.697 6.48 6.305 6.255 6.253 6.298 6.335 6.322 6.298 6.28 6.283 6.292 6.297 6.295 6.292 6.3 6.31 6.312 6.305 6.285 6.252 6.215 6.195 6.23 6.315 6.415 6.45 6.458 6.62 7.057 7.085 7.063 7.31 7.145 6.67 6.405 6.675 7.095 7.287 7.278 7.265 7.247 7.21 7.16 7.153 7.233 7.36 7.492 7.46 7.048 7.32 7.812 7.68 7.547 7.325 7.275 7.44 7.602 7.757 7.91 8.057 8.18 8.275 8.365 8.458 8.578 8.717 8.847 8.965 9.073 9.18 9.29 9.4
10.473 10.443 10.49 10.56 10.622 10.665 10.692 10.715 10.735 10.777 10.822 10.827 10.812 10.797 10.777 10.745 10.713 10.692 10.675 10.655 10.632 10.595 10.537 10.475 10.415 10.353 10.315 10.307 10.297 10.277 10.255 10.237 10.22 10.2 10.21 10.245 10.26 10.258 10.353 10.545 10.72 10.795 10.772 10.74 10.71 10.675 10.63 10.583 10.543 10.507 10.465 10.412 10.355 10.3 10.25 10.2 10.183 10.202 10.212 10.22 10.255 10.307 10.347 10.347 10.328 10.345 10.395 10.447 10.5 10.515 10.44 10.31 10.183 10.088 10.055 10.065 10.085 10.102 10.095 10.027 9.928 9.832 9.712 9.55 9.373 9.225 9.16 9.15 9.13 9.097 9.06 9.015 8.962 8.902 8.847 8.792 8.727 8.655 8.605 8.588 8.573 8.56 8.58 8.615 8.615 8.6 8.575 8.532 8.488 8.445 8.405 8.365 8.338 8.33 8.395 8.525 8.562 8.487 8.395 8.305 7.645 7.03 7.26 7.485 7.397 7.235 7.055 6.825 6.565 6.365 6.283 6.255 6.25 6.27 6.27 6.26 6.268 6.285 6.297 6.295 6.28 6.268 6.283 6.315 6.337 6.35 6.342 6.31 6.267 6.22 6.193 6.225 6.297 6.312 6.255 6.243 6.685 7.214 7.113 7.105 7.31 7.062 6.595 6.425 6.695 7.102 7.282 7.267 7.24 7.19 7.125 7.06 7.043 7.115 7.263 7.477 7.18 7.12 7.652 7.747 7.532 7.268 7.225 7.39 7.555 7.715 7.875 8.017 8.125 8.215 8.305 8.395 8.503 8.628 8.75 8.865 8.977 9.09 9.2 9.31
10.513 10.5 10.56 10.63 10.7 10.755 10.782 10.797 10.812 10.832 10.835 10.82 10.805 10.79 10.777 10.752 10.727 10.707 10.682 10.657 10.632 10.595 10.54 10.48 10.42 10.358 10.32 10.312 10.307 10.297 10.28 10.26 10.24 10.22 10.217 10.227 10.225 10.215 10.303 10.5 10.7 10.79 10.775 10.75 10.72 10.685 10.64 10.59 10.542 10.495 10.445 10.39 10.33 10.273 10.22 10.17 10.155 10.18 10.202 10.22 10.25 10.29 10.305 10.285 10.258 10.26 10.303 10.357 10.392 10.355 10.245 10.115 10 9.948 9.963 9.99 10.01 10.027 10.017 9.945 9.845 9.755 9.66 9.532 9.375 9.245 9.19 9.18 9.167 9.14 9.092 9.03 8.96 8.89 8.833 8.792 8.752 8.702 8.667 8.65 8.632 8.617 8.62 8.622 8.608 8.592 8.565 8.525 8.483 8.44 8.403 8.368 8.333 8.29 8.278 8.375 8.49 8.497 8.432 8.345 7.733 7.098 7.08 7.365 7.472 7.232 7.022 6.82 6.598 6.423 6.348 6.313 6.28 6.253 6.243 6.253 6.27 6.29 6.297 6.285 6.265 6.248 6.255 6.285 6.315 6.345 6.36 6.34 6.297 6.252 6.21 6.195 6.21 6.213 6.202 6.165 6.305 6.885 7.1 6.873 7.073 7.31 7.067 6.613 6.453 6.718 7.105 7.265 7.223 7.165 7.1 7.033 6.968 6.945 7.073 7.322 7.315 7.028 7.39 7.772 7.495 7.223 7.183 7.35 7.518 7.683 7.85 7.985 8.08 8.17 8.263 8.363 8.47 8.58 8.683 8.775 8.878 8.993 9.108 9.22
10.553 10.563 10.625 10.68 10.73 10.777 10.805 10.815 10.825 10.825 10.812 10.797 10.782 10.77 10.765 10.752 10.727 10.702 10.68 10.655 10.63 10.595 10.54 10.48 10.417 10.353 10.318 10.31 10.305 10.3 10.285 10.265 10.245 10.225 10.21 10.203 10.195 10.193 10.278 10.465 10.655 10.732 10.72 10.707 10.692 10.672 10.627 10.562 10.505 10.457 10.415 10.365 10.305 10.245 10.19 10.14 10.128 10.155 10.185 10.207 10.23 10.25 10.242 10.217 10.19 10.18 10.215 10.26 10.252 10.182 10.07 9.94 9.86 9.85 9.873 9.907 9.932 9.95 9.937 9.865 9.77 9.68 9.593 9.497 9.373 9.255 9.202 9.185 9.165 9.132 9.08 9.015 8.945 8.875 8.818 8.78 8.747 8.712 8.69 8.675 8.66 8.647 8.637 8.625 8.608 8.59 8.563 8.53 8.498 8.463 8.433 8.405 8.375 8.31 8.228 8.23 8.345 8.432 8.42 8.367 8.057 7.405 7.03 7.31 7.41 7.123 6.913 6.728 6.598 6.53 6.49 6.453 6.41 6.285 6.22 6.262 6.28 6.295 6.295 6.28 6.263 6.248 6.24 6.25 6.275 6.305 6.332 6.325 6.287 6.25 6.212 6.185 6.173 6.165 6.165 6.16 6.15 6.51 7.124 7.03 6.995 7.31 7.31 6.977 6.54 6.485 6.91 7.265 7.222 7.18 7.128 7.065 6.995 6.92 7.018 7.285 7.49 7.155 7.2 7.667 7.54 7.278 7.21 7.345 7.515 7.685 7.845 7.965 8.055 8.15 8.258 8.373 8.483 8.588 8.683 8.77 8.858 8.948 9.043 9.135
10.56 10.58 10.625 10.662 10.697 10.735 10.76 10.77 10.78 10.785 10.777 10.763 10.75 10.745 10.75 10.745 10.72 10.695 10.675 10.652 10.627 10.592 10.537 10.472 10.405 10.335 10.3 10.3 10.297 10.29 10.275 10.255 10.233 10.213 10.2 10.19 10.188 10.2 10.278 10.45 10.595 10.625 10.61 10.602 10.6 10.592 10.545 10.473 10.42 10.387 10.36 10.325 10.277 10.22 10.163 10.11 10.1 10.13 10.157 10.167 10.175 10.182 10.167 10.142 10.118 10.103 10.127 10.14 10.09 10.007 9.895 9.788 9.75 9.758 9.773 9.812 9.852 9.875 9.857 9.785 9.695 9.613 9.543 9.472 9.365 9.25 9.185 9.152 9.125 9.09 9.045 8.987 8.92 8.85 8.798 8.767 8.74 8.708 8.683 8.667 8.653 8.643 8.642 8.637 8.62 8.598 8.58 8.567 8.545 8.515 8.488 8.462 8.412 8.307 8.205 8.165 8.21 8.297 8.335 8.325 8.295 7.652 7.03 7.34 7.387 7.018 6.805 6.653 6.643 6.687 6.677 6.642 6.542 6.298 6.203 6.28 6.297 6.305 6.3 6.285 6.27 6.262 6.248 6.233 6.24 6.265 6.295 6.292 6.26 6.225 6.185 6.165 6.167 6.165 6.16 6.165 6.17 6.26 6.762 7.185 7.043 7.1 7.31 7.215 6.743 6.413 6.675 6.892 6.895 7.032 7.17 7.13 7.042 6.968 7.07 7.335 7.527 7.168 6.908 7.437 7.67 7.428 7.318 7.38 7.535 7.705 7.845 7.945 8.043 8.155 8.277 8.395 8.5 8.605 8.71 8.812 8.907 8.992 9.07 9.138
10.513 10.535 10.565 10.6 10.643 10.685 10.712 10.725 10.735 10.745 10.742 10.73 10.725 10.73 10.74 10.735 10.71 10.685 10.665 10.642 10.617 10.582 10.525 10.455 10.385 10.315 10.28 10.285 10.287 10.282 10.267 10.245 10.22 10.198 10.188 10.185 10.195 10.215 10.278 10.425 10.522 10.517 10.503 10.49 10.483 10.467 10.423 10.373 10.34 10.313 10.288 10.262 10.232 10.19 10.135 10.08 10.07 10.1 10.12 10.115 10.11 10.107 10.09 10.065 10.04 10.023 10.017 9.985 9.915 9.83 9.725 9.663 9.66 9.665 9.673 9.708 9.76 9.797 9.78 9.71 9.635 9.573 9.52 9.457 9.355 9.248 9.168 9.113 9.08 9.045 9 8.947 8.89 8.825 8.775 8.75 8.727 8.7 8.675 8.66 8.648 8.64 8.645 8.647 8.637 8.615 8.605 8.61 8.6 8.575 8.545 8.505 8.415 8.283 8.18 8.14 8.135 8.175 8.222 8.23 8.257 7.658 7.03 7.187 7.275 7.07 6.83 6.715 6.753 6.842 6.87 6.797 6.592 6.283 6.195 6.29 6.312 6.315 6.31 6.298 6.285 6.28 6.265 6.24 6.225 6.23 6.255 6.257 6.23 6.195 6.158 6.148 6.165 6.175 6.18 6.187 6.19 6.19 6.38 6.962 7.127 6.86 7.065 7.31 7.065 6.603 6.425 6.485 6.525 6.7 7.035 7.165 7.068 7.01 7.125 7.332 7.437 7.31 6.96 7.21 7.66 7.577 7.465 7.453 7.555 7.715 7.837 7.938 8.05 8.175 8.3 8.412 8.517 8.622 8.727 8.83 8.935 9.04 9.132 9.215
10.458 10.478 10.508 10.545 10.59 10.635 10.665 10.683 10.695 10.705 10.71 10.708 10.71 10.72 10.73 10.722 10.697 10.672 10.647 10.62 10.592 10.562 10.51 10.44 10.368 10.295 10.26 10.265 10.27 10.272 10.26 10.235 10.21 10.183 10.178 10.192 10.21 10.23 10.275 10.372 10.427 10.413 10.398 10.383 10.373 10.355 10.323 10.293 10.267 10.24 10.215 10.19 10.165 10.137 10.1 10.055 10.043 10.067 10.077 10.065 10.047 10.03 10.01 9.987 9.962 9.937 9.89 9.815 9.738 9.653 9.58 9.56 9.57 9.575 9.58 9.608 9.658 9.707 9.71 9.66 9.605 9.555 9.505 9.44 9.348 9.253 9.165 9.088 9.038 9 8.955 8.905 8.853 8.798 8.755 8.73 8.71 8.688 8.668 8.653 8.643 8.643 8.648 8.65 8.65 8.637 8.628 8.635 8.64 8.63 8.6 8.525 8.4 8.26 8.155 8.115 8.105 8.108 8.13 8.175 8.26 7.86 7.218 7.03 7.268 7.295 6.978 6.88 6.923 7.002 7.03 6.88 6.588 6.26 6.103 6.215 6.32 6.32 6.317 6.31 6.302 6.297 6.282 6.258 6.233 6.215 6.22 6.222 6.2 6.165 6.138 6.14 6.165 6.188 6.2 6.207 6.21 6.21 6.215 6.595 7.174 6.99 6.955 7.31 7.31 6.937 6.49 6.43 6.47 6.523 6.9 7.2 7.1 7.028 7.05 7.095 7.07 7.142 7.185 7.118 7.38 7.66 7.632 7.575 7.603 7.718 7.835 7.95 8.073 8.197 8.32 8.43 8.533 8.638 8.743 8.847 8.952 9.057 9.16 9.262
10.46 10.473 10.488 10.515 10.558 10.603 10.635 10.653 10.665 10.68 10.7 10.713 10.72 10.727 10.722 10.705 10.68 10.65 10.62 10.59 10.56 10.535 10.492 10.425 10.353 10.28 10.243 10.245 10.25 10.255 10.242 10.212 10.187 10.16 10.16 10.187 10.212 10.237 10.272 10.312 10.33 10.325 10.318 10.313 10.31 10.295 10.258 10.22 10.193 10.167 10.142 10.117 10.092 10.067 10.042 10.012 10.002 10.017 10.02 10.002 9.977 9.955 9.933 9.91 9.885 9.852 9.785 9.685 9.59 9.51 9.475 9.48 9.49 9.498 9.508 9.528 9.565 9.62 9.647 9.625 9.582 9.535 9.487 9.427 9.348 9.26 9.17 9.083 9.01 8.958 8.913 8.87 8.828 8.79 8.768 8.75 8.728 8.705 8.688 8.67 8.658 8.658 8.658 8.655 8.658 8.655 8.65 8.655 8.662 8.66 8.62 8.517 8.38 8.24 8.133 8.09 8.083 8.078 8.095 8.17 8.287 8.242 7.582 7.03 7.455 7.575 7.153 7.063 7.12 7.16 7.12 6.927 6.643 6.365 6.095 6.053 6.232 6.32 6.32 6.317 6.317 6.315 6.3 6.275 6.248 6.223 6.205 6.193 6.18 6.168 6.163 6.175 6.198 6.225 6.235 6.23 6.23 6.23 6.23 6.33 6.83 7.177 7.003 7.095 7.31 7.177 6.703 6.383 6.433 6.488 6.715 7.055 7.152 7.065 6.99 6.93 6.868 6.873 7.212 7.143 6.976 7.47 7.727 7.68 7.675 7.738 7.85 7.973 8.097 8.22 8.337 8.447 8.55 8.655 8.76 8.863 8.967 9.072 9.177 9.28
10.51 10.52 10.52 10.525 10.55 10.588 10.62 10.638 10.658 10.688 10.72 10.74 10.745 10.732 10.702 10.68 10.662 10.633 10.598 10.563 10.53 10.503 10.467 10.41 10.34 10.273 10.235 10.23 10.23 10.235 10.22 10.183 10.155 10.13 10.13 10.16 10.19 10.22 10.25 10.267 10.275 10.283 10.285 10.288 10.292 10.277 10.223 10.16 10.12 10.093 10.068 10.042 10.017 9.99 9.96 9.94 9.937 9.945 9.945 9.927 9.902 9.88 9.857 9.832 9.802 9.765 9.695 9.59 9.495 9.433 9.413 9.42 9.43 9.44 9.453 9.465 9.49 9.537 9.57 9.567 9.547 9.51 9.465 9.425 9.367 9.285 9.195 9.105 9.018 8.945 8.898 8.868 8.84 8.818 8.81 8.802 8.782 8.76 8.74 8.72 8.703 8.693 8.688 8.683 8.68 8.678 8.668 8.655 8.645 8.632 8.572 8.457 8.332 8.205 8.108 8.073 8.07 8.07 8.098 8.175 8.283 8.405 7.75 7.03 7.292 7.547 7.38 7.23 7.247 7.217 7.107 6.922 6.692 6.497 6.29 6.063 6.055 6.232 6.32 6.32 6.322 6.325 6.32 6.302 6.275 6.25 6.225 6.208 6.21 6.22 6.23 6.245 6.265 6.282 6.28 6.263 6.253 6.25 6.25 6.25 6.463 7.022 7.127 6.89 7.103 7.31 7.065 6.595 6.4 6.457 6.515 6.9 7.225 7.15 7.073 7.007 6.928 6.908 7.21 7.352 6.998 7.29 7.79 7.775 7.775 7.798 7.878 7.997 8.12 8.242 8.357 8.463 8.567 8.672 8.777 8.88 8.982 9.082 9.18 9.277
10.563 10.568 10.567 10.565 10.568 10.583 10.608 10.635 10.67 10.71 10.747 10.762 10.745 10.707 10.668 10.648 10.64 10.622 10.59 10.55 10.513 10.478 10.445 10.397 10.33 10.265 10.23 10.22 10.213 10.215 10.2 10.16 10.128 10.1 10.1 10.13 10.16 10.19 10.213 10.23 10.245 10.255 10.265 10.272 10.277 10.262 10.205 10.128 10.063 10.02 9.995 9.967 9.935 9.903 9.873 9.86 9.863 9.867 9.862 9.845 9.823 9.8 9.78 9.752 9.715 9.675 9.602 9.51 9.44 9.39 9.37 9.375 9.383 9.39 9.4 9.41 9.425 9.455 9.48 9.485 9.485 9.47 9.44 9.42 9.392 9.33 9.245 9.152 9.057 8.97 8.915 8.89 8.867 8.85 8.845 8.845 8.835 8.815 8.795 8.775 8.755 8.737 8.73 8.725 8.717 8.71 8.692 8.665 8.633 8.595 8.515 8.398 8.283 8.168 8.068 8.038 8.062 8.075 8.107 8.19 8.287 8.365 7.713 7.03 7.03 7.502 7.755 7.415 7.26 7.163 7.03 6.868 6.69 6.555 6.457 6.285 6.063 6.053 6.14 6.23 6.32 6.322 6.327 6.327 6.315 6.292 6.27 6.265 6.275 6.285 6.298 6.315 6.338 6.352 6.345 6.32 6.293 6.275 6.27 6.27 6.288 6.675 7.202 6.94 6.915 7.31 7.31 6.925 6.463 6.415 6.475 6.705 6.905 7.047 7.152 7.07 6.965 6.945 7.177 7.472 7.178 7.21 7.772 7.905 7.905 7.905 7.933 8.02 8.143 8.265 8.377 8.48 8.582 8.687 8.79 8.887 8.985 9.08 9.17 9.262
10.622 10.617 10.615 10.615 10.605 10.595 10.613 10.65 10.69 10.73 10.765 10.765 10.723 10.673 10.633 10.615 10.61 10.602 10.585 10.55 10.51 10.47 10.432 10.385 10.322 10.26 10.225 10.215 10.205 10.2 10.18 10.14 10.103 10.073 10.075 10.105 10.135 10.168 10.193 10.208 10.22 10.23 10.243 10.255 10.262 10.25 10.195 10.113 10.03 9.963 9.923 9.893 9.855 9.82 9.8 9.793 9.793 9.793 9.783 9.765 9.745 9.728 9.705 9.668 9.625 9.585 9.523 9.455 9.403 9.355 9.335 9.338 9.34 9.343 9.35 9.36 9.37 9.383 9.395 9.405 9.415 9.42 9.412 9.397 9.382 9.352 9.282 9.182 9.077 8.98 8.923 8.9 8.882 8.872 8.872 8.877 8.877 8.862 8.84 8.817 8.795 8.772 8.762 8.76 8.75 8.74 8.72 8.682 8.635 8.582 8.495 8.378 8.26 8.143 8.028 7.975 8.007 8.05 8.072 8.102 8.145 8.16 7.718 7.155 7.03 7.64 8.14 7.902 7.738 7.657 7.493 7.168 6.88 6.733 6.618 6.51 6.328 6.17 6.055 6.055 6.14 6.23 6.325 6.335 6.34 6.332 6.323 6.328 6.345 6.363 6.378 6.395 6.418 6.44 6.437 6.405 6.363 6.323 6.298 6.29 6.295 6.41 6.875 7.092 6.905 7.083 7.31 7.165 6.68 6.37 6.427 6.475 6.52 6.723 7.032 7.107 6.99 6.935 7.028 7.177 7.155 7.09 7.573 8.035 8.035 8.035 8.035 8.07 8.168 8.285 8.392 8.495 8.592 8.692 8.79 8.88 8.972 9.065 9.155 9.245
10.662 10.655 10.65 10.645 10.625 10.608 10.625 10.665 10.707 10.747 10.77 10.762 10.72 10.663 10.618 10.593 10.58 10.573 10.565 10.545 10.51 10.47 10.425 10.37 10.31 10.253 10.215 10.2 10.19 10.18 10.157 10.12 10.083 10.055 10.06 10.093 10.125 10.16 10.19 10.208 10.22 10.23 10.24 10.248 10.255 10.245 10.19 10.108 10.023 9.938 9.88 9.85 9.818 9.783 9.765 9.763 9.758 9.75 9.738 9.72 9.703 9.688 9.66 9.618 9.573 9.53 9.483 9.43 9.38 9.333 9.31 9.31 9.31 9.313 9.323 9.335 9.343 9.34 9.335 9.343 9.355 9.365 9.365 9.352 9.337 9.315 9.257 9.16 9.052 8.963 8.915 8.898 8.885 8.88 8.885 8.89 8.885 8.862 8.832 8.807 8.787 8.777 8.78 8.78 8.77 8.76 8.73 8.675 8.618 8.565 8.482 8.365 8.245 8.125 8.008 7.918 7.908 7.937 7.892 7.827 7.81 7.82 7.857 7.455 7.03 7.67 8.294 8.282 8.265 8.222 8.102 7.832 7.59 7.472 7.385 7.212 6.85 6.555 6.375 6.233 6.083 6.05 6.232 6.33 6.34 6.352 6.385 6.423 6.448 6.47 6.485 6.5 6.517 6.53 6.52 6.482 6.435 6.385 6.338 6.313 6.313 6.318 6.53 7.055 7.11 6.833 7.063 7.31 7.062 6.585 6.38 6.428 6.475 6.535 6.88 7.132 7.02 6.925 6.898 6.93 7.165 7.083 7.473 8.162 8.165 8.165 8.165 8.17 8.213 8.3 8.4 8.497 8.59 8.682 8.775 8.865 8.955 9.048 9.14 9.23
10.64 10.635 10.632 10.632 10.62 10.615 10.64 10.68 10.722 10.755 10.762 10.757 10.732 10.68 10.63 10.598 10.575 10.558 10.543 10.528 10.502 10.462 10.41 10.353 10.295 10.238 10.198 10.178 10.165 10.155 10.132 10.098 10.068 10.048 10.055 10.088 10.123 10.16 10.192 10.212 10.227 10.237 10.245 10.252 10.257 10.245 10.19 10.105 10.015 9.925 9.868 9.84 9.81 9.775 9.755 9.755 9.752 9.745 9.727 9.705 9.688 9.67 9.64 9.6 9.557 9.512 9.465 9.415 9.365 9.318 9.293 9.29 9.295 9.305 9.318 9.33 9.33 9.315 9.3 9.295 9.3 9.31 9.31 9.3 9.277 9.237 9.187 9.11 9.008 8.935 8.908 8.895 8.888 8.883 8.885 8.89 8.862 8.813 8.778 8.76 8.758 8.77 8.787 8.792 8.785 8.772 8.732 8.668 8.605 8.55 8.47 8.355 8.235 8.115 7.987 7.848 7.775 7.75 7.64 7.503 7.445 7.503 7.82 7.552 7.03 7.365 8.015 8.342 8.332 8.287 8.245 8.202 8.157 8.115 8.072 7.937 7.612 7.352 7.265 7.192 6.777 6.178 6.05 6.2 6.265 6.333 6.465 6.55 6.572 6.59 6.6 6.6 6.6 6.595 6.58 6.545 6.495 6.442 6.388 6.345 6.33 6.333 6.343 6.71 7.204 6.875 6.86 7.31 7.31 7.065 6.59 6.385 6.443 6.675 7.047 7.172 7.075 6.98 6.92 6.935 7.197 7.113 7.368 8.127 8.32 8.33 8.33 8.302 8.265 8.3 8.395 8.485 8.575 8.665 8.758 8.85 8.94 9.032 9.125 9.215
10.578 10.573 10.575 10.588 10.6 10.62 10.655 10.695 10.732 10.752 10.75 10.745 10.735 10.697 10.653 10.625 10.6 10.575 10.55 10.525 10.497 10.452 10.395 10.338 10.283 10.225 10.185 10.165 10.148 10.132 10.108 10.078 10.055 10.04 10.05 10.083 10.12 10.157 10.192 10.217 10.232 10.243 10.25 10.257 10.26 10.245 10.185 10.092 9.998 9.908 9.853 9.827 9.8 9.768 9.748 9.745 9.745 9.74 9.72 9.695 9.673 9.65 9.62 9.58 9.54 9.497 9.45 9.4 9.35 9.303 9.278 9.278 9.288 9.302 9.312 9.315 9.305 9.288 9.273 9.26 9.255 9.26 9.26 9.24 9.2 9.153 9.107 9.05 8.968 8.915 8.905 8.895 8.89 8.885 8.882 8.877 8.825 8.758 8.733 8.735 8.75 8.77 8.79 8.805 8.805 8.782 8.732 8.665 8.598 8.537 8.457 8.342 8.212 8.075 7.927 7.748 7.61 7.53 7.402 7.238 7.115 7.18 7.492 7.57 7.235 7.031 7.6 8.13 8.085 8.11 8.16 8.195 8.19 8.15 8.107 8.062 8.02 7.977 7.935 7.892 7.6 7.102 6.418 6.018 6.462 6.837 6.783 6.708 6.675 6.678 6.675 6.66 6.645 6.635 6.625 6.6 6.555 6.5 6.445 6.393 6.358 6.35 6.303 6.38 6.867 7.075 6.893 7.088 7.31 7.31 7.067 6.603 6.423 6.67 7.06 7.205 7.122 7.042 6.968 7.018 7.265 7.25 7.153 7.885 8.527 8.497 8.452 8.387 8.298 8.295 8.387 8.475 8.565 8.653 8.743 8.835 8.925 9.015 9.108 9.2
10.563 10.545 10.543 10.563 10.588 10.623 10.665 10.705 10.727 10.73 10.727 10.725 10.722 10.707 10.68 10.653 10.627 10.602 10.575 10.542 10.502 10.45 10.39 10.33 10.273 10.215 10.175 10.152 10.13 10.118 10.1 10.075 10.053 10.033 10.043 10.08 10.12 10.155 10.19 10.22 10.238 10.25 10.26 10.262 10.255 10.235 10.172 10.077 9.983 9.893 9.838 9.813 9.785 9.758 9.743 9.738 9.735 9.732 9.715 9.688 9.66 9.633 9.603 9.565 9.525 9.485 9.44 9.39 9.34 9.293 9.268 9.27 9.283 9.297 9.302 9.292 9.275 9.26 9.245 9.23 9.22 9.213 9.198 9.163 9.118 9.073 9.028 8.983 8.938 8.913 8.905 8.898 8.892 8.885 8.88 8.852 8.78 8.72 8.713 8.73 8.75 8.77 8.79 8.81 8.817 8.787 8.727 8.663 8.595 8.53 8.435 8.297 8.15 7.995 7.825 7.625 7.44 7.303 7.16 7.015 6.89 6.948 7.265 7.655 7.437 7.03 7.488 7.857 7.725 7.658 7.645 7.672 7.687 7.695 7.772 7.892 7.962 7.965 7.93 7.885 7.84 7.799 7.002 6.093 6.345 7.089 7.244 6.895 6.837 6.935 6.905 6.823 6.74 6.685 6.665 6.648 6.61 6.558 6.505 6.45 6.4 6.37 6.282 6.198 6.47 7.095 7.152 6.863 7.085 7.31 7.309 6.83 6.405 6.515 6.88 7.192 7.157 7.087 7.013 7.035 7.207 7.357 7.1 7.583 8.489 8.57 8.485 8.41 8.315 8.295 8.382 8.475 8.562 8.648 8.735 8.825 8.913 9 9.093 9.185
10.615 10.578 10.555 10.568 10.593 10.628 10.672 10.7 10.69 10.678 10.68 10.68 10.682 10.692 10.695 10.677 10.652 10.622 10.587 10.55 10.505 10.45 10.39 10.33 10.267 10.203 10.16 10.138 10.12 10.123 10.117 10.095 10.073 10.053 10.055 10.085 10.125 10.163 10.2 10.232 10.253 10.265 10.265 10.255 10.242 10.217 10.155 10.06 9.968 9.883 9.828 9.803 9.775 9.753 9.745 9.743 9.738 9.735 9.72 9.693 9.665 9.635 9.603 9.565 9.525 9.48 9.433 9.385 9.335 9.29 9.268 9.27 9.282 9.29 9.285 9.27 9.25 9.235 9.22 9.203 9.188 9.173 9.155 9.125 9.083 9.038 8.995 8.958 8.93 8.915 8.908 8.902 8.895 8.888 8.885 8.85 8.778 8.728 8.72 8.735 8.755 8.775 8.795 8.812 8.822 8.792 8.728 8.665 8.6 8.535 8.412 8.235 8.068 7.9 7.715 7.52 7.338 7.195 7.078 6.97 6.88 6.93 7.255 7.652 7.425 7.03 7.485 7.827 7.6 7.36 7.188 7.113 7.08 7.085 7.16 7.28 7.352 7.352 7.327 7.362 7.495 7.665 7.422 6.53 5.961 6.388 7.089 7.025 6.865 7.147 7.302 7.33 7.23 7.105 7.015 6.93 6.833 6.725 6.615 6.488 6.388 6.338 6.255 6.143 6.193 6.762 7.322 7.147 6.885 6.863 6.895 6.645 6.405 6.523 6.71 7.045 7.202 7.127 7.045 6.998 7.065 7.232 7.11 7.161 8.027 8.582 8.51 8.43 8.323 8.29 8.373 8.472 8.558 8.645 8.735 8.822 8.908 8.995 9.085 9.173
10.682 10.635 10.593 10.58 10.6 10.635 10.67 10.67 10.635 10.615 10.618 10.623 10.635 10.66 10.68 10.682 10.662 10.63 10.592 10.55 10.505 10.45 10.387 10.322 10.255 10.185 10.14 10.125 10.125 10.142 10.147 10.128 10.108 10.095 10.09 10.103 10.135 10.175 10.215 10.252 10.28 10.295 10.283 10.253 10.23 10.2 10.135 10.045 9.96 9.88 9.825 9.798 9.775 9.76 9.755 9.755 9.752 9.75 9.735 9.707 9.68 9.65 9.615 9.575 9.532 9.48 9.428 9.382 9.338 9.295 9.275 9.28 9.285 9.28 9.267 9.25 9.233 9.22 9.205 9.18 9.155 9.14 9.142 9.13 9.088 9.045 9.005 8.97 8.94 8.92 8.912 8.905 8.9 8.905 8.907 8.877 8.815 8.765 8.748 8.75 8.763 8.78 8.8 8.817 8.822 8.792 8.735 8.675 8.612 8.545 8.4 8.195 8.01 7.85 7.7 7.54 7.38 7.25 7.165 7.092 7.01 7.03 7.303 7.642 7.435 7.063 7.485 7.782 7.498 7.25 7.075 6.973 6.895 6.845 6.8 6.755 6.713 6.668 6.638 6.675 6.82 7.013 7.11 6.675 6.098 5.961 6.517 6.785 6.675 7.035 7.395 7.667 7.787 7.82 7.747 7.59 7.43 7.265 7.095 6.91 6.753 6.64 6.502 6.313 6.161 6.348 7.07 7.502 7.205 6.785 6.58 6.475 6.448 6.535 6.57 6.743 7.062 7.165 7.063 6.983 6.99 7.098 7.24 7.06 7.388 8.265 8.537 8.445 8.33 8.28 8.353 8.465 8.555 8.645 8.732 8.818 8.905 8.995 9.082 9.168
10.74 10.69 10.64 10.605 10.61 10.642 10.652 10.625 10.583 10.555 10.558 10.575 10.6 10.63 10.647 10.635 10.6 10.57 10.542 10.51 10.487 10.447 10.38 10.31 10.24 10.17 10.128 10.128 10.145 10.17 10.18 10.165 10.15 10.14 10.133 10.133 10.15 10.185 10.225 10.265 10.302 10.33 10.32 10.28 10.24 10.197 10.128 10.04 9.958 9.875 9.823 9.8 9.783 9.77 9.765 9.765 9.765 9.765 9.75 9.72 9.693 9.662 9.625 9.582 9.532 9.478 9.425 9.38 9.34 9.3 9.28 9.282 9.277 9.265 9.252 9.235 9.22 9.21 9.195 9.165 9.13 9.11 9.12 9.125 9.095 9.055 9.018 8.983 8.95 8.928 8.915 8.913 8.923 8.94 8.942 8.91 8.853 8.808 8.788 8.775 8.775 8.788 8.803 8.82 8.817 8.782 8.732 8.68 8.625 8.547 8.387 8.168 7.983 7.858 7.755 7.635 7.495 7.353 7.258 7.197 7.13 7.128 7.318 7.6 7.64 7.293 7.26 7.527 7.42 7.15 6.97 6.858 6.755 6.68 6.628 6.583 6.545 6.518 6.495 6.473 6.455 6.45 6.453 6.438 6.28 6.05 6.125 6.265 6.41 6.663 6.88 7.16 7.432 7.667 7.792 7.815 7.825 7.825 7.71 7.487 7.262 7.037 6.787 6.513 6.83 7.338 7.608 7.775 7.667 7.415 7.1 6.935 6.71 6.55 6.57 6.57 6.91 7.192 7.075 6.99 7.023 7.158 7.442 7.422 7.126 7.833 8.562 8.455 8.34 8.27 8.325 8.452 8.555 8.642 8.728 8.815 8.905 8.992 9.078 9.165
10.787 10.74 10.692 10.648 10.628 10.632 10.612 10.57 10.53 10.508 10.518 10.545 10.575 10.6 10.59 10.537 10.485 10.455 10.435 10.425 10.445 10.435 10.367 10.295 10.225 10.16 10.13 10.145 10.17 10.195 10.21 10.202 10.19 10.18 10.172 10.17 10.175 10.198 10.235 10.275 10.317 10.355 10.35 10.307 10.262 10.217 10.145 10.05 9.96 9.873 9.823 9.81 9.798 9.783 9.775 9.775 9.775 9.775 9.762 9.735 9.707 9.677 9.635 9.585 9.53 9.475 9.428 9.385 9.345 9.305 9.28 9.273 9.263 9.25 9.24 9.228 9.215 9.203 9.183 9.155 9.128 9.108 9.105 9.115 9.102 9.065 9.03 8.998 8.965 8.938 8.928 8.94 8.96 8.982 8.977 8.935 8.883 8.845 8.825 8.805 8.798 8.805 8.813 8.822 8.81 8.765 8.717 8.672 8.622 8.537 8.367 8.148 7.98 7.873 7.777 7.68 7.57 7.447 7.347 7.277 7.212 7.178 7.3 7.553 7.805 7.477 7.028 7.293 7.392 7.1 6.91 6.79 6.673 6.563 6.49 6.458 6.443 6.435 6.43 6.425 6.413 6.398 6.38 6.353 6.327 6.14 5.995 6.025 6.1 6.35 6.573 6.693 6.815 6.928 7.035 7.185 7.382 7.58 7.675 7.6 7.392 7.115 6.835 6.596 7.472 8.589 8.5 8.2 8.048 7.9 7.808 7.882 7.547 6.84 6.57 6.57 6.932 7.28 7.228 7.183 7.24 7.375 7.57 7.725 7.288 7.683 8.547 8.483 8.355 8.26 8.295 8.432 8.547 8.638 8.725 8.815 8.902 8.988 9.075 9.165
10.792 10.752 10.71 10.667 10.637 10.618 10.585 10.548 10.513 10.495 10.51 10.54 10.565 10.567 10.51 10.425 10.37 10.34 10.335 10.358 10.402 10.412 10.355 10.28 10.21 10.163 10.15 10.165 10.19 10.215 10.232 10.23 10.22 10.208 10.2 10.2 10.203 10.218 10.253 10.295 10.335 10.367 10.365 10.325 10.283 10.245 10.175 10.075 9.98 9.89 9.843 9.833 9.82 9.808 9.795 9.79 9.79 9.79 9.78 9.755 9.725 9.695 9.65 9.595 9.54 9.488 9.443 9.4 9.36 9.32 9.288 9.27 9.26 9.25 9.24 9.228 9.215 9.205 9.19 9.17 9.155 9.143 9.128 9.123 9.11 9.078 9.045 9.015 8.985 8.96 8.96 8.98 9.002 9.02 9 8.95 8.903 8.87 8.85 8.833 8.823 8.825 8.83 8.825 8.792 8.743 8.697 8.65 8.6 8.512 8.337 8.138 7.995 7.89 7.793 7.697 7.6 7.5 7.4 7.312 7.232 7.163 7.258 7.507 7.76 7.452 7.023 7.307 7.402 7.093 6.905 6.778 6.653 6.523 6.43 6.405 6.403 6.41 6.42 6.413 6.4 6.385 6.363 6.345 6.327 6.138 6.08 6.162 6.068 6.265 6.572 6.63 6.628 6.613 6.598 6.643 6.75 6.873 7.033 7.187 7.245 7.13 6.883 6.833 7.625 8.599 8.79 8.635 8.503 8.413 8.378 8.552 8.639 7.56 6.57 6.57 6.948 7.455 7.57 7.563 7.615 7.708 7.82 7.947 7.473 7.73 8.602 8.6 8.445 8.293 8.275 8.405 8.532 8.635 8.725 8.812 8.898 8.985 9.075 9.178
10.752 10.717 10.68 10.643 10.628 10.62 10.595 10.565 10.525 10.5 10.515 10.537 10.542 10.52 10.44 10.33 10.255 10.238 10.268 10.315 10.365 10.387 10.345 10.27 10.215 10.195 10.19 10.19 10.208 10.232 10.245 10.245 10.242 10.233 10.225 10.225 10.228 10.243 10.278 10.317 10.347 10.372 10.377 10.345 10.308 10.275 10.205 10.105 10.008 9.918 9.873 9.865 9.855 9.845 9.83 9.815 9.81 9.81 9.797 9.77 9.742 9.715 9.67 9.615 9.563 9.515 9.47 9.423 9.38 9.34 9.308 9.285 9.27 9.26 9.25 9.235 9.225 9.228 9.225 9.212 9.198 9.185 9.172 9.157 9.133 9.1 9.07 9.038 9.01 8.998 9.003 9.022 9.04 9.037 9.005 8.958 8.918 8.89 8.87 8.855 8.845 8.845 8.85 8.825 8.768 8.715 8.67 8.62 8.57 8.48 8.31 8.14 8.018 7.91 7.81 7.715 7.617 7.512 7.405 7.305 7.215 7.133 7.215 7.46 7.71 7.427 7.02 7.357 7.45 7.09 6.91 6.782 6.652 6.518 6.41 6.37 6.375 6.41 6.437 6.427 6.41 6.39 6.367 6.345 6.242 6.055 6.1 6.272 6.25 6.21 6.353 6.482 6.485 6.485 6.482 6.472 6.463 6.475 6.533 6.638 6.763 6.785 6.767 6.862 7.05 7.832 8.732 9.017 9.047 9.002 8.96 8.973 9.242 8.025 6.571 6.57 6.953 7.56 7.865 7.955 8.013 8.108 8.205 8.272 8.118 8.18 8.645 8.777 8.582 8.375 8.303 8.393 8.513 8.63 8.722 8.808 8.898 9.003 9.118 9.245
10.708 10.675 10.64 10.615 10.618 10.627 10.615 10.58 10.53 10.503 10.51 10.507 10.49 10.46 10.38 10.26 10.188 10.19 10.228 10.278 10.33 10.365 10.335 10.273 10.245 10.24 10.235 10.228 10.233 10.25 10.26 10.26 10.26 10.255 10.25 10.25 10.25 10.265 10.3 10.332 10.355 10.377 10.387 10.365 10.335 10.305 10.235 10.135 10.035 9.945 9.9 9.895 9.89 9.88 9.865 9.845 9.83 9.825 9.812 9.785 9.757 9.73 9.687 9.638 9.593 9.55 9.505 9.455 9.405 9.36 9.33 9.305 9.283 9.27 9.258 9.25 9.255 9.265 9.265 9.255 9.242 9.227 9.215 9.195 9.162 9.127 9.095 9.068 9.05 9.043 9.048 9.06 9.06 9.045 9.01 8.968 8.938 8.913 8.893 8.88 8.87 8.867 8.862 8.817 8.745 8.688 8.64 8.59 8.537 8.445 8.298 8.158 8.043 7.933 7.83 7.73 7.625 7.515 7.408 7.303 7.203 7.113 7.18 7.413 7.66 7.403 7.02 7.42 7.507 7.088 6.915 6.783 6.648 6.513 6.39 6.335 6.36 6.42 6.45 6.437 6.417 6.393 6.37 6.347 6.155 5.968 6.05 6.26 6.365 6.258 6.245 6.33 6.332 6.327 6.317 6.3 6.283 6.288 6.325 6.363 6.383 6.388 6.475 6.505 6.298 6.738 7.642 8.245 8.647 8.975 9.175 9.182 9.419 8.105 6.571 6.57 6.958 7.57 7.997 8.28 8.41 8.51 8.61 8.697 8.84 8.82 8.843 8.89 8.68 8.46 8.373 8.43 8.518 8.623 8.72 8.823 8.94 9.07 9.21 9.32
10.663 10.63 10.605 10.6 10.613 10.627 10.625 10.587 10.527 10.492 10.48 10.455 10.43 10.4 10.323 10.238 10.215 10.225 10.24 10.268 10.303 10.34 10.33 10.295 10.288 10.285 10.28 10.272 10.268 10.27 10.275 10.275 10.275 10.273 10.27 10.273 10.275 10.288 10.315 10.34 10.36 10.38 10.395 10.387 10.365 10.335 10.265 10.165 10.065 9.975 9.93 9.925 9.92 9.91 9.895 9.877 9.86 9.845 9.827 9.8 9.773 9.745 9.707 9.665 9.625 9.585 9.54 9.49 9.437 9.385 9.35 9.325 9.3 9.283 9.273 9.28 9.295 9.305 9.305 9.292 9.28 9.267 9.25 9.22 9.185 9.15 9.12 9.105 9.095 9.087 9.087 9.082 9.067 9.05 9.02 8.988 8.962 8.935 8.915 8.905 8.895 8.89 8.865 8.8 8.722 8.66 8.607 8.555 8.502 8.42 8.305 8.185 8.07 7.958 7.848 7.738 7.628 7.52 7.413 7.305 7.198 7.098 7.15 7.37 7.615 7.555 7.195 7.322 7.437 7.123 6.928 6.79 6.653 6.515 6.38 6.32 6.36 6.43 6.457 6.44 6.42 6.397 6.372 6.35 6.187 5.998 6.09 6.307 6.38 6.31 6.225 6.19 6.178 6.163 6.148 6.13 6.113 6.103 6.125 6.173 6.215 6.245 6.265 6.28 6.293 6.373 6.636 7.118 7.618 8.218 8.785 8.71 8.537 7.592 6.57 6.57 6.95 7.495 7.865 8.357 8.73 8.87 8.942 9.007 9.037 9.082 9.07 8.907 8.722 8.528 8.45 8.505 8.578 8.66 8.765 8.893 9.03 9.17 9.292 9.372
10.618 10.598 10.603 10.615 10.628 10.635 10.612 10.562 10.497 10.442 10.412 10.387 10.365 10.34 10.303 10.285 10.295 10.305 10.313 10.318 10.328 10.343 10.34 10.33 10.327 10.325 10.32 10.31 10.3 10.295 10.295 10.295 10.295 10.298 10.303 10.308 10.31 10.318 10.338 10.36 10.383 10.405 10.422 10.417 10.392 10.365 10.297 10.198 10.1 10.01 9.968 9.963 9.955 9.94 9.92 9.902 9.885 9.867 9.845 9.818 9.792 9.762 9.722 9.68 9.64 9.6 9.555 9.505 9.452 9.4 9.365 9.34 9.315 9.295 9.29 9.302 9.315 9.325 9.327 9.315 9.3 9.285 9.26 9.227 9.195 9.16 9.138 9.132 9.125 9.12 9.11 9.09 9.07 9.05 9.025 9 8.975 8.953 8.94 8.93 8.92 8.897 8.842 8.765 8.688 8.622 8.568 8.515 8.473 8.417 8.33 8.222 8.108 7.993 7.878 7.763 7.653 7.543 7.43 7.318 7.205 7.095 7.125 7.33 7.572 7.757 7.42 7.108 7.282 7.25 7.098 6.998 6.86 6.69 6.445 6.305 6.348 6.425 6.45 6.425 6.405 6.385 6.362 6.34 6.19 6.008 6.065 6.232 6.302 6.277 6.198 6.143 6.13 6.11 6.093 6.075 6.065 6.085 6.075 6.065 6.11 6.16 6.258 6.398 6.49 6.543 6.68 6.968 7.303 7.638 8.207 8.125 7.518 6.978 6.57 6.57 6.943 7.395 7.593 7.99 8.432 8.692 8.822 8.922 8.907 8.977 9.045 8.872 8.697 8.543 8.518 8.597 8.673 8.758 8.873 9.005 9.137 9.252 9.337 9.42
10.595 10.608 10.632 10.652 10.657 10.632 10.572 10.505 10.435 10.36 10.315 10.295 10.28 10.29 10.327 10.36 10.375 10.387 10.397 10.402 10.405 10.382 10.363 10.365 10.36 10.355 10.35 10.34 10.33 10.323 10.32 10.32 10.325 10.338 10.35 10.355 10.345 10.338 10.365 10.405 10.432 10.457 10.467 10.45 10.423 10.397 10.335 10.238 10.143 10.055 10.013 10.005 9.99 9.962 9.935 9.918 9.9 9.885 9.865 9.84 9.812 9.772 9.727 9.683 9.64 9.6 9.555 9.505 9.453 9.405 9.373 9.347 9.323 9.3 9.295 9.307 9.317 9.325 9.332 9.325 9.307 9.28 9.245 9.217 9.192 9.16 9.143 9.145 9.142 9.14 9.125 9.095 9.07 9.05 9.025 9 8.98 8.97 8.965 8.955 8.93 8.872 8.795 8.718 8.643 8.575 8.525 8.49 8.465 8.422 8.35 8.262 8.155 8.04 7.925 7.81 7.697 7.583 7.468 7.353 7.24 7.133 7.11 7.275 7.527 7.77 7.457 7.02 7.258 7.427 7.345 7.31 7.17 6.875 6.48 6.27 6.325 6.415 6.44 6.403 6.373 6.35 6.33 6.287 6.128 5.988 5.985 6.065 6.14 6.172 6.167 6.165 6.185 6.167 6.15 6.148 6.188 6.267 6.215 6.098 6.103 6.168 6.333 6.567 6.75 6.867 6.975 7.18 7.387 7.445 7.79 7.885 7.28 6.75 6.57 6.57 6.943 7.37 7.475 7.59 7.84 8.173 8.425 8.632 8.328 8.458 8.95 8.815 8.635 8.528 8.58 8.695 8.778 8.873 8.995 9.117 9.217 9.28 9.343 9.427
10.61 10.64 10.667 10.682 10.657 10.59 10.515 10.44 10.36 10.278 10.215 10.193 10.21 10.273 10.35 10.41 10.45 10.472 10.48 10.482 10.465 10.415 10.388 10.39 10.39 10.387 10.38 10.37 10.36 10.35 10.345 10.35 10.365 10.387 10.402 10.397 10.37 10.345 10.378 10.442 10.482 10.507 10.51 10.485 10.457 10.43 10.372 10.282 10.19 10.103 10.055 10.04 10.012 9.978 9.95 9.935 9.92 9.905 9.887 9.857 9.82 9.777 9.732 9.685 9.64 9.6 9.555 9.505 9.458 9.415 9.38 9.355 9.33 9.303 9.298 9.31 9.318 9.325 9.335 9.332 9.31 9.27 9.228 9.2 9.18 9.158 9.15 9.155 9.157 9.16 9.142 9.108 9.075 9.05 9.028 9.008 8.995 8.99 8.985 8.957 8.9 8.825 8.745 8.67 8.6 8.545 8.513 8.493 8.475 8.427 8.355 8.28 8.192 8.087 7.972 7.858 7.743 7.63 7.518 7.405 7.295 7.198 7.13 7.223 7.47 7.725 7.432 7.018 7.34 7.62 7.527 7.462 7.315 6.983 6.588 6.34 6.328 6.41 6.435 6.39 6.345 6.315 6.292 6.212 6.083 6.005 6 6.018 6.035 6.08 6.113 6.163 6.222 6.223 6.23 6.285 6.38 6.477 6.407 6.21 6.12 6.19 6.385 6.63 6.875 7.092 7.257 7.377 7.4 7.343 7.458 7.595 7.08 6.57 6.57 6.75 7.125 7.362 7.442 7.473 7.575 7.84 8.128 8.39 7.851 7.961 8.745 8.705 8.573 8.53 8.648 8.782 8.885 8.987 9.097 9.18 9.235 9.273 9.33 9.41
10.63 10.657 10.685 10.682 10.62 10.533 10.45 10.368 10.288 10.21 10.14 10.133 10.195 10.28 10.36 10.43 10.495 10.542 10.56 10.54 10.482 10.418 10.39 10.392 10.402 10.41 10.405 10.395 10.385 10.375 10.375 10.392 10.417 10.442 10.447 10.422 10.387 10.358 10.383 10.455 10.517 10.552 10.547 10.52 10.49 10.46 10.405 10.32 10.23 10.143 10.088 10.06 10.027 9.993 9.968 9.955 9.94 9.925 9.905 9.867 9.825 9.782 9.737 9.69 9.643 9.6 9.555 9.507 9.462 9.42 9.388 9.363 9.337 9.31 9.303 9.313 9.318 9.325 9.335 9.332 9.305 9.26 9.215 9.188 9.17 9.155 9.155 9.162 9.167 9.172 9.157 9.122 9.085 9.053 9.035 9.025 9.015 9.01 8.987 8.928 8.858 8.79 8.718 8.648 8.588 8.55 8.53 8.51 8.487 8.435 8.358 8.283 8.207 8.12 8.017 7.907 7.793 7.68 7.57 7.46 7.358 7.27 7.193 7.195 7.385 7.67 7.407 7.015 7.42 7.75 7.592 7.472 7.395 7.21 6.882 6.533 6.385 6.422 6.425 6.38 6.33 6.288 6.245 6.165 6.075 6.023 6.015 6.033 6.05 6.073 6.098 6.168 6.258 6.313 6.383 6.48 6.582 6.667 6.597 6.38 6.195 6.235 6.475 6.73 6.95 7.142 7.302 7.342 7.29 7.23 7.223 7.327 6.99 6.57 6.57 6.935 7.317 7.36 7.4 7.408 7.425 7.618 7.968 8.342 7.858 7.895 8.6 8.575 8.523 8.563 8.712 8.857 8.982 9.077 9.145 9.187 9.225 9.265 9.318 9.38
10.625 10.652 10.677 10.655 10.575 10.495 10.425 10.35 10.273 10.198 10.135 10.145 10.22 10.305 10.385 10.453 10.52 10.58 10.595 10.545 10.465 10.395 10.363 10.363 10.375 10.39 10.395 10.39 10.38 10.37 10.38 10.41 10.44 10.462 10.457 10.43 10.4 10.368 10.388 10.46 10.537 10.58 10.565 10.535 10.505 10.475 10.422 10.34 10.25 10.163 10.103 10.067 10.035 10.005 9.985 9.972 9.958 9.945 9.917 9.873 9.83 9.785 9.74 9.697 9.65 9.605 9.557 9.508 9.462 9.42 9.395 9.375 9.348 9.323 9.313 9.32 9.328 9.335 9.342 9.33 9.292 9.245 9.2 9.18 9.17 9.155 9.155 9.165 9.17 9.175 9.165 9.13 9.09 9.053 9.035 9.032 9.027 9.017 8.975 8.908 8.843 8.78 8.715 8.65 8.6 8.573 8.555 8.532 8.502 8.447 8.37 8.293 8.215 8.135 8.052 7.957 7.847 7.735 7.623 7.515 7.425 7.348 7.278 7.233 7.32 7.577 7.422 7.063 7.455 7.76 7.523 7.418 7.427 7.392 7.167 6.737 6.478 6.447 6.407 6.365 6.315 6.265 6.21 6.152 6.092 6.04 6.03 6.053 6.078 6.105 6.14 6.215 6.323 6.427 6.532 6.632 6.722 6.765 6.655 6.455 6.308 6.358 6.57 6.772 6.94 7.08 7.192 7.225 7.185 7.125 7.157 7.08 6.755 6.57 6.583 6.958 7.34 7.383 7.408 7.403 7.425 7.628 8.025 8.167 7.895 8.155 8.575 8.515 8.49 8.575 8.73 8.875 9.002 9.08 9.122 9.165 9.205 9.247 9.295 9.337
10.613 10.635 10.66 10.627 10.548 10.493 10.45 10.387 10.31 10.24 10.193 10.203 10.265 10.343 10.42 10.487 10.545 10.585 10.58 10.515 10.43 10.365 10.333 10.323 10.328 10.34 10.35 10.355 10.35 10.34 10.358 10.397 10.43 10.445 10.435 10.415 10.392 10.37 10.4 10.48 10.56 10.59 10.565 10.535 10.505 10.475 10.425 10.345 10.255 10.165 10.105 10.07 10.04 10.02 10.003 9.988 9.973 9.96 9.927 9.875 9.83 9.785 9.743 9.705 9.66 9.612 9.562 9.508 9.46 9.42 9.4 9.39 9.365 9.343 9.335 9.338 9.343 9.35 9.352 9.327 9.28 9.228 9.178 9.165 9.167 9.155 9.155 9.162 9.168 9.175 9.165 9.13 9.09 9.05 9.03 9.027 9.025 9.01 8.967 8.91 8.847 8.783 8.718 8.655 8.615 8.597 8.58 8.555 8.52 8.462 8.385 8.305 8.225 8.142 8.065 7.99 7.897 7.79 7.678 7.58 7.503 7.433 7.377 7.318 7.298 7.482 7.612 7.293 7.235 7.497 7.45 7.378 7.402 7.41 7.22 6.787 6.508 6.43 6.37 6.335 6.29 6.24 6.19 6.14 6.09 6.048 6.05 6.085 6.115 6.145 6.193 6.283 6.405 6.525 6.627 6.72 6.782 6.77 6.615 6.393 6.285 6.372 6.542 6.685 6.825 6.965 7.07 7.105 7.077 7.045 7.147 6.912 6.57 6.57 6.768 7.157 7.377 7.427 7.457 7.46 7.565 7.835 8.167 7.84 7.865 8.477 8.545 8.497 8.468 8.545 8.692 8.825 8.937 9.007 9.055 9.105 9.155 9.21 9.267 9.307
10.618 10.623 10.637 10.605 10.545 10.513 10.48 10.422 10.353 10.293 10.255 10.268 10.318 10.383 10.45 10.505 10.542 10.565 10.56 10.492 10.398 10.335 10.308 10.293 10.283 10.288 10.3 10.31 10.315 10.31 10.33 10.38 10.415 10.417 10.403 10.39 10.383 10.385 10.43 10.512 10.58 10.59 10.56 10.53 10.5 10.47 10.422 10.345 10.255 10.165 10.105 10.075 10.055 10.04 10.02 10.003 9.987 9.972 9.935 9.88 9.833 9.788 9.747 9.71 9.667 9.62 9.57 9.515 9.463 9.42 9.4 9.395 9.38 9.365 9.36 9.36 9.362 9.365 9.352 9.315 9.265 9.21 9.155 9.143 9.157 9.152 9.15 9.158 9.165 9.175 9.162 9.125 9.085 9.045 9.025 9.02 9.015 9 8.96 8.907 8.85 8.787 8.723 8.668 8.638 8.622 8.602 8.572 8.535 8.477 8.397 8.315 8.232 8.145 8.068 8.002 7.93 7.837 7.74 7.66 7.592 7.527 7.462 7.372 7.283 7.413 7.745 7.46 7.005 7.225 7.392 7.332 7.297 7.227 6.972 6.638 6.47 6.38 6.32 6.292 6.26 6.215 6.165 6.118 6.075 6.04 6.055 6.107 6.15 6.185 6.248 6.358 6.485 6.612 6.717 6.78 6.8 6.76 6.592 6.36 6.213 6.253 6.41 6.563 6.71 6.85 6.945 6.975 6.963 7.003 6.99 6.745 6.57 6.57 6.948 7.355 7.415 7.47 7.505 7.565 7.76 8.032 7.965 7.665 8.045 8.517 8.493 8.46 8.438 8.503 8.633 8.755 8.857 8.925 8.98 9.04 9.103 9.17 9.24 9.287
10.635 10.628 10.623 10.598 10.563 10.535 10.507 10.462 10.405 10.35 10.315 10.333 10.377 10.425 10.467 10.498 10.52 10.538 10.54 10.48 10.373 10.305 10.285 10.273 10.258 10.25 10.253 10.26 10.27 10.275 10.3 10.357 10.395 10.398 10.393 10.393 10.398 10.415 10.468 10.545 10.592 10.585 10.555 10.525 10.495 10.465 10.422 10.35 10.26 10.17 10.11 10.085 10.07 10.055 10.035 10.015 10 9.985 9.945 9.89 9.84 9.793 9.75 9.71 9.672 9.63 9.58 9.525 9.47 9.423 9.4 9.398 9.39 9.383 9.38 9.377 9.377 9.37 9.34 9.295 9.245 9.192 9.138 9.118 9.135 9.142 9.145 9.155 9.165 9.175 9.162 9.125 9.085 9.045 9.023 9.013 9.005 8.99 8.95 8.9 8.847 8.79 8.728 8.683 8.662 8.647 8.622 8.585 8.545 8.49 8.41 8.323 8.235 8.148 8.073 8.008 7.942 7.865 7.787 7.722 7.66 7.595 7.51 7.405 7.293 7.388 7.705 7.432 6.995 7.225 7.347 7.185 7.055 6.908 6.705 6.525 6.425 6.33 6.27 6.245 6.22 6.185 6.145 6.105 6.068 6.035 6.053 6.115 6.173 6.228 6.315 6.443 6.575 6.692 6.77 6.797 6.8 6.75 6.593 6.405 6.25 6.21 6.31 6.445 6.59 6.735 6.82 6.84 6.885 7.03 6.852 6.57 6.57 6.75 7.127 7.355 7.42 7.49 7.558 7.69 7.905 8.115 7.688 7.703 8.375 8.5 8.48 8.46 8.448 8.488 8.588 8.7 8.795 8.868 8.935 9.005 9.075 9.145 9.215 9.265
10.657 10.645 10.63 10.605 10.575 10.545 10.52 10.49 10.445 10.39 10.358 10.378 10.42 10.455 10.48 10.5 10.52 10.532 10.53 10.47 10.365 10.308 10.293 10.28 10.27 10.255 10.238 10.23 10.235 10.245 10.278 10.335 10.377 10.4 10.41 10.415 10.42 10.445 10.505 10.58 10.615 10.6 10.578 10.553 10.528 10.49 10.435 10.36 10.27 10.18 10.115 10.085 10.067 10.05 10.03 10.01 9.992 9.977 9.947 9.9 9.85 9.8 9.755 9.715 9.677 9.637 9.592 9.54 9.485 9.438 9.413 9.41 9.405 9.397 9.392 9.387 9.38 9.357 9.32 9.275 9.225 9.175 9.123 9.095 9.108 9.133 9.15 9.16 9.17 9.18 9.17 9.135 9.095 9.055 9.03 9.018 9.005 8.985 8.945 8.895 8.843 8.787 8.732 8.692 8.67 8.65 8.62 8.58 8.542 8.497 8.425 8.338 8.25 8.16 8.08 8.015 7.947 7.865 7.792 7.735 7.672 7.607 7.52 7.415 7.315 7.408 7.69 7.41 6.99 7.277 7.365 7.068 6.885 6.72 6.59 6.49 6.388 6.3 6.25 6.225 6.203 6.18 6.165 6.143 6.11 6.08 6.105 6.185 6.258 6.328 6.43 6.557 6.66 6.697 6.705 6.727 6.75 6.732 6.63 6.475 6.315 6.225 6.27 6.38 6.503 6.635 6.745 6.828 6.97 6.977 6.725 6.57 6.585 6.947 7.302 7.328 7.385 7.465 7.578 7.75 7.945 7.987 7.548 7.838 8.525 8.532 8.525 8.515 8.505 8.52 8.59 8.688 8.778 8.86 8.935 9.005 9.075 9.145 9.215 9.245
10.677 10.67 10.65 10.615 10.578 10.548 10.522 10.495 10.457 10.408 10.385 10.408 10.443 10.475 10.5 10.517 10.53 10.535 10.527 10.467 10.383 10.343 10.327 10.312 10.297 10.28 10.255 10.23 10.22 10.225 10.26 10.31 10.347 10.387 10.422 10.437 10.443 10.478 10.545 10.62 10.66 10.655 10.64 10.615 10.577 10.522 10.452 10.372 10.285 10.195 10.123 10.078 10.05 10.033 10.012 9.99 9.97 9.953 9.932 9.902 9.86 9.81 9.765 9.725 9.682 9.64 9.6 9.555 9.505 9.46 9.438 9.43 9.42 9.407 9.398 9.392 9.375 9.34 9.297 9.252 9.205 9.155 9.105 9.083 9.1 9.133 9.157 9.17 9.18 9.19 9.18 9.145 9.108 9.07 9.043 9.03 9.015 8.992 8.955 8.902 8.842 8.755 8.675 8.647 8.642 8.627 8.597 8.56 8.533 8.51 8.45 8.362 8.272 8.175 8.093 8.025 7.945 7.85 7.773 7.717 7.657 7.595 7.51 7.41 7.338 7.438 7.677 7.388 6.985 7.332 7.452 7.09 6.86 6.685 6.553 6.45 6.363 6.303 6.268 6.245 6.228 6.218 6.217 6.217 6.2 6.17 6.203 6.297 6.385 6.462 6.545 6.625 6.657 6.6 6.558 6.587 6.617 6.632 6.602 6.517 6.385 6.248 6.243 6.35 6.46 6.59 6.773 6.962 6.962 6.725 6.57 6.57 6.763 7.12 7.297 7.318 7.348 7.413 7.558 7.765 7.965 7.733 7.628 8.165 8.5 8.535 8.562 8.572 8.565 8.563 8.61 8.702 8.792 8.877 8.955 9.025 9.095 9.168 9.24 9.232
10.68 10.687 10.67 10.63 10.59 10.555 10.525 10.495 10.46 10.42 10.413 10.44 10.47 10.497 10.515 10.522 10.525 10.525 10.52 10.477 10.415 10.378 10.358 10.342 10.325 10.305 10.28 10.25 10.225 10.215 10.238 10.275 10.308 10.353 10.407 10.447 10.468 10.513 10.587 10.662 10.722 10.737 10.71 10.665 10.605 10.537 10.467 10.387 10.3 10.21 10.138 10.085 10.043 10.018 9.997 9.973 9.95 9.93 9.91 9.887 9.857 9.817 9.775 9.732 9.685 9.638 9.598 9.56 9.518 9.478 9.458 9.445 9.428 9.413 9.405 9.39 9.355 9.315 9.273 9.227 9.18 9.135 9.095 9.083 9.108 9.14 9.165 9.18 9.19 9.197 9.185 9.152 9.12 9.085 9.057 9.042 9.025 9.007 8.972 8.895 8.785 8.64 8.543 8.54 8.56 8.57 8.562 8.538 8.525 8.525 8.475 8.382 8.285 8.185 8.102 8.025 7.93 7.83 7.75 7.695 7.642 7.585 7.505 7.428 7.385 7.463 7.65 7.595 7.21 7.387 7.557 7.16 6.875 6.658 6.518 6.428 6.368 6.323 6.293 6.278 6.268 6.263 6.26 6.267 6.272 6.258 6.295 6.385 6.45 6.487 6.537 6.595 6.57 6.46 6.408 6.43 6.445 6.455 6.46 6.447 6.395 6.285 6.238 6.318 6.448 6.613 6.842 7.002 6.798 6.57 6.57 6.75 7.102 7.27 7.278 7.302 7.325 7.373 7.533 7.772 7.985 7.62 7.843 8.485 8.445 8.473 8.53 8.575 8.6 8.61 8.64 8.718 8.805 8.89 8.975 9.05 9.12 9.192 9.26 9.227
10.657 10.67 10.672 10.645 10.605 10.565 10.528 10.495 10.46 10.425 10.423 10.45 10.48 10.502 10.512 10.515 10.515 10.515 10.517 10.5 10.458 10.418 10.39 10.373 10.355 10.335 10.31 10.28 10.25 10.223 10.218 10.24 10.273 10.315 10.373 10.432 10.482 10.545 10.625 10.702 10.777 10.797 10.75 10.687 10.62 10.55 10.48 10.4 10.31 10.223 10.153 10.1 10.05 10.008 9.98 9.957 9.933 9.91 9.89 9.865 9.84 9.815 9.777 9.73 9.682 9.635 9.6 9.573 9.538 9.505 9.483 9.463 9.44 9.423 9.405 9.372 9.33 9.29 9.25 9.205 9.16 9.128 9.1 9.09 9.113 9.145 9.17 9.185 9.197 9.205 9.187 9.155 9.125 9.09 9.062 9.047 9.03 9.012 8.95 8.812 8.643 8.475 8.403 8.42 8.445 8.478 8.505 8.508 8.51 8.522 8.477 8.382 8.287 8.19 8.1 8.01 7.91 7.81 7.728 7.67 7.623 7.573 7.515 7.47 7.44 7.47 7.608 7.795 7.43 7.225 7.442 7.25 6.94 6.663 6.503 6.44 6.393 6.345 6.32 6.317 6.312 6.307 6.303 6.305 6.32 6.33 6.352 6.395 6.422 6.415 6.425 6.46 6.428 6.345 6.305 6.305 6.305 6.308 6.315 6.315 6.305 6.263 6.23 6.323 6.513 6.72 6.967 6.925 6.655 6.57 6.585 6.942 7.275 7.26 7.255 7.27 7.3 7.37 7.543 7.785 7.765 7.475 7.913 8.455 8.393 8.398 8.453 8.51 8.567 8.61 8.655 8.73 8.815 8.9 8.99 9.072 9.145 9.215 9.27 9.225
10.615 10.625 10.647 10.65 10.62 10.578 10.535 10.495 10.457 10.423 10.415 10.44 10.47 10.487 10.495 10.5 10.5 10.508 10.528 10.53 10.502 10.465 10.435 10.413 10.39 10.373 10.345 10.308 10.275 10.243 10.213 10.213 10.243 10.288 10.35 10.415 10.48 10.555 10.635 10.715 10.795 10.817 10.765 10.695 10.625 10.557 10.49 10.41 10.318 10.228 10.158 10.105 10.052 10.003 9.968 9.945 9.922 9.898 9.875 9.853 9.83 9.807 9.77 9.72 9.675 9.63 9.608 9.6 9.575 9.545 9.52 9.495 9.47 9.442 9.4 9.353 9.31 9.27 9.227 9.185 9.15 9.125 9.1 9.09 9.11 9.14 9.162 9.177 9.19 9.192 9.177 9.147 9.115 9.082 9.053 9.033 9.017 9 8.907 8.73 8.555 8.423 8.373 8.39 8.425 8.465 8.503 8.505 8.485 8.487 8.445 8.35 8.26 8.165 8.07 7.977 7.882 7.785 7.705 7.655 7.618 7.578 7.54 7.51 7.477 7.453 7.553 7.755 7.407 6.998 7.263 7.34 7.03 6.73 6.54 6.47 6.422 6.368 6.338 6.34 6.34 6.34 6.34 6.345 6.365 6.387 6.393 6.39 6.403 6.395 6.37 6.355 6.333 6.305 6.278 6.26 6.25 6.26 6.3 6.333 6.33 6.308 6.308 6.435 6.663 6.897 6.955 6.73 6.57 6.57 6.763 7.115 7.265 7.25 7.238 7.24 7.285 7.41 7.605 7.825 7.545 7.543 8.2 8.425 8.348 8.33 8.378 8.433 8.49 8.563 8.658 8.75 8.83 8.913 9 9.085 9.165 9.24 9.282 9.233
10.563 10.578 10.607 10.635 10.63 10.592 10.547 10.498 10.453 10.418 10.41 10.435 10.457 10.467 10.475 10.48 10.488 10.52 10.552 10.555 10.54 10.515 10.485 10.458 10.435 10.425 10.395 10.34 10.3 10.267 10.228 10.198 10.218 10.275 10.34 10.408 10.475 10.548 10.628 10.71 10.79 10.83 10.785 10.703 10.63 10.562 10.492 10.412 10.322 10.228 10.155 10.105 10.05 9.998 9.963 9.938 9.915 9.89 9.865 9.845 9.825 9.802 9.765 9.713 9.663 9.618 9.605 9.617 9.61 9.587 9.563 9.537 9.507 9.462 9.405 9.348 9.295 9.25 9.205 9.163 9.133 9.11 9.09 9.085 9.103 9.127 9.147 9.162 9.167 9.157 9.145 9.127 9.097 9.065 9.038 9.015 8.995 8.977 8.88 8.723 8.605 8.525 8.473 8.463 8.493 8.53 8.56 8.53 8.455 8.43 8.395 8.303 8.21 8.117 8.023 7.93 7.843 7.765 7.71 7.673 7.64 7.605 7.57 7.54 7.485 7.393 7.475 7.707 7.38 6.955 7.27 7.43 7.128 6.84 6.615 6.505 6.452 6.385 6.345 6.345 6.347 6.35 6.355 6.383 6.427 6.45 6.453 6.46 6.482 6.492 6.46 6.408 6.355 6.31 6.275 6.255 6.253 6.29 6.365 6.435 6.48 6.487 6.493 6.618 6.837 6.922 6.735 6.57 6.57 6.75 7.107 7.277 7.263 7.248 7.23 7.22 7.308 7.505 7.702 7.752 7.433 7.675 8.252 8.33 8.315 8.275 8.303 8.358 8.433 8.563 8.695 8.782 8.858 8.935 9.018 9.098 9.18 9.262 9.292 9.263
10.513 10.53 10.563 10.6 10.622 10.605 10.56 10.505 10.453 10.413 10.405 10.427 10.44 10.445 10.455 10.468 10.498 10.552 10.582 10.575 10.565 10.55 10.527 10.503 10.485 10.482 10.45 10.383 10.33 10.292 10.253 10.218 10.233 10.288 10.348 10.41 10.473 10.543 10.623 10.707 10.79 10.847 10.815 10.72 10.638 10.567 10.492 10.41 10.325 10.233 10.158 10.102 10.048 9.995 9.958 9.932 9.908 9.882 9.858 9.835 9.815 9.795 9.76 9.707 9.653 9.605 9.595 9.615 9.627 9.625 9.605 9.575 9.532 9.475 9.415 9.355 9.295 9.24 9.188 9.14 9.11 9.093 9.083 9.085 9.098 9.115 9.132 9.14 9.135 9.12 9.105 9.095 9.075 9.045 9.02 9 8.978 8.957 8.895 8.805 8.74 8.68 8.613 8.56 8.56 8.595 8.6 8.535 8.435 8.385 8.347 8.26 8.163 8.07 7.975 7.89 7.828 7.78 7.742 7.705 7.67 7.635 7.602 7.557 7.46 7.328 7.385 7.635 7.353 6.945 7.31 7.525 7.235 6.957 6.698 6.545 6.472 6.393 6.355 6.355 6.355 6.355 6.368 6.425 6.495 6.522 6.532 6.55 6.57 6.585 6.57 6.512 6.435 6.365 6.308 6.265 6.273 6.335 6.415 6.49 6.565 6.622 6.668 6.8 7.015 6.875 6.598 6.57 6.74 7.072 7.25 7.272 7.277 7.265 7.245 7.27 7.41 7.605 7.777 7.585 7.445 7.72 7.917 8.072 8.202 8.217 8.228 8.308 8.445 8.617 8.742 8.818 8.893 8.968 9.045 9.123 9.2 9.28 9.325 9.338
10.47 10.483 10.518 10.555 10.592 10.605 10.572 10.515 10.458 10.41 10.398 10.41 10.418 10.428 10.448 10.48 10.53 10.585 10.605 10.595 10.585 10.573 10.56 10.548 10.543 10.542 10.502 10.43 10.365 10.318 10.283 10.27 10.29 10.333 10.388 10.443 10.49 10.55 10.628 10.705 10.788 10.862 10.847 10.75 10.655 10.575 10.495 10.408 10.323 10.235 10.16 10.1 10.045 9.993 9.95 9.925 9.9 9.875 9.852 9.83 9.81 9.787 9.752 9.702 9.648 9.598 9.585 9.605 9.625 9.64 9.635 9.6 9.545 9.482 9.42 9.36 9.3 9.24 9.18 9.128 9.095 9.08 9.078 9.085 9.095 9.107 9.115 9.11 9.098 9.083 9.07 9.058 9.043 9.025 9.008 8.99 8.973 8.958 8.935 8.9 8.86 8.817 8.762 8.695 8.653 8.655 8.622 8.53 8.43 8.355 8.3 8.22 8.12 8.028 7.948 7.888 7.847 7.812 7.775 7.735 7.7 7.667 7.63 7.55 7.42 7.283 7.295 7.53 7.49 7.118 7.348 7.612 7.332 7.06 6.785 6.588 6.48 6.403 6.375 6.375 6.375 6.378 6.398 6.465 6.54 6.572 6.585 6.59 6.587 6.582 6.605 6.602 6.535 6.46 6.385 6.328 6.335 6.398 6.475 6.555 6.638 6.723 6.825 6.98 6.985 6.733 6.57 6.748 7.03 7.117 7.127 7.182 7.225 7.25 7.273 7.352 7.497 7.65 7.83 7.54 7.58 7.767 7.563 7.71 7.92 8.065 8.168 8.318 8.507 8.675 8.78 8.855 8.93 9.007 9.083 9.16 9.238 9.313 9.387 9.442
10.45 10.468 10.5 10.533 10.57 10.595 10.572 10.517 10.462 10.413 10.393 10.405 10.425 10.448 10.48 10.528 10.582 10.625 10.635 10.625 10.618 10.613 10.613 10.615 10.618 10.61 10.56 10.485 10.415 10.355 10.33 10.338 10.355 10.39 10.443 10.495 10.528 10.573 10.645 10.718 10.795 10.87 10.865 10.775 10.675 10.59 10.508 10.418 10.335 10.25 10.175 10.115 10.058 10.003 9.96 9.933 9.905 9.875 9.848 9.825 9.805 9.782 9.747 9.695 9.643 9.6 9.588 9.605 9.625 9.645 9.642 9.6 9.54 9.475 9.41 9.35 9.29 9.23 9.17 9.118 9.085 9.078 9.075 9.075 9.085 9.095 9.097 9.09 9.078 9.065 9.053 9.038 9.025 9.018 9.01 8.998 8.985 8.972 8.952 8.927 8.902 8.875 8.837 8.79 8.74 8.7 8.632 8.53 8.43 8.335 8.26 8.18 8.098 8.038 7.97 7.893 7.838 7.802 7.767 7.735 7.712 7.695 7.637 7.525 7.395 7.26 7.243 7.445 7.67 7.34 7.377 7.67 7.377 7.1 6.825 6.6 6.468 6.42 6.428 6.435 6.448 6.443 6.425 6.47 6.547 6.582 6.582 6.572 6.56 6.55 6.595 6.655 6.625 6.55 6.475 6.435 6.453 6.503 6.578 6.665 6.758 6.868 7.01 6.977 6.718 6.57 6.615 6.91 7.032 6.92 6.963 7.023 7.098 7.183 7.27 7.378 7.515 7.692 7.677 7.35 7.495 7.545 7.293 7.463 7.698 7.933 8.15 8.35 8.537 8.687 8.802 8.895 8.972 9.05 9.127 9.205 9.282 9.348 9.425 9.525
10.455 10.485 10.515 10.547 10.572 10.575 10.545 10.495 10.45 10.413 10.405 10.438 10.475 10.505 10.543 10.592 10.64 10.672 10.68 10.673 10.673 10.68 10.695 10.705 10.702 10.687 10.637 10.563 10.485 10.413 10.39 10.41 10.428 10.453 10.497 10.542 10.565 10.6 10.668 10.742 10.81 10.865 10.855 10.77 10.685 10.628 10.553 10.455 10.368 10.283 10.208 10.145 10.085 10.028 9.985 9.952 9.917 9.88 9.845 9.82 9.8 9.78 9.742 9.69 9.648 9.615 9.605 9.62 9.638 9.655 9.64 9.582 9.52 9.455 9.39 9.33 9.267 9.205 9.145 9.1 9.078 9.083 9.082 9.065 9.065 9.075 9.08 9.08 9.075 9.065 9.05 9.035 9.028 9.025 9.02 9.01 9 8.985 8.965 8.94 8.907 8.875 8.84 8.805 8.772 8.725 8.642 8.538 8.435 8.333 8.248 8.183 8.135 8.105 8.035 7.925 7.835 7.77 7.725 7.703 7.705 7.722 7.665 7.54 7.413 7.27 7.258 7.458 7.71 7.375 7.155 7.47 7.4 7.1 6.815 6.58 6.458 6.453 6.495 6.54 6.597 6.555 6.46 6.483 6.545 6.565 6.56 6.545 6.53 6.52 6.565 6.657 6.687 6.64 6.575 6.558 6.59 6.64 6.715 6.808 6.92 7.055 7.185 6.907 6.57 6.57 6.788 6.992 6.848 6.758 6.843 6.93 7.03 7.14 7.253 7.38 7.55 7.765 7.51 7.36 7.602 7.39 7.233 7.428 7.675 7.935 8.167 8.36 8.52 8.657 8.79 8.91 9.01 9.095 9.172 9.25 9.327 9.375 9.433 9.56
10.473 10.505 10.537 10.562 10.562 10.542 10.508 10.47 10.443 10.42 10.43 10.482 10.532 10.565 10.605 10.652 10.687 10.712 10.727 10.737 10.752 10.77 10.787 10.792 10.785 10.772 10.73 10.65 10.56 10.478 10.45 10.475 10.497 10.518 10.552 10.587 10.605 10.633 10.692 10.757 10.807 10.847 10.832 10.768 10.72 10.69 10.62 10.51 10.408 10.318 10.243 10.18 10.12 10.057 10.005 9.965 9.922 9.88 9.845 9.82 9.8 9.777 9.74 9.698 9.665 9.635 9.625 9.64 9.655 9.667 9.64 9.568 9.5 9.435 9.37 9.307 9.243 9.18 9.12 9.083 9.078 9.095 9.097 9.073 9.055 9.055 9.06 9.065 9.07 9.062 9.048 9.038 9.035 9.032 9.027 9.02 9.012 8.997 8.972 8.945 8.91 8.875 8.84 8.805 8.775 8.735 8.66 8.555 8.468 8.403 8.34 8.285 8.235 8.19 8.115 8.002 7.887 7.778 7.708 7.703 7.733 7.77 7.727 7.595 7.445 7.285 7.3 7.515 7.715 7.355 6.915 7.26 7.445 7.128 6.82 6.565 6.468 6.487 6.515 6.567 6.67 6.657 6.54 6.515 6.517 6.5 6.497 6.497 6.492 6.488 6.533 6.627 6.707 6.717 6.688 6.698 6.735 6.783 6.86 6.965 7.08 7.19 7.085 6.75 6.57 6.745 7.082 7.092 6.845 6.78 6.84 6.918 7.02 7.13 7.25 7.41 7.62 7.707 7.408 7.547 7.777 7.413 7.318 7.5 7.713 7.96 8.185 8.352 8.49 8.623 8.757 8.89 9.015 9.127 9.217 9.292 9.362 9.395 9.44 9.57
10.5 10.53 10.552 10.555 10.543 10.523 10.498 10.478 10.46 10.44 10.45 10.51 10.577 10.622 10.662 10.7 10.72 10.73 10.737 10.757 10.797 10.842 10.87 10.865 10.847 10.83 10.78 10.69 10.59 10.515 10.498 10.52 10.547 10.572 10.602 10.627 10.64 10.663 10.705 10.75 10.788 10.822 10.822 10.792 10.772 10.752 10.685 10.572 10.462 10.36 10.277 10.21 10.137 10.07 10.017 9.972 9.925 9.88 9.848 9.823 9.8 9.778 9.748 9.718 9.69 9.66 9.648 9.66 9.672 9.672 9.632 9.552 9.48 9.415 9.35 9.285 9.22 9.16 9.103 9.075 9.088 9.115 9.115 9.088 9.063 9.048 9.045 9.048 9.055 9.055 9.048 9.045 9.045 9.038 9.03 9.025 9.017 9 8.97 8.94 8.907 8.875 8.84 8.805 8.775 8.742 8.69 8.62 8.567 8.535 8.487 8.415 8.337 8.265 8.157 8.022 7.9 7.775 7.698 7.715 7.767 7.817 7.775 7.622 7.457 7.298 7.335 7.537 7.695 7.335 6.905 7.282 7.5 7.178 6.855 6.568 6.45 6.462 6.475 6.518 6.617 6.632 6.53 6.465 6.43 6.408 6.418 6.44 6.455 6.463 6.51 6.605 6.702 6.765 6.792 6.827 6.87 6.917 6.992 7.09 7.182 7.072 6.745 6.57 6.748 7.09 7.232 7.11 6.983 6.962 6.977 7.01 7.068 7.14 7.27 7.475 7.705 7.552 7.233 7.51 7.707 7.453 7.423 7.602 7.785 7.995 8.188 8.33 8.46 8.59 8.723 8.858 8.99 9.12 9.238 9.333 9.39 9.408 9.45 9.563
10.545 10.567 10.567 10.555 10.545 10.528 10.512 10.5 10.48 10.46 10.475 10.538 10.61 10.665 10.695 10.71 10.715 10.712 10.703 10.703 10.745 10.815 10.855 10.845 10.817 10.782 10.72 10.635 10.565 10.535 10.533 10.545 10.57 10.6 10.627 10.647 10.66 10.677 10.703 10.735 10.77 10.805 10.815 10.795 10.78 10.76 10.69 10.582 10.475 10.372 10.285 10.205 10.123 10.06 10.02 9.977 9.93 9.885 9.855 9.833 9.81 9.788 9.762 9.737 9.71 9.682 9.663 9.657 9.655 9.642 9.602 9.53 9.46 9.395 9.33 9.265 9.2 9.138 9.088 9.08 9.108 9.135 9.132 9.105 9.08 9.065 9.06 9.063 9.068 9.07 9.073 9.075 9.07 9.047 9.025 9.015 9.005 8.985 8.955 8.925 8.898 8.878 8.853 8.818 8.785 8.752 8.715 8.68 8.645 8.605 8.552 8.477 8.395 8.31 8.17 8 7.863 7.735 7.673 7.705 7.768 7.827 7.777 7.62 7.463 7.325 7.36 7.525 7.662 7.335 6.918 7.305 7.555 7.232 6.888 6.578 6.42 6.395 6.425 6.495 6.547 6.492 6.398 6.348 6.345 6.393 6.44 6.468 6.488 6.488 6.525 6.62 6.712 6.787 6.84 6.882 6.927 6.995 7.082 7.165 7.06 6.743 6.57 6.72 7.067 7.25 7.205 7.125 7.073 7.08 7.1 7.12 7.143 7.193 7.338 7.56 7.79 7.517 7.213 7.512 7.632 7.47 7.498 7.68 7.858 8.072 8.29 8.443 8.568 8.695 8.823 8.953 9.083 9.208 9.32 9.408 9.453 9.468 9.51 9.603
10.597 10.602 10.592 10.577 10.56 10.538 10.523 10.515 10.5 10.48 10.505 10.575 10.632 10.67 10.685 10.685 10.682 10.675 10.66 10.645 10.663 10.72 10.755 10.74 10.702 10.65 10.595 10.548 10.535 10.552 10.565 10.575 10.588 10.608 10.632 10.652 10.667 10.683 10.7 10.728 10.76 10.795 10.8 10.77 10.75 10.72 10.64 10.535 10.435 10.345 10.262 10.18 10.108 10.058 10.02 9.982 9.94 9.898 9.868 9.845 9.825 9.802 9.778 9.752 9.725 9.697 9.667 9.638 9.61 9.59 9.56 9.5 9.435 9.372 9.307 9.242 9.18 9.115 9.08 9.095 9.13 9.155 9.147 9.125 9.11 9.105 9.105 9.108 9.113 9.115 9.12 9.122 9.1 9.052 9.015 8.998 8.987 8.967 8.935 8.913 8.898 8.89 8.875 8.842 8.805 8.762 8.723 8.69 8.655 8.615 8.565 8.5 8.425 8.34 8.197 8.008 7.838 7.698 7.65 7.698 7.77 7.815 7.745 7.595 7.45 7.333 7.353 7.49 7.627 7.547 7.143 7.325 7.605 7.265 6.895 6.6 6.428 6.365 6.41 6.502 6.477 6.343 6.27 6.275 6.35 6.467 6.545 6.57 6.567 6.538 6.565 6.655 6.732 6.792 6.84 6.88 6.935 7.033 7.142 7.047 6.738 6.57 6.57 6.895 7.235 7.24 7.193 7.135 7.113 7.12 7.14 7.165 7.21 7.29 7.435 7.645 7.65 7.335 7.31 7.6 7.647 7.53 7.55 7.718 7.908 8.138 8.47 8.732 8.855 8.978 9.102 9.222 9.32 9.4 9.467 9.52 9.563 9.588 9.635 9.73
10.632 10.625 10.615 10.6 10.57 10.54 10.528 10.525 10.517 10.508 10.538 10.592 10.625 10.645 10.655 10.652 10.645 10.632 10.618 10.605 10.6 10.63 10.655 10.627 10.583 10.54 10.51 10.495 10.503 10.53 10.557 10.58 10.597 10.617 10.64 10.657 10.672 10.688 10.705 10.725 10.75 10.785 10.787 10.748 10.72 10.68 10.592 10.493 10.403 10.32 10.238 10.158 10.1 10.06 10.022 9.987 9.947 9.91 9.882 9.86 9.84 9.817 9.792 9.767 9.74 9.707 9.672 9.633 9.59 9.558 9.525 9.47 9.405 9.345 9.28 9.215 9.153 9.1 9.09 9.115 9.15 9.172 9.165 9.153 9.15 9.15 9.15 9.153 9.16 9.167 9.17 9.152 9.105 9.048 9.008 8.985 8.973 8.953 8.928 8.918 8.912 8.907 8.892 8.862 8.82 8.77 8.728 8.695 8.662 8.625 8.575 8.515 8.45 8.37 8.23 8.035 7.84 7.675 7.635 7.703 7.782 7.805 7.712 7.57 7.438 7.32 7.325 7.455 7.593 7.73 7.337 7.103 7.397 7.252 6.89 6.625 6.435 6.375 6.435 6.53 6.41 6.215 6.218 6.308 6.433 6.56 6.642 6.652 6.617 6.573 6.598 6.675 6.735 6.79 6.84 6.883 6.96 7.08 7.2 6.912 6.57 6.57 6.75 7.1 7.26 7.24 7.203 7.17 7.16 7.163 7.185 7.235 7.315 7.41 7.538 7.73 7.485 7.128 7.418 7.732 7.72 7.623 7.613 7.76 7.968 8.185 8.645 9.057 9.182 9.287 9.372 9.45 9.505 9.545 9.585 9.633 9.69 9.725 9.778 9.88
10.645 10.635 10.627 10.612 10.575 10.542 10.535 10.532 10.525 10.527 10.552 10.578 10.595 10.615 10.623 10.615 10.605 10.59 10.575 10.565 10.55 10.55 10.553 10.528 10.498 10.478 10.463 10.453 10.458 10.48 10.51 10.54 10.57 10.6 10.625 10.65 10.672 10.692 10.712 10.727 10.745 10.775 10.775 10.73 10.692 10.64 10.553 10.463 10.38 10.303 10.225 10.148 10.093 10.057 10.022 9.985 9.947 9.917 9.895 9.875 9.855 9.832 9.805 9.775 9.745 9.712 9.677 9.632 9.582 9.535 9.487 9.432 9.372 9.312 9.245 9.178 9.128 9.108 9.115 9.14 9.173 9.195 9.198 9.195 9.195 9.195 9.198 9.205 9.215 9.225 9.217 9.172 9.108 9.045 9.005 8.985 8.968 8.948 8.933 8.927 8.925 8.922 8.907 8.872 8.825 8.775 8.733 8.7 8.67 8.635 8.585 8.525 8.465 8.395 8.257 8.06 7.858 7.673 7.63 7.712 7.795 7.8 7.7 7.57 7.445 7.323 7.313 7.43 7.56 7.695 7.315 6.865 7.165 7.235 6.873 6.61 6.42 6.403 6.5 6.592 6.448 6.27 6.333 6.448 6.56 6.672 6.727 6.7 6.647 6.605 6.62 6.68 6.735 6.788 6.838 6.898 7 7.14 7.072 6.75 6.57 6.62 6.98 7.28 7.26 7.235 7.212 7.2 7.192 7.195 7.245 7.34 7.435 7.53 7.64 7.68 7.39 7.305 7.642 7.782 7.745 7.68 7.675 7.818 8.035 8.258 8.84 9.357 9.447 9.51 9.55 9.59 9.63 9.668 9.703 9.75 9.813 9.858 9.923 10.02
10.63 10.62 10.612 10.592 10.552 10.517 10.497 10.485 10.475 10.472 10.522 10.575 10.59 10.608 10.608 10.59 10.573 10.558 10.543 10.53 10.518 10.5 10.48 10.463 10.448 10.432 10.418 10.408 10.408 10.425 10.455 10.485 10.515 10.548 10.583 10.62 10.65 10.675 10.7 10.722 10.742 10.767 10.765 10.717 10.667 10.61 10.533 10.453 10.378 10.305 10.233 10.155 10.093 10.053 10.015 9.975 9.94 9.912 9.89 9.872 9.855 9.832 9.8 9.765 9.735 9.705 9.662 9.605 9.547 9.49 9.437 9.387 9.332 9.272 9.205 9.153 9.135 9.138 9.15 9.175 9.205 9.23 9.24 9.24 9.24 9.243 9.258 9.275 9.285 9.287 9.262 9.208 9.14 9.073 9.03 9.013 8.995 8.965 8.933 8.918 8.915 8.915 8.902 8.867 8.82 8.77 8.73 8.7 8.67 8.612 8.537 8.475 8.415 8.362 8.255 8.067 7.863 7.675 7.63 7.715 7.782 7.765 7.665 7.542 7.42 7.298 7.265 7.382 7.532 7.662 7.29 6.853 7.19 7.28 6.885 6.598 6.42 6.463 6.605 6.685 6.635 6.575 6.61 6.657 6.7 6.74 6.737 6.687 6.633 6.623 6.665 6.715 6.76 6.803 6.853 6.948 7.087 7.037 6.743 6.57 6.57 6.8 7.157 7.277 7.255 7.215 7.187 7.182 7.18 7.188 7.282 7.425 7.532 7.64 7.747 7.538 7.273 7.562 7.832 7.79 7.745 7.7 7.72 7.873 8.095 8.46 9.142 9.622 9.707 9.758 9.795 9.835 9.873 9.903 9.918 9.938 9.973 10 10.052 10.127
10.6 10.587 10.575 10.55 10.507 10.465 10.428 10.398 10.38 10.37 10.44 10.557 10.607 10.617 10.612 10.59 10.56 10.535 10.518 10.505 10.492 10.47 10.443 10.42 10.403 10.388 10.375 10.365 10.358 10.37 10.4 10.43 10.463 10.503 10.542 10.577 10.61 10.637 10.665 10.695 10.72 10.742 10.73 10.68 10.635 10.593 10.535 10.465 10.395 10.325 10.247 10.165 10.098 10.05 10.008 9.965 9.93 9.898 9.873 9.857 9.84 9.815 9.78 9.743 9.71 9.68 9.627 9.558 9.495 9.435 9.383 9.337 9.287 9.23 9.183 9.168 9.17 9.173 9.185 9.21 9.237 9.262 9.277 9.28 9.28 9.288 9.318 9.35 9.36 9.345 9.305 9.252 9.192 9.128 9.083 9.06 9.042 9.01 8.958 8.91 8.888 8.885 8.875 8.85 8.81 8.763 8.723 8.69 8.635 8.532 8.43 8.36 8.315 8.29 8.21 8.05 7.86 7.675 7.633 7.702 7.727 7.69 7.595 7.475 7.355 7.235 7.16 7.23 7.442 7.632 7.265 6.84 7.237 7.375 6.945 6.64 6.505 6.588 6.715 6.757 6.757 6.762 6.767 6.752 6.73 6.712 6.685 6.635 6.608 6.653 6.727 6.785 6.825 6.86 6.925 7.055 7.02 6.735 6.57 6.57 6.75 7.11 7.28 7.257 7.227 7.18 7.143 7.135 7.138 7.153 7.27 7.46 7.605 7.72 7.797 7.47 7.373 7.735 7.835 7.807 7.767 7.723 7.753 7.918 8.168 8.843 9.585 9.86 9.99 10.087 10.142 10.18 10.217 10.225 10.207 10.205 10.2 10.165 10.163 10.213
10.567 10.55 10.532 10.505 10.462 10.418 10.375 10.335 10.303 10.28 10.323 10.462 10.587 10.622 10.615 10.597 10.567 10.533 10.505 10.485 10.462 10.437 10.41 10.385 10.363 10.343 10.33 10.323 10.315 10.32 10.348 10.383 10.423 10.465 10.502 10.535 10.57 10.6 10.625 10.655 10.68 10.695 10.675 10.638 10.615 10.593 10.55 10.485 10.415 10.342 10.26 10.175 10.103 10.05 10.005 9.96 9.92 9.883 9.858 9.84 9.82 9.797 9.762 9.72 9.683 9.65 9.595 9.515 9.443 9.383 9.33 9.285 9.243 9.21 9.2 9.202 9.207 9.21 9.218 9.24 9.265 9.29 9.312 9.32 9.32 9.335 9.375 9.417 9.422 9.39 9.345 9.297 9.245 9.183 9.138 9.113 9.09 9.065 9.015 8.945 8.89 8.86 8.84 8.82 8.792 8.755 8.715 8.657 8.555 8.428 8.318 8.255 8.24 8.23 8.147 8.002 7.842 7.673 7.623 7.657 7.65 7.615 7.53 7.408 7.285 7.165 7.065 7.033 7.19 7.467 7.32 6.938 7.152 7.347 7.018 6.73 6.68 6.742 6.767 6.747 6.715 6.702 6.702 6.692 6.675 6.657 6.63 6.603 6.633 6.71 6.782 6.847 6.902 6.948 7.042 7.002 6.73 6.57 6.57 6.75 7.092 7.215 7.142 7.115 7.125 7.122 7.103 7.093 7.1 7.12 7.24 7.455 7.647 7.785 7.645 7.283 7.465 7.815 7.812 7.802 7.782 7.745 7.788 7.98 8.44 9.315 9.932 10.08 10.225 10.362 10.465 10.525 10.542 10.51 10.48 10.462 10.405 10.313 10.275 10.31
10.527 10.51 10.49 10.457 10.415 10.37 10.325 10.285 10.245 10.208 10.213 10.343 10.53 10.605 10.597 10.59 10.567 10.53 10.495 10.46 10.425 10.4 10.375 10.35 10.325 10.303 10.29 10.283 10.278 10.28 10.305 10.345 10.388 10.425 10.46 10.495 10.528 10.56 10.588 10.613 10.64 10.665 10.663 10.645 10.633 10.615 10.575 10.51 10.435 10.355 10.272 10.188 10.11 10.053 10.007 9.962 9.918 9.875 9.843 9.82 9.802 9.782 9.747 9.705 9.665 9.625 9.565 9.48 9.395 9.333 9.29 9.253 9.218 9.205 9.217 9.232 9.242 9.247 9.253 9.27 9.295 9.318 9.342 9.357 9.363 9.385 9.42 9.447 9.447 9.42 9.382 9.34 9.292 9.235 9.193 9.167 9.142 9.12 9.072 8.995 8.915 8.845 8.805 8.785 8.765 8.74 8.69 8.6 8.488 8.37 8.268 8.215 8.198 8.173 8.082 7.94 7.795 7.655 7.598 7.598 7.583 7.555 7.473 7.345 7.22 7.1 7 6.92 6.913 7.135 7.407 7.152 6.928 7.182 7.095 6.825 6.782 6.745 6.678 6.633 6.62 6.615 6.61 6.61 6.605 6.593 6.583 6.61 6.685 6.767 6.838 6.905 6.973 7.045 7.16 6.902 6.57 6.57 6.57 6.882 7.125 6.97 6.873 6.898 6.97 7.035 7.065 7.068 7.073 7.09 7.213 7.43 7.65 7.627 7.305 7.278 7.612 7.782 7.777 7.775 7.772 7.755 7.835 8.13 8.95 9.812 10.13 10.275 10.417 10.56 10.697 10.792 10.807 10.772 10.725 10.652 10.547 10.433 10.39 10.42
10.485 10.47 10.447 10.41 10.365 10.322 10.278 10.235 10.198 10.168 10.168 10.3 10.482 10.542 10.537 10.537 10.532 10.505 10.467 10.425 10.383 10.355 10.33 10.305 10.285 10.275 10.273 10.268 10.263 10.265 10.29 10.33 10.368 10.415 10.46 10.485 10.505 10.528 10.555 10.588 10.628 10.675 10.695 10.682 10.665 10.645 10.607 10.542 10.447 10.357 10.285 10.202 10.12 10.055 10.01 9.965 9.92 9.875 9.828 9.798 9.785 9.767 9.735 9.692 9.645 9.59 9.527 9.452 9.365 9.303 9.27 9.243 9.215 9.198 9.208 9.235 9.257 9.275 9.287 9.302 9.325 9.345 9.365 9.382 9.395 9.412 9.43 9.44 9.442 9.43 9.402 9.367 9.33 9.285 9.247 9.215 9.177 9.142 9.087 9.007 8.922 8.838 8.78 8.755 8.743 8.735 8.7 8.62 8.52 8.418 8.333 8.28 8.24 8.177 8.043 7.88 7.738 7.638 7.615 7.61 7.595 7.562 7.458 7.315 7.188 7.065 6.965 6.885 6.803 6.93 7.382 7.235 6.805 7.115 7.192 6.91 6.8 6.685 6.603 6.588 6.605 6.593 6.57 6.563 6.558 6.555 6.583 6.653 6.74 6.825 6.903 6.98 7.058 7.142 7.057 6.748 6.57 6.57 6.718 6.94 6.907 6.763 6.753 6.825 6.915 7.005 7.062 7.075 7.075 7.105 7.223 7.41 7.625 7.425 7.11 7.432 7.752 7.742 7.727 7.712 7.7 7.735 7.91 8.47 9.465 10.107 10.23 10.352 10.497 10.642 10.79 10.87 10.865 10.845 10.817 10.742 10.627 10.51 10.463 10.49
10.442 10.428 10.403 10.363 10.318 10.275 10.233 10.198 10.178 10.165 10.18 10.307 10.435 10.457 10.455 10.458 10.47 10.462 10.43 10.385 10.338 10.303 10.278 10.26 10.255 10.26 10.265 10.267 10.267 10.268 10.29 10.327 10.363 10.425 10.5 10.535 10.543 10.545 10.558 10.595 10.648 10.702 10.727 10.717 10.697 10.675 10.64 10.567 10.445 10.343 10.285 10.215 10.13 10.06 10.013 9.967 9.92 9.857 9.798 9.768 9.755 9.745 9.715 9.66 9.6 9.537 9.48 9.422 9.345 9.288 9.26 9.235 9.21 9.188 9.193 9.22 9.247 9.272 9.29 9.3 9.312 9.327 9.342 9.365 9.392 9.407 9.415 9.425 9.432 9.425 9.402 9.375 9.345 9.312 9.272 9.225 9.175 9.125 9.062 8.988 8.91 8.828 8.763 8.743 8.753 8.755 8.74 8.7 8.62 8.52 8.445 8.392 8.322 8.222 8.03 7.825 7.688 7.633 7.667 7.685 7.675 7.627 7.495 7.33 7.188 7.06 6.958 6.875 6.793 6.885 7.29 7.18 6.798 7.15 7.305 7.03 6.885 6.75 6.663 6.647 6.65 6.622 6.58 6.558 6.55 6.568 6.63 6.71 6.795 6.885 6.967 7.05 7.137 7.04 6.735 6.57 6.57 6.743 6.99 6.952 6.768 6.735 6.818 6.888 6.958 7.045 7.097 7.108 7.133 7.198 7.305 7.448 7.617 7.41 7.148 7.428 7.655 7.627 7.6 7.573 7.6 7.753 8.113 9.007 9.9 10.215 10.305 10.365 10.48 10.632 10.787 10.805 10.723 10.698 10.717 10.725 10.657 10.545 10.495 10.52
10.398 10.398 10.385 10.345 10.303 10.245 10.203 10.193 10.187 10.18 10.198 10.287 10.36 10.37 10.375 10.383 10.398 10.407 10.387 10.343 10.295 10.253 10.233 10.233 10.24 10.25 10.255 10.26 10.267 10.27 10.288 10.323 10.36 10.425 10.517 10.585 10.605 10.6 10.595 10.62 10.672 10.725 10.755 10.752 10.73 10.705 10.67 10.582 10.44 10.318 10.257 10.21 10.14 10.07 10.015 9.965 9.902 9.818 9.758 9.735 9.72 9.707 9.667 9.605 9.543 9.48 9.428 9.38 9.32 9.273 9.248 9.225 9.203 9.18 9.178 9.195 9.215 9.233 9.247 9.255 9.253 9.26 9.285 9.32 9.36 9.387 9.4 9.41 9.417 9.415 9.4 9.375 9.348 9.322 9.277 9.218 9.163 9.108 9.045 8.978 8.913 8.845 8.785 8.775 8.79 8.78 8.76 8.74 8.7 8.622 8.547 8.472 8.365 8.247 8.052 7.808 7.658 7.645 7.705 7.747 7.755 7.692 7.547 7.373 7.205 7.06 6.953 6.87 6.79 6.84 7.195 7.13 6.793 7.182 7.42 7.185 7.035 6.867 6.73 6.685 6.68 6.66 6.615 6.565 6.555 6.608 6.69 6.77 6.855 6.942 7.023 7.103 7.187 6.9 6.57 6.57 6.57 6.867 7.022 6.783 6.7 6.78 6.905 6.98 7.02 7.09 7.14 7.17 7.238 7.323 7.423 7.55 7.685 7.43 7.255 7.492 7.52 7.443 7.415 7.448 7.598 7.845 8.495 9.532 10.15 10.315 10.43 10.465 10.503 10.613 10.745 10.71 10.568 10.523 10.553 10.607 10.622 10.565 10.528 10.547
10.353 10.4 10.435 10.395 10.355 10.258 10.183 10.187 10.187 10.185 10.2 10.24 10.273 10.288 10.303 10.32 10.343 10.365 10.352 10.31 10.268 10.228 10.215 10.225 10.233 10.24 10.248 10.255 10.263 10.268 10.285 10.32 10.36 10.425 10.512 10.585 10.63 10.642 10.635 10.65 10.695 10.747 10.785 10.782 10.757 10.732 10.695 10.595 10.44 10.295 10.213 10.177 10.132 10.072 10.012 9.945 9.858 9.773 9.725 9.71 9.7 9.68 9.63 9.563 9.495 9.428 9.388 9.368 9.338 9.305 9.28 9.26 9.24 9.208 9.173 9.168 9.183 9.195 9.208 9.218 9.21 9.213 9.243 9.28 9.32 9.357 9.382 9.395 9.402 9.407 9.4 9.377 9.357 9.337 9.295 9.238 9.18 9.123 9.065 9.008 8.958 8.907 8.855 8.83 8.82 8.8 8.78 8.752 8.72 8.675 8.6 8.497 8.382 8.267 8.115 7.833 7.648 7.677 7.735 7.792 7.825 7.76 7.602 7.425 7.237 7.068 6.955 6.878 6.8 6.795 7.095 7.08 6.79 7.217 7.532 7.315 7.122 6.912 6.748 6.69 6.685 6.677 6.637 6.578 6.575 6.645 6.732 6.82 6.91 6.997 7.08 7.157 7.08 6.768 6.57 6.57 6.72 6.92 6.835 6.678 6.72 6.85 6.98 7.08 7.122 7.155 7.208 7.278 7.362 7.448 7.538 7.66 7.595 7.283 7.228 7.457 7.457 7.295 7.295 7.458 7.69 8.1 9.05 9.932 10.237 10.402 10.552 10.622 10.623 10.653 10.702 10.625 10.445 10.36 10.388 10.445 10.503 10.532 10.545 10.567
10.35 10.465 10.525 10.485 10.427 10.278 10.16 10.158 10.163 10.178 10.193 10.198 10.21 10.23 10.25 10.275 10.31 10.34 10.332 10.298 10.26 10.225 10.215 10.225 10.233 10.238 10.245 10.255 10.26 10.26 10.273 10.31 10.357 10.405 10.455 10.52 10.602 10.66 10.672 10.68 10.718 10.767 10.785 10.762 10.735 10.712 10.672 10.567 10.41 10.265 10.178 10.138 10.102 10.06 10 9.915 9.815 9.738 9.705 9.698 9.69 9.67 9.62 9.548 9.49 9.45 9.433 9.438 9.425 9.393 9.363 9.34 9.31 9.255 9.195 9.165 9.165 9.175 9.188 9.197 9.193 9.19 9.213 9.25 9.29 9.325 9.342 9.342 9.347 9.365 9.357 9.32 9.28 9.265 9.287 9.28 9.227 9.172 9.115 9.058 9.007 8.962 8.915 8.873 8.845 8.825 8.805 8.757 8.683 8.622 8.56 8.465 8.355 8.245 8.102 7.823 7.605 7.612 7.682 7.757 7.822 7.772 7.597 7.402 7.215 7.068 6.973 6.9 6.825 6.795 7.033 7.26 7.02 7.003 7.342 7.345 7.11 6.878 6.735 6.688 6.668 6.66 6.622 6.58 6.59 6.653 6.74 6.832 6.927 7.02 7.11 7.195 6.93 6.598 6.57 6.735 6.982 6.92 6.698 6.673 6.79 6.923 7.055 7.165 7.205 7.203 7.27 7.385 7.482 7.572 7.66 7.775 7.477 7.11 7.173 7.393 7.467 7.315 7.338 7.55 7.815 8.53 9.587 10.157 10.323 10.488 10.652 10.765 10.79 10.782 10.742 10.613 10.423 10.305 10.31 10.37 10.438 10.503 10.552 10.582
10.422 10.577 10.615 10.575 10.475 10.275 10.14 10.13 10.148 10.183 10.2 10.188 10.18 10.188 10.21 10.243 10.285 10.322 10.32 10.29 10.257 10.225 10.215 10.225 10.235 10.242 10.248 10.255 10.26 10.25 10.245 10.277 10.312 10.32 10.333 10.385 10.487 10.6 10.675 10.707 10.742 10.765 10.74 10.698 10.66 10.635 10.597 10.495 10.35 10.233 10.155 10.108 10.073 10.035 9.987 9.91 9.81 9.738 9.713 9.703 9.688 9.668 9.635 9.593 9.565 9.555 9.55 9.55 9.53 9.49 9.453 9.42 9.362 9.29 9.235 9.185 9.158 9.16 9.172 9.18 9.175 9.168 9.185 9.225 9.26 9.285 9.29 9.275 9.265 9.272 9.252 9.18 9.098 9.093 9.187 9.27 9.272 9.225 9.165 9.103 9.045 8.998 8.953 8.91 8.878 8.855 8.83 8.762 8.655 8.558 8.478 8.393 8.293 8.187 8.015 7.773 7.568 7.475 7.51 7.597 7.68 7.667 7.51 7.315 7.168 7.07 6.995 6.927 6.858 6.835 7.01 7.422 7.225 6.768 7.11 7.325 7.07 6.853 6.735 6.695 6.66 6.638 6.61 6.59 6.598 6.648 6.735 6.823 6.913 7.008 7.105 7.207 6.915 6.57 6.57 6.865 7.03 6.785 6.673 6.74 6.873 7.008 7.14 7.23 7.235 7.215 7.295 7.445 7.577 7.685 7.78 7.675 7.315 7.11 7.313 7.562 7.587 7.515 7.498 7.65 8.1 9.092 9.96 10.245 10.41 10.575 10.74 10.89 10.955 10.937 10.845 10.682 10.503 10.365 10.34 10.388 10.45 10.517 10.567 10.595
10.44 10.457 10.53 10.647 10.497 10.253 10.118 10.13 10.168 10.21 10.22 10.2 10.178 10.168 10.185 10.223 10.268 10.305 10.305 10.278 10.25 10.223 10.215 10.225 10.235 10.245 10.252 10.257 10.252 10.23 10.21 10.222 10.215 10.188 10.198 10.23 10.313 10.445 10.575 10.675 10.732 10.727 10.682 10.637 10.593 10.555 10.515 10.422 10.305 10.215 10.138 10.083 10.047 10.01 9.972 9.92 9.835 9.765 9.74 9.725 9.703 9.678 9.675 9.687 9.685 9.675 9.67 9.66 9.63 9.587 9.54 9.482 9.4 9.325 9.272 9.218 9.173 9.155 9.16 9.162 9.155 9.145 9.158 9.19 9.215 9.235 9.24 9.225 9.205 9.185 9.145 9.055 8.938 8.905 9.005 9.147 9.242 9.26 9.217 9.153 9.09 9.035 8.99 8.95 8.913 8.885 8.845 8.76 8.653 8.545 8.44 8.343 8.24 8.135 7.97 7.765 7.583 7.415 7.34 7.383 7.46 7.495 7.41 7.268 7.17 7.09 7.015 6.95 6.888 6.873 7.02 7.365 7.175 6.768 7.135 7.35 7.058 6.843 6.745 6.702 6.66 6.633 6.618 6.61 6.61 6.65 6.733 6.818 6.905 6.995 7.102 7.042 6.745 6.57 6.75 7.025 7.01 6.808 6.748 6.84 6.968 7.1 7.232 7.29 7.253 7.225 7.305 7.465 7.622 7.76 7.66 7.313 7.158 7.29 7.552 7.705 7.705 7.7 7.673 7.825 8.615 9.687 10.21 10.358 10.508 10.665 10.828 10.992 11.097 11.07 10.935 10.765 10.593 10.443 10.395 10.428 10.47 10.53 10.58 10.605
10.28 10.117 9.945 10.25 10.362 10.168 10.11 10.153 10.2 10.235 10.235 10.212 10.188 10.18 10.2 10.233 10.265 10.293 10.293 10.273 10.253 10.235 10.23 10.233 10.238 10.245 10.255 10.255 10.235 10.205 10.178 10.16 10.125 10.085 10.075 10.09 10.145 10.255 10.39 10.507 10.617 10.655 10.612 10.57 10.527 10.485 10.442 10.372 10.285 10.205 10.123 10.06 10.022 9.985 9.947 9.91 9.85 9.793 9.768 9.75 9.725 9.695 9.688 9.72 9.757 9.78 9.785 9.76 9.712 9.652 9.587 9.512 9.43 9.362 9.307 9.255 9.205 9.163 9.148 9.145 9.135 9.125 9.13 9.15 9.168 9.185 9.185 9.162 9.135 9.1 9.057 8.975 8.855 8.815 8.908 9.048 9.178 9.267 9.265 9.202 9.137 9.075 9.025 8.987 8.95 8.917 8.857 8.758 8.658 8.558 8.455 8.35 8.235 8.125 7.985 7.803 7.615 7.428 7.268 7.203 7.25 7.34 7.352 7.28 7.198 7.115 7.038 6.975 6.925 6.9 7.033 7.335 7.137 6.77 7.162 7.4 7.09 6.843 6.73 6.685 6.64 6.625 6.63 6.63 6.63 6.658 6.728 6.818 6.918 7.018 7.137 6.89 6.57 6.57 6.932 7.25 7.112 6.925 6.865 6.95 7.065 7.195 7.312 7.335 7.273 7.238 7.32 7.487 7.652 7.815 7.503 7.11 7.288 7.57 7.695 7.715 7.727 7.762 7.788 8.238 9.322 10.157 10.415 10.54 10.675 10.82 10.97 11.123 11.205 11.142 10.997 10.84 10.675 10.513 10.453 10.485 10.515 10.555 10.592 10.615
10.005 9.767 9.421 9.723 10.077 10.088 10.12 10.17 10.222 10.25 10.24 10.218 10.198 10.205 10.237 10.27 10.295 10.313 10.31 10.295 10.28 10.268 10.263 10.26 10.26 10.263 10.26 10.242 10.215 10.185 10.175 10.145 10.088 10.043 10.01 10 10.008 10.065 10.163 10.243 10.415 10.55 10.525 10.485 10.445 10.408 10.372 10.32 10.247 10.172 10.095 10.033 9.992 9.955 9.92 9.885 9.842 9.812 9.792 9.77 9.745 9.715 9.685 9.693 9.745 9.805 9.827 9.79 9.725 9.652 9.58 9.507 9.432 9.367 9.312 9.26 9.21 9.157 9.13 9.122 9.11 9.1 9.103 9.12 9.135 9.142 9.125 9.088 9.05 9.01 8.973 8.938 8.898 8.903 8.99 9.113 9.23 9.302 9.297 9.242 9.175 9.1 9.043 9.01 8.977 8.94 8.872 8.775 8.68 8.585 8.485 8.377 8.265 8.167 8.037 7.858 7.67 7.48 7.298 7.168 7.165 7.273 7.355 7.33 7.248 7.163 7.088 7.03 6.985 6.945 6.993 7.247 7.102 6.77 7.187 7.45 7.143 6.875 6.715 6.645 6.608 6.615 6.645 6.652 6.65 6.675 6.75 6.853 6.963 7.075 7.065 6.785 6.57 6.57 6.938 7.297 7.215 7.045 6.988 7.07 7.17 7.29 7.372 7.36 7.287 7.235 7.32 7.505 7.672 7.835 7.515 7.11 7.375 7.635 7.652 7.695 7.73 7.778 8.053 8.995 10.045 10.5 10.662 10.78 10.908 11.043 11.18 11.32 11.28 11.087 10.935 10.792 10.642 10.523 10.493 10.52 10.55 10.577 10.6 10.62
9.692 9.483 9.38 9.66 9.935 10.06 10.115 10.175 10.23 10.255 10.245 10.223 10.215 10.238 10.273 10.307 10.337 10.357 10.355 10.335 10.318 10.305 10.3 10.3 10.3 10.29 10.262 10.23 10.2 10.188 10.212 10.182 10.09 10.028 9.993 9.965 9.943 9.95 9.99 10.053 10.22 10.405 10.44 10.4 10.363 10.33 10.3 10.25 10.18 10.115 10.055 9.998 9.953 9.917 9.882 9.845 9.815 9.815 9.812 9.79 9.765 9.735 9.7 9.675 9.698 9.76 9.787 9.742 9.667 9.595 9.525 9.452 9.362 9.285 9.232 9.178 9.14 9.123 9.113 9.1 9.085 9.075 9.08 9.098 9.115 9.115 9.07 9.015 8.975 8.94 8.938 8.988 9.037 9.07 9.15 9.265 9.34 9.35 9.325 9.277 9.2 9.11 9.05 9.017 8.98 8.932 8.872 8.8 8.712 8.615 8.515 8.405 8.305 8.23 8.105 7.923 7.738 7.56 7.4 7.288 7.243 7.285 7.367 7.377 7.312 7.23 7.165 7.113 7.063 7.018 6.983 7.127 7.043 6.788 7.215 7.5 7.2 6.94 6.733 6.61 6.588 6.618 6.657 6.672 6.68 6.733 6.825 6.925 7.03 7.14 6.93 6.618 6.57 6.753 7.122 7.317 7.29 7.163 7.113 7.2 7.29 7.387 7.417 7.355 7.267 7.203 7.285 7.482 7.665 7.842 7.522 7.275 7.52 7.565 7.56 7.62 7.713 7.803 8.583 9.83 10.505 10.772 10.917 11.033 11.15 11.273 11.405 11.502 11.307 10.963 10.77 10.63 10.53 10.505 10.515 10.533 10.56 10.585 10.605 10.625
9.427 9.363 9.47 9.745 9.955 10.053 10.118 10.177 10.227 10.257 10.252 10.233 10.243 10.275 10.308 10.342 10.375 10.402 10.405 10.38 10.358 10.345 10.34 10.337 10.322 10.29 10.25 10.215 10.2 10.228 10.27 10.23 10.12 10.03 9.978 9.945 9.93 9.918 9.928 10 10.118 10.277 10.352 10.318 10.285 10.255 10.227 10.185 10.125 10.07 10.023 9.97 9.915 9.873 9.837 9.8 9.78 9.8 9.82 9.81 9.785 9.755 9.72 9.68 9.668 9.71 9.732 9.68 9.598 9.52 9.45 9.365 9.245 9.148 9.108 9.085 9.083 9.097 9.097 9.08 9.063 9.053 9.06 9.078 9.097 9.092 9.03 8.958 8.92 8.93 8.995 9.09 9.177 9.232 9.305 9.38 9.39 9.367 9.342 9.295 9.212 9.12 9.055 9.012 8.962 8.908 8.855 8.802 8.735 8.647 8.545 8.443 8.365 8.3 8.175 7.995 7.825 7.67 7.54 7.455 7.393 7.358 7.375 7.405 7.375 7.305 7.25 7.2 7.15 7.1 7.048 7.078 7.177 7 7.095 7.402 7.26 7.01 6.78 6.615 6.583 6.62 6.66 6.688 6.735 6.83 6.93 7.02 7.115 7.2 6.902 6.57 6.57 6.935 7.307 7.325 7.335 7.265 7.24 7.327 7.392 7.432 7.405 7.315 7.223 7.155 7.235 7.435 7.647 7.775 7.45 7.43 7.657 7.498 7.46 7.555 7.718 8.073 9.245 10.385 10.79 11.042 11.17 11.285 11.4 11.515 11.637 11.612 11.27 10.848 10.615 10.52 10.5 10.52 10.538 10.553 10.57 10.593 10.615 10.632
8.958 9.168 9.53 9.79 9.982 10.075 10.13 10.177 10.222 10.257 10.258 10.253 10.278 10.31 10.343 10.378 10.413 10.445 10.455 10.435 10.408 10.387 10.372 10.352 10.315 10.27 10.23 10.21 10.233 10.287 10.325 10.277 10.17 10.063 9.975 9.925 9.9 9.87 9.89 9.983 10.088 10.202 10.265 10.25 10.223 10.195 10.168 10.135 10.09 10.043 9.997 9.945 9.883 9.83 9.793 9.758 9.748 9.775 9.81 9.822 9.805 9.775 9.74 9.7 9.665 9.673 9.677 9.617 9.533 9.453 9.378 9.275 9.148 9.058 9.035 9.048 9.065 9.082 9.08 9.06 9.04 9.03 9.04 9.06 9.082 9.07 9 8.93 8.918 8.98 9.077 9.177 9.28 9.362 9.412 9.417 9.39 9.36 9.327 9.275 9.195 9.11 9.042 8.99 8.937 8.883 8.833 8.785 8.732 8.67 8.585 8.5 8.432 8.367 8.252 8.093 7.945 7.805 7.695 7.625 7.55 7.455 7.408 7.43 7.43 7.385 7.332 7.28 7.23 7.178 7.148 7.17 7.412 7.205 6.87 7.202 7.32 7.08 6.845 6.668 6.625 6.658 6.695 6.723 6.795 6.922 7.022 7.097 7.172 7.057 6.738 6.57 6.75 7.117 7.315 7.332 7.35 7.34 7.34 7.38 7.397 7.39 7.34 7.255 7.168 7.108 7.21 7.438 7.677 7.585 7.263 7.435 7.62 7.44 7.408 7.585 7.76 8.68 10.03 10.695 11.045 11.27 11.377 11.482 11.587 11.692 11.767 11.61 11.18 10.733 10.513 10.503 10.525 10.545 10.562 10.575 10.587 10.605 10.622 10.637
8.591 9 9.545 9.815 10.015 10.097 10.133 10.173 10.218 10.257 10.27 10.28 10.313 10.345 10.378 10.415 10.455 10.485 10.495 10.48 10.45 10.422 10.392 10.35 10.3 10.253 10.223 10.238 10.293 10.355 10.38 10.322 10.215 10.105 10 9.905 9.835 9.808 9.858 9.96 10.052 10.13 10.182 10.197 10.182 10.157 10.13 10.1 10.062 10.017 9.97 9.915 9.85 9.793 9.75 9.713 9.71 9.748 9.79 9.822 9.822 9.795 9.76 9.72 9.68 9.657 9.628 9.56 9.485 9.413 9.335 9.235 9.128 9.053 9.018 9.013 9.025 9.042 9.042 9.025 9.015 9.028 9.048 9.065 9.08 9.07 9.025 8.98 8.97 9.015 9.105 9.21 9.315 9.387 9.402 9.385 9.36 9.33 9.295 9.24 9.16 9.08 9.015 8.96 8.91 8.86 8.813 8.768 8.72 8.672 8.617 8.55 8.48 8.412 8.325 8.207 8.075 7.95 7.852 7.76 7.647 7.518 7.45 7.465 7.482 7.457 7.403 7.35 7.298 7.273 7.303 7.365 7.505 7.197 6.785 7.142 7.382 7.145 6.9 6.74 6.713 6.737 6.765 6.775 6.833 6.955 7.052 7.115 7.195 6.907 6.57 6.57 6.927 7.292 7.307 7.322 7.34 7.352 7.345 7.335 7.33 7.32 7.27 7.185 7.103 7.075 7.235 7.508 7.762 7.5 7.318 7.597 7.585 7.423 7.448 7.668 8.046 9.317 10.514 10.885 11.192 11.367 11.467 11.56 11.655 11.72 11.707 11.487 11.05 10.625 10.46 10.49 10.515 10.545 10.572 10.585 10.597 10.61 10.625 10.642
8.768 9.21 9.615 9.895 10.077 10.132 10.16 10.193 10.227 10.26 10.287 10.318 10.355 10.393 10.428 10.465 10.495 10.507 10.51 10.497 10.472 10.445 10.412 10.368 10.315 10.265 10.253 10.295 10.358 10.422 10.44 10.37 10.263 10.165 10.052 9.895 9.768 9.755 9.827 9.915 9.985 10.045 10.095 10.127 10.137 10.122 10.097 10.067 10.032 9.99 9.942 9.887 9.82 9.758 9.71 9.673 9.678 9.722 9.765 9.805 9.827 9.815 9.78 9.737 9.692 9.648 9.62 9.585 9.525 9.46 9.38 9.273 9.165 9.09 9.035 8.998 8.983 8.985 8.985 8.995 9.035 9.083 9.107 9.107 9.095 9.085 9.08 9.072 9.057 9.053 9.103 9.2 9.285 9.315 9.312 9.307 9.297 9.282 9.26 9.207 9.127 9.048 8.983 8.933 8.888 8.845 8.8 8.755 8.713 8.672 8.63 8.57 8.5 8.43 8.36 8.28 8.18 8.072 7.96 7.832 7.697 7.563 7.495 7.508 7.53 7.517 7.47 7.423 7.403 7.438 7.502 7.57 7.62 7.213 6.79 7.177 7.442 7.195 6.96 6.83 6.805 6.812 6.825 6.825 6.855 6.945 7.038 7.117 7.045 6.748 6.57 6.57 6.923 7.277 7.285 7.3 7.315 7.312 7.29 7.27 7.26 7.25 7.2 7.115 7.038 7.043 7.275 7.592 7.62 7.315 7.468 7.747 7.6 7.473 7.54 7.725 8.643 9.985 10.652 10.992 11.23 11.372 11.48 11.572 11.635 11.62 11.545 11.322 10.918 10.543 10.41 10.44 10.475 10.522 10.56 10.577 10.59 10.603 10.622 10.642
9.195 9.515 9.74 10 10.155 10.187 10.212 10.217 10.203 10.205 10.278 10.367 10.415 10.455 10.487 10.507 10.515 10.515 10.512 10.502 10.485 10.46 10.432 10.4 10.355 10.318 10.325 10.373 10.428 10.487 10.495 10.423 10.333 10.25 10.112 9.91 9.73 9.693 9.765 9.832 9.895 9.955 10.005 10.04 10.065 10.075 10.065 10.035 9.998 9.96 9.917 9.86 9.793 9.728 9.67 9.638 9.653 9.695 9.738 9.78 9.82 9.822 9.782 9.732 9.68 9.628 9.622 9.65 9.63 9.57 9.48 9.343 9.21 9.128 9.07 9.02 8.975 8.955 8.973 9.03 9.11 9.16 9.16 9.135 9.105 9.088 9.09 9.105 9.115 9.11 9.123 9.177 9.217 9.22 9.218 9.215 9.213 9.213 9.21 9.167 9.09 9.015 8.958 8.915 8.875 8.835 8.79 8.748 8.71 8.675 8.637 8.582 8.515 8.445 8.375 8.302 8.227 8.135 8.012 7.877 7.743 7.61 7.54 7.545 7.567 7.572 7.547 7.537 7.565 7.595 7.62 7.647 7.677 7.242 6.79 7.207 7.495 7.238 7.033 6.933 6.89 6.873 6.875 6.875 6.883 6.943 7.04 7.155 6.897 6.57 6.57 6.748 7.095 7.26 7.263 7.277 7.28 7.267 7.245 7.218 7.195 7.18 7.132 7.05 6.975 7 7.305 7.677 7.458 7.283 7.632 7.77 7.67 7.565 7.628 8.008 9.27 10.434 10.782 11.057 11.232 11.375 11.492 11.555 11.537 11.457 11.365 11.157 10.81 10.485 10.363 10.4 10.45 10.505 10.54 10.56 10.578 10.595 10.615 10.635
9.452 9.66 9.88 10.1 10.212 10.23 10.247 10.245 10.225 10.223 10.3 10.417 10.48 10.505 10.517 10.52 10.52 10.523 10.518 10.505 10.493 10.473 10.45 10.425 10.39 10.38 10.412 10.46 10.51 10.56 10.56 10.498 10.428 10.335 10.172 9.967 9.74 9.573 9.575 9.667 9.76 9.85 9.915 9.95 9.978 10.005 10.02 10.002 9.965 9.927 9.887 9.833 9.768 9.7 9.633 9.603 9.628 9.673 9.72 9.768 9.812 9.817 9.77 9.71 9.655 9.603 9.593 9.647 9.695 9.677 9.582 9.425 9.268 9.165 9.105 9.055 9.01 8.983 9.013 9.09 9.17 9.205 9.175 9.135 9.105 9.083 9.083 9.098 9.115 9.13 9.135 9.145 9.15 9.145 9.145 9.145 9.145 9.148 9.15 9.115 9.043 8.985 8.945 8.905 8.865 8.825 8.785 8.747 8.712 8.677 8.642 8.595 8.53 8.462 8.392 8.317 8.245 8.165 8.055 7.92 7.788 7.663 7.583 7.575 7.597 7.617 7.605 7.597 7.61 7.6 7.585 7.59 7.642 7.24 6.795 7.235 7.545 7.283 7.103 7.028 6.97 6.935 6.93 6.93 6.93 6.968 7.075 7.03 6.743 6.57 6.57 6.922 7.265 7.243 7.24 7.247 7.238 7.223 7.2 7.17 7.14 7.115 7.068 6.99 6.915 6.958 7.315 7.642 7.4 7.435 7.745 7.717 7.67 7.628 7.683 8.6 9.927 10.572 10.877 11.085 11.23 11.375 11.472 11.46 11.38 11.285 11.19 11.017 10.733 10.438 10.325 10.375 10.43 10.485 10.522 10.545 10.565 10.585 10.608 10.63
9.49 9.743 9.995 10.175 10.24 10.257 10.272 10.29 10.307 10.32 10.358 10.447 10.52 10.537 10.54 10.54 10.54 10.553 10.555 10.54 10.53 10.52 10.503 10.475 10.433 10.423 10.462 10.507 10.555 10.607 10.637 10.607 10.545 10.435 10.262 10.045 9.77 9.485 9.328 9.365 9.485 9.605 9.745 9.867 9.925 9.955 9.977 9.97 9.935 9.895 9.858 9.817 9.76 9.69 9.62 9.588 9.615 9.665 9.715 9.763 9.807 9.817 9.767 9.698 9.638 9.58 9.57 9.625 9.697 9.742 9.677 9.515 9.34 9.213 9.148 9.105 9.07 9.04 9.058 9.133 9.215 9.24 9.193 9.14 9.105 9.078 9.075 9.092 9.107 9.117 9.115 9.115 9.113 9.1 9.095 9.095 9.095 9.095 9.092 9.055 8.998 8.965 8.937 8.9 8.86 8.817 8.775 8.737 8.702 8.667 8.635 8.592 8.53 8.462 8.392 8.32 8.25 8.18 8.092 7.972 7.845 7.725 7.625 7.595 7.618 7.647 7.627 7.565 7.523 7.498 7.5 7.548 7.63 7.237 6.8 7.1 7.432 7.345 7.183 7.108 7.048 7.005 6.99 6.99 6.998 7.043 7.145 6.89 6.57 6.57 6.75 7.097 7.255 7.23 7.225 7.233 7.23 7.21 7.175 7.145 7.118 7.09 7.038 6.963 6.915 7.045 7.427 7.495 7.215 7.365 7.597 7.57 7.575 7.63 7.963 9.22 10.362 10.687 10.927 11.087 11.233 11.377 11.432 11.368 11.275 11.183 11.088 10.94 10.69 10.398 10.283 10.337 10.395 10.457 10.51 10.54 10.563 10.585 10.608 10.632
9.553 9.837 10.072 10.197 10.235 10.265 10.292 10.315 10.335 10.35 10.385 10.465 10.542 10.575 10.58 10.58 10.585 10.612 10.627 10.613 10.603 10.6 10.59 10.565 10.5 10.45 10.47 10.51 10.56 10.628 10.695 10.715 10.675 10.557 10.352 10.087 9.79 9.49 9.213 9.07 9.115 9.255 9.48 9.737 9.885 9.935 9.952 9.937 9.902 9.865 9.83 9.8 9.76 9.705 9.64 9.598 9.615 9.665 9.715 9.76 9.802 9.82 9.775 9.695 9.623 9.563 9.563 9.62 9.69 9.77 9.742 9.587 9.413 9.273 9.203 9.168 9.135 9.103 9.113 9.18 9.26 9.28 9.225 9.16 9.11 9.075 9.068 9.085 9.095 9.092 9.083 9.085 9.087 9.07 9.055 9.048 9.045 9.045 9.037 9 8.965 8.955 8.932 8.897 8.857 8.807 8.755 8.71 8.67 8.635 8.605 8.565 8.507 8.44 8.37 8.3 8.233 8.172 8.105 8.012 7.907 7.792 7.673 7.618 7.633 7.67 7.65 7.565 7.488 7.423 7.44 7.53 7.62 7.263 6.83 6.875 7.233 7.427 7.29 7.2 7.128 7.07 7.045 7.05 7.088 7.162 7.112 6.795 6.57 6.57 6.927 7.27 7.255 7.255 7.265 7.277 7.265 7.22 7.175 7.148 7.122 7.095 7.043 6.985 7.07 7.345 7.662 7.46 7.283 7.45 7.435 7.443 7.515 7.635 8.533 9.847 10.477 10.755 10.955 11.095 11.237 11.362 11.385 11.317 11.235 11.145 11.042 10.88 10.645 10.363 10.233 10.285 10.353 10.43 10.495 10.537 10.567 10.59 10.612 10.635
