ncols         200
nrows         71
xllcorner     544000
yllcorner     255085
cellsize      5
NODATA_value  -9999.0
10.073 10.08 10.113 10.17 10.233 10.297 10.352 10.39 10.412 10.428 10.455 10.49 10.523 10.555 10.595 10.645 10.703 10.767 10.825 10.87 10.915 10.963 11.033 11.127 11.22 11.31 11.365 11.385 11.413 11.455 11.49 11.51 11.535 11.563 11.59 11.617 11.64 11.66 11.68 11.703 11.733 11.77 11.805 11.843 11.888 11.933 11.98 12.025 12.07 12.12 12.175 12.227 12.27 12.307 12.325 12.332 12.35 12.36 12.363 12.367 12.373 12.445 12.545 12.62 12.73 12.86 12.985 13.092 13.19 13.29 13.342 13.343 13.375 13.463 13.547 13.595 13.625 13.655 13.69 13.735 13.785 13.812 13.837 13.892 13.96 14.027 14.12 14.238 14.415 14.57 14.64 14.705 14.77 14.84 14.895 14.937 14.972 14.993 15.103 15.297 15.477 15.645 15.8 15.948 16.095 16.245 16.37 16.468 16.565 16.665 16.75 16.817 16.88 16.94 16.995 17.05 17.1 17.132 17.163 17.2 17.25 17.308 17.368 17.437 17.515 17.587 17.652 17.71 17.735 17.715 17.675 17.64 17.605 17.57 17.535 17.5 17.473 17.445 17.418 17.41 17.407 17.388 17.363 17.358 17.385 17.428 17.49 17.575 17.657 17.702 17.682 17.62 17.55 17.483 17.425 17.38 17.335 17.293 17.275 17.27 17.265 17.265 17.27 17.275 17.268 17.273 17.303 17.348 17.413 17.492 17.547 17.57 17.575 17.555 17.512 17.42 17.285 17.195 17.155 17.105 17.035 16.958 16.898 16.858 16.83 16.815 16.815 16.825 16.833 16.845 16.855 16.84 16.81 16.767 16.705 16.635 16.563 16.485 16.405 16.318
10.073 10.075 10.11 10.17 10.232 10.295 10.355 10.392 10.405 10.42 10.448 10.483 10.518 10.553 10.6 10.66 10.72 10.785 10.845 10.89 10.935 10.985 11.06 11.157 11.25 11.34 11.395 11.415 11.435 11.463 11.49 11.513 11.54 11.568 11.593 11.615 11.638 11.66 11.68 11.7 11.723 11.753 11.79 11.835 11.885 11.933 11.978 12.02 12.063 12.11 12.16 12.205 12.248 12.29 12.325 12.345 12.348 12.345 12.348 12.35 12.353 12.39 12.463 12.563 12.695 12.832 12.957 13.065 13.165 13.267 13.32 13.315 13.315 13.36 13.437 13.49 13.52 13.557 13.602 13.625 13.627 13.61 13.58 13.595 13.65 13.72 13.825 14.02 14.325 14.535 14.605 14.672 14.74 14.81 14.862 14.892 14.905 14.908 15.018 15.23 15.437 15.632 15.802 15.953 16.1 16.25 16.375 16.475 16.575 16.675 16.757 16.82 16.88 16.94 16.998 17.053 17.108 17.157 17.203 17.253 17.307 17.362 17.4 17.44 17.51 17.587 17.665 17.72 17.715 17.68 17.645 17.61 17.575 17.54 17.505 17.47 17.44 17.41 17.385 17.368 17.345 17.325 17.325 17.35 17.39 17.43 17.49 17.578 17.667 17.712 17.685 17.617 17.543 17.475 17.423 17.377 17.333 17.288 17.265 17.265 17.27 17.278 17.283 17.287 17.277 17.268 17.303 17.378 17.465 17.545 17.59 17.615 17.637 17.635 17.567 17.435 17.293 17.205 17.165 17.125 17.072 17.003 16.943 16.903 16.873 16.855 16.855 16.865 16.872 16.872 16.857 16.825 16.785 16.738 16.675 16.605 16.535 16.465 16.393 16.313
10.068 10.07 10.103 10.16 10.22 10.28 10.342 10.392 10.415 10.428 10.453 10.488 10.523 10.565 10.623 10.688 10.75 10.807 10.857 10.902 10.95 11.003 11.073 11.165 11.26 11.35 11.415 11.445 11.465 11.485 11.505 11.528 11.555 11.583 11.605 11.625 11.65 11.68 11.708 11.73 11.75 11.77 11.808 11.86 11.91 11.963 12.008 12.045 12.083 12.118 12.155 12.198 12.245 12.295 12.337 12.355 12.353 12.35 12.348 12.345 12.348 12.358 12.413 12.528 12.665 12.805 12.932 13.04 13.138 13.24 13.295 13.29 13.283 13.29 13.335 13.385 13.415 13.435 13.44 13.417 13.372 13.33 13.29 13.275 13.31 13.398 13.59 13.93 14.297 14.495 14.565 14.635 14.705 14.787 14.795 14.755 14.75 14.768 14.9 15.115 15.332 15.56 15.775 15.962 16.122 16.267 16.392 16.495 16.592 16.687 16.767 16.83 16.89 16.95 17.01 17.065 17.12 17.183 17.245 17.305 17.362 17.417 17.447 17.453 17.493 17.57 17.652 17.695 17.677 17.633 17.587 17.555 17.525 17.495 17.465 17.442 17.42 17.393 17.368 17.34 17.31 17.298 17.335 17.405 17.448 17.465 17.508 17.59 17.685 17.727 17.685 17.61 17.538 17.47 17.418 17.373 17.33 17.285 17.27 17.283 17.29 17.298 17.302 17.295 17.272 17.27 17.328 17.422 17.517 17.592 17.63 17.652 17.67 17.657 17.577 17.44 17.298 17.21 17.17 17.13 17.087 17.037 16.987 16.95 16.917 16.895 16.895 16.905 16.91 16.895 16.86 16.82 16.775 16.722 16.665 16.6 16.533 16.468 16.41 16.347
10.055 10.065 10.095 10.145 10.2 10.26 10.32 10.38 10.422 10.443 10.468 10.505 10.548 10.6 10.66 10.722 10.78 10.825 10.865 10.91 10.96 11.015 11.08 11.16 11.25 11.337 11.412 11.462 11.49 11.512 11.535 11.555 11.58 11.607 11.63 11.653 11.685 11.728 11.765 11.79 11.805 11.813 11.848 11.907 11.962 12.017 12.06 12.095 12.125 12.138 12.163 12.21 12.26 12.31 12.357 12.38 12.38 12.38 12.377 12.37 12.365 12.373 12.415 12.51 12.638 12.775 12.905 13.015 13.113 13.215 13.27 13.265 13.257 13.25 13.258 13.265 13.253 13.223 13.18 13.14 13.098 13.053 13.01 12.975 12.993 13.165 13.515 13.935 14.282 14.455 14.525 14.595 14.668 14.787 14.74 14.568 14.52 14.585 14.763 14.985 15.218 15.465 15.725 15.967 16.15 16.292 16.42 16.522 16.615 16.702 16.78 16.847 16.91 16.97 17.03 17.087 17.145 17.21 17.28 17.35 17.415 17.472 17.507 17.498 17.493 17.548 17.622 17.655 17.647 17.595 17.518 17.47 17.442 17.417 17.403 17.412 17.412 17.388 17.362 17.335 17.303 17.29 17.353 17.465 17.547 17.587 17.605 17.648 17.732 17.765 17.707 17.625 17.537 17.465 17.417 17.375 17.333 17.288 17.28 17.305 17.32 17.325 17.322 17.29 17.25 17.278 17.36 17.455 17.55 17.625 17.665 17.68 17.672 17.627 17.552 17.442 17.305 17.215 17.175 17.135 17.09 17.035 16.985 16.95 16.927 16.925 16.937 16.945 16.935 16.905 16.865 16.825 16.767 16.705 16.657 16.607 16.547 16.48 16.43 16.385
10.048 10.063 10.093 10.138 10.185 10.24 10.3 10.36 10.415 10.452 10.485 10.53 10.583 10.638 10.695 10.75 10.795 10.833 10.873 10.923 10.975 11.03 11.093 11.163 11.243 11.325 11.398 11.46 11.507 11.537 11.562 11.585 11.608 11.633 11.658 11.69 11.735 11.785 11.822 11.84 11.847 11.85 11.885 11.95 12.012 12.07 12.112 12.14 12.152 12.15 12.17 12.22 12.267 12.31 12.367 12.415 12.425 12.42 12.407 12.4 12.405 12.425 12.46 12.515 12.613 12.745 12.875 12.985 13.085 13.192 13.247 13.24 13.232 13.22 13.202 13.178 13.125 13.065 13.015 12.968 12.923 12.873 12.823 12.778 12.82 13.1 13.525 13.945 14.267 14.415 14.485 14.558 14.653 14.82 14.757 14.45 14.315 14.423 14.653 14.908 15.173 15.445 15.728 15.985 16.172 16.317 16.445 16.542 16.63 16.715 16.79 16.86 16.927 16.99 17.05 17.113 17.175 17.24 17.31 17.385 17.46 17.525 17.57 17.565 17.53 17.54 17.587 17.617 17.63 17.587 17.49 17.408 17.355 17.323 17.325 17.37 17.4 17.385 17.357 17.33 17.295 17.283 17.348 17.465 17.585 17.67 17.715 17.757 17.82 17.827 17.742 17.63 17.505 17.413 17.377 17.362 17.335 17.295 17.288 17.315 17.342 17.355 17.332 17.273 17.24 17.293 17.385 17.475 17.563 17.645 17.69 17.68 17.64 17.582 17.512 17.425 17.31 17.225 17.182 17.127 17.06 16.983 16.918 16.9 16.92 16.955 16.982 16.977 16.947 16.91 16.87 16.83 16.753 16.678 16.64 16.6 16.552 16.493 16.443 16.407
10.05 10.063 10.09 10.135 10.18 10.228 10.285 10.345 10.408 10.463 10.513 10.565 10.62 10.675 10.722 10.765 10.803 10.838 10.883 10.938 10.993 11.048 11.108 11.175 11.25 11.328 11.395 11.455 11.513 11.558 11.59 11.615 11.635 11.66 11.695 11.74 11.792 11.842 11.87 11.877 11.882 11.888 11.925 11.99 12.052 12.115 12.157 12.167 12.163 12.158 12.178 12.222 12.265 12.3 12.363 12.435 12.452 12.435 12.425 12.438 12.46 12.485 12.52 12.555 12.61 12.718 12.847 12.96 13.06 13.167 13.222 13.215 13.202 13.175 13.15 13.14 13.102 13.033 12.968 12.915 12.863 12.808 12.755 12.738 12.848 13.138 13.535 13.955 14.255 14.38 14.45 14.53 14.668 14.875 14.805 14.428 14.233 14.36 14.633 14.918 15.203 15.49 15.78 16.025 16.197 16.342 16.467 16.56 16.645 16.73 16.802 16.87 16.94 17.007 17.072 17.14 17.205 17.27 17.34 17.415 17.495 17.567 17.627 17.635 17.592 17.56 17.563 17.585 17.605 17.575 17.485 17.388 17.303 17.24 17.248 17.315 17.372 17.38 17.35 17.32 17.285 17.275 17.343 17.46 17.565 17.627 17.697 17.787 17.86 17.84 17.715 17.57 17.425 17.318 17.285 17.295 17.293 17.28 17.288 17.318 17.355 17.372 17.332 17.253 17.243 17.32 17.41 17.498 17.585 17.66 17.68 17.642 17.592 17.537 17.465 17.385 17.297 17.225 17.17 17.103 17.028 16.953 16.895 16.898 16.945 16.995 17.01 16.982 16.947 16.91 16.872 16.835 16.742 16.653 16.618 16.58 16.543 16.5 16.455 16.42
10.078 10.09 10.118 10.165 10.21 10.255 10.308 10.365 10.43 10.495 10.555 10.61 10.662 10.712 10.752 10.788 10.823 10.863 10.913 10.968 11.023 11.078 11.14 11.21 11.285 11.365 11.433 11.488 11.545 11.59 11.62 11.645 11.665 11.69 11.73 11.78 11.832 11.877 11.895 11.9 11.907 11.92 11.963 12.027 12.09 12.155 12.192 12.19 12.18 12.175 12.19 12.223 12.255 12.288 12.358 12.437 12.455 12.448 12.465 12.493 12.518 12.545 12.58 12.615 12.648 12.713 12.823 12.935 13.035 13.142 13.197 13.185 13.155 13.115 13.095 13.095 13.082 13.025 12.94 12.873 12.818 12.765 12.725 12.783 12.965 13.208 13.548 13.965 14.242 14.345 14.418 14.528 14.713 14.93 14.845 14.495 14.343 14.45 14.688 14.97 15.257 15.543 15.83 16.062 16.22 16.367 16.492 16.583 16.667 16.75 16.815 16.87 16.935 17.005 17.075 17.147 17.217 17.288 17.365 17.445 17.525 17.597 17.657 17.662 17.615 17.573 17.555 17.563 17.577 17.557 17.48 17.38 17.283 17.213 17.205 17.258 17.33 17.36 17.34 17.307 17.273 17.268 17.34 17.445 17.512 17.545 17.605 17.707 17.787 17.75 17.61 17.462 17.32 17.235 17.23 17.253 17.273 17.293 17.318 17.348 17.385 17.402 17.358 17.288 17.29 17.365 17.455 17.545 17.615 17.64 17.617 17.572 17.53 17.477 17.405 17.327 17.258 17.227 17.197 17.133 17.068 17.003 16.958 16.955 16.988 17.035 17.005 16.913 16.86 16.83 16.8 16.75 16.68 16.638 16.615 16.58 16.545 16.513 16.483 16.458
10.125 10.14 10.173 10.225 10.27 10.315 10.365 10.418 10.48 10.545 10.605 10.657 10.702 10.745 10.785 10.82 10.858 10.905 10.955 11.01 11.067 11.123 11.185 11.258 11.338 11.425 11.497 11.555 11.602 11.627 11.648 11.672 11.695 11.72 11.76 11.81 11.855 11.89 11.905 11.91 11.928 11.958 12.003 12.063 12.127 12.192 12.225 12.22 12.213 12.21 12.22 12.243 12.268 12.298 12.363 12.442 12.478 12.495 12.525 12.55 12.575 12.605 12.64 12.675 12.705 12.745 12.81 12.902 13.007 13.117 13.162 13.132 13.09 13.055 13.045 13.045 13.045 13.025 12.95 12.848 12.775 12.723 12.735 12.88 13.093 13.308 13.59 13.972 14.225 14.308 14.398 14.555 14.775 14.98 14.877 14.618 14.578 14.65 14.798 15.033 15.31 15.597 15.88 16.095 16.243 16.392 16.517 16.607 16.692 16.772 16.83 16.873 16.923 16.985 17.058 17.135 17.215 17.3 17.392 17.477 17.55 17.615 17.655 17.64 17.598 17.573 17.558 17.553 17.56 17.537 17.46 17.368 17.3 17.263 17.238 17.238 17.283 17.325 17.322 17.292 17.26 17.26 17.325 17.397 17.432 17.458 17.515 17.602 17.652 17.605 17.477 17.335 17.24 17.23 17.263 17.298 17.33 17.358 17.382 17.408 17.437 17.455 17.423 17.385 17.39 17.435 17.515 17.577 17.59 17.57 17.532 17.49 17.447 17.397 17.332 17.258 17.195 17.207 17.247 17.215 17.15 17.085 17.045 17.04 17.048 17.077 17.01 16.84 16.72 16.668 16.64 16.59 16.575 16.61 16.625 16.605 16.57 16.54 16.52 16.507
10.17 10.19 10.228 10.28 10.327 10.375 10.425 10.478 10.535 10.595 10.65 10.695 10.735 10.778 10.818 10.855 10.9 10.948 10.998 11.053 11.11 11.168 11.23 11.308 11.395 11.485 11.562 11.612 11.637 11.655 11.675 11.7 11.725 11.75 11.79 11.835 11.872 11.902 11.918 11.933 11.963 12 12.048 12.103 12.163 12.227 12.257 12.253 12.25 12.25 12.258 12.278 12.305 12.338 12.385 12.46 12.522 12.555 12.585 12.61 12.635 12.665 12.7 12.735 12.765 12.79 12.803 12.835 12.908 12.997 13.04 13.03 13.015 13.01 13.028 13.035 13.018 13 12.967 12.872 12.758 12.71 12.805 13.008 13.22 13.433 13.67 13.98 14.197 14.275 14.403 14.605 14.835 15.027 14.952 14.808 14.845 14.903 14.993 15.153 15.378 15.65 15.922 16.122 16.27 16.42 16.542 16.63 16.715 16.797 16.852 16.89 16.93 16.978 17.05 17.14 17.233 17.33 17.425 17.5 17.56 17.62 17.645 17.62 17.593 17.577 17.563 17.553 17.552 17.515 17.445 17.395 17.368 17.347 17.32 17.29 17.283 17.295 17.29 17.27 17.248 17.245 17.283 17.323 17.348 17.373 17.423 17.482 17.505 17.46 17.35 17.26 17.255 17.295 17.335 17.37 17.4 17.425 17.448 17.472 17.497 17.512 17.505 17.497 17.502 17.515 17.54 17.542 17.515 17.485 17.447 17.405 17.362 17.315 17.255 17.183 17.128 17.15 17.23 17.267 17.232 17.168 17.135 17.135 17.132 17.125 17.03 16.843 16.663 16.533 16.468 16.455 16.49 16.547 16.597 16.617 16.597 16.568 16.55 16.54
10.212 10.24 10.28 10.33 10.382 10.435 10.485 10.54 10.595 10.65 10.698 10.735 10.773 10.813 10.853 10.895 10.945 10.993 11.043 11.098 11.155 11.215 11.283 11.362 11.447 11.532 11.607 11.65 11.668 11.685 11.715 11.748 11.768 11.788 11.818 11.85 11.885 11.918 11.94 11.97 12.008 12.045 12.093 12.148 12.205 12.265 12.292 12.29 12.29 12.29 12.295 12.315 12.348 12.383 12.42 12.48 12.552 12.607 12.642 12.668 12.695 12.725 12.76 12.79 12.807 12.812 12.79 12.78 12.82 12.883 12.925 12.945 12.963 12.983 13.025 13.065 13.065 13.038 13.002 12.915 12.77 12.76 12.93 13.14 13.35 13.56 13.777 14.005 14.162 14.268 14.443 14.67 14.897 15.072 15.082 15.058 15.112 15.168 15.235 15.348 15.513 15.725 15.957 16.147 16.3 16.45 16.567 16.653 16.737 16.82 16.877 16.913 16.95 16.998 17.075 17.175 17.275 17.372 17.452 17.51 17.563 17.62 17.637 17.615 17.597 17.583 17.57 17.558 17.553 17.528 17.493 17.475 17.455 17.432 17.405 17.375 17.345 17.323 17.305 17.288 17.27 17.258 17.263 17.273 17.283 17.295 17.323 17.35 17.355 17.328 17.28 17.28 17.32 17.36 17.4 17.437 17.47 17.495 17.515 17.525 17.52 17.527 17.537 17.537 17.537 17.53 17.507 17.473 17.438 17.403 17.363 17.32 17.28 17.233 17.173 17.108 17.06 17.088 17.172 17.252 17.285 17.252 17.225 17.21 17.175 17.125 17.032 16.872 16.678 16.49 16.378 16.378 16.425 16.475 16.53 16.583 16.605 16.595 16.583 16.58
10.245 10.277 10.32 10.37 10.425 10.487 10.547 10.603 10.658 10.715 10.762 10.798 10.833 10.868 10.905 10.95 11 11.05 11.1 11.155 11.213 11.27 11.33 11.4 11.48 11.555 11.62 11.672 11.7 11.715 11.755 11.807 11.835 11.85 11.873 11.898 11.928 11.968 12.005 12.04 12.08 12.125 12.168 12.215 12.275 12.332 12.348 12.335 12.335 12.335 12.343 12.363 12.395 12.43 12.465 12.51 12.573 12.642 12.692 12.725 12.755 12.785 12.81 12.822 12.822 12.815 12.783 12.768 12.805 12.855 12.892 12.915 12.935 12.96 13.01 13.075 13.12 13.117 13.052 12.93 12.82 12.875 13.07 13.277 13.485 13.69 13.872 14.017 14.13 14.275 14.485 14.715 14.942 15.12 15.21 15.272 15.347 15.422 15.49 15.577 15.7 15.837 16 16.17 16.327 16.477 16.592 16.677 16.76 16.84 16.9 16.938 16.98 17.04 17.128 17.23 17.325 17.407 17.472 17.525 17.575 17.622 17.635 17.618 17.603 17.59 17.578 17.568 17.573 17.58 17.575 17.56 17.542 17.52 17.49 17.46 17.43 17.403 17.383 17.365 17.345 17.325 17.313 17.308 17.303 17.295 17.29 17.288 17.285 17.275 17.28 17.317 17.36 17.402 17.447 17.492 17.512 17.505 17.497 17.48 17.455 17.472 17.497 17.492 17.487 17.48 17.455 17.415 17.378 17.345 17.308 17.265 17.225 17.178 17.12 17.06 17.013 17.035 17.115 17.197 17.272 17.297 17.27 17.215 17.14 17.073 17.02 16.902 16.712 16.518 16.413 16.42 16.453 16.49 16.533 16.578 16.618 16.627 16.628 16.64
10.268 10.303 10.348 10.4 10.46 10.54 10.612 10.668 10.725 10.785 10.835 10.872 10.907 10.94 10.975 11.02 11.07 11.12 11.17 11.225 11.28 11.335 11.38 11.428 11.495 11.56 11.62 11.68 11.725 11.748 11.78 11.847 11.907 11.932 11.955 11.98 12.013 12.065 12.11 12.145 12.19 12.248 12.29 12.32 12.368 12.425 12.432 12.4 12.39 12.39 12.4 12.42 12.448 12.48 12.515 12.555 12.608 12.672 12.732 12.78 12.812 12.83 12.832 12.827 12.82 12.81 12.78 12.76 12.78 12.82 12.86 12.885 12.908 12.94 12.992 13.052 13.105 13.13 13.07 12.948 12.918 13.023 13.2 13.41 13.61 13.785 13.917 14.015 14.113 14.263 14.475 14.7 14.902 15.067 15.185 15.275 15.367 15.46 15.557 15.67 15.785 15.892 16.022 16.177 16.335 16.487 16.61 16.7 16.782 16.865 16.922 16.965 17.023 17.093 17.183 17.282 17.365 17.427 17.485 17.542 17.595 17.635 17.642 17.628 17.612 17.598 17.588 17.595 17.615 17.635 17.647 17.642 17.627 17.605 17.575 17.547 17.52 17.49 17.468 17.45 17.43 17.41 17.395 17.39 17.38 17.352 17.328 17.315 17.308 17.3 17.303 17.325 17.36 17.405 17.455 17.495 17.477 17.422 17.385 17.355 17.355 17.407 17.445 17.44 17.435 17.427 17.4 17.365 17.34 17.317 17.282 17.238 17.195 17.15 17.095 17.038 16.995 17.003 17.065 17.145 17.212 17.242 17.22 17.155 17.075 17.015 16.985 16.912 16.75 16.565 16.495 16.528 16.56 16.593 16.628 16.66 16.675 16.663 16.665 16.692
10.29 10.328 10.373 10.433 10.51 10.602 10.677 10.735 10.795 10.855 10.905 10.945 10.977 11.005 11.043 11.09 11.14 11.19 11.24 11.295 11.35 11.402 11.437 11.463 11.505 11.56 11.62 11.68 11.737 11.777 11.805 11.868 11.955 12.007 12.035 12.068 12.115 12.175 12.222 12.265 12.32 12.385 12.43 12.45 12.478 12.522 12.532 12.493 12.46 12.448 12.458 12.48 12.505 12.535 12.567 12.602 12.647 12.702 12.757 12.812 12.842 12.84 12.83 12.82 12.81 12.8 12.778 12.763 12.77 12.795 12.83 12.858 12.885 12.92 12.968 13.02 13.067 13.107 13.065 13.005 13.058 13.17 13.333 13.527 13.692 13.827 13.94 14.027 14.11 14.24 14.425 14.612 14.77 14.907 15.02 15.113 15.22 15.343 15.485 15.643 15.775 15.885 16.018 16.172 16.327 16.48 16.61 16.71 16.802 16.89 16.95 17.003 17.073 17.148 17.235 17.32 17.385 17.442 17.498 17.555 17.612 17.655 17.66 17.642 17.622 17.608 17.615 17.638 17.66 17.682 17.705 17.717 17.712 17.69 17.66 17.632 17.607 17.58 17.555 17.535 17.515 17.495 17.48 17.467 17.44 17.395 17.365 17.355 17.343 17.33 17.33 17.34 17.358 17.39 17.435 17.452 17.4 17.318 17.263 17.243 17.273 17.345 17.387 17.387 17.385 17.375 17.348 17.323 17.31 17.29 17.255 17.212 17.167 17.122 17.07 17.02 16.988 16.975 17.015 17.082 17.112 17.11 17.105 17.077 17.01 16.955 16.932 16.9 16.782 16.633 16.595 16.632 16.667 16.7 16.732 16.757 16.737 16.688 16.683 16.717
10.315 10.355 10.405 10.478 10.567 10.657 10.732 10.797 10.862 10.925 10.975 11.012 11.042 11.07 11.11 11.16 11.21 11.26 11.31 11.365 11.42 11.465 11.48 11.488 11.523 11.573 11.625 11.68 11.74 11.795 11.83 11.885 11.977 12.06 12.12 12.17 12.225 12.285 12.34 12.397 12.46 12.525 12.567 12.585 12.605 12.632 12.63 12.587 12.545 12.513 12.505 12.517 12.535 12.555 12.575 12.6 12.642 12.695 12.745 12.797 12.83 12.83 12.82 12.81 12.8 12.788 12.773 12.768 12.773 12.785 12.808 12.835 12.868 12.905 12.948 12.993 13.035 13.08 13.09 13.123 13.22 13.322 13.452 13.6 13.73 13.852 13.96 14.043 14.123 14.228 14.36 14.495 14.623 14.75 14.878 15.008 15.155 15.315 15.48 15.645 15.778 15.883 16.01 16.165 16.32 16.472 16.605 16.71 16.81 16.905 16.982 17.052 17.127 17.202 17.277 17.342 17.397 17.455 17.51 17.565 17.622 17.665 17.667 17.64 17.618 17.623 17.65 17.68 17.705 17.728 17.75 17.772 17.782 17.765 17.735 17.705 17.677 17.65 17.625 17.602 17.58 17.557 17.535 17.505 17.46 17.412 17.387 17.382 17.375 17.362 17.36 17.37 17.38 17.395 17.42 17.405 17.327 17.232 17.152 17.143 17.203 17.28 17.327 17.333 17.33 17.328 17.313 17.295 17.285 17.265 17.228 17.185 17.14 17.095 17.05 17.01 16.98 16.953 16.96 16.983 16.98 16.97 16.97 16.972 16.94 16.898 16.878 16.862 16.792 16.705 16.7 16.737 16.775 16.81 16.837 16.83 16.772 16.708 16.698 16.733
10.347 10.385 10.435 10.51 10.597 10.682 10.76 10.83 10.9 10.967 11.02 11.055 11.085 11.13 11.185 11.235 11.285 11.338 11.39 11.445 11.5 11.542 11.52 11.5 11.545 11.595 11.643 11.693 11.748 11.803 11.85 11.908 11.998 12.115 12.22 12.29 12.35 12.41 12.465 12.523 12.587 12.652 12.685 12.695 12.715 12.732 12.71 12.655 12.61 12.57 12.535 12.52 12.518 12.518 12.525 12.55 12.598 12.65 12.7 12.75 12.795 12.815 12.81 12.8 12.79 12.778 12.773 12.778 12.788 12.803 12.82 12.848 12.885 12.925 12.963 13 13.04 13.083 13.14 13.225 13.322 13.42 13.527 13.645 13.765 13.882 13.982 14.068 14.153 14.24 14.34 14.455 14.57 14.698 14.865 15.045 15.215 15.38 15.545 15.7 15.815 15.913 16.033 16.178 16.33 16.483 16.612 16.715 16.815 16.915 17.005 17.082 17.157 17.222 17.285 17.35 17.405 17.46 17.515 17.57 17.622 17.655 17.647 17.618 17.615 17.643 17.677 17.715 17.747 17.772 17.795 17.807 17.802 17.78 17.75 17.72 17.68 17.642 17.625 17.605 17.58 17.557 17.525 17.48 17.43 17.388 17.37 17.37 17.375 17.377 17.345 17.317 17.322 17.33 17.327 17.255 17.12 16.99 16.948 17.05 17.173 17.245 17.287 17.293 17.293 17.305 17.308 17.295 17.283 17.257 17.215 17.168 17.12 17.08 17.053 17.028 17.003 16.975 16.958 16.95 16.945 16.923 16.898 16.895 16.88 16.855 16.835 16.818 16.785 16.762 16.787 16.832 16.875 16.915 16.922 16.872 16.8 16.733 16.715 16.747
10.38 10.415 10.46 10.523 10.603 10.687 10.765 10.835 10.908 10.982 11.04 11.073 11.118 11.195 11.267 11.318 11.368 11.425 11.48 11.532 11.582 11.625 11.603 11.58 11.623 11.668 11.71 11.753 11.798 11.843 11.888 11.945 12.053 12.202 12.325 12.41 12.482 12.545 12.597 12.645 12.703 12.762 12.787 12.79 12.803 12.817 12.787 12.715 12.658 12.615 12.568 12.528 12.508 12.495 12.498 12.523 12.558 12.6 12.65 12.7 12.75 12.79 12.8 12.79 12.78 12.78 12.793 12.808 12.825 12.845 12.868 12.898 12.933 12.97 13.007 13.043 13.08 13.12 13.18 13.27 13.367 13.465 13.573 13.69 13.805 13.91 14.005 14.097 14.185 14.27 14.37 14.485 14.608 14.75 14.942 15.152 15.335 15.5 15.665 15.8 15.888 15.978 16.09 16.218 16.36 16.51 16.632 16.728 16.825 16.925 17.015 17.09 17.152 17.195 17.255 17.337 17.402 17.458 17.513 17.567 17.607 17.625 17.615 17.608 17.633 17.667 17.705 17.742 17.775 17.805 17.817 17.802 17.777 17.75 17.717 17.68 17.622 17.57 17.56 17.56 17.542 17.517 17.48 17.43 17.38 17.343 17.333 17.35 17.385 17.395 17.318 17.218 17.173 17.165 17.137 17.015 16.838 16.73 16.768 16.99 17.19 17.245 17.267 17.273 17.285 17.312 17.322 17.31 17.29 17.257 17.215 17.165 17.125 17.108 17.1 17.085 17.065 17.043 17.023 17.015 17 16.945 16.9 16.885 16.86 16.835 16.815 16.795 16.773 16.772 16.81 16.857 16.9 16.94 16.94 16.89 16.827 16.76 16.735 16.752
10.41 10.445 10.49 10.545 10.613 10.693 10.77 10.843 10.92 11 11.058 11.103 11.178 11.272 11.35 11.403 11.455 11.515 11.57 11.617 11.66 11.702 11.725 11.738 11.768 11.805 11.84 11.873 11.908 11.945 11.98 12.033 12.15 12.307 12.43 12.517 12.6 12.675 12.735 12.78 12.825 12.872 12.895 12.893 12.893 12.902 12.87 12.79 12.72 12.665 12.613 12.56 12.525 12.513 12.525 12.555 12.583 12.603 12.618 12.65 12.7 12.75 12.78 12.78 12.78 12.803 12.832 12.855 12.875 12.895 12.92 12.95 12.98 13.015 13.052 13.088 13.123 13.16 13.22 13.31 13.41 13.51 13.617 13.727 13.83 13.927 14.023 14.12 14.212 14.3 14.4 14.52 14.658 14.81 15.003 15.23 15.442 15.62 15.775 15.887 15.962 16.048 16.153 16.27 16.398 16.54 16.66 16.748 16.838 16.935 17.02 17.08 17.122 17.155 17.213 17.305 17.392 17.455 17.51 17.557 17.58 17.59 17.598 17.618 17.65 17.682 17.717 17.75 17.78 17.81 17.81 17.775 17.743 17.715 17.68 17.627 17.555 17.493 17.48 17.495 17.495 17.475 17.433 17.38 17.33 17.313 17.338 17.385 17.445 17.432 17.32 17.185 17.073 17.008 16.938 16.858 16.808 16.82 16.89 17.04 17.197 17.245 17.253 17.26 17.285 17.325 17.337 17.32 17.29 17.255 17.215 17.178 17.165 17.167 17.165 17.152 17.135 17.115 17.097 17.082 17.035 16.955 16.908 16.887 16.858 16.828 16.805 16.782 16.755 16.748 16.775 16.815 16.855 16.89 16.905 16.88 16.83 16.775 16.743 16.735
10.44 10.475 10.52 10.578 10.64 10.71 10.785 10.86 10.94 11.02 11.088 11.163 11.255 11.347 11.427 11.487 11.545 11.605 11.658 11.703 11.745 11.793 11.85 11.898 11.93 11.963 11.993 12.02 12.048 12.078 12.11 12.158 12.265 12.415 12.535 12.623 12.71 12.797 12.867 12.915 12.952 12.987 13.002 12.998 12.995 12.992 12.952 12.875 12.798 12.725 12.663 12.605 12.553 12.545 12.583 12.622 12.657 12.677 12.675 12.675 12.685 12.708 12.748 12.768 12.798 12.847 12.877 12.9 12.923 12.945 12.97 13 13.03 13.065 13.1 13.135 13.17 13.205 13.263 13.35 13.45 13.55 13.652 13.752 13.85 13.945 14.04 14.14 14.235 14.328 14.435 14.568 14.715 14.87 15.058 15.285 15.52 15.712 15.847 15.942 16.022 16.107 16.207 16.325 16.447 16.577 16.687 16.772 16.86 16.945 17.007 17.045 17.078 17.11 17.168 17.263 17.363 17.445 17.502 17.538 17.563 17.585 17.608 17.635 17.663 17.69 17.72 17.748 17.775 17.802 17.802 17.765 17.72 17.68 17.63 17.563 17.485 17.418 17.4 17.418 17.435 17.435 17.397 17.345 17.31 17.328 17.39 17.455 17.5 17.452 17.32 17.185 17.05 16.943 16.888 16.905 16.975 17.045 17.115 17.182 17.245 17.258 17.24 17.25 17.285 17.335 17.35 17.323 17.288 17.255 17.23 17.22 17.225 17.232 17.23 17.217 17.202 17.185 17.17 17.135 17.052 16.963 16.913 16.885 16.853 16.82 16.793 16.768 16.743 16.73 16.738 16.765 16.802 16.837 16.865 16.85 16.805 16.762 16.728 16.705
10.485 10.52 10.568 10.628 10.693 10.758 10.828 10.905 10.983 11.068 11.15 11.233 11.325 11.417 11.497 11.56 11.623 11.692 11.752 11.8 11.845 11.903 11.995 12.072 12.11 12.143 12.173 12.203 12.23 12.255 12.283 12.338 12.443 12.555 12.648 12.735 12.825 12.915 12.987 13.032 13.067 13.1 13.11 13.105 13.102 13.095 13.052 12.978 12.9 12.815 12.738 12.678 12.623 12.61 12.648 12.685 12.72 12.755 12.78 12.79 12.775 12.758 12.763 12.773 12.83 12.9 12.928 12.95 12.975 12.995 13.015 13.045 13.075 13.107 13.145 13.185 13.22 13.255 13.305 13.38 13.475 13.575 13.672 13.767 13.865 13.965 14.07 14.175 14.27 14.365 14.483 14.625 14.775 14.93 15.113 15.335 15.56 15.74 15.87 15.965 16.047 16.127 16.227 16.35 16.472 16.59 16.69 16.785 16.88 16.96 17.01 17.04 17.073 17.11 17.175 17.268 17.363 17.45 17.507 17.54 17.575 17.61 17.635 17.658 17.683 17.71 17.738 17.763 17.788 17.807 17.802 17.765 17.715 17.673 17.63 17.568 17.483 17.395 17.35 17.358 17.385 17.4 17.375 17.338 17.338 17.378 17.442 17.515 17.535 17.452 17.315 17.178 17.063 16.993 16.993 17.05 17.117 17.185 17.255 17.317 17.362 17.348 17.298 17.298 17.348 17.4 17.385 17.333 17.3 17.273 17.27 17.282 17.29 17.3 17.297 17.282 17.267 17.242 17.202 17.142 17.055 16.968 16.915 16.882 16.848 16.815 16.785 16.76 16.743 16.73 16.723 16.728 16.75 16.785 16.822 16.817 16.775 16.738 16.708 16.683
10.545 10.58 10.633 10.695 10.758 10.823 10.895 10.973 11.058 11.16 11.245 11.31 11.39 11.482 11.56 11.623 11.698 11.785 11.857 11.91 11.96 12.028 12.155 12.26 12.297 12.332 12.367 12.405 12.437 12.467 12.5 12.557 12.64 12.71 12.78 12.863 12.95 13.04 13.105 13.14 13.173 13.205 13.217 13.215 13.213 13.21 13.17 13.092 13.01 12.915 12.833 12.775 12.73 12.703 12.713 12.748 12.783 12.818 12.852 12.885 12.902 12.895 12.87 12.878 12.933 12.97 12.988 13.012 13.03 13.035 13.05 13.08 13.11 13.143 13.185 13.232 13.27 13.305 13.353 13.415 13.493 13.585 13.685 13.78 13.878 13.988 14.107 14.225 14.325 14.42 14.543 14.688 14.838 14.993 15.158 15.345 15.535 15.71 15.862 15.972 16.052 16.125 16.223 16.345 16.46 16.565 16.667 16.772 16.875 16.97 17.037 17.078 17.118 17.168 17.24 17.33 17.415 17.485 17.535 17.57 17.605 17.637 17.662 17.685 17.71 17.737 17.763 17.787 17.807 17.82 17.807 17.765 17.723 17.695 17.675 17.637 17.577 17.5 17.425 17.383 17.368 17.373 17.368 17.363 17.39 17.433 17.488 17.56 17.555 17.44 17.3 17.19 17.133 17.105 17.108 17.158 17.232 17.302 17.37 17.43 17.48 17.485 17.435 17.433 17.5 17.53 17.45 17.363 17.33 17.31 17.318 17.34 17.357 17.367 17.362 17.337 17.29 17.225 17.152 17.085 17.017 16.955 16.915 16.88 16.845 16.815 16.788 16.768 16.755 16.745 16.733 16.72 16.72 16.74 16.772 16.78 16.747 16.713 16.69 16.67
10.613 10.643 10.695 10.762 10.825 10.89 10.965 11.05 11.153 11.267 11.355 11.41 11.468 11.545 11.623 11.698 11.788 11.882 11.962 12.023 12.08 12.153 12.27 12.365 12.405 12.445 12.485 12.522 12.557 12.595 12.64 12.707 12.785 12.85 12.92 12.998 13.078 13.165 13.225 13.253 13.28 13.31 13.325 13.325 13.325 13.325 13.285 13.2 13.105 13.005 12.928 12.88 12.845 12.815 12.808 12.83 12.86 12.893 12.925 12.955 12.987 13.01 13.015 13.035 13.052 13.048 13.055 13.07 13.072 13.07 13.085 13.115 13.145 13.178 13.22 13.27 13.315 13.355 13.405 13.465 13.528 13.603 13.695 13.795 13.9 14.015 14.137 14.262 14.377 14.483 14.61 14.755 14.903 15.055 15.205 15.355 15.513 15.678 15.835 15.965 16.055 16.125 16.22 16.335 16.44 16.54 16.643 16.748 16.86 16.977 17.07 17.13 17.18 17.235 17.31 17.392 17.46 17.517 17.567 17.603 17.635 17.665 17.688 17.712 17.737 17.763 17.787 17.807 17.82 17.827 17.812 17.775 17.745 17.722 17.7 17.677 17.655 17.62 17.557 17.482 17.418 17.38 17.383 17.412 17.45 17.49 17.538 17.587 17.55 17.425 17.32 17.27 17.25 17.23 17.22 17.26 17.342 17.417 17.482 17.537 17.585 17.612 17.59 17.603 17.677 17.667 17.538 17.415 17.36 17.348 17.363 17.387 17.412 17.415 17.38 17.317 17.23 17.138 17.06 17.005 16.965 16.935 16.91 16.877 16.845 16.815 16.793 16.78 16.77 16.76 16.747 16.735 16.723 16.718 16.728 16.74 16.722 16.693 16.678 16.665
10.69 10.713 10.76 10.828 10.893 10.96 11.043 11.147 11.26 11.375 11.462 11.512 11.555 11.62 11.705 11.793 11.888 11.983 12.07 12.14 12.2 12.27 12.345 12.4 12.44 12.483 12.525 12.563 12.6 12.64 12.698 12.788 12.887 12.977 13.06 13.135 13.21 13.287 13.34 13.365 13.39 13.42 13.435 13.432 13.43 13.427 13.387 13.3 13.198 13.098 13.033 13 12.97 12.945 12.938 12.948 12.965 12.988 13.015 13.045 13.075 13.105 13.135 13.147 13.135 13.123 13.123 13.12 13.113 13.108 13.12 13.153 13.185 13.215 13.255 13.305 13.355 13.402 13.455 13.515 13.575 13.638 13.715 13.818 13.93 14.043 14.163 14.29 14.418 14.545 14.683 14.828 14.973 15.12 15.265 15.405 15.547 15.69 15.833 15.965 16.057 16.123 16.21 16.315 16.415 16.518 16.628 16.748 16.875 17.005 17.11 17.182 17.242 17.302 17.372 17.437 17.49 17.543 17.595 17.635 17.665 17.692 17.715 17.74 17.765 17.79 17.81 17.82 17.827 17.83 17.82 17.797 17.775 17.75 17.725 17.705 17.685 17.662 17.617 17.55 17.48 17.415 17.408 17.452 17.497 17.542 17.59 17.605 17.54 17.448 17.4 17.38 17.36 17.34 17.325 17.358 17.437 17.517 17.587 17.642 17.69 17.735 17.747 17.78 17.842 17.795 17.642 17.488 17.395 17.383 17.405 17.417 17.412 17.39 17.322 17.23 17.135 17.053 16.998 16.965 16.948 16.927 16.9 16.87 16.84 16.818 16.805 16.795 16.783 16.77 16.76 16.75 16.737 16.725 16.715 16.713 16.703 16.688 16.68 16.67
10.783 10.795 10.833 10.898 10.963 11.028 11.105 11.207 11.322 11.437 11.517 11.56 11.618 11.718 11.828 11.923 12.018 12.107 12.185 12.25 12.312 12.377 12.43 12.47 12.51 12.55 12.59 12.63 12.673 12.718 12.785 12.883 12.99 13.097 13.19 13.267 13.342 13.405 13.445 13.472 13.497 13.522 13.525 13.51 13.505 13.5 13.47 13.395 13.293 13.2 13.153 13.13 13.1 13.078 13.075 13.085 13.093 13.103 13.12 13.145 13.175 13.205 13.23 13.235 13.223 13.213 13.205 13.195 13.183 13.168 13.17 13.198 13.23 13.263 13.303 13.35 13.397 13.44 13.49 13.55 13.61 13.67 13.748 13.858 13.973 14.078 14.198 14.335 14.475 14.62 14.768 14.913 15.055 15.19 15.317 15.445 15.58 15.72 15.86 15.985 16.07 16.135 16.228 16.335 16.435 16.538 16.65 16.778 16.913 17.045 17.147 17.222 17.295 17.36 17.418 17.473 17.525 17.575 17.628 17.67 17.685 17.697 17.722 17.75 17.775 17.797 17.812 17.817 17.82 17.815 17.807 17.8 17.792 17.777 17.755 17.735 17.715 17.69 17.642 17.577 17.51 17.443 17.433 17.48 17.53 17.577 17.615 17.62 17.56 17.49 17.46 17.44 17.42 17.407 17.405 17.428 17.49 17.567 17.62 17.667 17.732 17.797 17.84 17.867 17.897 17.842 17.702 17.557 17.448 17.405 17.397 17.377 17.34 17.297 17.232 17.145 17.058 17.005 16.985 16.968 16.952 16.92 16.88 16.85 16.825 16.815 16.815 16.81 16.797 16.785 16.775 16.763 16.75 16.74 16.728 16.718 16.713 16.708 16.7 16.69
10.882 10.883 10.91 10.975 11.037 11.09 11.153 11.235 11.338 11.45 11.523 11.583 11.693 11.838 11.972 12.077 12.165 12.237 12.297 12.355 12.418 12.48 12.53 12.57 12.61 12.653 12.698 12.743 12.79 12.843 12.913 13.008 13.115 13.222 13.312 13.39 13.46 13.51 13.545 13.575 13.597 13.615 13.605 13.573 13.558 13.55 13.53 13.475 13.385 13.308 13.278 13.26 13.233 13.215 13.215 13.225 13.23 13.235 13.245 13.258 13.278 13.305 13.322 13.323 13.315 13.308 13.3 13.287 13.267 13.245 13.243 13.26 13.285 13.318 13.358 13.402 13.437 13.465 13.51 13.57 13.63 13.69 13.778 13.905 14.03 14.135 14.26 14.413 14.565 14.713 14.86 15.002 15.132 15.252 15.368 15.483 15.605 15.738 15.875 16.005 16.092 16.163 16.27 16.392 16.5 16.6 16.705 16.823 16.953 17.085 17.185 17.263 17.358 17.435 17.473 17.513 17.568 17.62 17.67 17.697 17.69 17.685 17.703 17.73 17.755 17.775 17.79 17.795 17.79 17.775 17.763 17.762 17.77 17.777 17.777 17.765 17.745 17.717 17.667 17.603 17.537 17.47 17.458 17.505 17.547 17.577 17.592 17.6 17.58 17.522 17.48 17.46 17.45 17.46 17.475 17.48 17.518 17.582 17.608 17.625 17.683 17.762 17.817 17.83 17.842 17.802 17.69 17.57 17.48 17.415 17.348 17.288 17.238 17.193 17.142 17.068 17.005 16.998 16.997 16.982 16.955 16.9 16.85 16.823 16.808 16.808 16.812 16.815 16.81 16.8 16.79 16.778 16.765 16.755 16.745 16.743 16.745 16.74 16.73 16.723
10.972 10.968 10.993 11.052 11.107 11.153 11.213 11.285 11.368 11.462 11.553 11.668 11.817 11.972 12.117 12.225 12.295 12.35 12.405 12.465 12.525 12.582 12.63 12.675 12.723 12.77 12.82 12.872 12.925 12.978 13.048 13.14 13.24 13.345 13.437 13.505 13.56 13.607 13.645 13.672 13.69 13.705 13.695 13.655 13.623 13.603 13.58 13.54 13.47 13.413 13.4 13.39 13.368 13.353 13.355 13.365 13.37 13.375 13.385 13.39 13.398 13.41 13.417 13.417 13.412 13.405 13.392 13.372 13.345 13.32 13.318 13.333 13.35 13.375 13.41 13.442 13.462 13.483 13.528 13.59 13.65 13.71 13.805 13.942 14.082 14.203 14.338 14.5 14.657 14.807 14.95 15.08 15.195 15.307 15.42 15.533 15.648 15.765 15.893 16.025 16.117 16.19 16.3 16.43 16.552 16.66 16.765 16.88 17.002 17.125 17.23 17.33 17.447 17.542 17.573 17.58 17.615 17.665 17.702 17.707 17.69 17.678 17.683 17.703 17.725 17.743 17.758 17.763 17.75 17.73 17.713 17.715 17.735 17.76 17.785 17.79 17.775 17.745 17.692 17.628 17.563 17.498 17.48 17.51 17.53 17.54 17.548 17.553 17.557 17.535 17.505 17.5 17.513 17.537 17.552 17.548 17.56 17.597 17.615 17.613 17.628 17.688 17.74 17.758 17.777 17.752 17.653 17.55 17.508 17.457 17.363 17.273 17.195 17.125 17.06 17 16.98 17.002 17.01 16.985 16.935 16.87 16.82 16.803 16.8 16.802 16.805 16.81 16.815 16.812 16.805 16.795 16.785 16.775 16.768 16.77 16.775 16.772 16.765 16.757
11.06 11.053 11.073 11.122 11.17 11.215 11.275 11.342 11.407 11.478 11.59 11.745 11.902 12.062 12.232 12.35 12.405 12.455 12.51 12.567 12.625 12.687 12.743 12.79 12.843 12.895 12.947 13.002 13.055 13.108 13.18 13.275 13.372 13.47 13.552 13.608 13.658 13.71 13.745 13.765 13.783 13.8 13.787 13.745 13.703 13.665 13.635 13.6 13.553 13.525 13.522 13.517 13.5 13.488 13.495 13.505 13.51 13.512 13.517 13.517 13.517 13.517 13.515 13.513 13.51 13.502 13.482 13.455 13.425 13.4 13.393 13.405 13.42 13.435 13.455 13.473 13.488 13.505 13.548 13.61 13.67 13.733 13.835 13.975 14.12 14.257 14.405 14.572 14.735 14.887 15.022 15.14 15.25 15.36 15.472 15.587 15.7 15.813 15.93 16.05 16.142 16.22 16.33 16.46 16.59 16.71 16.817 16.927 17.04 17.15 17.27 17.405 17.542 17.657 17.7 17.69 17.693 17.71 17.72 17.71 17.69 17.675 17.668 17.678 17.705 17.73 17.75 17.75 17.728 17.705 17.685 17.69 17.72 17.75 17.777 17.797 17.8 17.772 17.717 17.653 17.588 17.525 17.508 17.525 17.53 17.535 17.543 17.548 17.553 17.553 17.555 17.57 17.595 17.62 17.63 17.622 17.612 17.617 17.622 17.617 17.613 17.63 17.663 17.688 17.715 17.705 17.62 17.565 17.575 17.532 17.435 17.332 17.227 17.123 17.025 16.97 16.975 17.005 17.01 16.97 16.908 16.843 16.8 16.793 16.795 16.798 16.803 16.81 16.82 16.822 16.812 16.802 16.797 16.792 16.792 16.797 16.802 16.805 16.8 16.79
11.145 11.135 11.135 11.162 11.205 11.247 11.305 11.37 11.425 11.483 11.595 11.755 11.915 12.095 12.307 12.447 12.5 12.565 12.618 12.658 12.715 12.787 12.865 12.92 12.965 13.013 13.063 13.115 13.165 13.225 13.3 13.385 13.48 13.577 13.66 13.72 13.773 13.822 13.847 13.86 13.88 13.897 13.877 13.828 13.782 13.738 13.708 13.683 13.648 13.628 13.62 13.627 13.63 13.625 13.63 13.632 13.635 13.632 13.63 13.627 13.622 13.62 13.618 13.615 13.61 13.595 13.57 13.54 13.513 13.49 13.475 13.475 13.485 13.495 13.505 13.52 13.535 13.545 13.58 13.64 13.7 13.763 13.863 14 14.142 14.29 14.447 14.615 14.782 14.937 15.067 15.18 15.292 15.405 15.517 15.632 15.745 15.858 15.975 16.087 16.175 16.258 16.37 16.5 16.625 16.742 16.842 16.937 17.042 17.15 17.28 17.427 17.575 17.707 17.772 17.775 17.765 17.752 17.74 17.725 17.705 17.688 17.675 17.683 17.713 17.745 17.765 17.755 17.725 17.698 17.678 17.685 17.712 17.737 17.76 17.785 17.807 17.795 17.745 17.68 17.615 17.555 17.543 17.57 17.587 17.6 17.605 17.61 17.615 17.62 17.635 17.655 17.677 17.69 17.685 17.67 17.647 17.632 17.625 17.62 17.615 17.613 17.623 17.638 17.658 17.655 17.615 17.61 17.627 17.57 17.46 17.35 17.235 17.125 17.035 16.983 16.98 17.005 17.005 16.96 16.895 16.83 16.795 16.79 16.793 16.803 16.815 16.825 16.835 16.832 16.813 16.795 16.79 16.79 16.797 16.807 16.817 16.83 16.822 16.797
11.175 11.195 11.188 11.173 11.195 11.24 11.3 11.367 11.427 11.483 11.588 11.745 11.925 12.143 12.38 12.535 12.605 12.695 12.742 12.755 12.803 12.88 12.982 13.055 13.095 13.138 13.183 13.228 13.275 13.343 13.418 13.485 13.568 13.665 13.76 13.837 13.895 13.94 13.96 13.965 13.978 13.992 13.967 13.905 13.855 13.81 13.79 13.782 13.752 13.723 13.703 13.7 13.685 13.652 13.637 13.635 13.632 13.627 13.625 13.622 13.648 13.702 13.725 13.717 13.705 13.687 13.665 13.635 13.613 13.595 13.573 13.555 13.55 13.555 13.565 13.577 13.582 13.588 13.625 13.683 13.74 13.8 13.888 14.018 14.16 14.31 14.472 14.638 14.805 14.967 15.1 15.21 15.325 15.44 15.55 15.665 15.785 15.903 16.023 16.132 16.215 16.303 16.418 16.54 16.657 16.767 16.855 16.933 17.028 17.135 17.265 17.41 17.55 17.68 17.77 17.802 17.8 17.785 17.77 17.755 17.735 17.718 17.71 17.718 17.738 17.765 17.777 17.757 17.723 17.693 17.675 17.683 17.705 17.72 17.735 17.76 17.785 17.792 17.767 17.712 17.648 17.588 17.58 17.617 17.65 17.675 17.69 17.697 17.702 17.708 17.72 17.742 17.755 17.725 17.685 17.67 17.655 17.635 17.623 17.62 17.618 17.62 17.625 17.623 17.623 17.62 17.617 17.622 17.607 17.542 17.435 17.32 17.213 17.12 17.053 17.01 16.99 17.002 17 16.952 16.892 16.83 16.795 16.79 16.8 16.823 16.84 16.85 16.855 16.842 16.815 16.788 16.77 16.765 16.775 16.792 16.807 16.82 16.807 16.77
11.185 11.245 11.247 11.198 11.183 11.223 11.288 11.355 11.423 11.483 11.585 11.76 11.98 12.22 12.46 12.627 12.728 12.835 12.88 12.87 12.893 12.97 13.087 13.18 13.23 13.273 13.315 13.358 13.405 13.473 13.545 13.603 13.668 13.755 13.85 13.937 14.01 14.057 14.075 14.075 14.078 14.09 14.065 13.995 13.933 13.883 13.868 13.872 13.855 13.828 13.803 13.782 13.71 13.58 13.498 13.48 13.477 13.473 13.483 13.545 13.665 13.777 13.815 13.807 13.797 13.782 13.76 13.735 13.717 13.7 13.677 13.653 13.633 13.623 13.625 13.63 13.615 13.623 13.673 13.727 13.783 13.84 13.915 14.033 14.178 14.33 14.495 14.663 14.83 14.995 15.13 15.243 15.358 15.473 15.588 15.705 15.83 15.957 16.08 16.18 16.265 16.36 16.46 16.565 16.68 16.792 16.88 16.948 17.023 17.12 17.248 17.385 17.512 17.635 17.74 17.81 17.83 17.817 17.802 17.785 17.765 17.745 17.742 17.752 17.765 17.787 17.79 17.76 17.723 17.69 17.67 17.675 17.687 17.69 17.7 17.72 17.732 17.742 17.755 17.737 17.68 17.623 17.62 17.66 17.697 17.73 17.757 17.777 17.79 17.795 17.805 17.817 17.792 17.715 17.653 17.64 17.637 17.63 17.623 17.628 17.643 17.66 17.66 17.63 17.603 17.593 17.59 17.577 17.54 17.487 17.405 17.3 17.21 17.135 17.078 17.04 17.01 17.005 16.99 16.94 16.887 16.83 16.795 16.798 16.82 16.85 16.87 16.877 16.87 16.845 16.815 16.785 16.758 16.743 16.75 16.765 16.775 16.78 16.762 16.73
11.24 11.307 11.31 11.25 11.238 11.288 11.35 11.41 11.473 11.538 11.658 11.863 12.098 12.33 12.563 12.74 12.86 12.977 13.022 13 12.998 13.063 13.185 13.3 13.37 13.41 13.453 13.5 13.55 13.607 13.67 13.727 13.785 13.858 13.943 14.03 14.115 14.172 14.19 14.19 14.19 14.192 14.16 14.09 14.02 13.96 13.943 13.955 13.952 13.938 13.923 13.9 13.782 13.575 13.4 13.305 13.28 13.32 13.41 13.558 13.737 13.86 13.897 13.893 13.885 13.873 13.855 13.838 13.822 13.805 13.782 13.757 13.732 13.707 13.69 13.67 13.645 13.663 13.718 13.773 13.828 13.885 13.95 14.058 14.203 14.358 14.523 14.69 14.86 15.025 15.162 15.28 15.398 15.513 15.63 15.753 15.88 16.007 16.137 16.255 16.36 16.46 16.545 16.633 16.73 16.828 16.91 16.975 17.04 17.118 17.223 17.347 17.47 17.59 17.7 17.79 17.832 17.822 17.795 17.767 17.742 17.727 17.745 17.772 17.792 17.807 17.795 17.76 17.725 17.69 17.663 17.658 17.655 17.65 17.655 17.663 17.668 17.673 17.697 17.725 17.705 17.66 17.66 17.7 17.74 17.775 17.805 17.835 17.86 17.877 17.885 17.855 17.78 17.685 17.62 17.605 17.618 17.653 17.67 17.68 17.71 17.74 17.732 17.678 17.623 17.583 17.553 17.523 17.485 17.448 17.393 17.313 17.235 17.163 17.105 17.07 17.04 17.02 16.988 16.935 16.883 16.828 16.8 16.815 16.845 16.875 16.895 16.895 16.875 16.845 16.815 16.785 16.755 16.735 16.733 16.735 16.735 16.735 16.72 16.695
11.315 11.375 11.367 11.325 11.373 11.465 11.528 11.583 11.643 11.73 11.883 12.093 12.32 12.545 12.755 12.897 13 13.117 13.162 13.14 13.135 13.19 13.295 13.412 13.502 13.55 13.595 13.642 13.685 13.73 13.785 13.845 13.908 13.988 14.078 14.163 14.245 14.3 14.315 14.315 14.313 14.32 14.295 14.225 14.155 14.078 14.043 14.055 14.055 14.055 14.065 14.015 13.85 13.63 13.41 13.253 13.223 13.328 13.498 13.67 13.845 13.972 14.01 14 13.988 13.973 13.96 13.945 13.927 13.902 13.867 13.837 13.81 13.78 13.75 13.71 13.683 13.713 13.772 13.828 13.883 13.94 14.005 14.115 14.263 14.418 14.583 14.748 14.913 15.067 15.2 15.32 15.44 15.557 15.675 15.798 15.925 16.05 16.188 16.35 16.49 16.59 16.675 16.755 16.833 16.903 16.97 17.035 17.092 17.13 17.193 17.308 17.428 17.545 17.657 17.742 17.78 17.765 17.727 17.695 17.668 17.673 17.717 17.762 17.795 17.81 17.792 17.757 17.723 17.69 17.67 17.658 17.645 17.638 17.633 17.623 17.613 17.608 17.623 17.665 17.695 17.69 17.7 17.74 17.78 17.818 17.85 17.88 17.91 17.935 17.92 17.847 17.753 17.658 17.613 17.635 17.688 17.76 17.787 17.78 17.8 17.827 17.815 17.76 17.698 17.638 17.59 17.555 17.525 17.495 17.453 17.388 17.313 17.23 17.16 17.12 17.09 17.07 17.048 17.003 16.948 16.89 16.843 16.84 16.87 16.9 16.915 16.903 16.883 16.868 16.853 16.838 16.823 16.813 16.808 16.803 16.788 16.74 16.695 16.675
11.392 11.442 11.423 11.433 11.553 11.672 11.742 11.8 11.888 12.02 12.185 12.388 12.61 12.82 12.992 13.085 13.153 13.255 13.3 13.29 13.308 13.36 13.44 13.543 13.632 13.682 13.72 13.76 13.797 13.84 13.895 13.958 14.038 14.145 14.25 14.332 14.395 14.432 14.445 14.445 14.453 14.487 14.48 14.41 14.325 14.223 14.173 14.175 14.163 14.163 14.185 14.097 13.89 13.693 13.538 13.435 13.415 13.505 13.66 13.83 13.997 14.107 14.135 14.122 14.105 14.085 14.068 14.052 14.027 13.985 13.938 13.895 13.863 13.835 13.802 13.763 13.73 13.758 13.825 13.887 13.947 14.003 14.073 14.193 14.347 14.503 14.665 14.827 14.977 15.115 15.24 15.36 15.48 15.6 15.72 15.84 15.965 16.083 16.228 16.437 16.615 16.72 16.805 16.882 16.947 17 17.06 17.117 17.142 17.133 17.17 17.278 17.39 17.505 17.61 17.677 17.697 17.677 17.645 17.618 17.605 17.63 17.683 17.735 17.777 17.8 17.787 17.753 17.723 17.703 17.693 17.683 17.67 17.66 17.65 17.633 17.61 17.59 17.593 17.628 17.673 17.708 17.74 17.78 17.822 17.865 17.9 17.93 17.95 17.952 17.91 17.825 17.748 17.688 17.688 17.755 17.835 17.912 17.93 17.898 17.893 17.912 17.9 17.843 17.785 17.74 17.705 17.675 17.645 17.615 17.57 17.502 17.42 17.325 17.238 17.185 17.16 17.153 17.157 17.135 17.082 17.02 16.945 16.895 16.898 16.925 16.945 16.948 16.95 16.96 16.967 16.972 16.975 16.975 16.972 16.942 16.87 16.757 16.678 16.66
11.47 11.512 11.513 11.593 11.747 11.877 11.96 12.043 12.175 12.33 12.487 12.677 12.882 13.07 13.207 13.275 13.325 13.402 13.445 13.458 13.497 13.545 13.615 13.697 13.757 13.792 13.823 13.863 13.905 13.95 14.008 14.088 14.195 14.315 14.42 14.49 14.53 14.56 14.575 14.585 14.618 14.67 14.667 14.587 14.475 14.358 14.303 14.29 14.265 14.258 14.255 14.15 13.988 13.878 13.815 13.77 13.733 13.765 13.878 14.023 14.152 14.232 14.252 14.235 14.215 14.195 14.175 14.152 14.115 14.067 14.018 13.965 13.923 13.89 13.855 13.818 13.783 13.795 13.86 13.932 14.005 14.067 14.143 14.27 14.43 14.587 14.745 14.892 15.025 15.155 15.28 15.4 15.52 15.642 15.763 15.882 16.002 16.105 16.265 16.51 16.725 16.852 16.93 16.995 17.045 17.09 17.14 17.165 17.15 17.12 17.153 17.253 17.36 17.47 17.552 17.6 17.615 17.595 17.568 17.545 17.553 17.598 17.65 17.702 17.755 17.79 17.782 17.753 17.738 17.73 17.72 17.71 17.7 17.69 17.682 17.667 17.645 17.62 17.613 17.643 17.688 17.733 17.777 17.82 17.862 17.907 17.945 17.962 17.957 17.94 17.905 17.853 17.813 17.795 17.83 17.91 17.99 18.06 18.07 18.028 17.995 18 17.987 17.933 17.888 17.855 17.825 17.792 17.76 17.73 17.685 17.61 17.515 17.415 17.318 17.253 17.233 17.238 17.255 17.255 17.215 17.147 17.07 16.993 16.945 16.95 16.977 17 17.022 17.045 17.062 17.08 17.095 17.102 17.077 16.992 16.867 16.733 16.653 16.638
11.552 11.598 11.653 11.788 11.942 12.085 12.202 12.325 12.467 12.61 12.752 12.912 13.097 13.287 13.407 13.455 13.5 13.555 13.597 13.632 13.68 13.727 13.782 13.835 13.868 13.893 13.925 13.97 14.015 14.063 14.138 14.245 14.365 14.485 14.577 14.625 14.655 14.687 14.713 14.745 14.797 14.855 14.842 14.737 14.61 14.49 14.425 14.4 14.37 14.358 14.35 14.305 14.248 14.205 14.162 14.117 14.075 14.063 14.135 14.262 14.34 14.365 14.365 14.345 14.325 14.303 14.277 14.242 14.195 14.15 14.1 14.045 13.995 13.948 13.908 13.872 13.838 13.835 13.888 13.965 14.045 14.12 14.21 14.345 14.502 14.655 14.802 14.937 15.065 15.195 15.32 15.44 15.56 15.685 15.807 15.922 16.027 16.13 16.31 16.565 16.812 16.97 17.037 17.087 17.13 17.165 17.182 17.167 17.135 17.105 17.135 17.23 17.332 17.425 17.485 17.525 17.54 17.52 17.495 17.485 17.51 17.563 17.617 17.67 17.722 17.77 17.78 17.767 17.762 17.757 17.75 17.74 17.73 17.72 17.712 17.697 17.672 17.645 17.638 17.67 17.72 17.767 17.812 17.855 17.897 17.935 17.955 17.952 17.935 17.915 17.905 17.907 17.912 17.927 17.98 18.057 18.13 18.19 18.202 18.165 18.12 18.102 18.077 18.033 18 17.97 17.94 17.908 17.875 17.845 17.79 17.7 17.6 17.502 17.405 17.333 17.313 17.325 17.345 17.36 17.335 17.265 17.182 17.097 17.02 16.99 17.005 17.025 17.048 17.072 17.095 17.112 17.122 17.125 17.077 16.965 16.835 16.705 16.628 16.613
11.632 11.713 11.825 11.972 12.12 12.275 12.42 12.55 12.68 12.81 12.937 13.06 13.222 13.42 13.535 13.577 13.622 13.667 13.715 13.76 13.805 13.867 13.932 13.975 14 14.025 14.055 14.093 14.138 14.188 14.275 14.392 14.51 14.63 14.71 14.745 14.778 14.815 14.858 14.91 14.97 15.027 15 14.883 14.758 14.638 14.56 14.528 14.5 14.483 14.488 14.502 14.505 14.492 14.477 14.457 14.422 14.383 14.413 14.497 14.527 14.513 14.498 14.48 14.463 14.43 14.378 14.325 14.278 14.232 14.175 14.112 14.057 14.003 13.96 13.927 13.895 13.878 13.915 13.992 14.07 14.148 14.245 14.382 14.535 14.682 14.822 14.955 15.085 15.215 15.342 15.467 15.59 15.712 15.837 15.95 16.045 16.163 16.358 16.602 16.85 17.007 17.06 17.1 17.142 17.17 17.165 17.137 17.108 17.085 17.113 17.198 17.295 17.372 17.422 17.455 17.462 17.447 17.425 17.433 17.478 17.53 17.582 17.63 17.667 17.705 17.737 17.755 17.757 17.755 17.755 17.752 17.745 17.735 17.722 17.705 17.68 17.653 17.658 17.702 17.752 17.8 17.845 17.885 17.917 17.932 17.93 17.917 17.9 17.88 17.883 17.91 17.937 17.96 17.997 18.06 18.125 18.177 18.197 18.18 18.155 18.137 18.13 18.135 18.127 18.1 18.07 18.04 18.01 17.982 17.902 17.775 17.665 17.567 17.47 17.405 17.405 17.433 17.455 17.462 17.412 17.325 17.24 17.152 17.078 17.038 17.04 17.058 17.072 17.087 17.097 17.097 17.092 17.085 17.035 16.925 16.798 16.688 16.62 16.593
11.713 11.84 11.98 12.12 12.268 12.437 12.587 12.705 12.83 12.957 13.08 13.185 13.313 13.49 13.607 13.653 13.698 13.745 13.793 13.84 13.903 13.99 14.075 14.127 14.157 14.182 14.205 14.233 14.273 14.323 14.408 14.52 14.635 14.752 14.83 14.868 14.905 14.945 14.998 15.062 15.125 15.182 15.155 15.04 14.923 14.805 14.71 14.668 14.645 14.625 14.628 14.643 14.66 14.677 14.692 14.702 14.697 14.682 14.692 14.71 14.703 14.688 14.673 14.655 14.622 14.562 14.485 14.413 14.36 14.315 14.25 14.173 14.105 14.05 14.01 13.98 13.945 13.913 13.938 14.01 14.085 14.163 14.26 14.39 14.535 14.685 14.825 14.955 15.085 15.215 15.345 15.475 15.605 15.73 15.852 15.965 16.063 16.188 16.378 16.605 16.84 16.985 17.023 17.05 17.088 17.117 17.115 17.093 17.078 17.078 17.1 17.158 17.243 17.317 17.365 17.382 17.38 17.373 17.363 17.388 17.437 17.48 17.517 17.547 17.572 17.6 17.64 17.682 17.71 17.72 17.725 17.735 17.737 17.73 17.715 17.695 17.673 17.65 17.663 17.722 17.785 17.832 17.87 17.895 17.905 17.905 17.897 17.88 17.86 17.843 17.85 17.88 17.897 17.895 17.9 17.935 17.993 18.045 18.062 18.057 18.052 18.045 18.062 18.11 18.142 18.152 18.16 18.17 18.162 18.137 18.037 17.868 17.725 17.615 17.52 17.48 17.513 17.557 17.585 17.555 17.447 17.338 17.25 17.175 17.123 17.088 17.083 17.095 17.09 17.075 17.065 17.055 17.05 17.045 16.995 16.885 16.775 16.7 16.643 16.595
11.785 11.952 12.097 12.243 12.41 12.595 12.752 12.87 12.983 13.103 13.222 13.327 13.43 13.572 13.682 13.728 13.775 13.825 13.873 13.938 14.03 14.13 14.215 14.275 14.312 14.337 14.36 14.383 14.413 14.458 14.54 14.653 14.77 14.887 14.962 15 15.04 15.08 15.135 15.205 15.272 15.337 15.315 15.203 15.09 14.975 14.865 14.808 14.785 14.77 14.778 14.79 14.813 14.84 14.857 14.878 14.9 14.917 14.932 14.925 14.9 14.882 14.86 14.82 14.755 14.675 14.595 14.515 14.448 14.395 14.33 14.248 14.168 14.103 14.06 14.025 13.983 13.943 13.96 14.028 14.098 14.175 14.278 14.405 14.543 14.687 14.825 14.955 15.082 15.21 15.342 15.475 15.61 15.742 15.867 15.98 16.088 16.22 16.393 16.595 16.817 16.962 17 17.02 17.045 17.068 17.073 17.068 17.07 17.085 17.108 17.14 17.198 17.265 17.3 17.303 17.3 17.305 17.308 17.325 17.36 17.387 17.412 17.435 17.458 17.49 17.535 17.585 17.632 17.667 17.685 17.7 17.715 17.717 17.705 17.685 17.665 17.645 17.655 17.72 17.802 17.852 17.87 17.875 17.875 17.872 17.86 17.843 17.825 17.808 17.815 17.845 17.85 17.835 17.83 17.838 17.87 17.912 17.925 17.917 17.91 17.9 17.918 17.963 18.01 18.057 18.102 18.15 18.185 18.197 18.132 17.982 17.82 17.675 17.583 17.578 17.63 17.682 17.695 17.615 17.475 17.355 17.273 17.22 17.18 17.143 17.13 17.127 17.09 17.05 17.033 17.02 17.01 17.002 16.955 16.863 16.785 16.73 16.677 16.623
11.86 12.055 12.215 12.378 12.565 12.758 12.922 13.045 13.15 13.26 13.37 13.47 13.568 13.678 13.763 13.813 13.865 13.915 13.975 14.065 14.17 14.27 14.355 14.42 14.465 14.492 14.517 14.54 14.562 14.595 14.675 14.795 14.915 15.035 15.11 15.143 15.178 15.218 15.275 15.345 15.41 15.467 15.462 15.375 15.263 15.148 15.033 14.953 14.925 14.925 14.935 14.945 14.965 14.987 15.017 15.055 15.08 15.1 15.117 15.112 15.09 15.057 15.007 14.942 14.865 14.785 14.705 14.625 14.548 14.483 14.415 14.332 14.245 14.168 14.115 14.07 14.023 13.975 13.985 14.053 14.12 14.19 14.29 14.42 14.555 14.692 14.825 14.952 15.078 15.205 15.34 15.478 15.615 15.75 15.883 16.008 16.13 16.268 16.43 16.613 16.807 16.94 16.983 17.01 17.04 17.063 17.073 17.075 17.08 17.095 17.12 17.148 17.18 17.228 17.265 17.285 17.305 17.323 17.31 17.288 17.285 17.285 17.298 17.323 17.345 17.38 17.43 17.485 17.55 17.613 17.652 17.675 17.693 17.705 17.7 17.68 17.66 17.64 17.645 17.703 17.785 17.837 17.85 17.85 17.85 17.843 17.825 17.807 17.79 17.773 17.78 17.802 17.795 17.773 17.768 17.77 17.778 17.788 17.785 17.775 17.763 17.75 17.77 17.818 17.863 17.915 17.973 18.03 18.09 18.13 18.11 18.017 17.875 17.72 17.64 17.667 17.732 17.79 17.765 17.64 17.493 17.378 17.318 17.28 17.24 17.198 17.177 17.15 17.085 17.038 17.015 16.998 16.98 16.967 16.932 16.873 16.817 16.765 16.712 16.658
11.988 12.178 12.36 12.553 12.755 12.958 13.127 13.25 13.35 13.44 13.535 13.635 13.733 13.825 13.89 13.938 13.99 14.043 14.115 14.213 14.315 14.415 14.492 14.545 14.59 14.622 14.647 14.67 14.693 14.733 14.823 14.948 15.07 15.185 15.255 15.285 15.318 15.355 15.405 15.465 15.517 15.562 15.582 15.54 15.442 15.327 15.21 15.105 15.07 15.085 15.095 15.105 15.115 15.125 15.15 15.18 15.21 15.25 15.272 15.252 15.212 15.162 15.095 15.025 14.957 14.887 14.81 14.73 14.65 14.578 14.503 14.418 14.333 14.25 14.188 14.14 14.087 14.018 14.01 14.08 14.145 14.198 14.285 14.415 14.55 14.69 14.822 14.948 15.075 15.205 15.343 15.485 15.625 15.763 15.908 16.048 16.175 16.31 16.47 16.65 16.83 16.952 17.003 17.038 17.073 17.102 17.115 17.113 17.108 17.118 17.145 17.173 17.203 17.25 17.315 17.37 17.41 17.417 17.375 17.325 17.29 17.265 17.253 17.253 17.26 17.3 17.37 17.445 17.525 17.587 17.63 17.662 17.683 17.697 17.695 17.675 17.655 17.635 17.63 17.673 17.742 17.802 17.83 17.83 17.83 17.82 17.795 17.77 17.75 17.738 17.747 17.755 17.735 17.71 17.703 17.705 17.713 17.715 17.68 17.643 17.625 17.608 17.63 17.69 17.748 17.81 17.883 17.952 18 18.015 18 17.95 17.85 17.715 17.65 17.69 17.755 17.797 17.762 17.64 17.493 17.393 17.355 17.327 17.29 17.25 17.215 17.16 17.085 17.033 17.005 16.985 16.968 16.952 16.925 16.88 16.833 16.795 16.747 16.69
12.198 12.37 12.565 12.775 12.988 13.2 13.365 13.467 13.547 13.62 13.71 13.817 13.917 14.01 14.067 14.1 14.145 14.198 14.27 14.365 14.465 14.562 14.62 14.648 14.688 14.725 14.75 14.77 14.81 14.883 14.983 15.103 15.225 15.335 15.4 15.43 15.462 15.492 15.52 15.558 15.603 15.65 15.68 15.672 15.615 15.51 15.393 15.283 15.235 15.245 15.255 15.265 15.275 15.285 15.295 15.305 15.325 15.355 15.372 15.342 15.28 15.22 15.155 15.088 15.03 14.972 14.902 14.825 14.748 14.677 14.6 14.51 14.425 14.343 14.275 14.225 14.157 14.06 14.04 14.107 14.157 14.188 14.265 14.395 14.533 14.68 14.817 14.945 15.075 15.208 15.347 15.49 15.63 15.783 15.952 16.097 16.218 16.35 16.51 16.69 16.87 16.997 17.055 17.09 17.12 17.147 17.165 17.167 17.153 17.153 17.18 17.213 17.255 17.313 17.397 17.48 17.525 17.51 17.448 17.388 17.343 17.315 17.29 17.265 17.26 17.3 17.38 17.465 17.532 17.577 17.613 17.647 17.677 17.692 17.685 17.665 17.65 17.64 17.635 17.658 17.703 17.76 17.802 17.81 17.81 17.8 17.77 17.738 17.715 17.705 17.707 17.697 17.673 17.65 17.64 17.648 17.67 17.692 17.645 17.553 17.505 17.495 17.53 17.6 17.67 17.743 17.817 17.87 17.887 17.89 17.875 17.845 17.79 17.68 17.618 17.655 17.697 17.71 17.697 17.617 17.49 17.4 17.37 17.357 17.327 17.29 17.235 17.16 17.083 17.023 16.993 16.977 16.962 16.945 16.915 16.873 16.84 16.825 16.785 16.723
12.462 12.615 12.805 13.015 13.222 13.417 13.567 13.655 13.72 13.79 13.88 13.99 14.097 14.195 14.25 14.275 14.31 14.353 14.423 14.52 14.617 14.71 14.755 14.763 14.788 14.823 14.85 14.888 14.958 15.045 15.145 15.26 15.38 15.487 15.55 15.58 15.607 15.63 15.645 15.663 15.695 15.737 15.765 15.772 15.76 15.69 15.582 15.48 15.415 15.405 15.415 15.425 15.427 15.42 15.412 15.405 15.392 15.4 15.415 15.39 15.337 15.277 15.213 15.155 15.105 15.052 14.987 14.915 14.848 14.782 14.705 14.613 14.52 14.435 14.365 14.295 14.2 14.09 14.068 14.12 14.152 14.175 14.248 14.38 14.525 14.675 14.815 14.945 15.075 15.21 15.35 15.495 15.65 15.825 16.012 16.157 16.265 16.39 16.55 16.727 16.905 17.042 17.107 17.14 17.167 17.192 17.217 17.22 17.193 17.188 17.22 17.265 17.315 17.37 17.458 17.562 17.617 17.592 17.525 17.458 17.4 17.365 17.34 17.323 17.33 17.358 17.41 17.472 17.52 17.56 17.598 17.633 17.667 17.685 17.678 17.665 17.66 17.663 17.668 17.678 17.695 17.725 17.77 17.795 17.79 17.777 17.75 17.713 17.683 17.67 17.66 17.635 17.61 17.59 17.588 17.61 17.64 17.67 17.642 17.535 17.433 17.413 17.465 17.535 17.605 17.678 17.735 17.757 17.763 17.765 17.75 17.72 17.687 17.623 17.58 17.597 17.61 17.61 17.607 17.57 17.492 17.413 17.378 17.377 17.36 17.312 17.24 17.16 17.08 17.01 16.975 16.965 16.952 16.935 16.908 16.88 16.87 16.865 16.825 16.76
12.687 12.842 13.017 13.2 13.377 13.54 13.677 13.785 13.877 13.96 14.05 14.16 14.27 14.372 14.432 14.458 14.485 14.52 14.583 14.675 14.77 14.857 14.902 14.905 14.91 14.928 14.965 15.035 15.123 15.208 15.308 15.423 15.54 15.642 15.697 15.725 15.75 15.77 15.785 15.795 15.81 15.833 15.85 15.86 15.867 15.842 15.765 15.665 15.585 15.543 15.525 15.515 15.497 15.472 15.447 15.42 15.39 15.418 15.447 15.415 15.372 15.322 15.27 15.225 15.18 15.132 15.077 15.012 14.95 14.887 14.81 14.717 14.622 14.53 14.442 14.342 14.23 14.118 14.08 14.112 14.138 14.163 14.235 14.37 14.52 14.67 14.812 14.945 15.078 15.213 15.36 15.525 15.703 15.887 16.072 16.217 16.32 16.433 16.585 16.762 16.94 17.087 17.157 17.182 17.205 17.227 17.255 17.255 17.225 17.23 17.275 17.325 17.375 17.43 17.52 17.64 17.715 17.707 17.638 17.545 17.47 17.423 17.395 17.393 17.41 17.427 17.448 17.478 17.515 17.555 17.593 17.628 17.663 17.682 17.685 17.685 17.685 17.69 17.7 17.71 17.72 17.73 17.755 17.775 17.768 17.755 17.73 17.69 17.655 17.635 17.62 17.598 17.578 17.563 17.568 17.598 17.63 17.66 17.642 17.542 17.428 17.393 17.44 17.508 17.575 17.64 17.665 17.655 17.643 17.638 17.625 17.598 17.578 17.558 17.538 17.53 17.53 17.53 17.528 17.522 17.485 17.415 17.38 17.382 17.372 17.32 17.243 17.165 17.085 17.008 16.963 16.95 16.94 16.927 16.913 16.905 16.907 16.905 16.865 16.8
12.805 12.985 13.147 13.297 13.452 13.6 13.735 13.86 13.98 14.1 14.215 14.325 14.435 14.545 14.612 14.637 14.665 14.713 14.775 14.843 14.928 15.017 15.062 15.065 15.065 15.07 15.118 15.205 15.293 15.378 15.48 15.595 15.7 15.785 15.83 15.855 15.88 15.897 15.91 15.92 15.93 15.935 15.94 15.95 15.955 15.94 15.875 15.775 15.715 15.673 15.618 15.57 15.52 15.475 15.44 15.41 15.388 15.445 15.485 15.44 15.4 15.36 15.32 15.277 15.233 15.197 15.16 15.102 15.04 14.98 14.9 14.8 14.702 14.605 14.502 14.39 14.275 14.163 14.098 14.103 14.128 14.153 14.218 14.343 14.487 14.635 14.802 14.96 15.093 15.228 15.388 15.57 15.755 15.942 16.125 16.27 16.372 16.47 16.61 16.79 16.967 17.117 17.185 17.2 17.22 17.24 17.26 17.255 17.248 17.28 17.33 17.38 17.43 17.505 17.613 17.735 17.822 17.845 17.807 17.713 17.61 17.523 17.465 17.46 17.477 17.49 17.498 17.508 17.535 17.573 17.608 17.643 17.672 17.69 17.697 17.7 17.7 17.702 17.71 17.72 17.73 17.74 17.75 17.765 17.768 17.75 17.73 17.708 17.683 17.66 17.643 17.625 17.61 17.598 17.593 17.615 17.65 17.682 17.65 17.545 17.465 17.433 17.455 17.515 17.577 17.63 17.635 17.605 17.578 17.563 17.553 17.54 17.538 17.535 17.515 17.49 17.48 17.483 17.485 17.487 17.46 17.4 17.37 17.37 17.367 17.325 17.248 17.17 17.093 17.025 16.973 16.943 16.93 16.92 16.917 16.92 16.922 16.917 16.88 16.817
12.878 13.07 13.23 13.368 13.518 13.662 13.795 13.925 14.063 14.22 14.367 14.485 14.595 14.71 14.785 14.813 14.855 14.93 15 15.05 15.113 15.192 15.235 15.235 15.237 15.243 15.29 15.38 15.467 15.555 15.657 15.762 15.845 15.91 15.952 15.977 15.997 16.01 16.02 16.027 16.032 16.03 16.03 16.037 16.03 15.997 15.928 15.85 15.838 15.82 15.755 15.69 15.62 15.555 15.5 15.448 15.433 15.505 15.535 15.483 15.438 15.395 15.355 15.313 15.278 15.262 15.232 15.175 15.115 15.052 14.965 14.86 14.76 14.66 14.557 14.447 14.335 14.225 14.143 14.113 14.123 14.15 14.208 14.308 14.435 14.58 14.767 14.965 15.117 15.255 15.42 15.607 15.792 15.975 16.152 16.305 16.407 16.493 16.63 16.807 16.982 17.137 17.202 17.205 17.22 17.24 17.252 17.253 17.278 17.33 17.38 17.43 17.5 17.615 17.738 17.842 17.915 17.95 17.965 17.92 17.82 17.708 17.61 17.548 17.533 17.545 17.552 17.555 17.568 17.598 17.632 17.665 17.685 17.695 17.7 17.7 17.69 17.677 17.687 17.707 17.72 17.73 17.743 17.767 17.79 17.78 17.77 17.772 17.76 17.74 17.718 17.695 17.68 17.665 17.65 17.655 17.68 17.705 17.657 17.57 17.52 17.485 17.483 17.525 17.585 17.622 17.62 17.6 17.58 17.563 17.553 17.55 17.552 17.545 17.522 17.485 17.453 17.448 17.45 17.447 17.427 17.383 17.353 17.355 17.367 17.335 17.255 17.175 17.108 17.06 17.008 16.955 16.925 16.913 16.912 16.912 16.907 16.895 16.862 16.81
12.965 13.16 13.32 13.45 13.588 13.725 13.865 14.018 14.18 14.352 14.515 14.645 14.757 14.872 14.952 15 15.07 15.16 15.23 15.28 15.325 15.37 15.395 15.397 15.407 15.417 15.462 15.55 15.64 15.73 15.82 15.9 15.967 16.03 16.075 16.097 16.11 16.12 16.127 16.127 16.125 16.12 16.12 16.115 16.085 16.045 15.988 15.955 15.982 15.97 15.905 15.84 15.767 15.692 15.623 15.555 15.54 15.59 15.59 15.533 15.478 15.43 15.39 15.358 15.34 15.335 15.305 15.245 15.185 15.12 15.03 14.923 14.818 14.715 14.612 14.505 14.395 14.285 14.2 14.15 14.13 14.15 14.213 14.3 14.403 14.53 14.71 14.93 15.125 15.282 15.45 15.635 15.812 15.987 16.16 16.317 16.422 16.508 16.65 16.825 16.997 17.157 17.227 17.223 17.225 17.24 17.25 17.27 17.32 17.377 17.43 17.5 17.613 17.75 17.88 17.96 17.997 18.03 18.052 18.035 17.98 17.91 17.825 17.725 17.65 17.618 17.608 17.608 17.608 17.625 17.655 17.68 17.69 17.695 17.697 17.687 17.66 17.633 17.645 17.68 17.702 17.715 17.733 17.763 17.797 17.815 17.825 17.842 17.84 17.82 17.795 17.768 17.748 17.733 17.72 17.713 17.718 17.715 17.673 17.62 17.583 17.548 17.52 17.54 17.6 17.632 17.628 17.615 17.6 17.585 17.575 17.57 17.567 17.555 17.535 17.497 17.448 17.418 17.41 17.405 17.39 17.36 17.338 17.345 17.365 17.34 17.265 17.195 17.145 17.105 17.052 16.99 16.938 16.91 16.9 16.89 16.88 16.865 16.832 16.787
13.037 13.242 13.412 13.542 13.668 13.805 13.965 14.135 14.302 14.472 14.645 14.79 14.91 15.03 15.127 15.205 15.287 15.37 15.43 15.462 15.485 15.512 15.525 15.522 15.532 15.547 15.597 15.685 15.772 15.86 15.937 16.002 16.07 16.137 16.182 16.202 16.215 16.225 16.227 16.22 16.215 16.21 16.197 16.172 16.135 16.095 16.07 16.085 16.127 16.115 16.042 15.965 15.89 15.818 15.75 15.69 15.675 15.685 15.65 15.59 15.53 15.475 15.438 15.42 15.41 15.405 15.375 15.315 15.252 15.182 15.092 14.985 14.875 14.77 14.667 14.56 14.45 14.345 14.265 14.208 14.163 14.16 14.22 14.31 14.398 14.495 14.658 14.878 15.097 15.295 15.475 15.652 15.825 16 16.175 16.32 16.42 16.518 16.665 16.84 17.01 17.175 17.255 17.25 17.245 17.248 17.263 17.305 17.365 17.425 17.498 17.608 17.745 17.885 18.02 18.082 18.083 18.1 18.107 18.085 18.06 18.025 17.965 17.885 17.795 17.718 17.678 17.665 17.66 17.663 17.675 17.687 17.693 17.7 17.693 17.663 17.625 17.59 17.595 17.635 17.67 17.698 17.725 17.757 17.79 17.822 17.852 17.877 17.887 17.88 17.865 17.842 17.82 17.802 17.79 17.78 17.77 17.747 17.715 17.68 17.645 17.61 17.573 17.573 17.617 17.652 17.65 17.635 17.622 17.608 17.595 17.587 17.577 17.56 17.54 17.507 17.455 17.403 17.375 17.363 17.347 17.328 17.32 17.335 17.357 17.342 17.283 17.23 17.19 17.15 17.095 17.03 16.968 16.92 16.893 16.873 16.855 16.835 16.8 16.755
13.095 13.31 13.497 13.637 13.76 13.903 14.07 14.24 14.407 14.58 14.757 14.91 15.037 15.157 15.262 15.35 15.43 15.505 15.555 15.572 15.585 15.62 15.635 15.62 15.62 15.635 15.69 15.78 15.867 15.95 16.022 16.088 16.155 16.225 16.27 16.287 16.302 16.32 16.325 16.315 16.307 16.295 16.265 16.228 16.192 16.15 16.133 16.162 16.207 16.207 16.147 16.075 16.01 15.95 15.89 15.833 15.81 15.79 15.735 15.675 15.615 15.553 15.508 15.488 15.478 15.472 15.442 15.382 15.315 15.23 15.127 15.02 14.913 14.817 14.72 14.61 14.503 14.41 14.34 14.28 14.223 14.198 14.243 14.33 14.418 14.505 14.643 14.848 15.073 15.292 15.492 15.672 15.848 16.023 16.195 16.322 16.415 16.525 16.673 16.847 17.02 17.19 17.28 17.28 17.275 17.273 17.29 17.34 17.402 17.47 17.563 17.697 17.852 18.002 18.115 18.162 18.165 18.172 18.17 18.145 18.122 18.087 18.027 17.955 17.882 17.81 17.758 17.735 17.725 17.705 17.693 17.698 17.703 17.717 17.71 17.67 17.63 17.593 17.578 17.6 17.64 17.68 17.715 17.745 17.777 17.812 17.845 17.865 17.875 17.882 17.882 17.875 17.865 17.852 17.835 17.815 17.795 17.767 17.737 17.71 17.68 17.65 17.622 17.608 17.63 17.667 17.67 17.655 17.645 17.63 17.615 17.6 17.58 17.557 17.535 17.502 17.45 17.39 17.348 17.325 17.31 17.298 17.3 17.322 17.347 17.347 17.312 17.267 17.22 17.17 17.12 17.065 17 16.943 16.908 16.883 16.858 16.82 16.77 16.725
13.155 13.367 13.562 13.722 13.857 14 14.165 14.335 14.508 14.693 14.875 15.022 15.145 15.252 15.345 15.43 15.507 15.58 15.635 15.663 15.69 15.735 15.75 15.728 15.715 15.728 15.783 15.87 15.96 16.04 16.108 16.173 16.238 16.305 16.35 16.368 16.388 16.412 16.422 16.415 16.4 16.372 16.335 16.295 16.255 16.205 16.168 16.178 16.215 16.232 16.217 16.187 16.142 16.087 16.03 15.975 15.935 15.895 15.84 15.78 15.72 15.655 15.6 15.565 15.545 15.537 15.507 15.447 15.367 15.26 15.145 15.038 14.94 14.86 14.77 14.66 14.563 14.485 14.42 14.36 14.295 14.248 14.278 14.362 14.445 14.538 14.668 14.85 15.068 15.285 15.492 15.69 15.872 16.047 16.21 16.325 16.42 16.533 16.678 16.855 17.03 17.2 17.3 17.31 17.308 17.31 17.325 17.368 17.428 17.51 17.615 17.743 17.9 18.055 18.142 18.18 18.21 18.232 18.232 18.21 18.187 18.152 18.092 18.018 17.945 17.875 17.828 17.807 17.78 17.733 17.705 17.71 17.725 17.75 17.747 17.71 17.67 17.635 17.605 17.593 17.615 17.655 17.692 17.728 17.762 17.795 17.82 17.83 17.835 17.845 17.85 17.852 17.855 17.852 17.835 17.81 17.79 17.758 17.723 17.7 17.675 17.65 17.63 17.62 17.643 17.682 17.69 17.675 17.665 17.65 17.635 17.61 17.578 17.55 17.525 17.487 17.43 17.37 17.325 17.3 17.283 17.27 17.278 17.305 17.332 17.355 17.34 17.287 17.23 17.17 17.125 17.087 17.03 16.97 16.933 16.907 16.87 16.805 16.74 16.695
13.228 13.428 13.62 13.792 13.947 14.1 14.265 14.435 14.615 14.81 14.992 15.13 15.237 15.337 15.43 15.512 15.582 15.65 15.71 15.757 15.805 15.855 15.87 15.845 15.82 15.823 15.875 15.96 16.05 16.13 16.195 16.257 16.322 16.387 16.432 16.455 16.48 16.507 16.52 16.51 16.482 16.445 16.405 16.362 16.312 16.255 16.215 16.208 16.218 16.23 16.238 16.238 16.225 16.197 16.152 16.1 16.047 15.995 15.942 15.885 15.822 15.755 15.7 15.66 15.625 15.605 15.572 15.5 15.395 15.275 15.163 15.065 14.983 14.907 14.817 14.718 14.635 14.563 14.495 14.432 14.36 14.293 14.308 14.39 14.465 14.565 14.708 14.87 15.065 15.275 15.48 15.69 15.89 16.072 16.22 16.33 16.435 16.543 16.683 16.86 17.037 17.212 17.32 17.34 17.345 17.35 17.365 17.403 17.463 17.56 17.675 17.79 17.92 18.052 18.135 18.175 18.215 18.252 18.267 18.262 18.25 18.215 18.155 18.082 18.007 17.935 17.887 17.857 17.81 17.75 17.72 17.733 17.765 17.792 17.785 17.75 17.713 17.68 17.647 17.615 17.605 17.63 17.67 17.71 17.745 17.77 17.785 17.792 17.798 17.805 17.81 17.815 17.822 17.825 17.817 17.802 17.785 17.75 17.708 17.678 17.653 17.63 17.615 17.625 17.66 17.7 17.71 17.695 17.685 17.67 17.655 17.622 17.575 17.54 17.512 17.47 17.41 17.35 17.305 17.28 17.26 17.245 17.255 17.282 17.31 17.342 17.337 17.285 17.225 17.165 17.12 17.092 17.052 16.998 16.957 16.92 16.857 16.78 16.713 16.657
13.315 13.502 13.685 13.855 14.022 14.19 14.362 14.54 14.732 14.935 15.105 15.222 15.32 15.417 15.507 15.577 15.63 15.682 15.74 15.817 15.905 15.972 15.99 15.962 15.927 15.913 15.958 16.045 16.135 16.215 16.28 16.34 16.402 16.465 16.505 16.532 16.567 16.6 16.612 16.592 16.552 16.51 16.47 16.422 16.365 16.305 16.288 16.315 16.333 16.33 16.318 16.308 16.3 16.283 16.25 16.205 16.152 16.098 16.045 15.99 15.925 15.858 15.803 15.76 15.72 15.685 15.632 15.533 15.41 15.29 15.185 15.102 15.03 14.955 14.872 14.79 14.715 14.64 14.565 14.487 14.402 14.328 14.333 14.41 14.485 14.595 14.75 14.908 15.078 15.268 15.47 15.68 15.89 16.085 16.23 16.34 16.447 16.553 16.69 16.865 17.042 17.22 17.34 17.375 17.382 17.388 17.405 17.435 17.495 17.597 17.71 17.822 17.935 18.05 18.13 18.17 18.21 18.25 18.277 18.29 18.292 18.27 18.215 18.142 18.067 17.992 17.93 17.88 17.825 17.768 17.745 17.77 17.812 17.837 17.825 17.792 17.757 17.725 17.69 17.652 17.623 17.625 17.66 17.7 17.733 17.743 17.745 17.755 17.76 17.765 17.772 17.778 17.785 17.792 17.795 17.787 17.772 17.74 17.695 17.658 17.63 17.61 17.61 17.643 17.685 17.72 17.727 17.715 17.705 17.69 17.672 17.637 17.585 17.538 17.498 17.45 17.39 17.33 17.283 17.258 17.24 17.225 17.228 17.248 17.275 17.305 17.31 17.272 17.215 17.155 17.113 17.087 17.057 17.017 16.972 16.91 16.833 16.755 16.68 16.608
13.405 13.577 13.74 13.905 14.075 14.252 14.435 14.62 14.815 15.01 15.167 15.275 15.367 15.465 15.56 15.607 15.63 15.673 15.735 15.833 15.945 16.05 16.09 16.06 16.017 15.99 16.03 16.12 16.207 16.285 16.35 16.41 16.472 16.522 16.537 16.552 16.59 16.627 16.652 16.645 16.607 16.565 16.52 16.46 16.395 16.335 16.393 16.517 16.565 16.56 16.53 16.503 16.475 16.437 16.367 16.3 16.255 16.202 16.147 16.09 16.025 15.965 15.918 15.875 15.835 15.79 15.715 15.6 15.473 15.34 15.218 15.13 15.057 14.98 14.897 14.815 14.74 14.667 14.59 14.5 14.408 14.343 14.35 14.425 14.51 14.63 14.79 14.953 15.12 15.293 15.473 15.668 15.872 16.072 16.222 16.33 16.44 16.56 16.703 16.87 17.047 17.22 17.342 17.397 17.417 17.423 17.44 17.46 17.495 17.58 17.69 17.8 17.925 18.055 18.135 18.175 18.215 18.255 18.287 18.307 18.32 18.312 18.262 18.187 18.11 18.03 17.948 17.878 17.822 17.768 17.753 17.787 17.835 17.865 17.852 17.82 17.785 17.747 17.71 17.678 17.655 17.653 17.68 17.72 17.747 17.748 17.738 17.733 17.725 17.725 17.735 17.743 17.75 17.757 17.76 17.757 17.747 17.72 17.682 17.645 17.613 17.603 17.625 17.67 17.71 17.732 17.737 17.73 17.72 17.707 17.687 17.65 17.6 17.548 17.495 17.44 17.38 17.32 17.268 17.24 17.225 17.21 17.203 17.21 17.235 17.262 17.272 17.252 17.205 17.148 17.108 17.08 17.052 17.02 16.975 16.913 16.838 16.76 16.678 16.593
13.485 13.63 13.778 13.945 14.115 14.292 14.475 14.657 14.842 15.027 15.185 15.295 15.39 15.5 15.612 15.635 15.62 15.658 15.73 15.835 15.96 16.102 16.162 16.132 16.093 16.06 16.095 16.185 16.267 16.34 16.41 16.475 16.53 16.557 16.55 16.54 16.558 16.595 16.635 16.66 16.647 16.61 16.557 16.485 16.41 16.35 16.468 16.695 16.802 16.81 16.78 16.75 16.692 16.595 16.465 16.38 16.352 16.307 16.25 16.19 16.133 16.083 16.04 16.002 15.96 15.905 15.822 15.705 15.572 15.422 15.255 15.135 15.06 14.977 14.885 14.79 14.708 14.635 14.562 14.478 14.4 14.355 14.355 14.425 14.535 14.673 14.84 15.01 15.182 15.35 15.505 15.663 15.848 16.047 16.197 16.31 16.438 16.578 16.723 16.878 17.05 17.21 17.315 17.382 17.435 17.457 17.47 17.477 17.48 17.535 17.64 17.765 17.92 18.067 18.15 18.19 18.228 18.263 18.297 18.327 18.347 18.345 18.295 18.217 18.135 18.05 17.963 17.875 17.808 17.75 17.735 17.778 17.83 17.867 17.86 17.823 17.788 17.755 17.728 17.71 17.703 17.703 17.725 17.76 17.78 17.78 17.767 17.75 17.73 17.718 17.715 17.718 17.723 17.725 17.725 17.722 17.707 17.682 17.655 17.623 17.6 17.615 17.657 17.7 17.727 17.74 17.742 17.737 17.73 17.712 17.687 17.657 17.615 17.565 17.51 17.45 17.393 17.338 17.288 17.245 17.215 17.2 17.19 17.185 17.195 17.217 17.23 17.225 17.195 17.143 17.103 17.075 17.042 17 16.967 16.935 16.875 16.8 16.715 16.625
13.54 13.668 13.815 13.985 14.155 14.328 14.505 14.682 14.86 15.042 15.2 15.318 15.43 15.555 15.68 15.692 15.633 15.645 15.73 15.86 16.013 16.167 16.225 16.195 16.162 16.13 16.158 16.242 16.32 16.392 16.467 16.537 16.577 16.582 16.57 16.55 16.543 16.563 16.6 16.64 16.662 16.647 16.592 16.515 16.433 16.378 16.51 16.792 17 17.057 17.012 16.932 16.812 16.66 16.52 16.453 16.437 16.407 16.355 16.3 16.253 16.208 16.165 16.122 16.07 16.01 15.927 15.81 15.672 15.512 15.32 15.158 15.058 14.97 14.875 14.775 14.68 14.6 14.528 14.478 14.43 14.378 14.355 14.413 14.548 14.71 14.892 15.075 15.25 15.412 15.562 15.698 15.848 16.028 16.183 16.315 16.458 16.603 16.75 16.895 17.052 17.187 17.27 17.343 17.415 17.47 17.492 17.49 17.48 17.505 17.605 17.758 17.925 18.077 18.165 18.205 18.24 18.27 18.305 18.34 18.37 18.375 18.325 18.242 18.157 18.073 17.985 17.89 17.803 17.733 17.718 17.763 17.817 17.862 17.86 17.828 17.805 17.788 17.775 17.765 17.757 17.753 17.768 17.792 17.805 17.81 17.802 17.785 17.768 17.753 17.742 17.727 17.705 17.695 17.695 17.687 17.665 17.638 17.613 17.593 17.59 17.625 17.682 17.722 17.74 17.75 17.75 17.742 17.725 17.685 17.653 17.64 17.62 17.582 17.532 17.477 17.425 17.375 17.33 17.275 17.218 17.19 17.18 17.17 17.168 17.18 17.19 17.187 17.175 17.137 17.097 17.065 17.017 16.965 16.94 16.932 16.902 16.84 16.755 16.662
13.575 13.7 13.853 14.022 14.19 14.36 14.532 14.705 14.878 15.055 15.217 15.352 15.48 15.612 15.742 15.755 15.665 15.655 15.76 15.92 16.085 16.23 16.28 16.252 16.225 16.195 16.218 16.29 16.36 16.43 16.5 16.562 16.6 16.607 16.592 16.57 16.55 16.543 16.565 16.605 16.645 16.67 16.642 16.573 16.498 16.453 16.588 16.87 17.135 17.24 17.155 17.012 16.858 16.7 16.578 16.525 16.507 16.49 16.457 16.415 16.375 16.335 16.29 16.235 16.173 16.11 16.033 15.915 15.77 15.605 15.41 15.21 15.065 14.968 14.873 14.775 14.678 14.59 14.523 14.515 14.537 14.508 14.465 14.488 14.578 14.733 14.925 15.115 15.3 15.467 15.622 15.765 15.9 16.05 16.2 16.343 16.485 16.63 16.778 16.918 17.057 17.167 17.243 17.32 17.398 17.47 17.507 17.503 17.49 17.505 17.608 17.77 17.933 18.087 18.177 18.215 18.25 18.28 18.315 18.347 18.375 18.382 18.337 18.26 18.18 18.095 18.005 17.91 17.815 17.73 17.705 17.745 17.8 17.852 17.865 17.85 17.84 17.832 17.825 17.815 17.807 17.8 17.805 17.82 17.83 17.84 17.837 17.822 17.81 17.795 17.772 17.735 17.688 17.665 17.662 17.65 17.625 17.6 17.585 17.58 17.583 17.62 17.682 17.72 17.74 17.757 17.755 17.73 17.687 17.633 17.603 17.6 17.597 17.582 17.545 17.497 17.452 17.405 17.36 17.31 17.243 17.193 17.175 17.165 17.158 17.15 17.147 17.145 17.14 17.122 17.085 17.037 16.983 16.93 16.905 16.905 16.9 16.867 16.792 16.697
13.625 13.75 13.89 14.048 14.215 14.385 14.555 14.725 14.895 15.065 15.23 15.377 15.507 15.637 15.742 15.727 15.633 15.623 15.74 15.91 16.077 16.245 16.315 16.29 16.265 16.238 16.248 16.302 16.367 16.432 16.497 16.547 16.58 16.592 16.577 16.552 16.53 16.52 16.538 16.575 16.615 16.66 16.69 16.675 16.625 16.58 16.705 16.98 17.187 17.24 17.157 17.037 16.905 16.75 16.628 16.575 16.56 16.55 16.532 16.502 16.47 16.437 16.39 16.352 16.325 16.265 16.17 16.045 15.888 15.715 15.525 15.305 15.14 15.04 14.945 14.853 14.75 14.64 14.593 14.623 14.685 14.697 14.662 14.647 14.66 14.763 14.943 15.135 15.325 15.5 15.66 15.815 15.962 16.102 16.24 16.383 16.525 16.668 16.813 16.947 17.062 17.16 17.248 17.33 17.41 17.48 17.517 17.52 17.518 17.54 17.638 17.795 17.955 18.097 18.177 18.212 18.245 18.275 18.305 18.33 18.35 18.352 18.31 18.242 18.172 18.102 18.027 17.937 17.845 17.755 17.715 17.735 17.778 17.83 17.857 17.855 17.847 17.842 17.835 17.827 17.822 17.807 17.8 17.81 17.82 17.832 17.842 17.842 17.835 17.812 17.767 17.715 17.665 17.638 17.627 17.61 17.593 17.583 17.58 17.58 17.58 17.61 17.665 17.7 17.725 17.747 17.74 17.7 17.648 17.6 17.578 17.575 17.575 17.565 17.532 17.487 17.445 17.402 17.36 17.32 17.262 17.205 17.18 17.17 17.152 17.115 17.098 17.102 17.1 17.09 17.06 17.01 16.955 16.905 16.873 16.863 16.86 16.85 16.792 16.7
13.697 13.822 13.943 14.073 14.23 14.4 14.57 14.74 14.907 15.07 15.23 15.377 15.505 15.627 15.685 15.622 15.54 15.543 15.655 15.825 16.013 16.23 16.332 16.307 16.283 16.263 16.263 16.295 16.353 16.417 16.477 16.517 16.532 16.53 16.515 16.493 16.48 16.493 16.52 16.553 16.59 16.633 16.69 16.74 16.747 16.718 16.835 17.042 17.112 17.11 17.065 16.985 16.89 16.775 16.668 16.613 16.605 16.603 16.59 16.567 16.54 16.512 16.472 16.427 16.415 16.41 16.337 16.202 16.04 15.857 15.65 15.43 15.278 15.182 15.087 14.982 14.86 14.728 14.685 14.737 14.79 14.802 14.78 14.757 14.755 14.813 14.958 15.152 15.345 15.522 15.685 15.84 15.995 16.145 16.285 16.427 16.57 16.713 16.857 16.98 17.075 17.168 17.26 17.35 17.43 17.49 17.53 17.55 17.568 17.593 17.678 17.83 17.982 18.095 18.152 18.185 18.212 18.237 18.265 18.29 18.31 18.31 18.265 18.2 18.14 18.09 18.037 17.965 17.88 17.79 17.745 17.753 17.775 17.808 17.83 17.832 17.83 17.825 17.815 17.807 17.795 17.768 17.753 17.763 17.778 17.795 17.815 17.83 17.83 17.805 17.755 17.698 17.645 17.61 17.595 17.585 17.58 17.58 17.58 17.58 17.58 17.603 17.647 17.68 17.7 17.712 17.707 17.675 17.628 17.59 17.57 17.565 17.562 17.545 17.507 17.462 17.42 17.38 17.343 17.307 17.26 17.213 17.19 17.167 17.122 17.063 17.04 17.055 17.06 17.05 17.025 16.987 16.94 16.888 16.845 16.82 16.808 16.8 16.752 16.67
13.76 13.892 14.012 14.128 14.258 14.415 14.585 14.75 14.91 15.07 15.225 15.365 15.492 15.612 15.627 15.528 15.468 15.483 15.58 15.748 15.975 16.235 16.345 16.323 16.3 16.285 16.285 16.3 16.34 16.402 16.45 16.47 16.47 16.462 16.448 16.435 16.448 16.475 16.505 16.535 16.568 16.605 16.66 16.73 16.792 16.825 16.9 16.97 16.97 16.97 16.942 16.875 16.792 16.718 16.678 16.67 16.67 16.668 16.655 16.635 16.607 16.58 16.537 16.455 16.408 16.44 16.425 16.305 16.15 15.972 15.75 15.548 15.42 15.32 15.21 15.082 14.948 14.813 14.76 14.805 14.857 14.867 14.845 14.828 14.838 14.883 14.99 15.17 15.365 15.545 15.71 15.86 16.01 16.172 16.33 16.472 16.613 16.757 16.897 17.01 17.1 17.19 17.28 17.362 17.437 17.5 17.547 17.59 17.622 17.648 17.725 17.867 17.995 18.075 18.117 18.142 18.165 18.185 18.212 18.242 18.267 18.267 18.225 18.168 18.115 18.07 18.025 17.97 17.902 17.82 17.778 17.788 17.8 17.813 17.818 17.81 17.808 17.805 17.793 17.775 17.75 17.723 17.71 17.72 17.743 17.765 17.785 17.805 17.815 17.795 17.745 17.685 17.633 17.598 17.585 17.583 17.58 17.58 17.58 17.58 17.58 17.595 17.63 17.655 17.662 17.665 17.665 17.65 17.618 17.585 17.563 17.555 17.545 17.52 17.48 17.435 17.398 17.363 17.328 17.293 17.253 17.215 17.18 17.127 17.06 16.998 16.98 17.002 17.017 17.01 16.985 16.955 16.92 16.872 16.83 16.8 16.775 16.755 16.713 16.65
13.805 13.942 14.077 14.2 14.315 14.445 14.598 14.755 14.91 15.07 15.22 15.353 15.477 15.577 15.56 15.453 15.378 15.4 15.51 15.69 15.962 16.242 16.355 16.335 16.315 16.305 16.31 16.32 16.34 16.38 16.405 16.405 16.4 16.395 16.39 16.398 16.428 16.46 16.49 16.52 16.55 16.585 16.64 16.713 16.79 16.86 16.877 16.85 16.83 16.825 16.812 16.76 16.688 16.66 16.695 16.737 16.747 16.742 16.73 16.71 16.672 16.635 16.577 16.48 16.413 16.425 16.422 16.33 16.2 16.045 15.84 15.665 15.552 15.435 15.305 15.17 15.035 14.898 14.838 14.875 14.925 14.932 14.91 14.903 14.928 14.973 15.043 15.188 15.382 15.565 15.73 15.88 16.025 16.185 16.352 16.51 16.657 16.8 16.93 17.035 17.125 17.205 17.275 17.34 17.422 17.505 17.56 17.615 17.665 17.703 17.775 17.885 17.977 18.045 18.082 18.098 18.113 18.13 18.158 18.193 18.225 18.23 18.195 18.145 18.095 18.05 18.005 17.955 17.905 17.845 17.815 17.822 17.83 17.84 17.835 17.815 17.803 17.795 17.783 17.765 17.745 17.728 17.71 17.708 17.725 17.743 17.758 17.775 17.792 17.782 17.738 17.685 17.64 17.61 17.603 17.6 17.593 17.59 17.588 17.583 17.58 17.588 17.605 17.615 17.618 17.623 17.628 17.633 17.62 17.588 17.56 17.543 17.52 17.49 17.453 17.413 17.383 17.358 17.33 17.3 17.26 17.207 17.143 17.068 16.995 16.933 16.918 16.943 16.965 16.965 16.94 16.913 16.885 16.853 16.82 16.793 16.768 16.74 16.7 16.648
13.807 13.947 14.11 14.262 14.385 14.5 14.618 14.758 14.915 15.075 15.222 15.352 15.472 15.552 15.52 15.413 15.308 15.29 15.415 15.645 15.932 16.207 16.347 16.352 16.335 16.328 16.335 16.345 16.353 16.363 16.368 16.365 16.363 16.365 16.38 16.408 16.443 16.475 16.495 16.515 16.548 16.583 16.638 16.712 16.787 16.847 16.845 16.79 16.743 16.71 16.685 16.65 16.635 16.68 16.742 16.795 16.82 16.82 16.81 16.785 16.732 16.68 16.61 16.503 16.415 16.41 16.402 16.315 16.212 16.095 15.935 15.783 15.66 15.527 15.392 15.257 15.122 14.985 14.915 14.943 14.99 14.997 14.975 14.98 15.02 15.065 15.11 15.218 15.398 15.582 15.75 15.902 16.048 16.198 16.358 16.527 16.695 16.842 16.957 17.04 17.11 17.17 17.22 17.285 17.385 17.495 17.572 17.628 17.685 17.737 17.805 17.888 17.968 18.035 18.063 18.07 18.08 18.098 18.128 18.165 18.192 18.195 18.172 18.13 18.08 18.033 17.99 17.948 17.905 17.865 17.85 17.855 17.86 17.87 17.865 17.845 17.83 17.825 17.815 17.8 17.79 17.78 17.755 17.73 17.73 17.743 17.755 17.768 17.785 17.783 17.745 17.7 17.66 17.628 17.623 17.627 17.622 17.618 17.61 17.6 17.595 17.598 17.6 17.603 17.61 17.62 17.63 17.643 17.642 17.615 17.58 17.555 17.533 17.508 17.478 17.448 17.425 17.403 17.37 17.325 17.267 17.198 17.12 17.04 16.968 16.91 16.9 16.928 16.95 16.95 16.925 16.9 16.875 16.85 16.823 16.795 16.775 16.75 16.71 16.655
13.778 13.928 14.11 14.3 14.45 14.57 14.67 14.78 14.925 15.082 15.227 15.355 15.467 15.55 15.522 15.41 15.313 15.28 15.373 15.56 15.805 16.077 16.265 16.345 16.36 16.35 16.355 16.362 16.365 16.363 16.36 16.36 16.37 16.395 16.425 16.455 16.487 16.52 16.53 16.53 16.553 16.585 16.64 16.715 16.782 16.835 16.827 16.77 16.715 16.66 16.623 16.618 16.66 16.732 16.79 16.842 16.885 16.9 16.89 16.852 16.785 16.72 16.637 16.525 16.418 16.395 16.38 16.288 16.193 16.1 16.002 15.882 15.75 15.615 15.48 15.345 15.208 15.073 14.993 15.008 15.055 15.062 15.048 15.068 15.112 15.155 15.198 15.27 15.415 15.6 15.77 15.925 16.07 16.215 16.368 16.533 16.71 16.86 16.95 17.005 17.055 17.105 17.158 17.23 17.335 17.46 17.57 17.64 17.695 17.75 17.815 17.898 17.982 18.045 18.062 18.063 18.073 18.093 18.122 18.147 18.155 18.15 18.137 18.115 18.075 18.025 17.985 17.957 17.925 17.89 17.878 17.882 17.89 17.9 17.895 17.878 17.878 17.887 17.877 17.858 17.845 17.832 17.805 17.768 17.75 17.758 17.77 17.783 17.805 17.817 17.783 17.725 17.68 17.643 17.635 17.647 17.652 17.65 17.64 17.633 17.628 17.625 17.625 17.628 17.635 17.645 17.655 17.667 17.677 17.66 17.628 17.61 17.597 17.58 17.557 17.535 17.505 17.46 17.402 17.335 17.265 17.195 17.12 17.048 16.99 16.945 16.94 16.967 16.98 16.97 16.945 16.92 16.895 16.87 16.842 16.81 16.783 16.757 16.72 16.665
13.755 13.91 14.095 14.302 14.49 14.635 14.74 14.835 14.948 15.088 15.23 15.347 15.45 15.542 15.53 15.433 15.365 15.373 15.428 15.483 15.635 15.89 16.102 16.245 16.342 16.372 16.372 16.375 16.372 16.368 16.365 16.375 16.405 16.445 16.48 16.507 16.535 16.567 16.577 16.565 16.565 16.588 16.643 16.712 16.775 16.822 16.81 16.753 16.698 16.66 16.668 16.69 16.725 16.782 16.837 16.89 16.94 16.97 16.967 16.917 16.835 16.757 16.66 16.545 16.43 16.39 16.36 16.263 16.173 16.103 16.05 15.96 15.83 15.697 15.565 15.432 15.295 15.16 15.07 15.073 15.12 15.127 15.125 15.16 15.205 15.245 15.29 15.34 15.448 15.622 15.792 15.945 16.093 16.237 16.385 16.54 16.707 16.842 16.91 16.95 16.995 17.045 17.103 17.18 17.285 17.41 17.54 17.64 17.702 17.755 17.823 17.912 18 18.055 18.067 18.063 18.068 18.087 18.107 18.11 18.103 18.097 18.09 18.08 18.06 18.02 17.98 17.96 17.942 17.915 17.903 17.91 17.92 17.93 17.928 17.923 17.94 17.955 17.942 17.92 17.903 17.885 17.855 17.815 17.783 17.773 17.783 17.805 17.84 17.872 17.845 17.77 17.708 17.66 17.648 17.663 17.675 17.677 17.673 17.667 17.663 17.66 17.66 17.66 17.66 17.665 17.675 17.693 17.712 17.707 17.69 17.68 17.67 17.655 17.63 17.592 17.537 17.47 17.4 17.332 17.265 17.195 17.13 17.078 17.035 16.995 16.99 17.007 17.002 16.985 16.962 16.94 16.917 16.892 16.865 16.83 16.793 16.765 16.73 16.678
13.735 13.893 14.08 14.287 14.492 14.677 14.807 14.902 14.997 15.11 15.23 15.333 15.43 15.53 15.547 15.49 15.445 15.455 15.485 15.483 15.528 15.708 15.917 16.073 16.232 16.347 16.38 16.38 16.375 16.37 16.383 16.415 16.457 16.5 16.535 16.562 16.585 16.612 16.622 16.61 16.598 16.6 16.643 16.705 16.767 16.81 16.79 16.735 16.708 16.725 16.778 16.812 16.81 16.83 16.883 16.938 16.99 17.032 17.04 16.98 16.887 16.795 16.685 16.57 16.455 16.39 16.335 16.243 16.178 16.14 16.107 16.027 15.9 15.77 15.64 15.51 15.38 15.248 15.148 15.14 15.185 15.198 15.21 15.252 15.295 15.338 15.382 15.425 15.498 15.645 15.815 15.965 16.115 16.26 16.405 16.555 16.697 16.8 16.857 16.897 16.938 16.983 17.045 17.133 17.238 17.365 17.51 17.627 17.7 17.755 17.828 17.925 18.017 18.065 18.07 18.065 18.065 18.073 18.07 18.06 18.05 18.043 18.035 18.028 18.02 18 17.97 17.95 17.948 17.95 17.953 17.955 17.955 17.96 17.968 17.983 18.01 18.025 18.01 17.983 17.96 17.937 17.905 17.865 17.828 17.805 17.813 17.845 17.885 17.925 17.912 17.84 17.763 17.698 17.673 17.685 17.7 17.71 17.71 17.703 17.7 17.7 17.7 17.697 17.693 17.693 17.7 17.715 17.735 17.742 17.732 17.72 17.707 17.69 17.67 17.615 17.528 17.45 17.38 17.313 17.253 17.205 17.165 17.125 17.085 17.045 17.033 17.035 17.02 17 16.98 16.96 16.94 16.915 16.885 16.85 16.813 16.78 16.743 16.695
13.715 13.875 14.065 14.267 14.467 14.665 14.817 14.922 15.02 15.12 15.225 15.327 15.423 15.52 15.572 15.56 15.527 15.517 15.522 15.518 15.513 15.585 15.745 15.928 16.125 16.3 16.372 16.37 16.367 16.365 16.392 16.442 16.49 16.54 16.582 16.61 16.632 16.657 16.665 16.652 16.64 16.645 16.668 16.705 16.762 16.797 16.775 16.753 16.783 16.843 16.905 16.95 16.915 16.89 16.94 16.993 17.043 17.09 17.102 17.037 16.935 16.827 16.71 16.595 16.48 16.39 16.318 16.25 16.215 16.192 16.165 16.09 15.967 15.84 15.71 15.58 15.452 15.32 15.215 15.205 15.25 15.275 15.303 15.345 15.388 15.432 15.475 15.518 15.568 15.678 15.837 15.987 16.135 16.282 16.422 16.552 16.662 16.74 16.792 16.835 16.88 16.943 17.023 17.108 17.205 17.338 17.492 17.61 17.685 17.753 17.835 17.935 18.03 18.075 18.078 18.08 18.085 18.083 18.07 18.058 18.045 18.033 18.02 18.013 18.003 17.988 17.983 18 18.03 18.06 18.075 18.07 18.055 18.033 18.03 18.053 18.08 18.095 18.077 18.045 18.015 17.992 17.965 17.928 17.893 17.87 17.88 17.913 17.948 17.982 17.987 17.94 17.873 17.808 17.775 17.785 17.798 17.78 17.755 17.75 17.748 17.743 17.738 17.733 17.73 17.73 17.727 17.725 17.735 17.747 17.74 17.725 17.71 17.695 17.687 17.652 17.555 17.438 17.35 17.29 17.255 17.24 17.215 17.175 17.135 17.092 17.065 17.052 17.035 17.015 16.995 16.975 16.955 16.932 16.902 16.867 16.833 16.8 16.765 16.723
13.67 13.85 14.035 14.232 14.425 14.61 14.775 14.9 15 15.103 15.212 15.322 15.425 15.522 15.59 15.605 15.585 15.568 15.563 15.557 15.55 15.553 15.655 15.863 16.087 16.28 16.357 16.355 16.355 16.355 16.383 16.437 16.49 16.545 16.597 16.64 16.672 16.695 16.7 16.688 16.693 16.725 16.743 16.75 16.773 16.793 16.805 16.843 16.905 16.968 17.032 17.077 17.027 16.975 17.01 17.06 17.107 17.145 17.135 17.055 16.942 16.83 16.717 16.607 16.495 16.39 16.323 16.288 16.265 16.245 16.222 16.152 16.032 15.907 15.78 15.64 15.492 15.355 15.27 15.27 15.312 15.355 15.395 15.435 15.48 15.525 15.565 15.61 15.655 15.728 15.86 16.01 16.15 16.282 16.4 16.505 16.602 16.677 16.728 16.778 16.85 16.953 17.05 17.125 17.208 17.33 17.477 17.587 17.663 17.74 17.83 17.933 18.04 18.1 18.11 18.12 18.127 18.127 18.12 18.105 18.09 18.075 18.06 18.045 18.025 18.01 18.03 18.097 18.175 18.227 18.245 18.227 18.187 18.135 18.115 18.135 18.15 18.147 18.12 18.082 18.048 18.035 18.03 18.005 17.97 17.955 17.975 18.005 18.027 18.042 18.055 18.052 18.025 17.975 17.945 17.95 17.927 17.847 17.798 17.805 17.807 17.8 17.783 17.77 17.77 17.767 17.752 17.733 17.73 17.74 17.737 17.725 17.71 17.705 17.702 17.685 17.62 17.49 17.368 17.308 17.293 17.285 17.262 17.225 17.18 17.127 17.088 17.068 17.05 17.03 17.01 16.99 16.967 16.945 16.917 16.883 16.853 16.83 16.8 16.76
13.59 13.802 13.992 14.185 14.37 14.55 14.727 14.872 14.98 15.085 15.198 15.31 15.42 15.525 15.597 15.627 15.625 15.612 15.602 15.59 15.575 15.565 15.648 15.84 16.062 16.26 16.345 16.343 16.34 16.343 16.37 16.425 16.48 16.535 16.59 16.645 16.692 16.725 16.735 16.74 16.773 16.815 16.837 16.84 16.843 16.858 16.903 16.97 17.035 17.095 17.16 17.185 17.135 17.075 17.08 17.13 17.167 17.18 17.137 17.035 16.915 16.8 16.692 16.592 16.492 16.388 16.325 16.315 16.312 16.297 16.275 16.215 16.095 15.955 15.812 15.655 15.49 15.375 15.335 15.343 15.372 15.41 15.452 15.497 15.547 15.597 15.642 15.69 15.74 15.795 15.888 16.012 16.132 16.242 16.343 16.438 16.535 16.613 16.678 16.763 16.87 16.99 17.087 17.163 17.24 17.335 17.457 17.562 17.638 17.718 17.815 17.928 18.05 18.132 18.155 18.165 18.172 18.175 18.17 18.155 18.137 18.12 18.1 18.077 18.058 18.053 18.09 18.175 18.275 18.357 18.382 18.345 18.285 18.223 18.2 18.212 18.202 18.172 18.135 18.098 18.065 18.063 18.08 18.077 18.05 18.043 18.067 18.087 18.092 18.09 18.098 18.122 18.14 18.13 18.11 18.075 17.995 17.885 17.833 17.845 17.86 17.862 17.837 17.813 17.807 17.797 17.778 17.755 17.738 17.733 17.735 17.727 17.715 17.717 17.715 17.695 17.667 17.582 17.46 17.383 17.348 17.33 17.307 17.265 17.21 17.148 17.103 17.083 17.065 17.045 17.025 17.005 16.983 16.96 16.935 16.905 16.885 16.872 16.842 16.798
13.5 13.737 13.945 14.13 14.31 14.49 14.67 14.832 14.96 15.07 15.182 15.297 15.41 15.517 15.592 15.627 15.645 15.642 15.625 15.605 15.59 15.588 15.65 15.82 16.04 16.24 16.335 16.335 16.33 16.335 16.365 16.42 16.475 16.53 16.583 16.635 16.69 16.74 16.775 16.807 16.85 16.89 16.927 16.955 16.972 16.99 17.028 17.09 17.16 17.225 17.275 17.27 17.22 17.16 17.148 17.182 17.192 17.182 17.122 17.007 16.885 16.763 16.65 16.555 16.465 16.375 16.333 16.345 16.362 16.347 16.297 16.212 16.057 15.887 15.74 15.593 15.475 15.425 15.415 15.415 15.417 15.417 15.445 15.495 15.547 15.6 15.652 15.705 15.757 15.817 15.895 15.993 16.095 16.198 16.295 16.385 16.478 16.57 16.67 16.787 16.91 17.027 17.125 17.205 17.282 17.36 17.45 17.54 17.618 17.703 17.813 17.935 18.06 18.155 18.19 18.2 18.21 18.22 18.217 18.197 18.175 18.152 18.127 18.105 18.098 18.105 18.148 18.232 18.327 18.415 18.442 18.405 18.355 18.303 18.272 18.257 18.225 18.187 18.15 18.112 18.085 18.088 18.112 18.13 18.127 18.125 18.135 18.137 18.132 18.128 18.133 18.16 18.195 18.217 18.202 18.132 18.032 17.925 17.87 17.88 17.897 17.905 17.89 17.86 17.843 17.827 17.805 17.782 17.758 17.738 17.735 17.73 17.725 17.732 17.725 17.708 17.692 17.652 17.577 17.5 17.438 17.393 17.348 17.29 17.23 17.168 17.12 17.095 17.078 17.057 17.035 17.015 16.995 16.975 16.955 16.938 16.925 16.915 16.885 16.835
13.448 13.69 13.9 14.08 14.26 14.44 14.62 14.785 14.922 15.045 15.157 15.265 15.372 15.472 15.542 15.58 15.63 15.655 15.635 15.618 15.613 15.615 15.655 15.803 16.02 16.205 16.31 16.342 16.345 16.348 16.378 16.435 16.493 16.548 16.59 16.625 16.673 16.727 16.782 16.835 16.88 16.92 16.972 17.032 17.072 17.1 17.135 17.18 17.242 17.31 17.345 17.325 17.275 17.22 17.187 17.177 17.162 17.145 17.082 16.97 16.848 16.733 16.625 16.525 16.435 16.353 16.33 16.355 16.37 16.327 16.23 16.122 15.947 15.735 15.6 15.523 15.47 15.455 15.452 15.45 15.43 15.395 15.403 15.45 15.5 15.55 15.602 15.655 15.715 15.793 15.883 15.978 16.073 16.168 16.263 16.358 16.453 16.56 16.68 16.802 16.925 17.045 17.145 17.225 17.3 17.372 17.452 17.538 17.62 17.713 17.828 17.952 18.072 18.162 18.195 18.197 18.207 18.222 18.225 18.212 18.197 18.177 18.155 18.143 18.145 18.155 18.193 18.27 18.357 18.435 18.457 18.425 18.388 18.367 18.325 18.265 18.227 18.192 18.155 18.118 18.105 18.12 18.143 18.167 18.182 18.182 18.18 18.175 18.17 18.165 18.17 18.197 18.225 18.232 18.2 18.13 18.045 17.953 17.903 17.907 17.917 17.922 17.917 17.895 17.875 17.857 17.833 17.808 17.785 17.76 17.743 17.733 17.738 17.747 17.738 17.725 17.713 17.695 17.65 17.58 17.512 17.457 17.4 17.335 17.275 17.213 17.16 17.123 17.095 17.073 17.05 17.03 17.01 16.99 16.98 16.975 16.965 16.955 16.925 16.875
13.445 13.667 13.865 14.045 14.225 14.405 14.582 14.735 14.862 14.99 15.105 15.205 15.302 15.392 15.457 15.508 15.59 15.65 15.647 15.638 15.638 15.64 15.66 15.788 15.992 16.147 16.255 16.335 16.367 16.37 16.403 16.465 16.525 16.577 16.61 16.633 16.665 16.708 16.76 16.82 16.875 16.92 16.975 17.045 17.107 17.157 17.195 17.217 17.243 17.29 17.332 17.327 17.287 17.24 17.192 17.15 17.113 17.08 17.025 16.933 16.825 16.73 16.628 16.513 16.415 16.33 16.3 16.322 16.325 16.252 16.128 16.008 15.867 15.668 15.538 15.508 15.47 15.448 15.445 15.442 15.417 15.373 15.36 15.395 15.447 15.5 15.55 15.61 15.69 15.783 15.877 15.97 16.06 16.15 16.245 16.345 16.448 16.56 16.68 16.8 16.923 17.047 17.145 17.218 17.29 17.36 17.443 17.545 17.637 17.733 17.852 17.972 18.077 18.155 18.182 18.178 18.178 18.183 18.188 18.192 18.192 18.187 18.183 18.185 18.192 18.2 18.23 18.298 18.377 18.45 18.47 18.438 18.423 18.44 18.387 18.278 18.22 18.185 18.145 18.123 18.133 18.157 18.18 18.2 18.21 18.21 18.212 18.212 18.21 18.205 18.21 18.227 18.232 18.22 18.172 18.098 18.028 17.968 17.933 17.925 17.925 17.927 17.922 17.91 17.897 17.88 17.858 17.835 17.812 17.788 17.763 17.75 17.763 17.773 17.765 17.753 17.74 17.725 17.68 17.615 17.56 17.52 17.47 17.405 17.345 17.28 17.225 17.178 17.128 17.095 17.073 17.05 17.03 17.013 17.01 17.015 17.01 17 16.97 16.92
13.44 13.645 13.835 14.015 14.195 14.375 14.542 14.68 14.798 14.917 15.032 15.132 15.222 15.305 15.37 15.44 15.54 15.63 15.662 15.662 15.665 15.665 15.67 15.778 15.95 16.075 16.18 16.28 16.357 16.39 16.428 16.492 16.555 16.605 16.635 16.655 16.673 16.705 16.758 16.813 16.868 16.918 16.978 17.05 17.12 17.185 17.222 17.227 17.225 17.238 17.27 17.282 17.26 17.225 17.182 17.135 17.085 17.038 16.99 16.923 16.838 16.75 16.64 16.513 16.4 16.31 16.273 16.285 16.267 16.182 16.055 15.915 15.785 15.648 15.553 15.515 15.475 15.445 15.438 15.432 15.407 15.36 15.323 15.34 15.393 15.448 15.51 15.59 15.68 15.775 15.87 15.96 16.05 16.14 16.235 16.338 16.445 16.558 16.677 16.8 16.925 17.05 17.145 17.215 17.283 17.35 17.43 17.542 17.65 17.753 17.87 17.975 18.072 18.15 18.177 18.17 18.165 18.168 18.173 18.18 18.185 18.19 18.202 18.215 18.227 18.242 18.267 18.322 18.395 18.465 18.487 18.478 18.5 18.53 18.47 18.333 18.23 18.175 18.143 18.143 18.168 18.195 18.217 18.227 18.23 18.233 18.237 18.24 18.24 18.237 18.237 18.235 18.22 18.197 18.145 18.078 18.03 17.995 17.973 17.958 17.948 17.94 17.93 17.923 17.915 17.902 17.882 17.86 17.837 17.813 17.795 17.793 17.803 17.812 17.807 17.79 17.775 17.757 17.715 17.665 17.625 17.59 17.542 17.477 17.413 17.348 17.292 17.237 17.173 17.128 17.1 17.075 17.053 17.04 17.045 17.055 17.055 17.045 17.017 16.97
13.415 13.615 13.805 13.985 14.165 14.342 14.492 14.615 14.733 14.848 14.957 15.052 15.135 15.215 15.29 15.375 15.477 15.58 15.635 15.65 15.665 15.677 15.69 15.763 15.885 15.995 16.1 16.2 16.3 16.38 16.437 16.497 16.56 16.615 16.647 16.66 16.675 16.72 16.78 16.83 16.88 16.923 16.973 17.04 17.112 17.182 17.217 17.217 17.217 17.217 17.225 17.227 17.21 17.187 17.155 17.11 17.06 17.01 16.975 16.932 16.86 16.767 16.65 16.52 16.395 16.293 16.248 16.237 16.197 16.11 15.985 15.845 15.715 15.62 15.565 15.525 15.483 15.445 15.433 15.425 15.4 15.352 15.298 15.295 15.343 15.408 15.49 15.58 15.673 15.768 15.863 15.955 16.042 16.13 16.225 16.33 16.44 16.553 16.675 16.8 16.925 17.05 17.145 17.215 17.28 17.343 17.418 17.53 17.655 17.768 17.873 17.97 18.067 18.145 18.172 18.17 18.175 18.182 18.188 18.193 18.198 18.202 18.212 18.225 18.237 18.252 18.275 18.327 18.402 18.475 18.515 18.537 18.575 18.6 18.537 18.402 18.275 18.183 18.155 18.175 18.202 18.23 18.247 18.252 18.255 18.257 18.26 18.26 18.263 18.265 18.257 18.238 18.213 18.185 18.143 18.1 18.07 18.04 18.018 18.002 17.987 17.97 17.955 17.948 17.94 17.927 17.908 17.885 17.865 17.835 17.822 17.835 17.847 17.857 17.847 17.822 17.8 17.777 17.747 17.715 17.682 17.652 17.61 17.547 17.482 17.417 17.355 17.29 17.22 17.168 17.135 17.108 17.08 17.068 17.077 17.09 17.095 17.09 17.062 17.015
13.38 13.572 13.752 13.932 14.115 14.292 14.437 14.555 14.673 14.787 14.89 14.975 15.055 15.135 15.218 15.303 15.395 15.495 15.56 15.587 15.61 15.635 15.68 15.738 15.818 15.925 16.02 16.107 16.202 16.297 16.372 16.43 16.502 16.59 16.64 16.65 16.683 16.748 16.81 16.86 16.902 16.93 16.96 17.013 17.085 17.152 17.18 17.18 17.182 17.185 17.185 17.172 17.15 17.132 17.112 17.077 17.03 16.98 16.95 16.932 16.88 16.78 16.657 16.53 16.4 16.283 16.22 16.182 16.122 16.037 15.915 15.785 15.685 15.618 15.57 15.53 15.488 15.448 15.428 15.415 15.387 15.345 15.288 15.265 15.31 15.39 15.48 15.573 15.667 15.762 15.857 15.95 16.038 16.125 16.223 16.33 16.44 16.555 16.678 16.8 16.925 17.052 17.147 17.212 17.277 17.34 17.41 17.52 17.665 17.795 17.898 17.99 18.078 18.147 18.175 18.18 18.19 18.197 18.202 18.208 18.212 18.21 18.208 18.215 18.225 18.235 18.258 18.315 18.392 18.462 18.512 18.547 18.582 18.605 18.547 18.42 18.292 18.188 18.155 18.177 18.202 18.232 18.257 18.272 18.28 18.282 18.285 18.285 18.288 18.29 18.28 18.255 18.225 18.195 18.167 18.14 18.11 18.082 18.06 18.042 18.027 18.01 17.995 17.985 17.972 17.958 17.938 17.915 17.887 17.84 17.82 17.84 17.857 17.857 17.835 17.805 17.775 17.752 17.732 17.707 17.68 17.66 17.625 17.565 17.505 17.45 17.395 17.33 17.262 17.208 17.17 17.14 17.11 17.09 17.095 17.112 17.127 17.135 17.11 17.06
