ncols         200
nrows         74
xllcorner     544000
yllcorner     256195
cellsize      5
NODATA_value  -9999.0
7.103 7.078 7.095 7.137 7.17 7.195 7.18 7.127 7.067 7.003 6.958 6.932 6.905 6.873 6.855 6.855 6.863 6.888 6.912 6.928 6.953 7.005 7.083 7.17 7.288 7.492 7.425 7.423 7.615 7.565 7.498 7.485 7.497 7.497 7.485 7.46 7.425 7.39 7.355 7.315 7.283 7.27 7.305 7.372 7.455 7.565 7.69 7.795 7.875 7.958 8.058 8.178 8.31 8.45 8.575 8.685 8.805 8.948 9.127 9.32 9.485 9.64 9.795 9.948 10.1 10.25 10.413 10.59 10.77 10.947 11.105 11.255 11.428 11.602 11.74 11.855 11.975 12.095 12.215 12.33 12.445 12.56 12.64 12.698 12.775 12.865 12.945 13.007 13.06 13.102 13.138 13.175 13.205 13.215 13.215 13.215 13.21 13.19 13.155 13.115 13.08 13.063 13.103 13.18 13.242 13.295 13.305 13.27 13.217 13.145 13.047 12.925 12.785 12.628 12.48 12.353 12.233 12.12 12.02 11.928 11.838 11.76 11.743 11.742 11.71 11.68 11.655 11.643 11.64 11.643 11.653 11.67 11.677 11.65 11.605 11.56 11.5 11.415 11.315 11.273 11.295 11.32 11.34 11.353 11.357 11.355 11.365 11.398 11.435 11.475 11.507 11.533 11.563 11.597 11.622 11.638 11.66 11.7 11.725 11.717 11.7 11.68 11.665 11.655 11.645 11.64 11.635 11.63 11.63 11.625 11.63 11.64 11.64 11.64 11.66 11.703 11.75 11.8 11.85 11.9 11.932 11.937 11.917 11.877 11.827 11.773 11.725 11.683 11.648 11.628 11.623 11.63 11.648 11.672 11.695 11.712 11.727 11.735 11.735 11.737
7.08 7.06 7.075 7.125 7.17 7.202 7.19 7.135 7.067 7 6.958 6.93 6.9 6.868 6.845 6.848 6.87 6.9 6.925 6.953 7 7.065 7.138 7.228 7.395 7.447 7.373 7.513 7.635 7.562 7.478 7.44 7.455 7.475 7.49 7.49 7.48 7.457 7.422 7.385 7.35 7.305 7.29 7.358 7.472 7.59 7.72 7.837 7.922 8.005 8.103 8.218 8.338 8.47 8.595 8.718 8.86 9.013 9.198 9.412 9.61 9.78 9.937 10.092 10.247 10.4 10.565 10.745 10.925 11.102 11.26 11.4 11.553 11.715 11.85 11.96 12.07 12.188 12.307 12.422 12.537 12.65 12.727 12.773 12.828 12.905 12.98 13.032 13.075 13.11 13.145 13.177 13.19 13.19 13.187 13.18 13.162 13.137 13.105 13.07 13.048 13.038 13.078 13.162 13.24 13.297 13.302 13.25 13.175 13.095 13.002 12.88 12.727 12.56 12.41 12.29 12.18 12.07 11.97 11.883 11.8 11.723 11.71 11.735 11.72 11.69 11.665 11.648 11.64 11.64 11.65 11.67 11.687 11.675 11.635 11.582 11.502 11.405 11.305 11.238 11.23 11.248 11.265 11.283 11.3 11.318 11.33 11.355 11.398 11.44 11.47 11.498 11.535 11.572 11.598 11.618 11.658 11.712 11.737 11.73 11.717 11.7 11.685 11.675 11.665 11.657 11.652 11.65 11.647 11.643 11.65 11.667 11.677 11.68 11.7 11.74 11.783 11.83 11.877 11.91 11.92 11.915 11.892 11.855 11.815 11.767 11.72 11.688 11.67 11.66 11.655 11.658 11.665 11.68 11.7 11.712 11.717 11.722 11.725 11.717
7.063 7.038 7.05 7.1 7.15 7.195 7.187 7.127 7.06 6.997 6.953 6.92 6.89 6.86 6.84 6.85 6.88 6.913 6.948 6.998 7.06 7.125 7.195 7.315 7.542 7.4 7.388 7.637 7.595 7.547 7.47 7.408 7.405 7.425 7.445 7.462 7.477 7.48 7.472 7.452 7.405 7.333 7.273 7.323 7.463 7.603 7.747 7.875 7.968 8.058 8.158 8.268 8.38 8.5 8.63 8.773 8.928 9.08 9.265 9.482 9.697 9.9 10.075 10.232 10.387 10.542 10.71 10.89 11.072 11.252 11.41 11.55 11.69 11.832 11.96 12.07 12.175 12.285 12.4 12.512 12.627 12.737 12.812 12.857 12.9 12.953 13.007 13.048 13.085 13.12 13.147 13.162 13.165 13.162 13.152 13.135 13.11 13.085 13.06 13.038 13.023 13.013 13.053 13.137 13.222 13.29 13.285 13.21 13.125 13.045 12.957 12.83 12.665 12.495 12.35 12.238 12.13 12.023 11.928 11.845 11.765 11.69 11.675 11.715 11.725 11.702 11.677 11.655 11.64 11.64 11.652 11.67 11.69 11.692 11.66 11.59 11.498 11.405 11.313 11.243 11.228 11.243 11.26 11.28 11.303 11.34 11.363 11.368 11.385 11.408 11.435 11.468 11.505 11.545 11.578 11.615 11.67 11.727 11.75 11.74 11.73 11.717 11.705 11.695 11.682 11.67 11.665 11.665 11.662 11.66 11.67 11.69 11.705 11.715 11.74 11.78 11.817 11.857 11.89 11.9 11.9 11.895 11.87 11.83 11.792 11.755 11.723 11.705 11.695 11.687 11.685 11.687 11.69 11.693 11.7 11.705 11.708 11.712 11.71 11.693
7.053 7.028 7.028 7.065 7.112 7.16 7.157 7.097 7.033 6.98 6.942 6.91 6.878 6.85 6.845 6.868 6.903 6.938 6.99 7.06 7.128 7.195 7.27 7.435 7.485 7.403 7.5 7.585 7.545 7.51 7.457 7.385 7.358 7.375 7.395 7.415 7.43 7.445 7.465 7.475 7.44 7.36 7.288 7.335 7.483 7.633 7.787 7.925 8.033 8.135 8.24 8.343 8.453 8.568 8.7 8.85 9.005 9.165 9.343 9.548 9.765 9.982 10.18 10.35 10.507 10.663 10.832 11.015 11.197 11.377 11.535 11.672 11.812 11.95 12.07 12.18 12.288 12.395 12.493 12.588 12.7 12.81 12.885 12.93 12.967 13.002 13.038 13.073 13.107 13.132 13.14 13.14 13.14 13.135 13.115 13.09 13.065 13.04 13.023 13.007 12.992 12.983 13.018 13.097 13.182 13.255 13.242 13.158 13.075 12.995 12.905 12.777 12.615 12.445 12.308 12.203 12.095 11.99 11.9 11.82 11.743 11.668 11.655 11.697 11.715 11.705 11.682 11.66 11.64 11.635 11.647 11.662 11.68 11.695 11.672 11.6 11.51 11.423 11.338 11.28 11.265 11.275 11.295 11.315 11.35 11.407 11.437 11.433 11.428 11.415 11.423 11.462 11.505 11.543 11.583 11.635 11.695 11.75 11.772 11.765 11.747 11.715 11.695 11.697 11.69 11.675 11.67 11.67 11.67 11.672 11.675 11.685 11.7 11.717 11.757 11.805 11.84 11.875 11.895 11.895 11.892 11.877 11.847 11.81 11.77 11.738 11.72 11.71 11.702 11.7 11.7 11.7 11.702 11.707 11.705 11.703 11.708 11.71 11.7 11.68
7.055 7.035 7.023 7.033 7.068 7.115 7.112 7.053 6.998 6.958 6.925 6.895 6.87 6.855 6.863 6.895 6.935 6.97 7.033 7.122 7.202 7.275 7.372 7.402 7.378 7.487 7.572 7.535 7.495 7.46 7.427 7.37 7.323 7.325 7.345 7.365 7.382 7.398 7.415 7.44 7.452 7.41 7.343 7.39 7.538 7.688 7.843 7.992 8.122 8.235 8.34 8.44 8.548 8.66 8.79 8.94 9.098 9.268 9.44 9.625 9.833 10.047 10.252 10.44 10.612 10.77 10.938 11.122 11.302 11.48 11.64 11.778 11.918 12.057 12.18 12.29 12.403 12.512 12.595 12.665 12.763 12.87 12.942 12.985 13.017 13.045 13.075 13.11 13.135 13.135 13.125 13.12 13.12 13.115 13.09 13.053 13.023 13 12.985 12.972 12.958 12.948 12.98 13.05 13.13 13.205 13.19 13.105 13.025 12.942 12.845 12.722 12.575 12.41 12.275 12.175 12.072 11.97 11.88 11.803 11.728 11.655 11.648 11.68 11.69 11.69 11.675 11.655 11.635 11.623 11.623 11.63 11.645 11.665 11.66 11.612 11.537 11.45 11.368 11.32 11.305 11.31 11.33 11.36 11.415 11.482 11.512 11.508 11.505 11.468 11.428 11.455 11.512 11.562 11.61 11.665 11.722 11.777 11.802 11.78 11.732 11.67 11.64 11.657 11.67 11.67 11.667 11.668 11.675 11.682 11.673 11.66 11.668 11.69 11.74 11.802 11.847 11.885 11.905 11.902 11.89 11.86 11.823 11.788 11.753 11.725 11.71 11.7 11.698 11.702 11.705 11.705 11.71 11.72 11.717 11.71 11.71 11.71 11.7 11.68
7.06 7.04 7.028 7.025 7.038 7.072 7.065 7.013 6.975 6.943 6.91 6.888 6.88 6.878 6.888 6.92 6.962 7.003 7.07 7.17 7.267 7.35 7.505 7.343 7.353 7.592 7.523 7.485 7.445 7.41 7.382 7.347 7.295 7.275 7.295 7.315 7.335 7.352 7.37 7.395 7.43 7.44 7.398 7.44 7.595 7.752 7.908 8.065 8.215 8.34 8.445 8.543 8.643 8.75 8.88 9.035 9.2 9.373 9.547 9.723 9.908 10.113 10.318 10.512 10.702 10.875 11.045 11.227 11.405 11.58 11.74 11.882 12.025 12.167 12.292 12.403 12.52 12.63 12.71 12.768 12.838 12.93 13 13.035 13.06 13.083 13.112 13.137 13.137 13.12 13.108 13.103 13.1 13.095 13.07 13.025 12.985 12.958 12.94 12.932 12.922 12.915 12.948 13.013 13.083 13.152 13.14 13.055 12.972 12.887 12.787 12.662 12.525 12.373 12.243 12.145 12.045 11.948 11.863 11.787 11.713 11.648 11.638 11.657 11.663 11.667 11.662 11.645 11.625 11.61 11.6 11.598 11.603 11.615 11.62 11.6 11.552 11.477 11.405 11.365 11.348 11.348 11.373 11.425 11.495 11.56 11.587 11.583 11.585 11.53 11.433 11.425 11.49 11.555 11.615 11.68 11.74 11.792 11.802 11.745 11.67 11.6 11.57 11.59 11.617 11.637 11.652 11.67 11.692 11.7 11.68 11.655 11.645 11.658 11.708 11.78 11.842 11.892 11.915 11.902 11.872 11.838 11.8 11.765 11.738 11.715 11.7 11.693 11.695 11.705 11.71 11.713 11.72 11.73 11.73 11.72 11.713 11.71 11.7 11.677
7.065 7.048 7.038 7.035 7.033 7.04 7.028 6.99 6.96 6.93 6.908 6.9 6.9 6.9 6.913 6.945 6.985 7.025 7.115 7.235 7.335 7.445 7.45 7.365 7.433 7.512 7.475 7.435 7.395 7.36 7.33 7.305 7.265 7.235 7.245 7.265 7.285 7.305 7.325 7.353 7.39 7.427 7.43 7.493 7.655 7.815 7.973 8.135 8.295 8.437 8.55 8.647 8.743 8.843 8.973 9.135 9.307 9.48 9.655 9.83 10.005 10.193 10.39 10.588 10.783 10.973 11.155 11.333 11.508 11.685 11.845 11.988 12.132 12.277 12.405 12.52 12.64 12.75 12.827 12.882 12.938 13.002 13.055 13.08 13.1 13.12 13.137 13.137 13.123 13.105 13.095 13.09 13.085 13.077 13.05 13.005 12.96 12.92 12.895 12.888 12.883 12.883 12.915 12.98 13.045 13.105 13.092 13.007 12.917 12.825 12.717 12.59 12.46 12.322 12.202 12.105 12.005 11.915 11.84 11.767 11.695 11.635 11.617 11.63 11.635 11.64 11.642 11.632 11.615 11.6 11.593 11.587 11.58 11.578 11.572 11.56 11.537 11.49 11.442 11.415 11.395 11.39 11.427 11.497 11.572 11.637 11.662 11.663 11.657 11.58 11.445 11.403 11.46 11.525 11.593 11.675 11.745 11.795 11.782 11.7 11.615 11.535 11.5 11.52 11.547 11.572 11.605 11.647 11.692 11.702 11.68 11.66 11.64 11.633 11.673 11.745 11.815 11.882 11.912 11.89 11.853 11.818 11.78 11.748 11.725 11.703 11.69 11.693 11.698 11.705 11.713 11.72 11.73 11.74 11.74 11.73 11.72 11.712 11.697 11.673
7.063 7.058 7.055 7.05 7.045 7.032 7.013 6.985 6.955 6.928 6.915 6.915 6.913 6.923 6.94 6.965 7 7.035 7.173 7.34 7.435 7.5 7.398 7.423 7.525 7.463 7.425 7.385 7.345 7.31 7.283 7.255 7.225 7.198 7.195 7.218 7.24 7.26 7.28 7.308 7.345 7.385 7.435 7.548 7.715 7.877 8.037 8.197 8.352 8.502 8.632 8.74 8.837 8.933 9.06 9.225 9.4 9.588 9.775 9.95 10.125 10.305 10.5 10.705 10.9 11.095 11.283 11.455 11.63 11.807 11.96 12.095 12.24 12.385 12.515 12.635 12.752 12.855 12.927 12.982 13.032 13.075 13.105 13.128 13.15 13.16 13.152 13.135 13.12 13.108 13.098 13.093 13.087 13.067 13.03 12.985 12.94 12.895 12.865 12.855 12.85 12.86 12.9 12.963 13.025 13.05 12.997 12.902 12.805 12.705 12.592 12.467 12.34 12.212 12.1 12 11.907 11.832 11.765 11.695 11.627 11.577 11.567 11.585 11.6 11.61 11.617 11.617 11.605 11.593 11.587 11.577 11.56 11.542 11.525 11.51 11.495 11.465 11.435 11.412 11.387 11.377 11.442 11.557 11.65 11.715 11.742 11.75 11.722 11.62 11.475 11.398 11.43 11.495 11.565 11.662 11.745 11.79 11.765 11.675 11.585 11.503 11.448 11.445 11.47 11.495 11.533 11.585 11.65 11.67 11.645 11.625 11.605 11.588 11.615 11.685 11.763 11.855 11.9 11.877 11.843 11.808 11.77 11.74 11.718 11.695 11.688 11.695 11.702 11.71 11.72 11.73 11.737 11.74 11.735 11.725 11.717 11.712 11.697 11.675
7.06 7.07 7.077 7.072 7.057 7.03 7.005 6.985 6.96 6.933 6.92 6.923 6.933 6.965 6.985 6.99 7.013 7.045 7.213 7.435 7.562 7.428 7.39 7.502 7.45 7.415 7.375 7.335 7.295 7.265 7.263 7.25 7.213 7.178 7.16 7.173 7.195 7.215 7.235 7.263 7.3 7.353 7.45 7.6 7.772 7.935 8.087 8.24 8.39 8.54 8.682 8.81 8.92 9.018 9.143 9.305 9.49 9.703 9.905 10.08 10.255 10.435 10.635 10.85 11.052 11.247 11.43 11.598 11.77 11.942 12.085 12.21 12.348 12.492 12.622 12.74 12.85 12.942 13.012 13.062 13.102 13.135 13.16 13.182 13.197 13.187 13.165 13.148 13.133 13.12 13.113 13.107 13.092 13.055 13.008 12.962 12.917 12.873 12.845 12.835 12.835 12.855 12.9 12.96 12.985 12.945 12.852 12.743 12.64 12.54 12.427 12.3 12.173 12.05 11.938 11.84 11.765 11.707 11.645 11.578 11.52 11.483 11.483 11.507 11.53 11.547 11.565 11.58 11.585 11.577 11.562 11.545 11.522 11.498 11.478 11.462 11.44 11.4 11.365 11.342 11.315 11.293 11.37 11.532 11.672 11.772 11.817 11.832 11.785 11.66 11.515 11.403 11.398 11.46 11.533 11.642 11.74 11.777 11.74 11.65 11.57 11.507 11.425 11.375 11.39 11.415 11.458 11.518 11.587 11.617 11.595 11.565 11.538 11.515 11.538 11.618 11.723 11.84 11.892 11.87 11.837 11.802 11.768 11.738 11.713 11.695 11.693 11.7 11.708 11.715 11.725 11.735 11.737 11.73 11.72 11.71 11.708 11.71 11.7 11.683
7.078 7.092 7.097 7.085 7.055 7.02 6.993 6.975 6.96 6.938 6.928 6.945 6.983 7.027 7.045 7.038 7.04 7.06 7.218 7.497 7.505 7.368 7.455 7.485 7.4 7.362 7.325 7.285 7.245 7.225 7.255 7.277 7.247 7.205 7.175 7.163 7.158 7.168 7.19 7.223 7.278 7.358 7.485 7.65 7.825 7.987 8.13 8.27 8.415 8.565 8.71 8.852 8.985 9.097 9.225 9.395 9.603 9.832 10.037 10.21 10.385 10.565 10.765 10.985 11.2 11.4 11.58 11.745 11.913 12.08 12.217 12.335 12.46 12.597 12.727 12.837 12.935 13.025 13.092 13.132 13.165 13.192 13.217 13.232 13.225 13.2 13.175 13.16 13.148 13.135 13.127 13.112 13.077 13.032 12.985 12.94 12.895 12.848 12.82 12.818 12.83 12.855 12.897 12.92 12.877 12.802 12.707 12.593 12.483 12.378 12.26 12.133 12.01 11.888 11.773 11.69 11.635 11.585 11.525 11.465 11.423 11.39 11.388 11.41 11.433 11.458 11.488 11.52 11.537 11.527 11.51 11.495 11.475 11.45 11.43 11.41 11.37 11.318 11.278 11.255 11.232 11.205 11.265 11.425 11.58 11.7 11.762 11.787 11.77 11.675 11.54 11.413 11.375 11.425 11.503 11.617 11.727 11.765 11.715 11.635 11.575 11.525 11.43 11.33 11.31 11.338 11.385 11.453 11.525 11.565 11.555 11.52 11.485 11.458 11.483 11.585 11.712 11.835 11.882 11.855 11.827 11.797 11.765 11.737 11.715 11.7 11.698 11.705 11.712 11.72 11.727 11.73 11.725 11.715 11.705 11.7 11.705 11.712 11.705 11.693
7.097 7.112 7.107 7.08 7.045 7.01 6.98 6.96 6.95 6.94 6.95 6.99 7.04 7.085 7.1 7.092 7.087 7.088 7.233 7.56 7.42 7.38 7.592 7.458 7.36 7.308 7.272 7.235 7.2 7.19 7.228 7.282 7.287 7.25 7.225 7.205 7.175 7.16 7.168 7.22 7.318 7.428 7.565 7.725 7.885 8.042 8.185 8.317 8.452 8.59 8.73 8.872 9.017 9.152 9.303 9.503 9.732 9.967 10.17 10.34 10.512 10.692 10.895 11.115 11.335 11.545 11.73 11.895 12.055 12.212 12.347 12.462 12.58 12.705 12.822 12.922 13.015 13.102 13.162 13.192 13.22 13.247 13.267 13.265 13.24 13.21 13.188 13.175 13.162 13.15 13.132 13.1 13.055 13.01 12.965 12.918 12.872 12.825 12.8 12.81 12.83 12.85 12.855 12.81 12.738 12.668 12.575 12.46 12.34 12.225 12.105 11.98 11.858 11.733 11.628 11.563 11.515 11.465 11.415 11.37 11.335 11.3 11.295 11.325 11.358 11.39 11.425 11.465 11.472 11.445 11.43 11.425 11.415 11.4 11.377 11.34 11.288 11.233 11.193 11.17 11.148 11.123 11.16 11.278 11.398 11.503 11.58 11.623 11.652 11.625 11.533 11.44 11.395 11.408 11.475 11.59 11.712 11.755 11.705 11.643 11.59 11.54 11.447 11.315 11.245 11.263 11.318 11.388 11.462 11.515 11.515 11.48 11.45 11.435 11.455 11.55 11.687 11.812 11.855 11.825 11.797 11.772 11.745 11.722 11.707 11.7 11.702 11.71 11.717 11.725 11.727 11.72 11.71 11.7 11.695 11.7 11.708 11.715 11.715 11.71
7.103 7.127 7.122 7.083 7.048 7.013 6.98 6.958 6.945 6.938 6.963 7.015 7.065 7.112 7.135 7.132 7.125 7.158 7.365 7.475 7.398 7.495 7.562 7.452 7.338 7.26 7.22 7.185 7.158 7.155 7.19 7.26 7.305 7.29 7.273 7.26 7.23 7.203 7.205 7.295 7.433 7.558 7.695 7.845 7.99 8.11 8.217 8.342 8.47 8.595 8.73 8.87 9.013 9.168 9.358 9.585 9.822 10.057 10.26 10.43 10.602 10.793 11.005 11.225 11.445 11.657 11.842 12.002 12.157 12.31 12.445 12.562 12.68 12.802 12.902 12.99 13.085 13.17 13.222 13.248 13.275 13.305 13.317 13.3 13.27 13.24 13.208 13.183 13.167 13.155 13.122 13.073 13.027 12.982 12.94 12.895 12.848 12.803 12.78 12.787 12.805 12.82 12.79 12.72 12.653 12.578 12.478 12.36 12.238 12.12 12.005 11.885 11.76 11.635 11.54 11.48 11.433 11.395 11.378 11.36 11.328 11.275 11.225 11.23 11.285 11.337 11.375 11.41 11.405 11.365 11.338 11.333 11.343 11.355 11.338 11.285 11.228 11.17 11.133 11.118 11.098 11.078 11.093 11.168 11.273 11.38 11.46 11.498 11.528 11.545 11.535 11.505 11.465 11.438 11.473 11.58 11.702 11.745 11.702 11.647 11.592 11.54 11.462 11.33 11.205 11.188 11.253 11.325 11.398 11.462 11.475 11.448 11.435 11.44 11.448 11.505 11.635 11.757 11.79 11.76 11.73 11.705 11.682 11.665 11.652 11.665 11.695 11.71 11.717 11.725 11.725 11.715 11.708 11.7 11.7 11.71 11.718 11.73 11.75 11.758
7.105 7.15 7.15 7.1 7.06 7.025 6.99 6.963 6.945 6.935 6.958 7.01 7.062 7.115 7.15 7.155 7.15 7.285 7.44 7.42 7.467 7.525 7.477 7.425 7.33 7.228 7.168 7.133 7.115 7.12 7.153 7.22 7.292 7.32 7.32 7.312 7.285 7.26 7.283 7.405 7.567 7.7 7.835 7.985 8.102 8.165 8.233 8.335 8.45 8.575 8.71 8.85 9.003 9.183 9.395 9.63 9.868 10.105 10.31 10.483 10.668 10.875 11.095 11.315 11.53 11.735 11.915 12.07 12.225 12.38 12.515 12.635 12.76 12.89 12.985 13.058 13.145 13.23 13.282 13.308 13.335 13.362 13.367 13.345 13.315 13.285 13.243 13.195 13.168 13.155 13.115 13.048 12.993 12.948 12.907 12.867 12.823 12.78 12.758 12.755 12.76 12.772 12.747 12.682 12.605 12.51 12.4 12.28 12.163 12.05 11.94 11.827 11.71 11.588 11.493 11.435 11.398 11.38 11.387 11.4 11.375 11.302 11.205 11.14 11.15 11.21 11.282 11.335 11.327 11.282 11.255 11.273 11.31 11.34 11.33 11.275 11.213 11.148 11.113 11.108 11.098 11.083 11.085 11.14 11.24 11.35 11.412 11.42 11.433 11.468 11.52 11.555 11.542 11.505 11.525 11.62 11.667 11.655 11.652 11.63 11.577 11.522 11.46 11.355 11.213 11.158 11.21 11.278 11.345 11.413 11.443 11.44 11.445 11.455 11.46 11.48 11.573 11.677 11.695 11.667 11.64 11.615 11.595 11.58 11.575 11.613 11.665 11.692 11.712 11.722 11.722 11.717 11.712 11.708 11.71 11.72 11.735 11.76 11.795 11.822
7.123 7.177 7.18 7.125 7.075 7.038 7.005 6.975 6.948 6.933 6.955 7.005 7.058 7.11 7.155 7.173 7.235 7.47 7.388 7.37 7.505 7.368 7.328 7.317 7.28 7.2 7.123 7.085 7.08 7.09 7.118 7.18 7.26 7.327 7.36 7.36 7.345 7.323 7.36 7.503 7.682 7.837 7.977 8.1 8.162 8.193 8.255 8.345 8.443 8.558 8.69 8.843 9.023 9.223 9.44 9.675 9.915 10.152 10.357 10.545 10.75 10.965 11.185 11.4 11.605 11.802 11.98 12.138 12.295 12.45 12.587 12.715 12.85 12.982 13.077 13.143 13.213 13.29 13.345 13.37 13.393 13.417 13.417 13.39 13.358 13.325 13.285 13.23 13.183 13.157 13.112 13.038 12.968 12.913 12.873 12.835 12.795 12.758 12.74 12.735 12.728 12.732 12.707 12.632 12.537 12.433 12.323 12.205 12.09 11.98 11.87 11.76 11.652 11.538 11.448 11.405 11.385 11.375 11.382 11.397 11.372 11.297 11.202 11.11 11.04 11.03 11.095 11.165 11.185 11.172 11.17 11.225 11.3 11.345 11.335 11.277 11.21 11.14 11.105 11.107 11.107 11.098 11.1 11.135 11.213 11.312 11.362 11.36 11.358 11.383 11.448 11.527 11.577 11.57 11.592 11.625 11.547 11.475 11.505 11.545 11.54 11.5 11.44 11.367 11.278 11.235 11.258 11.293 11.345 11.41 11.445 11.453 11.46 11.47 11.475 11.475 11.528 11.597 11.6 11.575 11.552 11.528 11.505 11.49 11.508 11.567 11.622 11.66 11.692 11.712 11.72 11.718 11.713 11.713 11.72 11.733 11.758 11.793 11.828 11.865
7.15 7.205 7.21 7.155 7.1 7.055 7.02 6.99 6.957 6.933 6.95 7.003 7.055 7.105 7.155 7.213 7.382 7.457 7.358 7.367 7.335 7.21 7.16 7.153 7.147 7.12 7.07 7.045 7.05 7.06 7.083 7.143 7.23 7.32 7.372 7.382 7.385 7.378 7.438 7.597 7.782 7.96 8.095 8.162 8.19 8.218 8.278 8.365 8.455 8.553 8.688 8.865 9.063 9.268 9.485 9.72 9.96 10.2 10.418 10.625 10.84 11.055 11.27 11.472 11.67 11.867 12.047 12.208 12.365 12.523 12.668 12.805 12.945 13.075 13.167 13.23 13.292 13.357 13.405 13.43 13.45 13.472 13.47 13.44 13.405 13.37 13.327 13.27 13.212 13.165 13.107 13.033 12.958 12.888 12.84 12.805 12.768 12.735 12.72 12.715 12.708 12.705 12.665 12.573 12.468 12.363 12.253 12.135 12.02 11.91 11.8 11.695 11.595 11.493 11.423 11.398 11.383 11.37 11.367 11.36 11.332 11.27 11.18 11.092 11.003 10.923 10.918 10.968 11.015 11.053 11.09 11.163 11.255 11.33 11.335 11.275 11.205 11.135 11.098 11.1 11.105 11.107 11.12 11.145 11.198 11.267 11.305 11.305 11.298 11.31 11.37 11.458 11.542 11.595 11.59 11.51 11.375 11.293 11.318 11.393 11.45 11.462 11.428 11.375 11.332 11.325 11.347 11.37 11.407 11.457 11.477 11.475 11.478 11.483 11.488 11.49 11.508 11.525 11.51 11.485 11.465 11.443 11.42 11.41 11.448 11.522 11.58 11.62 11.663 11.707 11.727 11.723 11.72 11.723 11.733 11.765 11.82 11.868 11.9 11.93
7.145 7.2 7.205 7.152 7.097 7.052 7.02 6.99 6.96 6.945 6.975 7.033 7.085 7.135 7.185 7.305 7.545 7.41 7.308 7.375 7.185 7.053 6.995 6.99 6.988 6.982 6.98 6.992 7.01 7.02 7.048 7.118 7.215 7.312 7.37 7.385 7.395 7.418 7.488 7.632 7.815 8 8.12 8.155 8.18 8.233 8.313 8.4 8.49 8.598 8.758 8.95 9.148 9.35 9.563 9.795 10.038 10.283 10.513 10.728 10.943 11.157 11.358 11.548 11.745 11.945 12.13 12.293 12.45 12.608 12.758 12.9 13.037 13.157 13.24 13.3 13.365 13.425 13.452 13.467 13.49 13.51 13.505 13.472 13.437 13.402 13.352 13.29 13.232 13.175 13.107 13.03 12.952 12.875 12.818 12.783 12.748 12.715 12.7 12.697 12.693 12.687 12.637 12.535 12.428 12.325 12.215 12.098 11.983 11.86 11.755 11.668 11.573 11.478 11.428 11.418 11.4 11.375 11.34 11.305 11.28 11.232 11.15 11.06 10.97 10.89 10.863 10.895 10.945 10.988 11.043 11.125 11.215 11.305 11.327 11.27 11.2 11.13 11.093 11.093 11.095 11.103 11.137 11.18 11.207 11.195 11.212 11.252 11.262 11.283 11.333 11.418 11.503 11.57 11.525 11.388 11.27 11.228 11.275 11.355 11.425 11.46 11.44 11.395 11.355 11.343 11.367 11.402 11.437 11.482 11.507 11.505 11.505 11.508 11.515 11.523 11.525 11.513 11.48 11.445 11.413 11.38 11.348 11.345 11.398 11.475 11.538 11.59 11.653 11.717 11.745 11.74 11.74 11.743 11.763 11.82 11.9 11.967 12.017 12.052
7.105 7.157 7.16 7.11 7.065 7.033 7.005 6.975 6.96 6.978 7.025 7.087 7.145 7.195 7.255 7.435 7.492 7.38 7.315 7.195 7.05 6.94 6.885 6.868 6.853 6.843 6.865 6.92 6.957 6.97 7.015 7.108 7.21 7.307 7.367 7.385 7.41 7.47 7.54 7.63 7.78 7.965 8.08 8.11 8.158 8.253 8.355 8.445 8.553 8.703 8.888 9.083 9.278 9.475 9.685 9.913 10.153 10.397 10.627 10.843 11.057 11.27 11.46 11.64 11.833 12.03 12.215 12.382 12.545 12.702 12.855 13 13.125 13.222 13.297 13.36 13.425 13.485 13.502 13.498 13.508 13.527 13.522 13.488 13.452 13.415 13.362 13.298 13.238 13.18 13.11 13.027 12.945 12.865 12.805 12.767 12.73 12.695 12.68 12.68 12.677 12.672 12.62 12.515 12.413 12.317 12.21 12.092 11.967 11.825 11.728 11.665 11.577 11.485 11.445 11.447 11.435 11.392 11.323 11.26 11.223 11.187 11.12 11.03 10.945 10.885 10.87 10.9 10.942 10.97 11.018 11.103 11.197 11.287 11.31 11.257 11.192 11.125 11.088 11.085 11.082 11.088 11.138 11.207 11.027 10.783 10.785 10.825 11.052 11.292 11.338 11.412 11.482 11.515 11.45 11.325 11.27 11.298 11.365 11.442 11.492 11.497 11.467 11.425 11.38 11.345 11.345 11.375 11.42 11.49 11.535 11.535 11.54 11.553 11.565 11.572 11.572 11.557 11.523 11.478 11.433 11.393 11.36 11.375 11.435 11.498 11.543 11.59 11.66 11.73 11.762 11.76 11.763 11.775 11.813 11.88 11.96 12.04 12.115 12.177
7.075 7.115 7.115 7.07 7.04 7.017 6.99 6.975 6.99 7.025 7.068 7.128 7.197 7.258 7.36 7.432 7.408 7.375 7.252 7.075 6.963 6.88 6.83 6.803 6.788 6.785 6.803 6.848 6.895 6.928 6.993 7.098 7.202 7.302 7.365 7.4 7.463 7.55 7.625 7.685 7.773 7.923 8.035 8.088 8.175 8.29 8.398 8.503 8.648 8.83 9.02 9.215 9.412 9.608 9.818 10.043 10.273 10.512 10.742 10.958 11.172 11.382 11.57 11.743 11.923 12.113 12.295 12.467 12.637 12.8 12.955 13.087 13.19 13.277 13.355 13.422 13.49 13.547 13.565 13.55 13.538 13.545 13.537 13.502 13.465 13.427 13.377 13.31 13.243 13.18 13.107 13.02 12.935 12.853 12.79 12.75 12.71 12.675 12.66 12.66 12.66 12.655 12.6 12.5 12.403 12.31 12.205 12.075 11.93 11.783 11.69 11.645 11.577 11.495 11.46 11.47 11.457 11.4 11.32 11.243 11.18 11.14 11.082 10.995 10.928 10.89 10.878 10.9 10.93 10.948 10.99 11.075 11.177 11.272 11.292 11.242 11.185 11.123 11.085 11.075 11.063 11.07 11.125 11.21 10.838 10.42 10.42 10.42 10.635 11.09 11.347 11.395 11.435 11.442 11.38 11.315 11.338 11.393 11.457 11.512 11.53 11.522 11.495 11.455 11.412 11.368 11.338 11.35 11.42 11.517 11.565 11.57 11.585 11.605 11.62 11.622 11.617 11.607 11.577 11.535 11.498 11.468 11.463 11.505 11.567 11.62 11.643 11.65 11.685 11.745 11.78 11.785 11.798 11.82 11.865 11.935 12.015 12.097 12.18 12.26
7.065 7.085 7.08 7.048 7.025 7.003 6.993 7.01 7.04 7.073 7.11 7.165 7.24 7.315 7.49 7.368 7.333 7.37 7.12 7.01 6.913 6.833 6.8 6.803 6.815 6.828 6.83 6.835 6.855 6.903 6.988 7.09 7.195 7.3 7.38 7.453 7.543 7.638 7.715 7.773 7.828 7.915 8.013 8.105 8.215 8.33 8.45 8.593 8.77 8.96 9.15 9.345 9.545 9.74 9.947 10.172 10.4 10.63 10.855 11.072 11.287 11.497 11.685 11.855 12.028 12.205 12.38 12.552 12.725 12.892 13.042 13.155 13.245 13.335 13.415 13.485 13.557 13.612 13.622 13.605 13.582 13.567 13.55 13.515 13.477 13.442 13.39 13.32 13.247 13.177 13.1 13.01 12.923 12.838 12.775 12.735 12.693 12.655 12.64 12.64 12.64 12.637 12.587 12.493 12.398 12.302 12.185 12.037 11.883 11.738 11.65 11.61 11.56 11.5 11.472 11.465 11.41 11.337 11.282 11.227 11.162 11.1 11.04 10.97 10.925 10.9 10.88 10.885 10.905 10.92 10.96 11.045 11.15 11.252 11.275 11.225 11.17 11.113 11.075 11.055 11.035 11.05 11.12 11.215 10.842 10.42 10.42 10.42 10.42 10.65 10.885 11.112 11.355 11.372 11.36 11.378 11.43 11.485 11.535 11.555 11.552 11.547 11.525 11.482 11.44 11.397 11.355 11.358 11.443 11.55 11.6 11.615 11.632 11.65 11.662 11.662 11.657 11.652 11.632 11.602 11.577 11.557 11.577 11.637 11.7 11.755 11.775 11.762 11.762 11.783 11.803 11.823 11.847 11.875 11.918 11.987 12.067 12.142 12.212 12.28
7.065 7.072 7.063 7.038 7.018 7 7.03 7.087 7.115 7.138 7.163 7.215 7.31 7.462 7.475 7.378 7.42 7.338 7.135 7.02 6.92 6.845 6.833 6.86 6.885 6.895 6.893 6.89 6.933 7.033 7.14 7.243 7.348 7.443 7.53 7.623 7.718 7.795 7.855 7.91 7.965 8.015 8.068 8.15 8.258 8.373 8.503 8.67 8.857 9.057 9.262 9.46 9.66 9.855 10.06 10.285 10.515 10.742 10.965 11.182 11.398 11.615 11.807 11.975 12.145 12.31 12.468 12.63 12.8 12.97 13.112 13.212 13.3 13.39 13.472 13.545 13.615 13.662 13.657 13.63 13.607 13.585 13.557 13.522 13.487 13.447 13.39 13.32 13.245 13.167 13.087 13 12.91 12.825 12.763 12.72 12.68 12.648 12.635 12.635 12.635 12.635 12.592 12.503 12.407 12.292 12.152 12.005 11.85 11.703 11.615 11.575 11.533 11.492 11.465 11.407 11.295 11.195 11.145 11.115 11.075 11.025 10.993 10.968 10.94 10.918 10.898 10.89 10.895 10.9 10.933 11.02 11.132 11.225 11.247 11.21 11.158 11.103 11.063 11.04 11.03 11.06 11.135 11.222 10.842 10.42 10.523 10.678 10.575 10.42 10.42 10.633 11.055 11.32 11.405 11.457 11.5 11.542 11.567 11.57 11.567 11.567 11.55 11.507 11.465 11.423 11.38 11.39 11.48 11.575 11.622 11.645 11.66 11.675 11.685 11.685 11.682 11.677 11.667 11.65 11.63 11.612 11.637 11.7 11.76 11.815 11.835 11.827 11.822 11.82 11.833 11.86 11.89 11.92 11.955 12.005 12.067 12.13 12.187 12.242
7.06 7.067 7.057 7.035 7.023 7.015 7.07 7.17 7.227 7.253 7.265 7.33 7.48 7.62 7.435 7.44 7.63 7.467 7.243 7.08 6.983 6.92 6.913 6.935 6.955 6.96 6.97 7.025 7.155 7.315 7.44 7.545 7.642 7.717 7.795 7.887 7.965 8.007 8.048 8.102 8.15 8.177 8.195 8.233 8.31 8.415 8.545 8.715 8.913 9.138 9.36 9.56 9.76 9.958 10.165 10.388 10.615 10.847 11.072 11.288 11.51 11.737 11.932 12.1 12.265 12.422 12.568 12.71 12.873 13.045 13.18 13.27 13.355 13.445 13.527 13.6 13.66 13.695 13.68 13.64 13.613 13.59 13.56 13.525 13.485 13.432 13.372 13.305 13.232 13.155 13.073 12.987 12.9 12.813 12.748 12.708 12.678 12.653 12.643 12.645 12.645 12.645 12.607 12.525 12.415 12.265 12.113 11.975 11.827 11.68 11.59 11.55 11.508 11.472 11.417 11.31 11.18 11.055 10.965 10.92 10.893 10.888 10.948 10.992 10.973 10.95 10.935 10.925 10.918 10.913 10.938 11.028 11.127 11.18 11.197 11.19 11.152 11.098 11.058 11.043 11.063 11.118 11.185 11.06 10.66 10.42 10.775 11.165 11.05 10.8 10.56 10.42 10.745 11.255 11.46 11.497 11.527 11.555 11.57 11.57 11.575 11.585 11.57 11.53 11.49 11.447 11.403 11.42 11.51 11.585 11.625 11.652 11.672 11.687 11.695 11.695 11.695 11.692 11.682 11.665 11.642 11.62 11.64 11.7 11.76 11.815 11.837 11.833 11.833 11.845 11.865 11.89 11.92 11.95 11.978 12.003 12.035 12.078 12.13 12.188
7.047 7.06 7.055 7.043 7.04 7.038 7.095 7.215 7.32 7.385 7.423 7.513 7.66 7.525 7.383 7.535 7.605 7.522 7.35 7.17 7.055 7.005 6.995 7.01 7.023 7.045 7.125 7.265 7.438 7.607 7.742 7.84 7.917 7.98 8.055 8.132 8.177 8.203 8.242 8.29 8.317 8.333 8.35 8.37 8.405 8.473 8.588 8.765 8.99 9.235 9.46 9.66 9.86 10.06 10.27 10.492 10.72 10.952 11.177 11.398 11.63 11.862 12.057 12.222 12.382 12.54 12.685 12.815 12.958 13.117 13.245 13.33 13.415 13.505 13.582 13.642 13.69 13.722 13.712 13.668 13.625 13.593 13.56 13.517 13.467 13.41 13.347 13.282 13.215 13.142 13.06 12.973 12.885 12.798 12.738 12.708 12.682 12.658 12.648 12.652 12.655 12.657 12.627 12.535 12.392 12.223 12.068 11.935 11.797 11.658 11.568 11.525 11.482 11.425 11.325 11.195 11.065 10.935 10.815 10.738 10.728 10.8 10.95 11.045 11.025 10.988 10.973 10.965 10.958 10.955 10.978 11.04 11.09 11.11 11.125 11.137 11.132 11.092 11.058 11.068 11.12 11.19 11.03 10.658 10.45 10.42 10.89 11.362 11.372 11.29 10.812 10.423 10.748 11.272 11.48 11.505 11.533 11.557 11.572 11.577 11.587 11.6 11.59 11.552 11.51 11.47 11.425 11.445 11.522 11.58 11.62 11.65 11.677 11.697 11.705 11.705 11.705 11.705 11.695 11.672 11.645 11.62 11.64 11.7 11.76 11.817 11.842 11.843 11.855 11.875 11.895 11.92 11.948 11.975 12.002 12.025 12.045 12.068 12.1 12.14
7.03 7.047 7.052 7.05 7.05 7.06 7.13 7.25 7.37 7.477 7.56 7.65 7.56 7.385 7.438 7.54 7.565 7.51 7.385 7.24 7.133 7.095 7.078 7.08 7.123 7.223 7.377 7.55 7.722 7.895 8.035 8.122 8.185 8.242 8.3 8.342 8.37 8.397 8.43 8.457 8.47 8.485 8.505 8.525 8.545 8.575 8.663 8.845 9.085 9.335 9.56 9.76 9.96 10.163 10.37 10.592 10.825 11.055 11.285 11.515 11.75 11.985 12.18 12.34 12.5 12.657 12.8 12.93 13.06 13.195 13.307 13.392 13.477 13.562 13.63 13.675 13.715 13.75 13.745 13.7 13.65 13.605 13.56 13.505 13.448 13.39 13.325 13.26 13.195 13.125 13.048 12.96 12.873 12.79 12.738 12.713 12.688 12.665 12.655 12.66 12.665 12.67 12.637 12.52 12.353 12.178 12.025 11.895 11.76 11.628 11.545 11.505 11.452 11.36 11.235 11.103 10.97 10.838 10.705 10.618 10.66 10.813 10.99 11.102 11.09 11.033 11.01 11.005 11 11 11.005 11.02 11.035 11.048 11.058 11.068 11.08 11.073 11.07 11.105 11.157 11.192 10.81 10.451 10.603 10.605 10.67 11.13 11.405 11.337 10.848 10.57 11.025 11.41 11.495 11.518 11.543 11.565 11.572 11.575 11.585 11.595 11.6 11.577 11.533 11.49 11.448 11.46 11.522 11.575 11.615 11.645 11.672 11.697 11.712 11.715 11.715 11.715 11.702 11.675 11.647 11.623 11.64 11.7 11.76 11.82 11.852 11.865 11.885 11.905 11.925 11.95 11.978 12.002 12.025 12.045 12.065 12.085 12.107 12.13
7.01 7.03 7.04 7.043 7.053 7.1 7.2 7.32 7.44 7.547 7.635 7.717 7.4 7.288 7.497 7.48 7.515 7.48 7.367 7.248 7.175 7.155 7.145 7.178 7.285 7.435 7.6 7.765 7.927 8.09 8.21 8.277 8.332 8.385 8.425 8.452 8.482 8.515 8.547 8.582 8.615 8.64 8.67 8.708 8.745 8.783 8.88 9.075 9.308 9.51 9.69 9.888 10.09 10.28 10.463 10.67 10.9 11.132 11.372 11.612 11.847 12.08 12.287 12.46 12.62 12.777 12.917 13.045 13.17 13.28 13.37 13.455 13.54 13.617 13.665 13.693 13.73 13.767 13.765 13.72 13.67 13.62 13.565 13.508 13.448 13.385 13.32 13.255 13.19 13.118 13.045 12.967 12.883 12.8 12.75 12.725 12.7 12.678 12.663 12.662 12.665 12.67 12.63 12.5 12.328 12.155 12 11.865 11.733 11.608 11.533 11.487 11.412 11.307 11.182 11.048 10.913 10.778 10.665 10.625 10.703 10.86 11.032 11.142 11.135 11.073 11.04 11.037 11.035 11.025 11.002 10.998 11.01 11.02 11.028 11.035 11.048 11.065 11.08 11.105 11.145 11.162 10.983 10.838 10.997 11.005 10.653 10.675 10.927 10.848 10.713 10.965 11.387 11.51 11.53 11.55 11.57 11.59 11.545 11.485 11.485 11.512 11.57 11.597 11.567 11.523 11.483 11.48 11.523 11.575 11.612 11.637 11.663 11.69 11.707 11.712 11.712 11.707 11.69 11.662 11.637 11.618 11.643 11.705 11.765 11.825 11.865 11.885 11.905 11.93 11.958 11.985 12.012 12.03 12.04 12.053 12.07 12.09 12.112 12.135
6.995 7.015 7.025 7.035 7.083 7.18 7.3 7.42 7.527 7.61 7.685 7.57 7.348 7.32 7.38 7.417 7.452 7.442 7.352 7.245 7.188 7.175 7.205 7.315 7.465 7.603 7.74 7.878 8.018 8.157 8.252 8.305 8.355 8.405 8.445 8.478 8.512 8.547 8.587 8.64 8.7 8.782 8.89 8.97 9.025 9.085 9.22 9.425 9.602 9.727 9.858 10.045 10.24 10.4 10.555 10.74 10.955 11.188 11.43 11.677 11.917 12.15 12.372 12.572 12.745 12.902 13.04 13.16 13.267 13.352 13.433 13.517 13.597 13.667 13.7 13.705 13.73 13.77 13.77 13.73 13.685 13.635 13.58 13.522 13.46 13.395 13.33 13.262 13.192 13.115 13.045 12.982 12.907 12.823 12.77 12.747 12.72 12.688 12.665 12.658 12.655 12.66 12.612 12.485 12.325 12.153 11.993 11.85 11.715 11.6 11.522 11.452 11.36 11.255 11.135 11.002 10.868 10.748 10.698 10.725 10.785 10.908 11.062 11.142 11.145 11.1 11.065 11.065 11.055 11.022 10.983 10.983 11.005 11.015 11.025 11.038 11.06 11.09 11.085 11.078 11.11 11.145 11.162 11.17 11.187 11.21 10.82 10.42 10.42 10.53 10.938 11.402 11.565 11.565 11.578 11.595 11.613 11.63 11.537 11.37 11.323 11.39 11.5 11.592 11.607 11.567 11.53 11.515 11.533 11.577 11.612 11.628 11.65 11.68 11.695 11.697 11.695 11.682 11.662 11.638 11.615 11.605 11.64 11.707 11.772 11.832 11.872 11.895 11.923 11.96 11.995 12.02 12.035 12.04 12.045 12.057 12.073 12.09 12.11 12.13
6.993 7.003 7.02 7.065 7.16 7.277 7.395 7.502 7.587 7.66 7.605 7.435 7.373 7.345 7.32 7.355 7.39 7.405 7.342 7.253 7.205 7.208 7.298 7.46 7.63 7.775 7.9 8.02 8.13 8.215 8.275 8.325 8.378 8.427 8.467 8.503 8.538 8.575 8.615 8.665 8.738 8.875 9.065 9.227 9.327 9.41 9.552 9.71 9.82 9.913 10.03 10.197 10.365 10.5 10.653 10.83 11.023 11.24 11.483 11.735 11.983 12.223 12.448 12.662 12.86 13.025 13.152 13.252 13.34 13.417 13.497 13.577 13.65 13.715 13.742 13.738 13.743 13.77 13.77 13.735 13.697 13.65 13.595 13.535 13.473 13.408 13.34 13.267 13.19 13.11 13.04 12.982 12.922 12.848 12.793 12.765 12.732 12.695 12.67 12.66 12.65 12.65 12.59 12.457 12.312 12.148 11.99 11.845 11.7 11.583 11.492 11.4 11.3 11.197 11.085 10.957 10.83 10.765 10.793 10.85 10.88 10.965 11.075 11.115 11.132 11.117 11.092 11.08 11.05 11.008 10.965 10.973 11.002 11.01 11.025 11.05 11.083 11.117 11.105 11.065 11.075 11.102 11.112 11.12 11.133 11.165 10.805 10.42 10.51 10.91 11.407 11.605 11.617 11.622 11.63 11.645 11.66 11.67 11.565 11.34 11.258 11.33 11.423 11.535 11.612 11.61 11.58 11.565 11.563 11.588 11.615 11.628 11.645 11.67 11.685 11.682 11.672 11.657 11.638 11.615 11.6 11.595 11.63 11.702 11.775 11.837 11.88 11.913 11.955 12 12.03 12.042 12.045 12.043 12.045 12.06 12.077 12.095 12.112 12.13
6.997 6.995 7.033 7.13 7.252 7.372 7.477 7.56 7.635 7.71 7.448 7.345 7.382 7.243 7.278 7.308 7.338 7.365 7.337 7.268 7.225 7.278 7.428 7.602 7.78 7.95 8.092 8.192 8.252 8.285 8.313 8.353 8.403 8.452 8.492 8.528 8.565 8.602 8.64 8.698 8.788 8.933 9.135 9.352 9.532 9.675 9.802 9.905 9.997 10.09 10.195 10.33 10.467 10.595 10.75 10.93 11.11 11.305 11.54 11.803 12.068 12.328 12.558 12.765 12.97 13.135 13.242 13.325 13.403 13.48 13.558 13.63 13.698 13.76 13.787 13.782 13.778 13.782 13.77 13.735 13.7 13.66 13.61 13.55 13.49 13.425 13.35 13.27 13.188 13.105 13.038 12.98 12.922 12.863 12.813 12.778 12.743 12.705 12.68 12.67 12.658 12.645 12.57 12.428 12.285 12.138 11.99 11.845 11.698 11.563 11.448 11.343 11.24 11.14 11.032 10.91 10.833 10.853 10.92 10.977 10.995 11.022 11.067 11.09 11.11 11.12 11.107 11.075 11.035 10.995 10.955 10.965 10.997 11.013 11.04 11.075 11.11 11.145 11.135 11.08 11.055 11.058 11.063 11.07 11.075 11.092 10.945 10.79 10.955 11.35 11.605 11.63 11.652 11.67 11.677 11.685 11.69 11.687 11.567 11.37 11.328 11.388 11.443 11.518 11.595 11.632 11.63 11.62 11.61 11.608 11.618 11.633 11.648 11.665 11.672 11.665 11.65 11.635 11.618 11.6 11.588 11.583 11.623 11.698 11.77 11.838 11.892 11.937 11.985 12.027 12.047 12.05 12.05 12.048 12.05 12.063 12.08 12.097 12.112 12.127
6.997 6.99 7.033 7.14 7.265 7.39 7.495 7.587 7.68 7.57 7.368 7.368 7.343 7.285 7.315 7.34 7.363 7.385 7.365 7.303 7.29 7.395 7.568 7.743 7.92 8.1 8.237 8.295 8.315 8.335 8.36 8.395 8.435 8.478 8.517 8.555 8.595 8.63 8.663 8.728 8.828 8.968 9.165 9.38 9.6 9.795 9.922 10.015 10.107 10.215 10.335 10.453 10.57 10.695 10.858 11.055 11.258 11.463 11.685 11.945 12.228 12.502 12.735 12.935 13.125 13.26 13.33 13.395 13.473 13.55 13.625 13.693 13.755 13.815 13.835 13.823 13.817 13.81 13.788 13.753 13.718 13.683 13.637 13.578 13.515 13.447 13.368 13.283 13.198 13.113 13.04 12.983 12.925 12.868 12.825 12.795 12.76 12.723 12.7 12.688 12.675 12.652 12.57 12.433 12.29 12.143 11.995 11.853 11.708 11.56 11.42 11.3 11.193 11.088 10.98 10.9 10.905 10.97 11.037 11.085 11.085 11.063 11.068 11.09 11.113 11.13 11.115 11.075 11.033 10.99 10.953 10.963 11 11.027 11.06 11.095 11.13 11.155 11.135 11.075 11.048 11.053 11.055 11.058 11.06 11.073 11.127 11.205 11.32 11.505 11.625 11.65 11.675 11.697 11.702 11.697 11.69 11.677 11.55 11.42 11.45 11.52 11.57 11.613 11.655 11.688 11.698 11.69 11.677 11.645 11.628 11.64 11.655 11.67 11.67 11.66 11.645 11.628 11.61 11.595 11.58 11.578 11.628 11.708 11.78 11.853 11.91 11.947 11.987 12.03 12.05 12.05 12.05 12.05 12.055 12.065 12.077 12.092 12.107 12.122
6.995 6.985 7.018 7.103 7.21 7.33 7.445 7.563 7.657 7.438 7.415 7.56 7.423 7.385 7.415 7.437 7.452 7.46 7.428 7.398 7.445 7.555 7.705 7.88 8.06 8.217 8.31 8.347 8.367 8.385 8.41 8.445 8.477 8.508 8.545 8.582 8.617 8.652 8.688 8.755 8.855 8.985 9.175 9.395 9.625 9.837 9.977 10.078 10.19 10.323 10.46 10.58 10.7 10.858 11.058 11.278 11.505 11.73 11.943 12.173 12.443 12.715 12.945 13.135 13.297 13.41 13.455 13.485 13.548 13.625 13.7 13.767 13.83 13.885 13.89 13.863 13.85 13.84 13.82 13.787 13.752 13.715 13.67 13.612 13.547 13.472 13.39 13.305 13.22 13.138 13.058 12.99 12.93 12.873 12.835 12.815 12.785 12.748 12.725 12.712 12.692 12.66 12.59 12.47 12.325 12.165 12.01 11.867 11.72 11.567 11.415 11.278 11.16 11.05 10.95 10.935 10.997 11.062 11.127 11.157 11.132 11.098 11.095 11.115 11.135 11.145 11.122 11.08 11.038 10.995 10.975 10.985 11.005 11.03 11.06 11.095 11.125 11.127 11.092 11.035 11.04 11.08 11.085 11.085 11.1 11.145 11.223 11.307 11.373 11.495 11.622 11.667 11.69 11.705 11.705 11.695 11.685 11.665 11.558 11.498 11.57 11.647 11.705 11.745 11.775 11.785 11.785 11.78 11.75 11.683 11.645 11.655 11.667 11.68 11.68 11.667 11.65 11.63 11.61 11.595 11.585 11.585 11.64 11.732 11.812 11.885 11.927 11.948 11.978 12.017 12.042 12.045 12.048 12.055 12.062 12.068 12.073 12.085 12.1 12.115
6.99 6.983 7.015 7.088 7.173 7.283 7.423 7.582 7.498 7.415 7.575 7.617 7.527 7.485 7.51 7.525 7.535 7.533 7.523 7.563 7.65 7.745 7.863 8.02 8.182 8.292 8.35 8.387 8.415 8.435 8.46 8.492 8.52 8.543 8.573 8.605 8.635 8.67 8.713 8.785 8.885 9.005 9.185 9.415 9.655 9.882 10.047 10.173 10.315 10.46 10.593 10.728 10.903 11.125 11.355 11.578 11.803 12.025 12.233 12.438 12.67 12.925 13.147 13.312 13.45 13.56 13.607 13.615 13.64 13.7 13.773 13.84 13.907 13.957 13.955 13.918 13.89 13.875 13.855 13.822 13.785 13.745 13.702 13.647 13.577 13.497 13.413 13.328 13.245 13.163 13.083 13.008 12.938 12.878 12.843 12.827 12.807 12.775 12.75 12.732 12.7 12.662 12.612 12.507 12.352 12.183 12.025 11.88 11.727 11.573 11.42 11.273 11.138 11.02 10.953 10.985 11.067 11.137 11.192 11.2 11.165 11.128 11.12 11.137 11.15 11.152 11.127 11.085 11.043 11.005 11 11.005 11.003 11.02 11.05 11.082 11.095 11.075 11.037 11.005 11.038 11.097 11.118 11.138 11.188 11.26 11.342 11.41 11.46 11.528 11.62 11.682 11.697 11.705 11.705 11.693 11.68 11.652 11.6 11.61 11.69 11.77 11.832 11.865 11.872 11.865 11.852 11.835 11.787 11.705 11.665 11.672 11.68 11.69 11.69 11.675 11.652 11.63 11.61 11.598 11.595 11.595 11.648 11.747 11.84 11.91 11.942 11.96 11.98 12.005 12.03 12.043 12.053 12.065 12.07 12.07 12.07 12.078 12.093 12.108
6.98 6.975 7.013 7.085 7.158 7.283 7.48 7.495 7.39 7.51 7.61 7.592 7.582 7.57 7.587 7.6 7.61 7.628 7.675 7.76 7.855 7.947 8.045 8.16 8.267 8.34 8.39 8.425 8.455 8.483 8.51 8.535 8.555 8.575 8.6 8.63 8.66 8.693 8.738 8.815 8.915 9.028 9.205 9.445 9.693 9.932 10.127 10.287 10.45 10.6 10.755 10.948 11.185 11.435 11.665 11.885 12.105 12.322 12.53 12.73 12.932 13.142 13.325 13.465 13.595 13.71 13.762 13.768 13.773 13.805 13.863 13.918 13.98 14.03 14.025 13.985 13.948 13.918 13.888 13.85 13.81 13.77 13.73 13.677 13.605 13.523 13.438 13.353 13.27 13.188 13.108 13.033 12.958 12.888 12.848 12.833 12.818 12.797 12.772 12.742 12.705 12.668 12.63 12.535 12.372 12.198 12.035 11.885 11.732 11.58 11.43 11.28 11.133 11.005 10.975 11.045 11.13 11.21 11.247 11.23 11.195 11.155 11.143 11.153 11.16 11.16 11.132 11.09 11.048 11.02 11.015 11.01 11.003 11.013 11.04 11.055 11.04 11.01 10.978 10.983 11.045 11.12 11.175 11.232 11.305 11.377 11.442 11.492 11.54 11.587 11.645 11.685 11.692 11.7 11.702 11.69 11.675 11.655 11.663 11.722 11.797 11.865 11.892 11.885 11.872 11.852 11.822 11.79 11.752 11.702 11.677 11.68 11.685 11.692 11.687 11.672 11.652 11.63 11.615 11.61 11.61 11.61 11.655 11.755 11.865 11.935 11.958 11.975 11.993 12.008 12.028 12.048 12.065 12.075 12.075 12.075 12.075 12.078 12.088 12.105
6.965 6.973 7.015 7.08 7.153 7.308 7.562 7.37 7.343 7.57 7.503 7.543 7.592 7.617 7.632 7.647 7.668 7.723 7.812 7.91 8.005 8.097 8.192 8.277 8.347 8.4 8.435 8.468 8.5 8.53 8.555 8.572 8.588 8.605 8.63 8.66 8.69 8.72 8.77 8.855 8.955 9.068 9.25 9.495 9.743 9.987 10.195 10.37 10.545 10.718 10.922 11.165 11.417 11.662 11.89 12.107 12.322 12.527 12.722 12.917 13.115 13.307 13.467 13.602 13.737 13.862 13.925 13.95 13.988 14.03 14.08 14.128 14.163 14.17 14.145 14.105 14.065 14.018 13.943 13.875 13.835 13.795 13.755 13.707 13.64 13.558 13.475 13.39 13.305 13.225 13.145 13.07 12.995 12.918 12.868 12.85 12.835 12.82 12.795 12.758 12.723 12.685 12.642 12.542 12.375 12.203 12.04 11.885 11.735 11.585 11.435 11.285 11.133 11.035 11.058 11.145 11.23 11.285 11.287 11.257 11.22 11.183 11.168 11.17 11.172 11.165 11.132 11.09 11.055 11.035 11.025 11.015 11.008 11.01 11.017 11.008 10.983 10.96 10.95 10.985 11.063 11.147 11.227 11.302 11.377 11.442 11.482 11.512 11.552 11.595 11.635 11.657 11.663 11.683 11.702 11.695 11.68 11.685 11.733 11.805 11.865 11.9 11.877 11.82 11.785 11.757 11.717 11.678 11.65 11.635 11.64 11.65 11.652 11.657 11.65 11.632 11.617 11.613 11.637 11.667 11.673 11.67 11.71 11.81 11.915 11.967 11.978 11.99 12.007 12.023 12.04 12.06 12.077 12.085 12.085 12.085 12.085 12.085 12.088 12.105
6.96 6.995 7.035 7.08 7.153 7.34 7.44 7.375 7.445 7.46 7.44 7.54 7.61 7.642 7.658 7.675 7.72 7.805 7.907 8.01 8.107 8.202 8.295 8.375 8.432 8.465 8.485 8.513 8.545 8.575 8.595 8.608 8.622 8.638 8.66 8.69 8.72 8.748 8.805 8.902 9.005 9.12 9.308 9.552 9.798 10.045 10.255 10.428 10.613 10.818 11.05 11.3 11.547 11.787 12.012 12.225 12.425 12.612 12.8 12.995 13.205 13.417 13.59 13.727 13.868 14.012 14.122 14.207 14.29 14.355 14.41 14.435 14.417 14.375 14.33 14.288 14.24 14.175 14.058 13.933 13.865 13.825 13.782 13.737 13.68 13.605 13.522 13.438 13.355 13.275 13.195 13.12 13.042 12.96 12.903 12.88 12.865 12.847 12.822 12.785 12.748 12.712 12.655 12.532 12.367 12.205 12.045 11.888 11.735 11.582 11.43 11.28 11.163 11.14 11.205 11.292 11.347 11.337 11.305 11.277 11.242 11.208 11.19 11.19 11.182 11.16 11.125 11.085 11.07 11.07 11.06 11.048 11.035 11.017 10.995 10.975 10.958 10.948 10.968 11.02 11.09 11.172 11.252 11.327 11.397 11.45 11.475 11.49 11.513 11.545 11.585 11.61 11.628 11.67 11.705 11.703 11.7 11.73 11.79 11.847 11.88 11.89 11.852 11.76 11.693 11.657 11.61 11.563 11.53 11.528 11.557 11.585 11.59 11.592 11.587 11.57 11.563 11.585 11.65 11.727 11.77 11.778 11.813 11.902 11.975 12 12.005 12.01 12.023 12.04 12.06 12.08 12.095 12.1 12.1 12.1 12.1 12.1 12.103 12.12
6.985 7.035 7.07 7.1 7.188 7.33 7.38 7.505 7.572 7.42 7.425 7.55 7.63 7.667 7.683 7.718 7.795 7.895 7.997 8.102 8.207 8.305 8.392 8.46 8.495 8.515 8.535 8.56 8.587 8.612 8.632 8.645 8.658 8.67 8.69 8.72 8.747 8.773 8.838 8.945 9.053 9.173 9.365 9.61 9.855 10.102 10.315 10.5 10.705 10.925 11.158 11.405 11.65 11.89 12.115 12.315 12.497 12.68 12.878 13.088 13.31 13.53 13.705 13.848 14 14.165 14.315 14.442 14.555 14.642 14.687 14.67 14.62 14.57 14.525 14.477 14.415 14.335 14.21 14.05 13.92 13.85 13.807 13.762 13.715 13.652 13.57 13.485 13.405 13.325 13.245 13.167 13.085 12.998 12.935 12.908 12.892 12.875 12.85 12.815 12.775 12.737 12.662 12.52 12.358 12.202 12.047 11.89 11.733 11.578 11.425 11.3 11.26 11.295 11.362 11.42 11.41 11.355 11.315 11.29 11.262 11.23 11.21 11.202 11.18 11.15 11.115 11.085 11.098 11.127 11.13 11.11 11.075 11.028 10.988 10.968 10.955 10.96 11 11.063 11.128 11.2 11.278 11.352 11.41 11.45 11.475 11.485 11.495 11.513 11.54 11.568 11.61 11.67 11.707 11.718 11.74 11.785 11.83 11.855 11.865 11.87 11.83 11.715 11.608 11.55 11.498 11.447 11.417 11.425 11.467 11.51 11.527 11.53 11.525 11.518 11.53 11.568 11.638 11.735 11.82 11.872 11.922 11.98 12.015 12.032 12.04 12.038 12.043 12.058 12.075 12.095 12.112 12.12 12.12 12.12 12.122 12.125 12.133 12.155
7.025 7.073 7.108 7.165 7.352 7.323 7.408 7.617 7.505 7.375 7.395 7.547 7.65 7.692 7.72 7.788 7.885 7.985 8.085 8.19 8.3 8.405 8.485 8.527 8.55 8.568 8.585 8.607 8.63 8.65 8.67 8.685 8.692 8.703 8.722 8.75 8.775 8.803 8.875 8.987 9.1 9.228 9.423 9.668 9.915 10.165 10.393 10.603 10.818 11.03 11.257 11.502 11.745 11.985 12.202 12.387 12.565 12.758 12.973 13.195 13.42 13.642 13.827 13.987 14.155 14.325 14.475 14.6 14.715 14.815 14.85 14.825 14.795 14.76 14.715 14.655 14.577 14.492 14.37 14.205 14.04 13.905 13.83 13.787 13.742 13.69 13.617 13.535 13.455 13.375 13.293 13.21 13.125 13.038 12.97 12.935 12.918 12.902 12.877 12.843 12.805 12.76 12.662 12.507 12.345 12.188 12.035 11.882 11.727 11.575 11.44 11.38 11.405 11.455 11.492 11.482 11.427 11.363 11.32 11.295 11.27 11.245 11.222 11.2 11.17 11.14 11.105 11.098 11.135 11.177 11.187 11.16 11.113 11.058 11.003 10.968 10.96 10.988 11.045 11.107 11.17 11.235 11.307 11.37 11.412 11.447 11.475 11.49 11.5 11.513 11.528 11.558 11.61 11.67 11.715 11.745 11.78 11.817 11.837 11.84 11.845 11.85 11.81 11.7 11.58 11.493 11.415 11.235 11.035 11.16 11.372 11.422 11.455 11.467 11.47 11.483 11.515 11.555 11.625 11.725 11.82 11.912 11.992 12.03 12.045 12.065 12.075 12.072 12.07 12.075 12.09 12.11 12.128 12.135 12.138 12.14 12.145 12.153 12.168 12.195
7.093 7.123 7.19 7.355 7.415 7.365 7.493 7.555 7.43 7.32 7.355 7.522 7.657 7.723 7.78 7.875 7.975 8.078 8.185 8.283 8.378 8.482 8.555 8.585 8.605 8.622 8.637 8.647 8.66 8.68 8.697 8.71 8.72 8.732 8.75 8.772 8.798 8.835 8.915 9.027 9.14 9.28 9.498 9.755 10.008 10.265 10.505 10.722 10.932 11.112 11.325 11.582 11.825 12.065 12.275 12.455 12.643 12.853 13.08 13.305 13.53 13.755 13.947 14.12 14.302 14.48 14.62 14.725 14.822 14.912 14.947 14.932 14.92 14.91 14.877 14.81 14.73 14.65 14.53 14.363 14.193 14.02 13.825 13.703 13.662 13.635 13.625 13.585 13.51 13.43 13.343 13.253 13.168 13.083 13.015 12.98 12.96 12.935 12.905 12.873 12.837 12.775 12.652 12.492 12.33 12.173 12.018 11.865 11.715 11.578 11.485 11.475 11.52 11.567 11.557 11.49 11.425 11.36 11.31 11.282 11.257 11.237 11.227 11.207 11.168 11.13 11.108 11.123 11.162 11.197 11.227 11.23 11.195 11.145 11.08 11.01 10.983 11.017 11.077 11.135 11.195 11.255 11.315 11.36 11.392 11.425 11.472 11.512 11.525 11.538 11.553 11.58 11.628 11.685 11.727 11.757 11.79 11.815 11.825 11.825 11.83 11.835 11.802 11.712 11.605 11.503 11.397 11.025 10.648 10.768 10.957 10.998 11.21 11.397 11.417 11.46 11.502 11.543 11.615 11.718 11.82 11.927 12.017 12.055 12.07 12.09 12.097 12.092 12.087 12.093 12.115 12.14 12.155 12.16 12.165 12.17 12.175 12.185 12.203 12.23
7.207 7.235 7.348 7.57 7.418 7.455 7.682 7.533 7.393 7.285 7.33 7.5 7.663 7.783 7.883 7.995 8.105 8.218 8.332 8.407 8.453 8.53 8.602 8.635 8.655 8.672 8.682 8.68 8.68 8.695 8.71 8.723 8.737 8.75 8.765 8.788 8.82 8.868 8.95 9.06 9.178 9.328 9.57 9.865 10.135 10.392 10.63 10.842 11.022 11.155 11.358 11.64 11.897 12.14 12.35 12.535 12.738 12.96 13.187 13.413 13.64 13.865 14.047 14.213 14.405 14.582 14.715 14.82 14.917 15.005 15.04 15.028 15.02 15.027 15.005 14.937 14.865 14.798 14.75 14.68 14.448 14.168 13.858 13.565 13.478 13.5 13.552 13.58 13.552 13.485 13.397 13.303 13.213 13.128 13.065 13.035 13.007 12.967 12.935 12.907 12.867 12.777 12.632 12.475 12.315 12.157 12.002 11.848 11.71 11.618 11.573 11.563 11.588 11.622 11.582 11.488 11.413 11.348 11.293 11.258 11.23 11.213 11.222 11.23 11.2 11.15 11.123 11.135 11.162 11.19 11.24 11.292 11.3 11.265 11.197 11.09 11.005 11.013 11.067 11.125 11.182 11.235 11.285 11.325 11.355 11.385 11.455 11.532 11.562 11.575 11.59 11.613 11.655 11.71 11.74 11.755 11.78 11.805 11.815 11.815 11.815 11.807 11.782 11.727 11.637 11.53 11.417 10.975 10.59 10.59 10.59 10.605 10.798 11.135 11.325 11.385 11.453 11.535 11.628 11.73 11.843 11.957 12.042 12.077 12.093 12.107 12.11 12.1 12.093 12.098 12.135 12.177 12.192 12.198 12.205 12.21 12.215 12.223 12.238 12.265
7.307 7.38 7.52 7.51 7.448 7.672 7.785 7.64 7.47 7.348 7.385 7.558 7.738 7.908 8.045 8.163 8.28 8.4 8.507 8.555 8.555 8.59 8.652 8.687 8.705 8.717 8.717 8.71 8.703 8.708 8.72 8.735 8.75 8.76 8.778 8.81 8.855 8.905 8.985 9.1 9.23 9.375 9.613 9.935 10.242 10.517 10.747 10.93 11.065 11.178 11.383 11.675 11.957 12.215 12.427 12.628 12.845 13.07 13.295 13.52 13.747 13.972 14.152 14.298 14.472 14.635 14.765 14.89 15.002 15.095 15.132 15.133 15.142 15.155 15.125 15.06 15 14.945 14.97 15.035 14.942 14.802 14.175 13.44 13.325 13.383 13.44 13.495 13.53 13.517 13.455 13.36 13.263 13.173 13.113 13.077 13.035 12.99 12.96 12.94 12.885 12.762 12.608 12.453 12.298 12.14 11.985 11.85 11.76 11.715 11.69 11.668 11.665 11.667 11.607 11.503 11.408 11.335 11.28 11.235 11.2 11.19 11.208 11.23 11.235 11.207 11.17 11.153 11.158 11.18 11.23 11.3 11.355 11.367 11.297 11.155 11.018 10.983 11.035 11.092 11.145 11.195 11.242 11.28 11.312 11.345 11.42 11.53 11.595 11.615 11.63 11.653 11.687 11.725 11.745 11.757 11.775 11.795 11.802 11.792 11.775 11.752 11.73 11.705 11.657 11.567 11.452 11.04 10.638 10.59 10.59 10.603 10.695 10.975 11.225 11.325 11.44 11.57 11.68 11.775 11.88 11.99 12.07 12.102 12.117 12.127 12.122 12.11 12.098 12.095 12.138 12.197 12.225 12.235 12.242 12.248 12.255 12.26 12.275 12.302
7.383 7.502 7.507 7.423 7.593 7.84 7.902 7.83 7.648 7.488 7.508 7.688 7.875 8.062 8.225 8.35 8.465 8.582 8.665 8.687 8.68 8.683 8.715 8.742 8.75 8.752 8.747 8.74 8.73 8.728 8.735 8.748 8.76 8.77 8.798 8.845 8.895 8.948 9.033 9.155 9.29 9.43 9.655 9.975 10.307 10.62 10.84 10.975 11.09 11.203 11.405 11.698 11.992 12.272 12.51 12.73 12.955 13.18 13.405 13.63 13.855 14.077 14.262 14.397 14.54 14.682 14.81 14.94 15.065 15.17 15.22 15.237 15.26 15.275 15.252 15.202 15.155 15.105 15.13 15.232 15.257 15.174 14.527 13.743 13.435 13.335 13.38 13.443 13.508 13.558 13.53 13.435 13.335 13.238 13.165 13.115 13.065 13.018 12.98 12.962 12.905 12.768 12.608 12.448 12.285 12.125 11.988 11.9 11.855 11.822 11.792 11.765 11.742 11.71 11.632 11.528 11.423 11.333 11.268 11.215 11.175 11.17 11.19 11.21 11.235 11.255 11.237 11.202 11.183 11.178 11.218 11.29 11.357 11.405 11.345 11.197 11.05 10.975 11.003 11.055 11.105 11.155 11.2 11.235 11.268 11.305 11.385 11.507 11.607 11.652 11.67 11.69 11.707 11.722 11.735 11.747 11.762 11.775 11.772 11.75 11.72 11.693 11.67 11.65 11.632 11.592 11.507 11.27 10.86 10.613 10.64 10.848 11.122 11.305 11.43 11.53 11.595 11.647 11.722 11.817 11.917 12.022 12.097 12.125 12.14 12.147 12.135 12.12 12.108 12.1 12.13 12.19 12.237 12.267 12.28 12.285 12.295 12.3 12.313 12.332
7.478 7.615 7.4 7.438 7.805 7.89 7.98 8.005 7.875 7.683 7.673 7.838 8.023 8.208 8.387 8.535 8.64 8.725 8.772 8.78 8.78 8.777 8.782 8.787 8.785 8.78 8.773 8.767 8.76 8.753 8.753 8.763 8.775 8.785 8.823 8.88 8.932 8.988 9.098 9.26 9.41 9.55 9.75 10.045 10.38 10.702 10.91 11.023 11.138 11.26 11.458 11.74 12.035 12.325 12.585 12.815 13.04 13.257 13.487 13.725 13.95 14.172 14.355 14.487 14.612 14.74 14.868 14.995 15.117 15.212 15.262 15.287 15.312 15.335 15.33 15.302 15.275 15.237 15.212 15.202 15.107 14.905 14.585 14.12 13.668 13.475 13.51 13.58 13.655 13.69 13.64 13.548 13.45 13.348 13.248 13.173 13.12 13.07 13.02 12.988 12.942 12.825 12.665 12.5 12.33 12.165 12.03 11.94 11.887 11.852 11.817 11.785 11.767 11.74 11.662 11.558 11.455 11.368 11.295 11.23 11.183 11.183 11.218 11.25 11.285 11.305 11.28 11.235 11.2 11.175 11.203 11.272 11.33 11.377 11.335 11.202 11.065 10.973 10.98 11.038 11.09 11.143 11.19 11.225 11.255 11.285 11.363 11.485 11.592 11.65 11.667 11.68 11.682 11.682 11.69 11.702 11.72 11.737 11.732 11.705 11.678 11.655 11.635 11.615 11.603 11.612 11.575 11.477 11.237 11.008 11.03 11.265 11.515 11.65 11.727 11.74 11.715 11.68 11.713 11.812 11.917 12.022 12.092 12.117 12.15 12.17 12.158 12.145 12.135 12.128 12.145 12.185 12.228 12.275 12.31 12.325 12.333 12.338 12.345 12.355
7.577 7.525 7.398 7.603 7.855 7.94 8.03 8.112 8.08 7.943 7.923 8.043 8.205 8.383 8.562 8.692 8.757 8.81 8.837 8.84 8.845 8.85 8.842 8.825 8.813 8.807 8.8 8.793 8.785 8.778 8.775 8.78 8.792 8.805 8.845 8.91 8.967 9.02 9.158 9.382 9.577 9.73 9.91 10.168 10.483 10.785 10.975 11.09 11.218 11.363 11.558 11.813 12.095 12.387 12.647 12.875 13.095 13.298 13.53 13.79 14.027 14.252 14.43 14.557 14.682 14.807 14.932 15.055 15.157 15.227 15.267 15.292 15.317 15.34 15.345 15.332 15.31 15.26 15.187 15.093 14.968 14.832 14.562 14.148 13.85 13.755 13.78 13.852 13.892 13.855 13.77 13.68 13.585 13.477 13.363 13.26 13.19 13.14 13.083 13.025 12.987 12.902 12.75 12.587 12.42 12.26 12.113 11.98 11.878 11.818 11.783 11.76 11.768 11.765 11.697 11.593 11.505 11.44 11.37 11.3 11.26 11.27 11.313 11.355 11.375 11.355 11.31 11.258 11.208 11.168 11.18 11.237 11.287 11.332 11.3 11.178 11.053 10.965 10.973 11.045 11.105 11.16 11.207 11.24 11.265 11.28 11.35 11.467 11.555 11.605 11.625 11.632 11.627 11.618 11.62 11.635 11.658 11.687 11.695 11.67 11.648 11.635 11.62 11.608 11.618 11.66 11.642 11.555 11.472 11.392 11.39 11.472 11.595 11.742 11.795 11.75 11.703 11.66 11.683 11.778 11.883 11.99 12.057 12.09 12.158 12.205 12.198 12.185 12.173 12.17 12.19 12.215 12.243 12.28 12.32 12.355 12.372 12.377 12.375 12.37
7.66 7.43 7.45 7.825 7.905 7.988 8.075 8.167 8.222 8.207 8.225 8.315 8.435 8.59 8.752 8.827 8.838 8.875 8.9 8.903 8.907 8.907 8.895 8.87 8.845 8.833 8.827 8.82 8.81 8.803 8.8 8.803 8.81 8.823 8.865 8.932 8.995 9.053 9.203 9.455 9.697 9.892 10.088 10.323 10.598 10.865 11.042 11.178 11.325 11.48 11.675 11.913 12.17 12.452 12.71 12.927 13.135 13.333 13.56 13.827 14.092 14.33 14.502 14.625 14.748 14.872 14.997 15.102 15.175 15.232 15.272 15.297 15.32 15.34 15.352 15.335 15.272 15.18 15.11 15.06 14.977 14.86 14.59 14.28 14.125 14.045 14.05 14.092 14.062 13.982 13.897 13.81 13.715 13.605 13.49 13.375 13.275 13.208 13.147 13.08 13.032 12.962 12.827 12.67 12.51 12.36 12.217 12.072 11.933 11.818 11.763 11.763 11.782 11.79 11.732 11.638 11.57 11.515 11.453 11.405 11.388 11.395 11.425 11.445 11.425 11.387 11.342 11.29 11.235 11.178 11.168 11.203 11.243 11.287 11.265 11.163 11.058 10.97 10.965 11.042 11.117 11.18 11.222 11.247 11.265 11.275 11.338 11.432 11.502 11.555 11.58 11.582 11.57 11.553 11.553 11.57 11.598 11.635 11.652 11.64 11.628 11.62 11.613 11.625 11.665 11.72 11.71 11.62 11.507 11.41 11.428 11.513 11.618 11.765 11.815 11.758 11.695 11.645 11.658 11.743 11.853 11.96 12.028 12.088 12.185 12.25 12.247 12.228 12.21 12.213 12.24 12.265 12.29 12.315 12.343 12.378 12.405 12.412 12.402 12.39
7.532 7.453 7.678 7.89 7.955 8.035 8.12 8.215 8.328 8.425 8.507 8.605 8.705 8.82 8.925 8.952 8.935 8.945 8.96 8.965 8.967 8.957 8.94 8.915 8.887 8.868 8.855 8.845 8.837 8.83 8.825 8.828 8.833 8.843 8.885 8.953 9.018 9.09 9.258 9.515 9.775 10.017 10.247 10.485 10.735 10.962 11.135 11.287 11.442 11.598 11.79 12.028 12.273 12.53 12.77 12.973 13.17 13.368 13.59 13.855 14.135 14.395 14.575 14.695 14.815 14.937 15.045 15.12 15.18 15.235 15.275 15.3 15.32 15.34 15.35 15.305 15.203 15.095 15.025 14.988 14.94 14.865 14.697 14.527 14.43 14.335 14.297 14.27 14.19 14.097 14.002 13.907 13.805 13.692 13.58 13.467 13.355 13.267 13.207 13.147 13.085 13.017 12.902 12.747 12.592 12.442 12.3 12.157 12.012 11.875 11.805 11.803 11.805 11.81 11.772 11.7 11.64 11.577 11.53 11.512 11.507 11.505 11.507 11.492 11.457 11.422 11.375 11.318 11.262 11.205 11.185 11.205 11.23 11.262 11.245 11.162 11.07 10.98 10.958 11.022 11.105 11.18 11.23 11.252 11.265 11.275 11.315 11.383 11.447 11.505 11.535 11.53 11.51 11.488 11.485 11.51 11.545 11.585 11.61 11.612 11.61 11.6 11.605 11.647 11.7 11.752 11.747 11.645 11.505 11.42 11.46 11.555 11.655 11.79 11.837 11.775 11.705 11.643 11.635 11.713 11.83 11.932 12.015 12.11 12.22 12.295 12.302 12.275 12.25 12.255 12.285 12.31 12.335 12.36 12.385 12.41 12.437 12.445 12.427 12.415
7.438 7.593 7.937 8.02 8.055 8.108 8.195 8.318 8.458 8.607 8.732 8.84 8.947 9.025 9.052 9.045 9.027 9.017 9.012 9.01 9.005 8.99 8.97 8.945 8.92 8.9 8.882 8.87 8.862 8.855 8.852 8.855 8.858 8.868 8.908 8.975 9.05 9.153 9.34 9.595 9.855 10.115 10.365 10.61 10.847 11.05 11.22 11.377 11.535 11.695 11.895 12.137 12.38 12.623 12.86 13.075 13.275 13.47 13.67 13.905 14.175 14.447 14.64 14.76 14.88 14.992 15.075 15.135 15.195 15.245 15.265 15.275 15.295 15.315 15.32 15.267 15.165 15.06 14.988 14.945 14.9 14.85 14.775 14.677 14.585 14.495 14.415 14.33 14.23 14.127 14.022 13.915 13.795 13.675 13.565 13.455 13.357 13.277 13.21 13.157 13.11 13.062 12.967 12.817 12.662 12.51 12.363 12.22 12.083 11.968 11.91 11.895 11.88 11.857 11.805 11.732 11.665 11.595 11.552 11.545 11.54 11.527 11.512 11.492 11.465 11.432 11.395 11.345 11.288 11.233 11.213 11.23 11.25 11.26 11.227 11.15 11.06 10.978 10.943 10.985 11.065 11.147 11.225 11.265 11.275 11.288 11.31 11.35 11.398 11.453 11.487 11.475 11.45 11.425 11.423 11.458 11.5 11.54 11.57 11.58 11.582 11.575 11.545 11.508 11.512 11.56 11.65 11.64 11.495 11.43 11.49 11.597 11.695 11.815 11.86 11.795 11.725 11.648 11.62 11.693 11.81 11.918 12.023 12.135 12.245 12.327 12.337 12.297 12.273 12.288 12.32 12.347 12.372 12.397 12.423 12.45 12.482 12.475 12.442 12.435
7.47 7.845 8.062 8.185 8.223 8.263 8.36 8.493 8.635 8.787 8.922 9.032 9.125 9.147 9.12 9.1 9.085 9.072 9.053 9.035 9.025 9.01 8.99 8.965 8.94 8.92 8.905 8.895 8.885 8.875 8.875 8.882 8.885 8.893 8.933 9.01 9.118 9.253 9.443 9.688 9.945 10.205 10.455 10.692 10.912 11.107 11.28 11.44 11.602 11.768 11.978 12.23 12.477 12.72 12.97 13.215 13.437 13.64 13.82 14.008 14.238 14.502 14.7 14.82 14.932 15.03 15.105 15.165 15.222 15.267 15.265 15.24 15.245 15.265 15.267 15.232 15.155 15.055 14.98 14.935 14.887 14.835 14.76 14.66 14.567 14.485 14.395 14.292 14.187 14.083 13.977 13.86 13.725 13.598 13.485 13.388 13.318 13.25 13.173 13.108 13.065 13.035 12.975 12.867 12.727 12.575 12.428 12.288 12.168 12.075 12.028 12.012 11.98 11.91 11.82 11.735 11.655 11.578 11.525 11.505 11.487 11.468 11.46 11.455 11.44 11.415 11.39 11.36 11.312 11.258 11.235 11.252 11.262 11.247 11.2 11.12 11.04 10.975 10.928 10.94 11.01 11.098 11.195 11.267 11.295 11.31 11.333 11.36 11.388 11.428 11.46 11.458 11.443 11.428 11.42 11.43 11.46 11.5 11.53 11.54 11.555 11.567 11.5 11.37 11.283 11.24 11.373 11.542 11.487 11.44 11.52 11.63 11.73 11.842 11.877 11.812 11.732 11.63 11.605 11.688 11.798 11.91 12.025 12.14 12.245 12.327 12.332 12.293 12.285 12.308 12.345 12.38 12.407 12.433 12.46 12.5 12.522 12.475 12.43 12.442
7.653 7.99 8.17 8.333 8.422 8.497 8.605 8.717 8.838 8.97 9.107 9.217 9.252 9.207 9.16 9.143 9.13 9.122 9.1 9.068 9.048 9.03 9.01 8.985 8.96 8.94 8.925 8.915 8.908 8.9 8.898 8.905 8.913 8.92 8.975 9.088 9.223 9.368 9.553 9.788 10.037 10.295 10.54 10.76 10.967 11.165 11.34 11.502 11.667 11.835 12.05 12.31 12.567 12.817 13.068 13.322 13.57 13.797 13.99 14.158 14.34 14.567 14.757 14.872 14.97 15.06 15.135 15.192 15.245 15.29 15.285 15.238 15.21 15.215 15.212 15.18 15.127 15.045 14.973 14.925 14.87 14.815 14.74 14.635 14.533 14.443 14.35 14.248 14.143 14.037 13.922 13.79 13.65 13.52 13.415 13.348 13.297 13.227 13.145 13.065 12.998 12.955 12.915 12.855 12.767 12.637 12.493 12.37 12.27 12.188 12.145 12.11 12.032 11.93 11.83 11.745 11.66 11.578 11.51 11.458 11.423 11.405 11.4 11.398 11.393 11.383 11.368 11.35 11.325 11.283 11.26 11.265 11.252 11.225 11.172 11.1 11.04 10.985 10.93 10.91 10.955 11.045 11.145 11.24 11.302 11.33 11.355 11.39 11.425 11.463 11.497 11.507 11.503 11.497 11.48 11.453 11.44 11.46 11.49 11.51 11.545 11.572 11.51 11.38 11.253 11.135 11.16 11.357 11.44 11.45 11.55 11.658 11.763 11.872 11.895 11.815 11.707 11.598 11.598 11.693 11.793 11.9 12.012 12.12 12.215 12.3 12.315 12.295 12.305 12.325 12.362 12.405 12.44 12.47 12.505 12.545 12.53 12.443 12.4 12.43
8.005 8.26 8.455 8.547 8.59 8.685 8.805 8.922 9.037 9.157 9.287 9.357 9.32 9.243 9.2 9.19 9.18 9.175 9.155 9.115 9.08 9.053 9.03 9.008 8.985 8.965 8.95 8.94 8.933 8.925 8.923 8.93 8.94 8.953 9.033 9.177 9.325 9.475 9.655 9.88 10.12 10.365 10.595 10.802 11.007 11.205 11.385 11.555 11.722 11.9 12.125 12.385 12.647 12.907 13.162 13.417 13.67 13.917 14.127 14.297 14.467 14.655 14.812 14.915 15.005 15.095 15.167 15.218 15.265 15.312 15.31 15.26 15.213 15.183 15.158 15.12 15.08 15.023 14.963 14.91 14.85 14.795 14.72 14.62 14.52 14.423 14.323 14.215 14.108 13.995 13.868 13.73 13.59 13.463 13.378 13.335 13.282 13.202 13.12 13.04 12.96 12.893 12.84 12.788 12.735 12.657 12.557 12.467 12.382 12.305 12.24 12.157 12.05 11.94 11.84 11.755 11.673 11.595 11.52 11.443 11.38 11.348 11.34 11.345 11.358 11.365 11.358 11.34 11.322 11.295 11.272 11.255 11.23 11.202 11.158 11.108 11.06 11.01 10.96 10.918 10.925 11 11.098 11.195 11.285 11.342 11.377 11.417 11.46 11.502 11.542 11.565 11.572 11.57 11.552 11.52 11.48 11.46 11.468 11.498 11.545 11.577 11.52 11.398 11.288 11.193 11.163 11.265 11.385 11.47 11.58 11.688 11.795 11.897 11.897 11.787 11.66 11.575 11.605 11.7 11.795 11.9 12.003 12.095 12.183 12.267 12.305 12.31 12.325 12.343 12.375 12.42 12.465 12.502 12.537 12.547 12.492 12.403 12.375 12.41
8.23 8.587 8.802 8.762 8.71 8.788 8.892 9.015 9.14 9.265 9.375 9.407 9.352 9.275 9.23 9.22 9.212 9.207 9.187 9.15 9.11 9.075 9.053 9.035 9.015 8.995 8.98 8.97 8.96 8.948 8.95 8.965 8.973 8.988 9.08 9.235 9.387 9.54 9.71 9.917 10.147 10.382 10.602 10.807 11.007 11.195 11.372 11.545 11.72 11.928 12.175 12.435 12.7 12.965 13.235 13.502 13.755 14.005 14.217 14.392 14.567 14.732 14.865 14.967 15.06 15.15 15.22 15.265 15.31 15.357 15.357 15.31 15.26 15.21 15.163 15.12 15.078 15.033 14.985 14.933 14.875 14.805 14.718 14.623 14.525 14.425 14.32 14.21 14.108 14 13.875 13.74 13.6 13.468 13.388 13.345 13.27 13.18 13.1 13.02 12.94 12.858 12.788 12.733 12.68 12.635 12.582 12.512 12.44 12.365 12.272 12.165 12.055 11.948 11.853 11.77 11.69 11.615 11.54 11.46 11.383 11.335 11.333 11.353 11.375 11.38 11.365 11.345 11.325 11.303 11.278 11.25 11.22 11.18 11.155 11.14 11.1 11.055 11.01 10.958 10.938 10.975 11.053 11.15 11.25 11.322 11.357 11.39 11.43 11.47 11.512 11.557 11.587 11.597 11.6 11.582 11.542 11.5 11.483 11.508 11.555 11.59 11.547 11.448 11.355 11.268 11.233 11.295 11.415 11.54 11.655 11.765 11.875 11.945 11.9 11.775 11.648 11.578 11.62 11.718 11.82 11.933 12.03 12.113 12.198 12.267 12.305 12.325 12.34 12.355 12.388 12.433 12.48 12.522 12.552 12.535 12.465 12.39 12.373 12.41
8.412 8.767 8.95 8.877 8.825 8.89 8.955 9.05 9.17 9.295 9.377 9.392 9.362 9.302 9.25 9.23 9.222 9.215 9.197 9.167 9.13 9.093 9.073 9.062 9.047 9.03 9.015 9.002 8.987 8.968 8.97 8.995 9.007 9.025 9.118 9.272 9.425 9.575 9.738 9.923 10.135 10.367 10.587 10.79 10.977 11.15 11.32 11.49 11.69 11.938 12.202 12.465 12.73 12.995 13.275 13.565 13.832 14.082 14.292 14.465 14.627 14.775 14.907 15.025 15.127 15.22 15.29 15.335 15.378 15.42 15.42 15.375 15.325 15.275 15.227 15.183 15.138 15.095 15.05 14.997 14.927 14.827 14.728 14.637 14.54 14.44 14.335 14.233 14.148 14.055 13.932 13.797 13.657 13.515 13.425 13.365 13.268 13.165 13.08 13 12.917 12.833 12.755 12.695 12.65 12.615 12.565 12.497 12.43 12.352 12.257 12.15 12.045 11.95 11.868 11.79 11.71 11.635 11.56 11.483 11.418 11.378 11.38 11.4 11.402 11.39 11.37 11.352 11.335 11.315 11.29 11.255 11.21 11.153 11.138 11.157 11.145 11.107 11.06 11.018 11.003 11.013 11.045 11.113 11.205 11.28 11.308 11.32 11.35 11.39 11.438 11.497 11.545 11.57 11.59 11.6 11.58 11.538 11.518 11.54 11.582 11.612 11.587 11.515 11.43 11.34 11.298 11.358 11.498 11.647 11.77 11.88 11.967 11.985 11.915 11.795 11.675 11.605 11.64 11.745 11.863 11.985 12.087 12.17 12.24 12.287 12.315 12.335 12.35 12.368 12.403 12.448 12.493 12.535 12.56 12.537 12.475 12.405 12.39 12.43
8.585 8.86 8.982 8.955 8.935 9.01 9.065 9.12 9.21 9.317 9.372 9.367 9.35 9.317 9.273 9.243 9.23 9.217 9.2 9.175 9.145 9.11 9.088 9.08 9.072 9.062 9.047 9.03 9.007 8.983 8.983 9.01 9.035 9.063 9.155 9.307 9.46 9.61 9.773 9.95 10.14 10.355 10.57 10.76 10.932 11.098 11.265 11.458 11.7 11.965 12.23 12.495 12.76 13.028 13.308 13.605 13.897 14.16 14.365 14.525 14.67 14.81 14.945 15.07 15.185 15.287 15.36 15.405 15.445 15.485 15.485 15.44 15.387 15.335 15.29 15.247 15.205 15.165 15.12 15.05 14.95 14.835 14.733 14.647 14.557 14.458 14.36 14.275 14.2 14.112 13.99 13.852 13.712 13.568 13.465 13.382 13.27 13.155 13.06 12.977 12.893 12.81 12.728 12.66 12.623 12.595 12.547 12.48 12.407 12.33 12.235 12.133 12.043 11.96 11.883 11.807 11.73 11.655 11.583 11.518 11.473 11.438 11.427 11.43 11.415 11.393 11.373 11.357 11.34 11.322 11.292 11.24 11.18 11.118 11.103 11.137 11.16 11.15 11.118 11.098 11.097 11.102 11.108 11.128 11.175 11.243 11.28 11.278 11.285 11.313 11.363 11.43 11.49 11.53 11.555 11.577 11.59 11.57 11.553 11.575 11.61 11.632 11.612 11.555 11.49 11.413 11.365 11.43 11.588 11.75 11.88 11.98 12.02 11.995 11.927 11.82 11.713 11.638 11.665 11.783 11.91 12.037 12.145 12.217 12.26 12.292 12.32 12.34 12.358 12.382 12.42 12.462 12.507 12.55 12.562 12.535 12.487 12.428 12.413 12.437
8.702 8.875 8.97 9.01 9.045 9.125 9.192 9.24 9.292 9.342 9.355 9.343 9.328 9.31 9.282 9.255 9.24 9.223 9.2 9.175 9.15 9.123 9.103 9.095 9.09 9.087 9.072 9.05 9.028 9.005 9.005 9.028 9.055 9.093 9.19 9.34 9.49 9.64 9.805 9.985 10.165 10.355 10.55 10.725 10.89 11.055 11.235 11.465 11.73 11.995 12.26 12.528 12.795 13.065 13.348 13.645 13.948 14.227 14.427 14.57 14.71 14.85 14.985 15.11 15.23 15.342 15.42 15.467 15.51 15.55 15.552 15.507 15.45 15.392 15.345 15.307 15.272 15.235 15.172 15.072 14.957 14.84 14.738 14.653 14.57 14.483 14.4 14.325 14.25 14.165 14.045 13.905 13.765 13.622 13.5 13.39 13.27 13.153 13.045 12.953 12.87 12.788 12.7 12.635 12.605 12.582 12.535 12.463 12.388 12.313 12.225 12.135 12.055 11.975 11.897 11.825 11.75 11.678 11.618 11.57 11.532 11.49 11.457 11.44 11.42 11.398 11.378 11.36 11.343 11.33 11.29 11.218 11.148 11.083 11.065 11.103 11.145 11.175 11.18 11.177 11.182 11.187 11.195 11.2 11.208 11.24 11.26 11.253 11.248 11.255 11.298 11.363 11.428 11.485 11.52 11.543 11.567 11.58 11.582 11.6 11.625 11.645 11.627 11.575 11.522 11.463 11.428 11.51 11.682 11.852 11.992 12.057 12.045 12.005 11.945 11.86 11.775 11.703 11.73 11.853 11.978 12.1 12.19 12.235 12.265 12.295 12.32 12.34 12.357 12.382 12.422 12.465 12.51 12.555 12.562 12.53 12.49 12.445 12.42 12.415
8.74 8.848 8.945 9.037 9.122 9.207 9.292 9.347 9.367 9.367 9.353 9.338 9.323 9.308 9.29 9.27 9.253 9.233 9.21 9.188 9.163 9.138 9.125 9.12 9.115 9.112 9.097 9.073 9.05 9.03 9.03 9.053 9.083 9.125 9.225 9.375 9.525 9.668 9.825 10.005 10.185 10.37 10.563 10.745 10.913 11.078 11.275 11.523 11.788 12.058 12.333 12.605 12.875 13.145 13.43 13.73 14.025 14.295 14.487 14.623 14.76 14.9 15.02 15.13 15.247 15.362 15.442 15.487 15.532 15.575 15.58 15.535 15.472 15.41 15.352 15.307 15.275 15.24 15.165 15.055 14.945 14.838 14.753 14.68 14.605 14.533 14.46 14.385 14.3 14.195 14.07 13.935 13.795 13.655 13.525 13.405 13.283 13.16 13.04 12.935 12.85 12.775 12.705 12.645 12.61 12.59 12.542 12.468 12.39 12.31 12.228 12.145 12.065 11.985 11.907 11.835 11.765 11.705 11.657 11.615 11.57 11.507 11.458 11.435 11.417 11.4 11.383 11.368 11.355 11.345 11.302 11.225 11.148 11.088 11.085 11.133 11.185 11.22 11.23 11.235 11.242 11.247 11.255 11.262 11.267 11.275 11.265 11.238 11.22 11.22 11.255 11.318 11.385 11.455 11.493 11.508 11.533 11.557 11.585 11.612 11.637 11.66 11.645 11.592 11.538 11.498 11.498 11.58 11.745 11.932 12.07 12.095 12.055 12.018 11.982 11.937 11.875 11.813 11.843 11.96 12.08 12.167 12.21 12.24 12.27 12.295 12.315 12.332 12.347 12.365 12.398 12.442 12.49 12.53 12.54 12.525 12.495 12.455 12.418 12.385
8.727 8.83 8.935 9.045 9.15 9.245 9.332 9.382 9.387 9.382 9.37 9.355 9.34 9.323 9.307 9.29 9.27 9.253 9.232 9.21 9.188 9.168 9.158 9.15 9.145 9.14 9.125 9.1 9.075 9.053 9.053 9.08 9.118 9.165 9.265 9.415 9.557 9.685 9.835 10.015 10.2 10.395 10.6 10.802 10.985 11.155 11.358 11.608 11.878 12.158 12.44 12.72 12.995 13.265 13.55 13.845 14.12 14.365 14.55 14.687 14.823 14.96 15.062 15.143 15.245 15.36 15.44 15.478 15.518 15.562 15.565 15.515 15.452 15.39 15.325 15.265 15.22 15.18 15.107 15.003 14.908 14.825 14.765 14.722 14.665 14.597 14.527 14.45 14.325 14.178 14.06 13.942 13.81 13.67 13.545 13.432 13.313 13.185 13.058 12.94 12.855 12.803 12.753 12.693 12.64 12.61 12.565 12.49 12.407 12.32 12.235 12.155 12.075 11.993 11.913 11.843 11.783 11.735 11.692 11.642 11.577 11.495 11.44 11.423 11.41 11.397 11.388 11.382 11.375 11.365 11.325 11.25 11.185 11.155 11.175 11.23 11.27 11.275 11.27 11.275 11.285 11.29 11.295 11.305 11.313 11.32 11.302 11.255 11.218 11.2 11.23 11.303 11.375 11.45 11.485 11.483 11.498 11.52 11.558 11.61 11.65 11.675 11.66 11.608 11.573 11.578 11.608 11.658 11.775 11.96 12.087 12.102 12.07 12.033 12.017 12.022 11.992 11.935 11.968 12.082 12.172 12.207 12.223 12.252 12.277 12.29 12.302 12.315 12.33 12.345 12.368 12.408 12.455 12.487 12.495 12.495 12.485 12.462 12.427 12.383
8.72 8.83 8.94 9.048 9.155 9.257 9.335 9.375 9.387 9.392 9.387 9.372 9.357 9.34 9.323 9.307 9.29 9.275 9.255 9.233 9.215 9.2 9.19 9.18 9.173 9.167 9.152 9.127 9.102 9.078 9.08 9.113 9.155 9.203 9.3 9.445 9.575 9.695 9.845 10.03 10.225 10.425 10.63 10.84 11.042 11.228 11.438 11.698 11.978 12.262 12.545 12.828 13.11 13.385 13.665 13.94 14.19 14.425 14.61 14.75 14.887 15.022 15.12 15.183 15.26 15.362 15.442 15.477 15.505 15.545 15.542 15.488 15.43 15.37 15.308 15.243 15.18 15.123 15.05 14.96 14.878 14.808 14.763 14.737 14.702 14.655 14.592 14.48 14.297 14.138 14.037 13.937 13.82 13.688 13.565 13.457 13.347 13.227 13.1 12.98 12.903 12.86 12.81 12.747 12.683 12.635 12.585 12.507 12.42 12.33 12.245 12.165 12.082 11.997 11.923 11.862 11.812 11.767 11.717 11.65 11.565 11.475 11.423 11.41 11.4 11.39 11.387 11.392 11.392 11.385 11.345 11.285 11.255 11.25 11.277 11.317 11.325 11.315 11.313 11.318 11.325 11.333 11.34 11.35 11.358 11.365 11.347 11.3 11.253 11.22 11.235 11.3 11.375 11.45 11.485 11.475 11.473 11.485 11.525 11.59 11.647 11.682 11.673 11.645 11.658 11.7 11.74 11.77 11.828 11.963 12.075 12.092 12.077 12.048 12.035 12.065 12.087 12.06 12.093 12.177 12.21 12.22 12.237 12.26 12.272 12.277 12.285 12.298 12.312 12.325 12.343 12.375 12.415 12.44 12.445 12.445 12.448 12.45 12.435 12.397
8.755 8.858 8.963 9.063 9.163 9.267 9.337 9.365 9.38 9.392 9.397 9.387 9.372 9.355 9.338 9.325 9.31 9.295 9.277 9.26 9.245 9.23 9.22 9.21 9.2 9.192 9.177 9.153 9.128 9.105 9.113 9.15 9.195 9.24 9.33 9.463 9.585 9.705 9.858 10.053 10.255 10.455 10.66 10.87 11.085 11.295 11.528 11.803 12.085 12.368 12.653 12.935 13.218 13.5 13.765 14.01 14.25 14.485 14.67 14.81 14.95 15.085 15.18 15.24 15.303 15.38 15.448 15.483 15.505 15.532 15.522 15.47 15.415 15.358 15.298 15.23 15.163 15.095 15.023 14.945 14.865 14.795 14.755 14.73 14.705 14.677 14.612 14.452 14.248 14.108 14.013 13.917 13.815 13.702 13.59 13.482 13.375 13.262 13.142 13.038 12.97 12.92 12.862 12.797 12.73 12.67 12.605 12.52 12.43 12.342 12.25 12.16 12.077 11.992 11.922 11.872 11.827 11.78 11.715 11.632 11.545 11.458 11.41 11.4 11.39 11.38 11.38 11.39 11.397 11.4 11.38 11.355 11.352 11.355 11.367 11.375 11.365 11.358 11.358 11.36 11.365 11.375 11.385 11.395 11.402 11.407 11.39 11.345 11.3 11.283 11.273 11.3 11.375 11.45 11.485 11.475 11.465 11.465 11.498 11.56 11.625 11.68 11.707 11.73 11.777 11.827 11.867 11.9 11.93 11.997 12.06 12.067 12.062 12.05 12.048 12.08 12.132 12.157 12.185 12.215 12.22 12.227 12.24 12.25 12.255 12.26 12.268 12.283 12.295 12.308 12.323 12.345 12.373 12.393 12.403 12.408 12.415 12.427 12.432 12.407
8.843 8.938 9.035 9.133 9.228 9.307 9.35 9.368 9.383 9.398 9.407 9.402 9.387 9.37 9.353 9.34 9.327 9.31 9.295 9.282 9.267 9.255 9.247 9.24 9.23 9.22 9.202 9.178 9.155 9.145 9.165 9.205 9.248 9.293 9.383 9.513 9.638 9.763 9.923 10.123 10.325 10.525 10.735 10.955 11.178 11.4 11.65 11.933 12.215 12.493 12.773 13.058 13.34 13.628 13.888 14.115 14.348 14.577 14.752 14.885 15.028 15.165 15.257 15.313 15.37 15.433 15.485 15.52 15.542 15.55 15.53 15.485 15.433 15.38 15.315 15.235 15.163 15.097 15.025 14.945 14.865 14.793 14.748 14.723 14.698 14.672 14.59 14.408 14.218 14.09 13.993 13.898 13.802 13.7 13.59 13.482 13.377 13.272 13.167 13.085 13.025 12.965 12.902 12.837 12.77 12.692 12.615 12.535 12.445 12.357 12.253 12.143 12.053 11.968 11.9 11.855 11.807 11.75 11.677 11.592 11.508 11.448 11.423 11.41 11.398 11.38 11.375 11.385 11.395 11.405 11.4 11.39 11.392 11.395 11.395 11.397 11.4 11.4 11.4 11.403 11.41 11.42 11.43 11.44 11.447 11.452 11.435 11.39 11.36 11.362 11.338 11.323 11.375 11.45 11.485 11.475 11.465 11.468 11.488 11.528 11.588 11.655 11.715 11.765 11.82 11.872 11.917 11.957 11.992 12.03 12.05 12.048 12.043 12.043 12.05 12.07 12.112 12.162 12.19 12.197 12.202 12.212 12.225 12.232 12.238 12.243 12.255 12.275 12.29 12.303 12.315 12.33 12.35 12.373 12.383 12.388 12.4 12.412 12.42 12.407
8.955 9.052 9.148 9.245 9.322 9.355 9.365 9.38 9.4 9.415 9.42 9.412 9.4 9.385 9.368 9.355 9.34 9.313 9.295 9.29 9.28 9.27 9.265 9.262 9.255 9.247 9.23 9.205 9.195 9.205 9.235 9.275 9.318 9.37 9.473 9.615 9.75 9.88 10.045 10.245 10.445 10.645 10.86 11.092 11.32 11.543 11.795 12.077 12.357 12.632 12.91 13.195 13.485 13.777 14.04 14.267 14.49 14.707 14.87 14.988 15.123 15.262 15.355 15.403 15.453 15.51 15.56 15.587 15.592 15.58 15.555 15.52 15.477 15.43 15.36 15.263 15.173 15.102 15.03 14.95 14.868 14.79 14.743 14.717 14.693 14.667 14.567 14.388 14.22 14.088 13.983 13.885 13.785 13.677 13.563 13.453 13.35 13.25 13.163 13.107 13.06 12.997 12.935 12.867 12.787 12.69 12.61 12.547 12.465 12.372 12.26 12.135 12.025 11.935 11.87 11.822 11.767 11.7 11.625 11.543 11.483 11.468 11.462 11.447 11.425 11.393 11.378 11.385 11.392 11.4 11.392 11.37 11.36 11.36 11.365 11.38 11.397 11.405 11.42 11.445 11.46 11.47 11.48 11.487 11.493 11.497 11.48 11.443 11.433 11.447 11.425 11.378 11.385 11.45 11.485 11.475 11.475 11.495 11.51 11.52 11.555 11.615 11.675 11.725 11.78 11.837 11.89 11.937 11.98 12.02 12.037 12.038 12.04 12.05 12.057 12.053 12.068 12.11 12.142 12.153 12.16 12.18 12.202 12.215 12.222 12.228 12.243 12.27 12.295 12.31 12.32 12.335 12.355 12.382 12.39 12.38 12.388 12.4 12.405 12.402
9.065 9.165 9.262 9.34 9.375 9.38 9.38 9.39 9.412 9.43 9.43 9.42 9.41 9.398 9.382 9.367 9.342 9.305 9.285 9.285 9.282 9.275 9.273 9.275 9.275 9.272 9.258 9.245 9.255 9.275 9.305 9.35 9.403 9.465 9.573 9.722 9.872 10.01 10.175 10.375 10.575 10.775 10.993 11.227 11.457 11.685 11.94 12.217 12.493 12.768 13.048 13.338 13.635 13.932 14.195 14.42 14.635 14.845 15.002 15.11 15.228 15.36 15.455 15.5 15.543 15.592 15.63 15.635 15.622 15.605 15.58 15.547 15.512 15.472 15.407 15.305 15.195 15.108 15.03 14.95 14.865 14.783 14.735 14.712 14.687 14.66 14.557 14.395 14.242 14.1 13.983 13.877 13.767 13.655 13.54 13.423 13.313 13.21 13.138 13.105 13.077 13.027 12.96 12.88 12.782 12.678 12.6 12.545 12.477 12.39 12.275 12.145 12.02 11.913 11.838 11.782 11.72 11.65 11.578 11.523 11.508 11.512 11.507 11.482 11.445 11.405 11.385 11.387 11.39 11.395 11.387 11.358 11.333 11.323 11.328 11.342 11.352 11.353 11.383 11.445 11.492 11.515 11.525 11.532 11.538 11.542 11.523 11.5 11.513 11.535 11.512 11.45 11.415 11.45 11.485 11.483 11.503 11.535 11.55 11.55 11.555 11.583 11.633 11.688 11.743 11.8 11.857 11.91 11.957 12.002 12.03 12.043 12.058 12.072 12.075 12.06 12.05 12.068 12.095 12.11 12.128 12.155 12.177 12.192 12.205 12.213 12.23 12.26 12.29 12.312 12.325 12.343 12.368 12.4 12.41 12.39 12.38 12.385 12.39 12.392
9.172 9.277 9.357 9.395 9.397 9.395 9.395 9.4 9.42 9.445 9.447 9.435 9.425 9.412 9.395 9.37 9.338 9.3 9.278 9.278 9.28 9.278 9.28 9.285 9.29 9.295 9.293 9.302 9.325 9.345 9.38 9.435 9.497 9.563 9.665 9.815 9.975 10.127 10.3 10.5 10.7 10.902 11.122 11.355 11.587 11.82 12.078 12.355 12.628 12.903 13.188 13.485 13.785 14.085 14.342 14.555 14.767 14.977 15.132 15.237 15.345 15.462 15.55 15.592 15.63 15.672 15.687 15.668 15.648 15.63 15.605 15.572 15.537 15.502 15.45 15.355 15.235 15.128 15.038 14.953 14.865 14.78 14.728 14.7 14.67 14.637 14.545 14.395 14.247 14.105 13.975 13.855 13.737 13.625 13.51 13.392 13.28 13.18 13.123 13.1 13.08 13.047 12.977 12.878 12.77 12.665 12.59 12.535 12.477 12.402 12.29 12.16 12.027 11.9 11.808 11.743 11.675 11.61 11.563 11.55 11.555 11.552 11.532 11.492 11.447 11.405 11.385 11.387 11.39 11.395 11.385 11.355 11.323 11.295 11.29 11.295 11.293 11.285 11.32 11.403 11.482 11.537 11.562 11.575 11.582 11.587 11.575 11.573 11.595 11.607 11.585 11.532 11.478 11.47 11.49 11.505 11.54 11.575 11.587 11.585 11.582 11.58 11.603 11.653 11.708 11.763 11.82 11.875 11.925 11.975 12.025 12.06 12.08 12.095 12.095 12.08 12.06 12.05 12.055 12.073 12.103 12.135 12.155 12.17 12.185 12.198 12.22 12.25 12.278 12.303 12.325 12.353 12.385 12.42 12.432 12.413 12.39 12.38 12.378 12.378
9.247 9.357 9.407 9.415 9.412 9.407 9.405 9.41 9.435 9.467 9.472 9.458 9.445 9.43 9.41 9.383 9.348 9.31 9.285 9.283 9.285 9.285 9.293 9.303 9.31 9.317 9.32 9.332 9.357 9.382 9.432 9.5 9.565 9.63 9.738 9.892 10.05 10.207 10.387 10.59 10.792 11.01 11.24 11.47 11.702 11.938 12.205 12.492 12.765 13.04 13.323 13.615 13.915 14.215 14.457 14.652 14.862 15.07 15.225 15.332 15.44 15.55 15.627 15.667 15.705 15.742 15.745 15.715 15.688 15.663 15.63 15.593 15.557 15.525 15.48 15.39 15.27 15.163 15.07 14.98 14.89 14.8 14.72 14.665 14.63 14.595 14.505 14.362 14.217 14.072 13.935 13.807 13.685 13.57 13.457 13.345 13.235 13.165 13.143 13.125 13.105 13.072 12.995 12.885 12.778 12.675 12.598 12.54 12.482 12.4 12.28 12.147 12.015 11.898 11.813 11.75 11.685 11.623 11.595 11.6 11.6 11.577 11.53 11.477 11.43 11.385 11.368 11.372 11.375 11.382 11.382 11.357 11.323 11.29 11.278 11.278 11.273 11.268 11.308 11.39 11.47 11.522 11.55 11.575 11.595 11.615 11.622 11.625 11.63 11.622 11.6 11.565 11.522 11.492 11.5 11.537 11.582 11.615 11.62 11.61 11.6 11.588 11.595 11.635 11.688 11.74 11.793 11.843 11.89 11.94 12.01 12.072 12.1 12.115 12.112 12.095 12.075 12.058 12.053 12.073 12.108 12.14 12.155 12.163 12.175 12.203 12.245 12.278 12.303 12.33 12.358 12.38 12.405 12.44 12.46 12.445 12.42 12.405 12.395 12.39
9.267 9.375 9.417 9.42 9.42 9.417 9.415 9.425 9.458 9.492 9.497 9.482 9.467 9.45 9.427 9.402 9.372 9.335 9.308 9.298 9.295 9.295 9.305 9.325 9.337 9.342 9.34 9.338 9.353 9.383 9.445 9.525 9.595 9.663 9.78 9.947 10.11 10.265 10.445 10.653 10.87 11.108 11.345 11.578 11.81 12.045 12.32 12.622 12.907 13.182 13.455 13.735 14.03 14.325 14.555 14.733 14.928 15.13 15.285 15.395 15.505 15.617 15.692 15.73 15.77 15.805 15.805 15.775 15.75 15.73 15.688 15.623 15.575 15.545 15.5 15.41 15.298 15.208 15.122 15.03 14.94 14.845 14.738 14.64 14.583 14.547 14.457 14.315 14.167 14.015 13.875 13.75 13.628 13.508 13.395 13.283 13.195 13.178 13.187 13.175 13.147 13.1 13.015 12.908 12.803 12.7 12.623 12.562 12.485 12.375 12.245 12.118 12.005 11.913 11.845 11.795 11.737 11.675 11.648 11.647 11.627 11.582 11.52 11.458 11.405 11.358 11.34 11.345 11.35 11.363 11.37 11.357 11.33 11.303 11.293 11.297 11.297 11.293 11.33 11.41 11.465 11.475 11.488 11.52 11.552 11.592 11.617 11.617 11.61 11.597 11.575 11.545 11.51 11.475 11.485 11.535 11.577 11.605 11.62 11.615 11.597 11.583 11.593 11.633 11.68 11.73 11.78 11.82 11.86 11.91 11.985 12.072 12.12 12.135 12.13 12.11 12.09 12.075 12.075 12.1 12.137 12.17 12.18 12.173 12.183 12.23 12.295 12.34 12.37 12.4 12.422 12.428 12.435 12.462 12.485 12.482 12.465 12.448 12.435 12.43
9.255 9.362 9.412 9.417 9.42 9.42 9.425 9.448 9.485 9.517 9.52 9.502 9.485 9.465 9.442 9.417 9.392 9.362 9.335 9.32 9.31 9.308 9.32 9.342 9.36 9.37 9.37 9.358 9.355 9.38 9.445 9.532 9.612 9.685 9.81 9.99 10.162 10.323 10.505 10.725 10.965 11.212 11.45 11.685 11.92 12.155 12.428 12.735 13.037 13.322 13.597 13.872 14.153 14.435 14.66 14.83 15.008 15.195 15.345 15.458 15.57 15.682 15.757 15.793 15.83 15.867 15.87 15.845 15.833 15.825 15.78 15.695 15.623 15.57 15.517 15.437 15.343 15.262 15.177 15.082 14.99 14.892 14.78 14.66 14.56 14.502 14.412 14.265 14.11 13.955 13.815 13.69 13.57 13.45 13.333 13.233 13.195 13.212 13.23 13.217 13.175 13.12 13.035 12.93 12.828 12.725 12.645 12.567 12.46 12.338 12.218 12.113 12.023 11.938 11.875 11.83 11.78 11.727 11.697 11.675 11.63 11.575 11.512 11.448 11.385 11.33 11.31 11.32 11.333 11.347 11.355 11.35 11.335 11.315 11.308 11.312 11.317 11.315 11.35 11.41 11.422 11.41 11.42 11.453 11.493 11.54 11.57 11.577 11.58 11.572 11.55 11.512 11.465 11.43 11.44 11.477 11.505 11.527 11.557 11.577 11.582 11.577 11.588 11.628 11.675 11.722 11.767 11.803 11.835 11.88 11.955 12.052 12.125 12.152 12.145 12.128 12.113 12.098 12.098 12.125 12.165 12.197 12.205 12.193 12.198 12.253 12.332 12.397 12.44 12.47 12.487 12.483 12.475 12.487 12.505 12.512 12.507 12.49 12.478 12.47
9.235 9.35 9.41 9.413 9.418 9.425 9.443 9.475 9.512 9.54 9.54 9.52 9.5 9.48 9.457 9.432 9.407 9.38 9.357 9.342 9.327 9.32 9.327 9.347 9.37 9.39 9.392 9.377 9.367 9.38 9.443 9.535 9.622 9.708 9.843 10.025 10.202 10.378 10.58 10.817 11.062 11.31 11.555 11.795 12.03 12.265 12.535 12.84 13.147 13.445 13.727 14 14.272 14.542 14.76 14.93 15.1 15.27 15.41 15.525 15.64 15.747 15.82 15.857 15.892 15.93 15.942 15.932 15.927 15.92 15.877 15.797 15.71 15.622 15.545 15.47 15.39 15.312 15.227 15.13 15.032 14.927 14.81 14.692 14.575 14.475 14.365 14.215 14.058 13.905 13.765 13.638 13.513 13.39 13.275 13.215 13.223 13.245 13.26 13.24 13.192 13.14 13.057 12.955 12.855 12.752 12.657 12.558 12.44 12.323 12.22 12.135 12.05 11.963 11.897 11.85 11.805 11.76 11.72 11.677 11.625 11.57 11.507 11.44 11.373 11.31 11.288 11.303 11.318 11.333 11.34 11.338 11.33 11.32 11.32 11.325 11.33 11.335 11.352 11.367 11.355 11.34 11.355 11.398 11.445 11.495 11.525 11.535 11.545 11.542 11.515 11.465 11.41 11.378 11.383 11.403 11.42 11.438 11.465 11.503 11.532 11.552 11.577 11.62 11.67 11.717 11.757 11.787 11.815 11.853 11.923 12.017 12.11 12.162 12.162 12.147 12.135 12.123 12.123 12.15 12.192 12.225 12.23 12.218 12.21 12.255 12.347 12.435 12.5 12.54 12.552 12.54 12.512 12.502 12.517 12.532 12.54 12.53 12.517 12.508
9.243 9.365 9.425 9.42 9.425 9.438 9.463 9.497 9.53 9.552 9.55 9.53 9.51 9.49 9.465 9.437 9.41 9.38 9.36 9.347 9.335 9.322 9.313 9.323 9.345 9.37 9.375 9.36 9.352 9.36 9.418 9.51 9.602 9.705 9.85 10.03 10.21 10.408 10.642 10.892 11.135 11.38 11.642 11.905 12.147 12.383 12.643 12.938 13.242 13.542 13.82 14.085 14.357 14.622 14.835 15.005 15.172 15.337 15.475 15.59 15.705 15.807 15.87 15.905 15.94 15.975 15.995 15.995 15.992 15.975 15.925 15.847 15.755 15.657 15.565 15.482 15.407 15.332 15.245 15.145 15.05 14.95 14.818 14.685 14.57 14.45 14.325 14.182 14.028 13.878 13.74 13.61 13.48 13.353 13.248 13.22 13.245 13.265 13.272 13.245 13.197 13.142 13.067 12.972 12.87 12.767 12.667 12.565 12.453 12.343 12.25 12.167 12.077 11.977 11.895 11.84 11.792 11.747 11.702 11.655 11.607 11.56 11.502 11.435 11.368 11.31 11.295 11.313 11.328 11.34 11.345 11.345 11.338 11.325 11.325 11.33 11.335 11.337 11.33 11.318 11.303 11.293 11.315 11.365 11.415 11.465 11.495 11.505 11.515 11.517 11.487 11.433 11.38 11.343 11.34 11.355 11.37 11.385 11.405 11.44 11.478 11.515 11.545 11.577 11.625 11.675 11.715 11.742 11.77 11.808 11.875 11.97 12.07 12.142 12.162 12.155 12.15 12.145 12.148 12.175 12.217 12.252 12.26 12.245 12.228 12.25 12.335 12.437 12.527 12.595 12.6 12.555 12.51 12.49 12.502 12.527 12.547 12.555 12.55 12.553
9.28 9.405 9.46 9.445 9.443 9.453 9.478 9.51 9.537 9.555 9.55 9.53 9.513 9.495 9.467 9.433 9.403 9.375 9.355 9.343 9.33 9.317 9.3 9.29 9.298 9.317 9.322 9.313 9.313 9.323 9.375 9.465 9.563 9.675 9.825 10.005 10.198 10.42 10.673 10.932 11.182 11.428 11.705 12.005 12.27 12.508 12.758 13.033 13.328 13.627 13.897 14.15 14.415 14.677 14.89 15.06 15.227 15.392 15.532 15.648 15.762 15.862 15.912 15.938 15.97 16.005 16.025 16.025 16.012 15.97 15.905 15.83 15.745 15.652 15.563 15.48 15.403 15.327 15.24 15.145 15.06 14.975 14.828 14.658 14.53 14.41 14.29 14.16 14.012 13.865 13.73 13.6 13.473 13.348 13.245 13.223 13.252 13.275 13.275 13.24 13.185 13.12 13.05 12.97 12.875 12.773 12.677 12.585 12.48 12.375 12.285 12.195 12.09 11.975 11.88 11.813 11.755 11.71 11.665 11.618 11.58 11.547 11.497 11.43 11.37 11.33 11.325 11.345 11.362 11.375 11.38 11.375 11.352 11.325 11.32 11.327 11.327 11.315 11.3 11.285 11.275 11.278 11.303 11.35 11.4 11.447 11.475 11.485 11.495 11.5 11.472 11.418 11.365 11.328 11.323 11.337 11.352 11.365 11.38 11.408 11.445 11.482 11.503 11.515 11.548 11.595 11.635 11.665 11.7 11.745 11.815 11.908 12.002 12.085 12.122 12.125 12.135 12.15 12.17 12.205 12.245 12.28 12.287 12.27 12.25 12.25 12.313 12.417 12.52 12.592 12.577 12.513 12.478 12.463 12.47 12.497 12.52 12.532 12.548 12.61
9.315 9.445 9.502 9.485 9.47 9.47 9.49 9.517 9.54 9.557 9.555 9.535 9.518 9.5 9.472 9.435 9.4 9.37 9.35 9.338 9.325 9.315 9.3 9.28 9.268 9.27 9.273 9.273 9.28 9.288 9.333 9.425 9.53 9.645 9.798 9.99 10.205 10.443 10.7 10.967 11.227 11.475 11.755 12.077 12.375 12.632 12.885 13.147 13.423 13.712 13.982 14.227 14.48 14.735 14.945 15.115 15.285 15.45 15.59 15.705 15.82 15.917 15.96 15.978 16.003 16.035 16.055 16.042 16 15.932 15.862 15.795 15.722 15.643 15.56 15.48 15.4 15.323 15.24 15.158 15.08 15.002 14.86 14.658 14.495 14.37 14.25 14.125 13.99 13.853 13.72 13.593 13.47 13.35 13.24 13.213 13.255 13.285 13.275 13.225 13.16 13.09 13.02 12.95 12.872 12.777 12.685 12.6 12.505 12.407 12.31 12.202 12.085 11.965 11.87 11.795 11.725 11.673 11.628 11.59 11.565 11.54 11.49 11.43 11.39 11.36 11.355 11.375 11.395 11.412 11.415 11.392 11.353 11.32 11.313 11.312 11.302 11.285 11.27 11.263 11.263 11.27 11.295 11.337 11.385 11.43 11.455 11.465 11.475 11.482 11.457 11.403 11.35 11.313 11.305 11.317 11.33 11.343 11.36 11.385 11.415 11.447 11.467 11.473 11.485 11.518 11.555 11.59 11.635 11.685 11.755 11.845 11.935 12.025 12.082 12.103 12.128 12.16 12.195 12.235 12.275 12.307 12.31 12.293 12.275 12.26 12.298 12.395 12.482 12.525 12.507 12.47 12.455 12.44 12.443 12.462 12.475 12.475 12.51 12.635
9.338 9.48 9.545 9.53 9.51 9.495 9.503 9.525 9.545 9.562 9.56 9.542 9.525 9.505 9.477 9.44 9.4 9.365 9.345 9.335 9.325 9.315 9.3 9.277 9.253 9.238 9.235 9.24 9.25 9.255 9.295 9.39 9.5 9.618 9.785 10.002 10.23 10.467 10.725 10.995 11.262 11.522 11.81 12.132 12.447 12.732 12.992 13.25 13.512 13.785 14.05 14.297 14.542 14.787 14.992 15.16 15.33 15.495 15.635 15.752 15.872 15.967 16.007 16.025 16.045 16.07 16.075 16.032 15.965 15.89 15.818 15.755 15.698 15.64 15.57 15.49 15.41 15.328 15.245 15.17 15.097 15.025 14.895 14.685 14.483 14.335 14.215 14.093 13.968 13.843 13.715 13.59 13.47 13.35 13.233 13.2 13.25 13.287 13.27 13.205 13.133 13.06 12.99 12.92 12.85 12.772 12.69 12.607 12.52 12.425 12.315 12.195 12.075 11.955 11.86 11.785 11.71 11.645 11.598 11.57 11.55 11.528 11.49 11.45 11.42 11.39 11.385 11.405 11.422 11.435 11.427 11.392 11.35 11.318 11.3 11.285 11.27 11.255 11.245 11.25 11.258 11.265 11.285 11.32 11.365 11.41 11.435 11.445 11.455 11.465 11.442 11.39 11.34 11.298 11.285 11.295 11.305 11.318 11.338 11.363 11.388 11.415 11.433 11.44 11.445 11.458 11.485 11.525 11.575 11.625 11.695 11.79 11.888 11.985 12.055 12.09 12.125 12.162 12.202 12.247 12.292 12.327 12.332 12.317 12.3 12.28 12.295 12.357 12.407 12.427 12.427 12.42 12.42 12.415 12.415 12.42 12.417 12.41 12.473 12.628
9.385 9.525 9.585 9.57 9.55 9.53 9.53 9.55 9.567 9.572 9.56 9.542 9.527 9.51 9.48 9.44 9.4 9.363 9.335 9.32 9.31 9.3 9.282 9.257 9.235 9.22 9.208 9.205 9.215 9.223 9.258 9.345 9.455 9.573 9.753 9.987 10.222 10.452 10.697 10.965 11.232 11.515 11.817 12.125 12.435 12.73 12.997 13.255 13.52 13.8 14.067 14.315 14.562 14.805 15.005 15.17 15.337 15.497 15.635 15.755 15.885 15.992 16.042 16.065 16.085 16.105 16.085 16.015 15.938 15.863 15.798 15.748 15.705 15.66 15.595 15.515 15.432 15.34 15.25 15.175 15.105 15.037 14.915 14.71 14.49 14.323 14.2 14.08 13.963 13.848 13.73 13.605 13.478 13.353 13.23 13.193 13.243 13.29 13.272 13.2 13.128 13.05 12.975 12.905 12.835 12.765 12.69 12.61 12.527 12.432 12.318 12.195 12.075 11.958 11.863 11.788 11.715 11.643 11.593 11.57 11.55 11.533 11.51 11.48 11.45 11.418 11.4 11.407 11.417 11.422 11.407 11.37 11.333 11.31 11.295 11.275 11.258 11.24 11.238 11.25 11.26 11.27 11.28 11.303 11.343 11.385 11.412 11.425 11.435 11.447 11.432 11.385 11.338 11.295 11.283 11.295 11.305 11.315 11.333 11.358 11.383 11.405 11.42 11.43 11.438 11.445 11.465 11.5 11.54 11.58 11.648 11.75 11.857 11.96 12.027 12.063 12.1 12.143 12.19 12.24 12.287 12.317 12.32 12.307 12.292 12.277 12.272 12.285 12.302 12.315 12.32 12.325 12.335 12.342 12.35 12.352 12.345 12.35 12.448 12.623
9.47 9.585 9.625 9.61 9.59 9.57 9.57 9.587 9.592 9.577 9.557 9.54 9.523 9.505 9.475 9.437 9.4 9.36 9.325 9.3 9.283 9.268 9.25 9.233 9.22 9.21 9.19 9.173 9.175 9.185 9.218 9.293 9.393 9.505 9.683 9.92 10.152 10.367 10.595 10.852 11.12 11.44 11.767 12.055 12.355 12.652 12.925 13.185 13.465 13.772 14.052 14.298 14.545 14.792 14.995 15.157 15.317 15.47 15.605 15.73 15.877 16.002 16.06 16.09 16.112 16.13 16.1 16.02 15.943 15.87 15.815 15.775 15.735 15.69 15.625 15.542 15.452 15.35 15.253 15.175 15.108 15.05 14.952 14.74 14.498 14.33 14.205 14.085 13.97 13.86 13.75 13.632 13.505 13.373 13.25 13.205 13.243 13.297 13.287 13.212 13.137 13.055 12.975 12.905 12.835 12.765 12.69 12.61 12.53 12.442 12.332 12.21 12.093 11.98 11.885 11.808 11.735 11.663 11.615 11.595 11.578 11.563 11.542 11.515 11.482 11.44 11.403 11.385 11.383 11.387 11.37 11.335 11.315 11.313 11.307 11.287 11.262 11.238 11.235 11.255 11.27 11.28 11.285 11.295 11.323 11.36 11.387 11.4 11.413 11.43 11.427 11.39 11.345 11.305 11.295 11.31 11.32 11.33 11.348 11.372 11.395 11.412 11.427 11.442 11.452 11.46 11.48 11.51 11.538 11.563 11.623 11.723 11.83 11.935 12 12.035 12.08 12.13 12.18 12.23 12.265 12.272 12.265 12.255 12.245 12.232 12.212 12.19 12.185 12.195 12.2 12.205 12.218 12.233 12.252 12.267 12.265 12.303 12.435 12.618
9.545 9.632 9.665 9.65 9.63 9.61 9.607 9.612 9.6 9.575 9.553 9.537 9.517 9.492 9.462 9.43 9.395 9.357 9.323 9.29 9.263 9.24 9.228 9.22 9.21 9.2 9.18 9.153 9.14 9.145 9.18 9.25 9.335 9.438 9.61 9.837 10.052 10.255 10.465 10.705 10.998 11.365 11.71 11.99 12.28 12.577 12.855 13.128 13.428 13.745 14.032 14.283 14.53 14.777 14.98 15.138 15.29 15.437 15.575 15.72 15.887 16.015 16.07 16.105 16.135 16.152 16.12 16.043 15.97 15.898 15.84 15.802 15.765 15.722 15.655 15.562 15.462 15.357 15.258 15.178 15.118 15.07 15.012 14.792 14.505 14.338 14.215 14.093 13.975 13.865 13.757 13.65 13.535 13.408 13.305 13.265 13.268 13.305 13.3 13.225 13.142 13.058 12.978 12.905 12.835 12.765 12.69 12.61 12.53 12.447 12.345 12.227 12.115 12.008 11.915 11.835 11.758 11.688 11.645 11.625 11.61 11.597 11.577 11.547 11.507 11.455 11.408 11.375 11.355 11.35 11.335 11.318 11.32 11.325 11.317 11.292 11.26 11.23 11.228 11.252 11.272 11.287 11.295 11.3 11.313 11.34 11.365 11.378 11.395 11.415 11.422 11.395 11.353 11.315 11.303 11.318 11.33 11.343 11.362 11.382 11.4 11.417 11.435 11.452 11.465 11.475 11.495 11.52 11.54 11.558 11.61 11.705 11.805 11.905 11.972 12.013 12.063 12.117 12.17 12.21 12.222 12.215 12.207 12.197 12.182 12.165 12.14 12.105 12.078 12.075 12.083 12.093 12.11 12.13 12.155 12.177 12.185 12.263 12.43 12.612
9.595 9.67 9.707 9.692 9.67 9.65 9.637 9.622 9.597 9.573 9.55 9.53 9.507 9.48 9.45 9.42 9.385 9.35 9.317 9.285 9.255 9.233 9.22 9.21 9.2 9.192 9.175 9.145 9.12 9.113 9.145 9.215 9.295 9.383 9.533 9.74 9.945 10.145 10.345 10.578 10.905 11.305 11.652 11.935 12.218 12.505 12.79 13.088 13.405 13.725 14.02 14.283 14.538 14.787 14.985 15.13 15.273 15.413 15.558 15.725 15.902 16.027 16.08 16.112 16.147 16.17 16.137 16.065 15.992 15.917 15.857 15.817 15.78 15.74 15.67 15.57 15.465 15.36 15.26 15.185 15.137 15.095 15.055 14.86 14.548 14.353 14.238 14.115 13.983 13.86 13.752 13.645 13.537 13.433 13.368 13.345 13.328 13.332 13.307 13.23 13.145 13.057 12.977 12.902 12.827 12.755 12.68 12.6 12.52 12.44 12.345 12.235 12.127 12.025 11.937 11.862 11.785 11.713 11.67 11.652 11.64 11.63 11.607 11.567 11.52 11.465 11.415 11.38 11.35 11.328 11.318 11.32 11.327 11.332 11.322 11.29 11.253 11.223 11.223 11.245 11.268 11.292 11.307 11.313 11.318 11.33 11.348 11.365 11.385 11.403 11.415 11.4 11.363 11.328 11.315 11.328 11.343 11.358 11.375 11.39 11.405 11.423 11.44 11.458 11.475 11.49 11.507 11.525 11.54 11.555 11.605 11.698 11.793 11.885 11.952 12 12.05 12.102 12.147 12.167 12.165 12.158 12.15 12.135 12.115 12.095 12.07 12.035 11.995 11.973 11.975 11.99 12.01 12.033 12.058 12.08 12.125 12.248 12.425 12.605
9.622 9.7 9.74 9.725 9.7 9.677 9.652 9.625 9.595 9.568 9.545 9.52 9.495 9.47 9.44 9.41 9.377 9.343 9.31 9.28 9.253 9.235 9.22 9.205 9.193 9.185 9.17 9.14 9.11 9.088 9.113 9.195 9.3 9.408 9.565 9.773 9.975 10.178 10.38 10.608 10.92 11.298 11.643 11.943 12.238 12.533 12.815 13.11 13.435 13.76 14.055 14.318 14.578 14.832 15.025 15.16 15.295 15.43 15.58 15.755 15.922 16.03 16.075 16.105 16.137 16.16 16.127 16.055 15.982 15.912 15.85 15.795 15.75 15.712 15.652 15.557 15.452 15.347 15.25 15.18 15.135 15.095 15.057 14.917 14.603 14.373 14.282 14.157 14.003 13.855 13.735 13.625 13.52 13.438 13.4 13.387 13.375 13.362 13.31 13.222 13.135 13.045 12.962 12.885 12.807 12.732 12.655 12.575 12.495 12.415 12.325 12.222 12.117 12.018 11.942 11.88 11.805 11.73 11.688 11.672 11.66 11.645 11.62 11.582 11.535 11.483 11.438 11.405 11.375 11.345 11.328 11.328 11.333 11.34 11.327 11.29 11.25 11.22 11.22 11.24 11.265 11.295 11.32 11.332 11.34 11.348 11.363 11.385 11.403 11.418 11.43 11.417 11.38 11.345 11.333 11.343 11.357 11.37 11.385 11.403 11.418 11.438 11.463 11.485 11.503 11.51 11.518 11.533 11.548 11.568 11.623 11.71 11.803 11.885 11.945 11.995 12.045 12.092 12.12 12.125 12.12 12.113 12.098 12.073 12.05 12.03 12.005 11.975 11.943 11.915 11.913 11.928 11.945 11.965 12.003 12.05 12.15 12.338 12.53 12.703
9.633 9.71 9.747 9.735 9.712 9.685 9.655 9.625 9.598 9.573 9.54 9.505 9.477 9.45 9.425 9.4 9.37 9.337 9.305 9.275 9.253 9.238 9.223 9.208 9.193 9.185 9.175 9.153 9.13 9.11 9.15 9.263 9.395 9.53 9.715 9.947 10.16 10.363 10.57 10.8 11.073 11.398 11.74 12.065 12.38 12.687 12.958 13.215 13.515 13.837 14.127 14.378 14.633 14.887 15.077 15.21 15.345 15.48 15.63 15.797 15.932 16.01 16.052 16.082 16.107 16.125 16.092 16.02 15.953 15.89 15.825 15.755 15.698 15.657 15.605 15.525 15.427 15.323 15.233 15.165 15.11 15.065 15.02 14.902 14.63 14.395 14.302 14.192 14.032 13.863 13.72 13.605 13.5 13.433 13.413 13.402 13.39 13.375 13.312 13.21 13.115 13.025 12.94 12.858 12.78 12.705 12.625 12.545 12.465 12.385 12.295 12.195 12.09 11.993 11.93 11.88 11.815 11.743 11.7 11.685 11.665 11.64 11.615 11.592 11.557 11.508 11.465 11.437 11.41 11.38 11.355 11.34 11.34 11.347 11.33 11.29 11.253 11.223 11.22 11.243 11.268 11.295 11.325 11.35 11.367 11.38 11.4 11.43 11.45 11.465 11.47 11.442 11.4 11.365 11.35 11.358 11.372 11.385 11.4 11.418 11.438 11.473 11.507 11.53 11.54 11.535 11.535 11.55 11.568 11.595 11.655 11.74 11.822 11.887 11.94 11.99 12.037 12.077 12.097 12.1 12.095 12.08 12.055 12.025 11.998 11.975 11.955 11.935 11.912 11.888 11.888 11.905 11.92 11.938 12 12.09 12.235 12.477 12.715 12.91
9.64 9.707 9.74 9.73 9.712 9.687 9.66 9.63 9.605 9.585 9.547 9.495 9.453 9.423 9.402 9.382 9.357 9.33 9.3 9.275 9.258 9.245 9.243 9.243 9.243 9.25 9.248 9.228 9.21 9.21 9.28 9.413 9.547 9.68 9.868 10.115 10.35 10.56 10.778 11.022 11.28 11.568 11.895 12.232 12.56 12.867 13.132 13.37 13.625 13.92 14.205 14.45 14.695 14.942 15.13 15.26 15.392 15.525 15.675 15.817 15.915 15.982 16.027 16.055 16.073 16.087 16.06 15.993 15.93 15.872 15.807 15.73 15.658 15.603 15.547 15.48 15.397 15.3 15.215 15.15 15.09 15.037 14.965 14.827 14.625 14.405 14.268 14.172 14.035 13.88 13.723 13.588 13.488 13.438 13.427 13.417 13.402 13.385 13.32 13.21 13.103 13.005 12.92 12.835 12.753 12.675 12.595 12.515 12.435 12.355 12.265 12.165 12.063 11.97 11.91 11.865 11.815 11.755 11.713 11.69 11.66 11.63 11.608 11.592 11.572 11.532 11.49 11.465 11.44 11.41 11.385 11.368 11.358 11.352 11.33 11.293 11.26 11.228 11.22 11.245 11.27 11.295 11.325 11.357 11.387 11.407 11.43 11.465 11.495 11.515 11.51 11.47 11.425 11.385 11.368 11.375 11.388 11.402 11.418 11.438 11.473 11.517 11.552 11.57 11.57 11.558 11.555 11.57 11.595 11.628 11.685 11.762 11.827 11.883 11.935 11.98 12.017 12.05 12.07 12.075 12.07 12.05 12.018 11.985 11.953 11.925 11.91 11.897 11.882 11.863 11.863 11.882 11.9 11.933 12.018 12.135 12.32 12.58 12.84 13.082
