ncols         200
nrows         71
xllcorner     545000
yllcorner     256075
cellsize      5
NODATA_value  -9999.0
12.138 12.165 12.215 12.277 12.335 12.36 12.36 12.363 12.383 12.418 12.465 12.548 12.655 12.755 12.827 12.84 12.797 12.722 12.62 12.495 12.36 12.225 12.113 12.045 11.988 11.913 11.853 11.823 11.813 11.815 11.815 11.795 11.755 11.73 11.74 11.767 11.79 11.815 11.83 11.83 11.825 11.818 11.818 11.84 11.88 11.922 11.93 11.867 11.77 11.67 11.577 11.512 11.457 11.39 11.368 11.392 11.415 11.437 11.462 11.485 11.507 11.548 11.59 11.63 11.68 11.73 11.78 11.82 11.82 11.785 11.757 11.74 11.725 11.707 11.682 11.622 11.525 11.42 11.323 11.24 11.165 11.125 11.123 11.133 11.148 11.168 11.19 11.175 11.145 11.14 11.135 11.13 11.125 11.115 11.103 11.09 11.088 11.1 11.135 11.188 11.243 11.298 11.365 11.45 11.542 11.635 11.71 11.74 11.73 11.713 11.713 11.73 11.75 11.77 11.788 11.8 11.815 11.84 11.865 11.89 11.918 11.938 11.97 12.015 12.06 12.102 12.15 12.225 12.317 12.407 12.437 12.41 12.39 12.31 12.168 12.153 12.265 12.395 12.53 12.647 12.722 12.745 12.735 12.715 12.7 12.685 12.665 12.645 12.63 12.615 12.595 12.588 12.597 12.565 12.525 12.53 12.545 12.575 12.658 12.777 12.892 13.01 13.13 13.247 13.36 13.47 13.57 13.677 13.812 13.957 14.095 14.225 14.35 14.45 14.51 14.555 14.605 14.658 14.733 14.828 14.923 15.018 15.112 15.14 15.055 14.935 14.865 14.845 14.805 14.71 14.588 14.485 14.44 14.445 14.473 14.518 14.572 14.627 14.677 14.722
12.135 12.168 12.223 12.285 12.345 12.377 12.38 12.383 12.405 12.445 12.483 12.533 12.628 12.742 12.805 12.795 12.755 12.71 12.652 12.572 12.462 12.332 12.228 12.152 12.062 11.95 11.865 11.815 11.778 11.755 11.75 11.74 11.708 11.703 11.735 11.767 11.792 11.817 11.827 11.825 11.82 11.812 11.808 11.82 11.855 11.895 11.882 11.805 11.71 11.613 11.538 11.495 11.455 11.395 11.375 11.41 11.44 11.465 11.49 11.51 11.54 11.583 11.628 11.675 11.725 11.775 11.825 11.845 11.825 11.792 11.763 11.743 11.725 11.7 11.665 11.602 11.512 11.413 11.32 11.25 11.195 11.16 11.155 11.17 11.195 11.232 11.245 11.2 11.153 11.138 11.132 11.127 11.12 11.11 11.097 11.088 11.098 11.12 11.155 11.21 11.265 11.323 11.39 11.465 11.553 11.65 11.717 11.722 11.703 11.688 11.685 11.698 11.715 11.735 11.752 11.768 11.79 11.825 11.855 11.88 11.9 11.91 11.94 11.985 12.025 12.062 12.1 12.15 12.228 12.315 12.345 12.325 12.323 12.332 12.25 12.233 12.373 12.507 12.615 12.682 12.71 12.705 12.685 12.665 12.65 12.635 12.615 12.595 12.58 12.565 12.545 12.525 12.51 12.49 12.483 12.503 12.535 12.58 12.668 12.79 12.91 13.027 13.145 13.262 13.375 13.465 13.54 13.658 13.818 13.995 14.175 14.325 14.43 14.482 14.503 14.535 14.585 14.653 14.74 14.83 14.92 15.008 15.092 15.127 15.062 14.94 14.848 14.805 14.743 14.635 14.515 14.415 14.385 14.415 14.457 14.502 14.547 14.592 14.635 14.675
12.133 12.173 12.23 12.295 12.355 12.39 12.397 12.405 12.43 12.47 12.508 12.545 12.605 12.707 12.78 12.762 12.708 12.658 12.615 12.57 12.502 12.415 12.322 12.217 12.095 11.973 11.89 11.84 11.79 11.743 11.71 11.688 11.67 11.685 11.725 11.76 11.792 11.817 11.822 11.817 11.81 11.802 11.798 11.803 11.83 11.86 11.827 11.74 11.648 11.565 11.51 11.475 11.442 11.395 11.378 11.412 11.452 11.485 11.51 11.538 11.58 11.63 11.675 11.718 11.765 11.815 11.855 11.855 11.825 11.795 11.768 11.745 11.717 11.685 11.645 11.58 11.498 11.413 11.338 11.285 11.245 11.208 11.198 11.22 11.26 11.302 11.29 11.225 11.165 11.135 11.13 11.125 11.113 11.1 11.09 11.093 11.115 11.14 11.178 11.23 11.285 11.35 11.42 11.49 11.565 11.655 11.707 11.7 11.68 11.663 11.66 11.67 11.683 11.7 11.72 11.743 11.775 11.815 11.845 11.865 11.875 11.88 11.908 11.95 11.985 12.018 12.058 12.1 12.153 12.225 12.258 12.258 12.28 12.313 12.303 12.353 12.487 12.585 12.647 12.672 12.67 12.655 12.635 12.615 12.6 12.585 12.565 12.545 12.525 12.503 12.483 12.468 12.453 12.45 12.473 12.508 12.545 12.588 12.673 12.797 12.92 13.04 13.16 13.275 13.362 13.41 13.49 13.643 13.813 14.015 14.25 14.407 14.465 14.485 14.495 14.52 14.573 14.655 14.75 14.837 14.922 15.005 15.082 15.102 15.045 14.945 14.855 14.8 14.72 14.593 14.458 14.353 14.33 14.37 14.407 14.442 14.48 14.52 14.563 14.608
12.135 12.18 12.238 12.3 12.36 12.4 12.413 12.425 12.455 12.495 12.535 12.572 12.61 12.678 12.752 12.75 12.685 12.623 12.568 12.518 12.472 12.427 12.36 12.247 12.115 11.995 11.915 11.868 11.82 11.773 11.73 11.698 11.678 11.678 11.705 11.742 11.78 11.807 11.812 11.805 11.795 11.788 11.788 11.793 11.81 11.817 11.762 11.678 11.603 11.54 11.495 11.46 11.427 11.388 11.375 11.408 11.455 11.498 11.533 11.578 11.63 11.68 11.725 11.765 11.807 11.855 11.875 11.858 11.83 11.803 11.778 11.748 11.71 11.675 11.63 11.563 11.49 11.428 11.378 11.335 11.295 11.255 11.25 11.29 11.345 11.365 11.32 11.25 11.183 11.14 11.128 11.12 11.108 11.093 11.088 11.105 11.135 11.163 11.2 11.248 11.308 11.38 11.45 11.52 11.59 11.662 11.697 11.683 11.658 11.635 11.633 11.645 11.655 11.67 11.698 11.73 11.765 11.805 11.83 11.84 11.845 11.853 11.878 11.913 11.945 11.975 12.015 12.06 12.103 12.158 12.203 12.24 12.29 12.338 12.383 12.462 12.552 12.612 12.642 12.635 12.62 12.605 12.585 12.565 12.545 12.525 12.51 12.498 12.483 12.468 12.458 12.453 12.45 12.46 12.488 12.522 12.557 12.595 12.678 12.8 12.923 13.047 13.172 13.255 13.285 13.335 13.463 13.637 13.815 14.045 14.31 14.447 14.467 14.48 14.49 14.508 14.568 14.665 14.755 14.835 14.912 14.99 15.057 15.06 15.005 14.935 14.862 14.807 14.74 14.608 14.44 14.305 14.26 14.288 14.325 14.365 14.408 14.453 14.498 14.545
12.143 12.19 12.245 12.305 12.365 12.412 12.43 12.448 12.483 12.52 12.56 12.598 12.648 12.685 12.718 12.735 12.69 12.62 12.548 12.483 12.435 12.395 12.345 12.265 12.147 12.028 11.955 11.918 11.883 11.848 11.815 11.788 11.755 11.725 11.715 11.723 11.75 11.785 11.792 11.783 11.778 11.775 11.78 11.785 11.792 11.78 11.72 11.65 11.588 11.53 11.488 11.453 11.415 11.398 11.418 11.46 11.51 11.548 11.578 11.623 11.675 11.72 11.76 11.8 11.84 11.885 11.9 11.883 11.86 11.83 11.797 11.76 11.72 11.682 11.63 11.56 11.498 11.45 11.41 11.372 11.335 11.303 11.318 11.375 11.422 11.41 11.348 11.28 11.21 11.153 11.125 11.115 11.108 11.098 11.1 11.125 11.153 11.182 11.218 11.265 11.333 11.405 11.475 11.542 11.61 11.665 11.687 11.68 11.655 11.63 11.628 11.643 11.655 11.67 11.7 11.735 11.77 11.8 11.815 11.825 11.833 11.843 11.87 11.905 11.935 11.965 12 12.04 12.083 12.13 12.193 12.265 12.33 12.39 12.452 12.515 12.572 12.607 12.605 12.585 12.568 12.55 12.535 12.525 12.51 12.495 12.49 12.488 12.483 12.48 12.48 12.477 12.473 12.475 12.497 12.53 12.557 12.588 12.673 12.802 12.927 13.052 13.172 13.205 13.198 13.293 13.458 13.63 13.828 14.08 14.332 14.45 14.46 14.47 14.48 14.498 14.565 14.665 14.747 14.822 14.897 14.972 15.025 15.012 14.952 14.89 14.85 14.817 14.767 14.652 14.473 14.3 14.205 14.208 14.25 14.295 14.34 14.388 14.433 14.48
12.158 12.203 12.253 12.31 12.37 12.425 12.45 12.47 12.508 12.545 12.593 12.665 12.725 12.71 12.695 12.72 12.695 12.622 12.547 12.473 12.41 12.365 12.317 12.26 12.177 12.08 12.03 12.012 11.988 11.962 11.935 11.902 11.868 11.833 11.798 11.768 11.758 11.765 11.765 11.763 11.765 11.765 11.77 11.775 11.782 11.77 11.715 11.65 11.585 11.525 11.483 11.448 11.433 11.468 11.528 11.577 11.612 11.627 11.638 11.67 11.72 11.752 11.78 11.82 11.86 11.902 11.925 11.922 11.902 11.862 11.818 11.775 11.735 11.695 11.64 11.573 11.518 11.475 11.435 11.398 11.365 11.355 11.393 11.457 11.485 11.445 11.38 11.318 11.25 11.185 11.145 11.128 11.118 11.113 11.12 11.145 11.17 11.198 11.24 11.295 11.358 11.423 11.49 11.558 11.625 11.657 11.662 11.677 11.672 11.65 11.645 11.66 11.677 11.693 11.72 11.755 11.782 11.795 11.808 11.827 11.837 11.845 11.875 11.92 11.955 11.985 12.013 12.043 12.08 12.125 12.195 12.282 12.36 12.422 12.48 12.537 12.57 12.57 12.56 12.55 12.54 12.533 12.53 12.53 12.528 12.525 12.522 12.517 12.51 12.505 12.502 12.497 12.49 12.483 12.492 12.512 12.533 12.563 12.655 12.797 12.93 13.057 13.165 13.175 13.198 13.335 13.493 13.643 13.843 14.102 14.335 14.44 14.45 14.463 14.475 14.493 14.558 14.65 14.73 14.805 14.88 14.957 14.99 14.952 14.883 14.81 14.793 14.807 14.785 14.69 14.525 14.343 14.218 14.2 14.233 14.265 14.298 14.333 14.368 14.41
12.188 12.225 12.27 12.32 12.375 12.435 12.47 12.495 12.538 12.603 12.698 12.79 12.787 12.71 12.698 12.732 12.705 12.625 12.545 12.468 12.395 12.34 12.292 12.235 12.175 12.123 12.107 12.11 12.097 12.077 12.05 12.017 11.982 11.947 11.91 11.867 11.825 11.79 11.765 11.753 11.753 11.755 11.758 11.763 11.78 11.785 11.732 11.655 11.585 11.523 11.478 11.47 11.513 11.585 11.65 11.685 11.692 11.69 11.693 11.718 11.752 11.77 11.795 11.835 11.875 11.915 11.942 11.95 11.932 11.89 11.84 11.79 11.745 11.705 11.65 11.59 11.545 11.505 11.465 11.425 11.405 11.42 11.465 11.522 11.54 11.495 11.43 11.368 11.303 11.24 11.193 11.163 11.14 11.128 11.138 11.162 11.187 11.213 11.27 11.34 11.393 11.445 11.505 11.575 11.635 11.64 11.625 11.65 11.675 11.67 11.665 11.68 11.7 11.715 11.737 11.765 11.78 11.785 11.8 11.825 11.84 11.85 11.878 11.925 11.967 12.002 12.03 12.053 12.083 12.125 12.195 12.285 12.375 12.455 12.522 12.57 12.58 12.573 12.57 12.57 12.57 12.57 12.57 12.567 12.562 12.557 12.55 12.537 12.525 12.517 12.51 12.5 12.49 12.48 12.473 12.48 12.505 12.538 12.63 12.777 12.922 13.06 13.155 13.218 13.34 13.5 13.607 13.693 13.865 14.12 14.337 14.43 14.443 14.457 14.47 14.485 14.545 14.632 14.71 14.785 14.855 14.915 14.932 14.892 14.823 14.748 14.725 14.757 14.775 14.72 14.577 14.403 14.288 14.27 14.29 14.31 14.33 14.35 14.373 14.403
12.225 12.255 12.295 12.342 12.393 12.447 12.488 12.543 12.633 12.745 12.862 12.885 12.82 12.76 12.755 12.777 12.735 12.648 12.56 12.478 12.398 12.325 12.27 12.223 12.18 12.155 12.16 12.172 12.18 12.18 12.155 12.115 12.07 12.025 11.98 11.93 11.88 11.845 11.815 11.775 11.748 11.743 11.745 11.755 11.783 11.8 11.757 11.675 11.598 11.525 11.503 11.55 11.625 11.7 11.747 11.76 11.757 11.755 11.753 11.767 11.772 11.775 11.81 11.85 11.89 11.927 11.955 11.965 11.952 11.915 11.865 11.813 11.76 11.715 11.665 11.615 11.575 11.535 11.495 11.465 11.468 11.495 11.532 11.57 11.587 11.555 11.49 11.425 11.36 11.3 11.25 11.212 11.18 11.153 11.153 11.177 11.203 11.233 11.308 11.39 11.44 11.488 11.54 11.597 11.63 11.61 11.59 11.613 11.65 11.672 11.682 11.697 11.715 11.732 11.747 11.76 11.77 11.775 11.79 11.815 11.835 11.853 11.883 11.93 11.975 12.015 12.045 12.067 12.092 12.125 12.19 12.277 12.365 12.455 12.54 12.602 12.625 12.622 12.615 12.607 12.602 12.595 12.587 12.58 12.57 12.56 12.55 12.537 12.525 12.515 12.505 12.498 12.495 12.493 12.48 12.48 12.503 12.523 12.603 12.75 12.9 13.047 13.18 13.347 13.532 13.647 13.69 13.738 13.9 14.147 14.345 14.422 14.437 14.452 14.465 14.48 14.535 14.612 14.68 14.747 14.805 14.827 14.83 14.827 14.785 14.713 14.685 14.71 14.74 14.737 14.635 14.465 14.358 14.345 14.365 14.385 14.405 14.425 14.445 14.467
12.26 12.283 12.313 12.36 12.41 12.46 12.53 12.653 12.802 12.937 13.012 13.002 12.987 12.957 12.895 12.842 12.77 12.68 12.59 12.502 12.415 12.335 12.28 12.243 12.213 12.195 12.2 12.215 12.23 12.24 12.215 12.165 12.112 12.06 12.01 11.96 11.918 11.903 11.882 11.83 11.775 11.74 11.738 11.765 11.805 11.827 11.795 11.72 11.64 11.56 11.555 11.622 11.695 11.767 11.807 11.815 11.815 11.815 11.813 11.812 11.793 11.79 11.83 11.867 11.902 11.935 11.957 11.967 11.965 11.935 11.885 11.835 11.783 11.733 11.687 11.642 11.6 11.56 11.525 11.518 11.535 11.557 11.582 11.605 11.625 11.607 11.547 11.477 11.407 11.342 11.285 11.242 11.207 11.17 11.163 11.187 11.213 11.258 11.355 11.445 11.492 11.535 11.57 11.595 11.597 11.568 11.56 11.593 11.633 11.665 11.68 11.692 11.71 11.727 11.737 11.745 11.752 11.76 11.785 11.817 11.84 11.86 11.895 11.942 11.985 12.017 12.04 12.065 12.09 12.118 12.173 12.253 12.34 12.427 12.515 12.605 12.647 12.637 12.622 12.61 12.6 12.59 12.58 12.57 12.56 12.55 12.54 12.533 12.53 12.528 12.525 12.525 12.53 12.535 12.533 12.532 12.53 12.513 12.563 12.7 12.85 13 13.177 13.397 13.592 13.68 13.695 13.76 13.94 14.137 14.275 14.372 14.415 14.43 14.447 14.468 14.51 14.57 14.627 14.682 14.722 14.717 14.703 14.742 14.747 14.68 14.655 14.678 14.705 14.735 14.682 14.53 14.428 14.42 14.44 14.46 14.48 14.5 14.51 14.507
12.292 12.307 12.325 12.365 12.415 12.465 12.57 12.74 12.91 13.03 13.077 13.102 13.132 13.1 12.997 12.89 12.795 12.705 12.615 12.525 12.443 12.373 12.318 12.278 12.253 12.238 12.24 12.255 12.267 12.267 12.235 12.188 12.14 12.09 12.038 11.993 11.97 11.97 11.95 11.895 11.835 11.773 11.76 11.805 11.845 11.86 11.84 11.78 11.7 11.623 11.613 11.668 11.73 11.8 11.845 11.86 11.867 11.87 11.87 11.847 11.808 11.805 11.837 11.87 11.9 11.93 11.952 11.965 11.967 11.945 11.902 11.855 11.805 11.755 11.707 11.663 11.62 11.583 11.56 11.568 11.585 11.6 11.62 11.64 11.66 11.647 11.587 11.512 11.44 11.37 11.305 11.253 11.21 11.173 11.168 11.19 11.218 11.273 11.387 11.477 11.502 11.522 11.535 11.54 11.532 11.508 11.533 11.6 11.645 11.665 11.668 11.675 11.69 11.705 11.715 11.723 11.73 11.745 11.78 11.825 11.857 11.88 11.913 11.955 11.987 12.005 12.02 12.045 12.075 12.11 12.16 12.228 12.31 12.395 12.488 12.592 12.64 12.628 12.615 12.605 12.595 12.583 12.57 12.565 12.563 12.56 12.558 12.555 12.558 12.563 12.567 12.572 12.577 12.58 12.582 12.572 12.537 12.49 12.52 12.64 12.78 12.93 13.115 13.33 13.525 13.655 13.7 13.783 13.952 14.007 14.058 14.24 14.357 14.39 14.41 14.437 14.47 14.51 14.557 14.605 14.622 14.6 14.58 14.635 14.687 14.645 14.623 14.645 14.683 14.732 14.715 14.593 14.498 14.495 14.515 14.535 14.545 14.537 14.512 14.475
12.322 12.33 12.338 12.37 12.42 12.473 12.588 12.762 12.905 12.972 13.005 13.04 13.072 13.077 13.012 12.91 12.815 12.725 12.635 12.55 12.48 12.415 12.355 12.315 12.295 12.28 12.278 12.292 12.3 12.29 12.255 12.21 12.165 12.115 12.065 12.038 12.035 12.04 12.017 11.96 11.897 11.828 11.815 11.857 11.877 11.882 11.877 11.835 11.757 11.683 11.678 11.73 11.783 11.837 11.875 11.895 11.915 11.927 11.917 11.872 11.825 11.82 11.843 11.868 11.895 11.925 11.947 11.957 11.957 11.94 11.907 11.867 11.822 11.775 11.725 11.68 11.645 11.615 11.6 11.61 11.627 11.642 11.66 11.68 11.697 11.685 11.622 11.543 11.468 11.395 11.333 11.275 11.22 11.178 11.17 11.195 11.23 11.283 11.39 11.462 11.46 11.458 11.455 11.458 11.458 11.453 11.51 11.61 11.657 11.66 11.66 11.665 11.67 11.683 11.695 11.703 11.715 11.735 11.77 11.817 11.86 11.895 11.93 11.96 11.975 11.985 12 12.028 12.065 12.105 12.155 12.215 12.283 12.363 12.463 12.577 12.63 12.62 12.61 12.603 12.598 12.59 12.583 12.585 12.59 12.593 12.597 12.6 12.6 12.605 12.607 12.605 12.605 12.602 12.597 12.565 12.51 12.46 12.488 12.595 12.72 12.865 13.05 13.25 13.43 13.597 13.692 13.795 13.862 13.758 13.79 14.037 14.247 14.345 14.372 14.4 14.422 14.445 14.48 14.515 14.51 14.48 14.46 14.508 14.6 14.605 14.59 14.625 14.678 14.735 14.732 14.64 14.568 14.57 14.575 14.562 14.54 14.51 14.478 14.445
12.345 12.35 12.355 12.38 12.425 12.485 12.61 12.782 12.897 12.935 12.95 12.973 13 13.023 13.005 12.93 12.835 12.745 12.66 12.588 12.522 12.455 12.393 12.355 12.338 12.323 12.318 12.325 12.325 12.307 12.272 12.23 12.187 12.14 12.105 12.1 12.107 12.112 12.085 12.022 11.952 11.885 11.873 11.895 11.902 11.907 11.907 11.88 11.812 11.743 11.743 11.795 11.845 11.877 11.895 11.917 11.942 11.957 11.937 11.89 11.848 11.84 11.86 11.88 11.905 11.933 11.945 11.943 11.94 11.93 11.902 11.865 11.825 11.782 11.743 11.708 11.68 11.655 11.643 11.653 11.667 11.682 11.697 11.715 11.73 11.725 11.67 11.58 11.495 11.42 11.358 11.302 11.245 11.19 11.178 11.208 11.245 11.29 11.372 11.425 11.415 11.405 11.395 11.39 11.388 11.408 11.493 11.607 11.657 11.65 11.65 11.655 11.655 11.663 11.678 11.69 11.705 11.723 11.755 11.802 11.85 11.895 11.93 11.947 11.955 11.965 11.985 12.02 12.06 12.1 12.15 12.21 12.27 12.338 12.433 12.547 12.612 12.618 12.615 12.615 12.615 12.617 12.62 12.622 12.625 12.625 12.625 12.622 12.62 12.62 12.615 12.607 12.602 12.597 12.59 12.552 12.49 12.433 12.453 12.558 12.675 12.805 12.973 13.158 13.335 13.515 13.66 13.717 13.633 13.5 13.575 13.818 14.06 14.247 14.327 14.35 14.367 14.385 14.407 14.412 14.387 14.36 14.34 14.38 14.487 14.545 14.565 14.617 14.68 14.735 14.735 14.67 14.625 14.62 14.607 14.578 14.545 14.525 14.51 14.49
12.362 12.365 12.37 12.395 12.438 12.5 12.628 12.795 12.922 12.975 12.985 12.995 13.005 13.013 13.002 12.945 12.855 12.77 12.695 12.627 12.562 12.495 12.433 12.4 12.385 12.368 12.36 12.355 12.342 12.322 12.29 12.25 12.21 12.175 12.163 12.17 12.18 12.185 12.15 12.078 12 11.935 11.918 11.925 11.927 11.93 11.93 11.917 11.867 11.805 11.808 11.86 11.895 11.9 11.905 11.93 11.95 11.952 11.93 11.888 11.868 11.885 11.91 11.933 11.957 11.962 11.945 11.93 11.925 11.92 11.895 11.858 11.82 11.783 11.76 11.745 11.725 11.7 11.69 11.7 11.705 11.713 11.727 11.745 11.762 11.767 11.717 11.622 11.532 11.452 11.385 11.327 11.27 11.21 11.193 11.223 11.26 11.3 11.355 11.387 11.38 11.373 11.37 11.373 11.378 11.403 11.485 11.597 11.645 11.643 11.648 11.653 11.655 11.66 11.673 11.688 11.703 11.718 11.743 11.785 11.835 11.88 11.91 11.925 11.935 11.953 11.985 12.025 12.065 12.103 12.153 12.215 12.275 12.338 12.425 12.533 12.612 12.64 12.642 12.645 12.642 12.642 12.642 12.637 12.635 12.632 12.627 12.62 12.613 12.608 12.6 12.595 12.59 12.585 12.58 12.547 12.488 12.428 12.443 12.545 12.66 12.78 12.93 13.103 13.28 13.46 13.62 13.642 13.52 13.413 13.495 13.728 13.96 14.157 14.247 14.265 14.285 14.302 14.315 14.297 14.263 14.24 14.223 14.255 14.352 14.442 14.475 14.495 14.535 14.602 14.665 14.65 14.62 14.63 14.645 14.64 14.622 14.607 14.59 14.573
12.373 12.375 12.385 12.42 12.468 12.523 12.64 12.805 12.947 13.015 13.025 13.035 13.042 13.04 13.015 12.952 12.873 12.802 12.732 12.66 12.595 12.53 12.478 12.453 12.435 12.412 12.395 12.38 12.36 12.34 12.31 12.278 12.25 12.228 12.222 12.23 12.24 12.245 12.21 12.14 12.073 12.013 11.973 11.955 11.95 11.953 11.955 11.95 11.917 11.868 11.873 11.915 11.925 11.913 11.918 11.937 11.942 11.935 11.91 11.88 11.898 11.95 11.99 12.017 12.025 11.995 11.955 11.93 11.915 11.907 11.887 11.852 11.818 11.795 11.788 11.782 11.772 11.75 11.738 11.745 11.742 11.738 11.75 11.77 11.782 11.775 11.727 11.645 11.555 11.472 11.407 11.35 11.29 11.23 11.213 11.243 11.278 11.315 11.353 11.375 11.38 11.383 11.393 11.41 11.43 11.45 11.5 11.582 11.627 11.645 11.657 11.658 11.663 11.67 11.68 11.695 11.71 11.725 11.745 11.773 11.815 11.86 11.89 11.905 11.923 11.955 11.995 12.035 12.072 12.105 12.158 12.227 12.29 12.355 12.443 12.547 12.632 12.665 12.662 12.66 12.657 12.653 12.648 12.64 12.635 12.63 12.625 12.62 12.613 12.608 12.6 12.592 12.585 12.577 12.567 12.542 12.497 12.445 12.458 12.555 12.673 12.795 12.938 13.095 13.265 13.445 13.582 13.625 13.567 13.46 13.52 13.752 13.952 14.082 14.137 14.155 14.172 14.185 14.195 14.175 14.138 14.115 14.1 14.12 14.198 14.292 14.27 14.188 14.18 14.28 14.455 14.547 14.555 14.585 14.637 14.667 14.687 14.69 14.67 14.655
12.385 12.385 12.405 12.45 12.497 12.55 12.658 12.815 12.962 13.047 13.07 13.075 13.07 13.055 13.022 12.96 12.89 12.827 12.757 12.687 12.625 12.565 12.522 12.497 12.47 12.44 12.415 12.397 12.38 12.36 12.335 12.315 12.3 12.282 12.27 12.275 12.287 12.285 12.247 12.195 12.155 12.112 12.065 12.02 11.988 11.978 11.98 11.977 11.962 11.93 11.93 11.947 11.94 11.928 11.928 11.932 11.923 11.91 11.893 11.898 11.945 12.005 12.057 12.08 12.057 12.013 11.975 11.943 11.913 11.895 11.877 11.848 11.823 11.82 11.822 11.818 11.812 11.797 11.783 11.782 11.777 11.768 11.772 11.78 11.767 11.732 11.685 11.625 11.548 11.475 11.42 11.367 11.31 11.25 11.235 11.265 11.295 11.33 11.368 11.4 11.42 11.432 11.45 11.47 11.49 11.51 11.54 11.585 11.623 11.655 11.672 11.67 11.673 11.678 11.688 11.702 11.717 11.733 11.75 11.773 11.803 11.84 11.87 11.893 11.925 11.965 12.005 12.042 12.075 12.108 12.163 12.237 12.307 12.373 12.458 12.56 12.645 12.68 12.675 12.67 12.668 12.663 12.658 12.652 12.647 12.642 12.635 12.625 12.617 12.61 12.597 12.585 12.575 12.565 12.552 12.537 12.51 12.465 12.473 12.565 12.688 12.813 12.953 13.105 13.263 13.435 13.545 13.57 13.562 13.498 13.553 13.742 13.875 13.97 14.025 14.042 14.055 14.065 14.072 14.055 14.018 13.988 13.978 13.995 14.04 14.117 14.04 13.873 13.845 13.958 14.16 14.342 14.442 14.495 14.555 14.612 14.667 14.705 14.725 14.732
12.408 12.403 12.425 12.475 12.52 12.585 12.693 12.83 12.97 13.072 13.112 13.105 13.085 13.065 13.03 12.97 12.9 12.83 12.762 12.697 12.635 12.582 12.547 12.517 12.482 12.453 12.43 12.412 12.395 12.375 12.355 12.337 12.322 12.307 12.29 12.292 12.312 12.302 12.25 12.202 12.177 12.16 12.14 12.102 12.06 12.03 12.013 12.003 11.995 11.978 11.97 11.97 11.96 11.953 11.945 11.933 11.915 11.898 11.893 11.923 11.977 12.032 12.087 12.102 12.07 12.03 11.995 11.96 11.925 11.898 11.873 11.853 11.848 11.855 11.857 11.852 11.847 11.84 11.83 11.823 11.813 11.8 11.79 11.77 11.735 11.693 11.648 11.603 11.543 11.478 11.425 11.375 11.322 11.268 11.255 11.285 11.315 11.348 11.39 11.435 11.462 11.477 11.495 11.515 11.532 11.55 11.57 11.592 11.623 11.66 11.682 11.685 11.685 11.685 11.693 11.708 11.722 11.738 11.758 11.783 11.805 11.83 11.86 11.895 11.935 11.975 12.012 12.045 12.078 12.115 12.17 12.242 12.315 12.385 12.47 12.565 12.652 12.695 12.692 12.687 12.682 12.677 12.67 12.66 12.65 12.642 12.63 12.615 12.605 12.595 12.58 12.565 12.555 12.543 12.533 12.522 12.502 12.47 12.485 12.58 12.702 12.828 12.968 13.12 13.27 13.422 13.502 13.51 13.52 13.505 13.55 13.665 13.763 13.857 13.912 13.925 13.935 13.942 13.947 13.935 13.9 13.865 13.863 13.89 13.918 13.962 13.885 13.738 13.713 13.81 13.985 14.173 14.312 14.402 14.477 14.533 14.585 14.638 14.695 14.737
12.432 12.428 12.448 12.495 12.553 12.64 12.745 12.86 12.988 13.1 13.142 13.123 13.098 13.075 13.04 12.977 12.9 12.823 12.755 12.692 12.63 12.578 12.545 12.52 12.49 12.465 12.445 12.425 12.402 12.38 12.36 12.343 12.327 12.305 12.285 12.283 12.3 12.292 12.235 12.188 12.168 12.173 12.175 12.15 12.12 12.087 12.055 12.04 12.04 12.033 12.02 12.015 12.01 12.003 11.99 11.97 11.953 11.93 11.923 11.945 11.985 12.035 12.09 12.105 12.075 12.037 11.997 11.962 11.93 11.897 11.873 11.87 11.882 11.892 11.892 11.888 11.883 11.88 11.877 11.873 11.863 11.853 11.838 11.81 11.775 11.735 11.695 11.655 11.578 11.49 11.435 11.385 11.335 11.285 11.273 11.3 11.33 11.36 11.403 11.452 11.485 11.5 11.512 11.53 11.545 11.557 11.572 11.59 11.618 11.655 11.682 11.69 11.69 11.69 11.698 11.712 11.728 11.753 11.783 11.808 11.83 11.85 11.873 11.905 11.945 11.985 12.015 12.04 12.075 12.115 12.17 12.24 12.31 12.385 12.472 12.567 12.657 12.702 12.702 12.692 12.682 12.675 12.662 12.647 12.635 12.625 12.61 12.595 12.585 12.572 12.558 12.545 12.535 12.52 12.512 12.495 12.463 12.445 12.485 12.59 12.71 12.835 12.975 13.125 13.278 13.427 13.502 13.508 13.515 13.538 13.573 13.628 13.7 13.77 13.778 13.78 13.812 13.817 13.825 13.817 13.742 13.713 13.76 13.79 13.812 13.83 13.817 13.745 13.698 13.783 13.95 14.115 14.197 14.272 14.397 14.475 14.528 14.58 14.633 14.685
12.455 12.455 12.473 12.52 12.6 12.695 12.787 12.898 13.027 13.14 13.175 13.155 13.133 13.108 13.062 12.983 12.895 12.818 12.748 12.685 12.625 12.57 12.535 12.515 12.492 12.47 12.45 12.43 12.407 12.385 12.365 12.347 12.327 12.293 12.27 12.265 12.27 12.257 12.213 12.183 12.173 12.19 12.202 12.18 12.15 12.125 12.113 12.118 12.122 12.11 12.093 12.085 12.08 12.067 12.052 12.035 12.015 11.988 11.973 11.98 11.998 12.038 12.092 12.107 12.075 12.03 11.985 11.948 11.915 11.883 11.868 11.885 11.91 11.922 11.93 11.932 11.928 11.925 11.928 11.935 11.935 11.93 11.92 11.902 11.877 11.84 11.8 11.75 11.632 11.51 11.45 11.4 11.352 11.305 11.29 11.31 11.335 11.368 11.41 11.457 11.487 11.5 11.512 11.527 11.542 11.555 11.57 11.59 11.613 11.645 11.672 11.685 11.692 11.695 11.703 11.715 11.738 11.78 11.817 11.843 11.867 11.887 11.903 11.923 11.955 11.995 12.02 12.035 12.063 12.1 12.155 12.227 12.3 12.375 12.463 12.56 12.652 12.697 12.692 12.677 12.665 12.655 12.64 12.625 12.615 12.605 12.59 12.575 12.565 12.55 12.535 12.525 12.515 12.502 12.49 12.452 12.413 12.418 12.483 12.595 12.715 12.838 12.975 13.128 13.29 13.457 13.545 13.553 13.575 13.632 13.667 13.683 13.728 13.76 13.705 13.643 13.61 13.553 13.498 13.475 13.513 13.603 13.667 13.682 13.687 13.693 13.747 13.755 13.703 13.763 13.92 14.027 14.033 14.098 14.26 14.395 14.485 14.545 14.595 14.645
12.46 12.475 12.498 12.555 12.635 12.715 12.81 12.93 13.07 13.18 13.21 13.197 13.182 13.16 13.097 12.997 12.898 12.813 12.74 12.675 12.615 12.56 12.525 12.505 12.485 12.465 12.447 12.43 12.41 12.39 12.37 12.347 12.317 12.278 12.253 12.243 12.237 12.22 12.198 12.19 12.188 12.212 12.23 12.21 12.19 12.188 12.2 12.217 12.212 12.19 12.17 12.157 12.147 12.132 12.117 12.1 12.07 12.04 12.03 12.033 12.038 12.055 12.095 12.11 12.072 12.02 11.975 11.935 11.898 11.865 11.863 11.897 11.93 11.945 11.96 11.975 11.98 11.98 11.985 12 12.012 12.012 12.002 11.987 11.967 11.94 11.905 11.827 11.675 11.533 11.46 11.413 11.37 11.325 11.31 11.325 11.343 11.373 11.415 11.457 11.482 11.495 11.508 11.523 11.54 11.555 11.57 11.587 11.605 11.632 11.657 11.675 11.69 11.697 11.705 11.725 11.765 11.815 11.855 11.88 11.902 11.922 11.937 11.95 11.973 12.01 12.035 12.045 12.058 12.085 12.14 12.215 12.29 12.365 12.448 12.54 12.635 12.68 12.67 12.653 12.642 12.635 12.62 12.605 12.595 12.582 12.568 12.555 12.545 12.53 12.515 12.505 12.493 12.482 12.457 12.403 12.38 12.41 12.488 12.603 12.72 12.84 12.978 13.14 13.315 13.492 13.585 13.613 13.67 13.745 13.775 13.765 13.792 13.797 13.715 13.595 13.475 13.358 13.24 13.218 13.388 13.535 13.547 13.545 13.54 13.55 13.627 13.715 13.715 13.748 13.872 13.877 13.823 13.913 14.077 14.245 14.39 14.492 14.565 14.635
12.448 12.48 12.515 12.572 12.64 12.718 12.825 12.953 13.095 13.21 13.24 13.225 13.215 13.187 13.107 13.002 12.905 12.812 12.735 12.67 12.61 12.553 12.515 12.495 12.478 12.46 12.443 12.427 12.41 12.39 12.372 12.347 12.308 12.263 12.233 12.215 12.203 12.198 12.2 12.203 12.21 12.242 12.262 12.258 12.26 12.272 12.285 12.287 12.272 12.25 12.23 12.217 12.21 12.197 12.182 12.157 12.115 12.09 12.09 12.09 12.092 12.098 12.112 12.11 12.065 12.013 11.968 11.925 11.885 11.85 11.858 11.905 11.945 11.968 11.983 12 12.02 12.035 12.048 12.065 12.082 12.092 12.087 12.067 12.042 12.017 11.985 11.885 11.71 11.558 11.475 11.43 11.39 11.348 11.333 11.345 11.36 11.383 11.415 11.45 11.475 11.492 11.505 11.52 11.538 11.553 11.57 11.585 11.6 11.623 11.643 11.66 11.678 11.693 11.713 11.75 11.797 11.845 11.885 11.91 11.932 11.955 11.972 11.985 12 12.027 12.05 12.06 12.068 12.085 12.133 12.205 12.28 12.353 12.43 12.518 12.61 12.66 12.652 12.63 12.615 12.607 12.597 12.585 12.575 12.56 12.545 12.535 12.522 12.508 12.495 12.485 12.472 12.457 12.417 12.363 12.358 12.403 12.495 12.618 12.735 12.855 13 13.173 13.35 13.527 13.64 13.702 13.777 13.85 13.875 13.855 13.855 13.827 13.732 13.615 13.495 13.38 13.265 13.285 13.415 13.442 13.408 13.393 13.388 13.408 13.49 13.612 13.69 13.74 13.772 13.675 13.613 13.728 13.893 14.065 14.245 14.377 14.457 14.542
12.45 12.477 12.505 12.558 12.625 12.715 12.835 12.97 13.112 13.237 13.272 13.248 13.235 13.192 13.085 12.97 12.877 12.785 12.715 12.662 12.605 12.545 12.505 12.488 12.472 12.457 12.44 12.423 12.405 12.39 12.38 12.355 12.31 12.26 12.225 12.205 12.198 12.205 12.213 12.223 12.245 12.272 12.29 12.302 12.312 12.32 12.325 12.312 12.29 12.27 12.25 12.245 12.252 12.25 12.24 12.207 12.16 12.143 12.147 12.147 12.142 12.137 12.132 12.107 12.058 12.01 11.967 11.923 11.88 11.85 11.868 11.92 11.968 12.003 12.025 12.048 12.073 12.095 12.115 12.135 12.15 12.157 12.135 12.09 12.055 12.025 11.992 11.9 11.73 11.578 11.498 11.455 11.415 11.373 11.353 11.36 11.375 11.395 11.42 11.448 11.47 11.49 11.505 11.52 11.538 11.553 11.57 11.588 11.605 11.628 11.65 11.67 11.69 11.71 11.73 11.763 11.807 11.852 11.89 11.915 11.937 11.96 11.98 11.997 12.012 12.037 12.065 12.08 12.093 12.11 12.143 12.198 12.265 12.338 12.415 12.498 12.585 12.642 12.64 12.613 12.59 12.575 12.567 12.56 12.552 12.54 12.525 12.515 12.5 12.485 12.475 12.465 12.455 12.425 12.37 12.333 12.34 12.393 12.515 12.685 12.83 12.95 13.1 13.275 13.432 13.577 13.692 13.77 13.842 13.89 13.895 13.88 13.862 13.822 13.745 13.642 13.525 13.408 13.305 13.353 13.432 13.38 13.31 13.258 13.233 13.263 13.355 13.478 13.597 13.672 13.615 13.458 13.448 13.63 13.818 13.97 14.102 14.17 14.22 14.315
12.457 12.458 12.475 12.533 12.608 12.715 12.85 12.99 13.13 13.265 13.31 13.275 13.255 13.195 13.063 12.928 12.823 12.73 12.673 12.64 12.592 12.535 12.498 12.483 12.467 12.452 12.437 12.42 12.405 12.4 12.392 12.365 12.322 12.273 12.235 12.22 12.228 12.24 12.24 12.245 12.262 12.28 12.295 12.312 12.322 12.33 12.332 12.315 12.288 12.265 12.248 12.253 12.275 12.287 12.277 12.24 12.2 12.182 12.18 12.175 12.165 12.15 12.132 12.102 12.058 12.013 11.97 11.928 11.895 11.888 11.92 11.978 12.025 12.06 12.09 12.12 12.145 12.167 12.187 12.202 12.212 12.207 12.16 12.088 12.03 11.988 11.955 11.885 11.74 11.598 11.525 11.485 11.445 11.4 11.375 11.378 11.388 11.405 11.43 11.452 11.47 11.49 11.508 11.523 11.54 11.557 11.573 11.593 11.62 11.65 11.68 11.705 11.725 11.745 11.758 11.77 11.803 11.847 11.882 11.905 11.925 11.943 11.96 11.983 12.01 12.045 12.082 12.11 12.13 12.15 12.175 12.213 12.26 12.323 12.4 12.48 12.565 12.625 12.627 12.6 12.575 12.553 12.535 12.528 12.522 12.515 12.505 12.495 12.48 12.465 12.455 12.442 12.425 12.385 12.333 12.313 12.33 12.385 12.525 12.732 12.925 13.087 13.24 13.385 13.51 13.625 13.722 13.797 13.847 13.852 13.842 13.835 13.817 13.78 13.725 13.655 13.555 13.435 13.368 13.397 13.407 13.34 13.26 13.18 13.118 13.148 13.275 13.42 13.535 13.58 13.49 13.358 13.405 13.605 13.792 13.912 13.94 13.915 13.96 14.09
12.437 12.423 12.445 12.51 12.608 12.735 12.87 13.013 13.155 13.295 13.347 13.31 13.277 13.195 13.047 12.898 12.773 12.68 12.628 12.602 12.57 12.523 12.49 12.477 12.462 12.448 12.433 12.423 12.42 12.42 12.405 12.37 12.33 12.285 12.25 12.245 12.262 12.277 12.275 12.263 12.26 12.273 12.288 12.305 12.322 12.337 12.337 12.315 12.285 12.26 12.25 12.265 12.295 12.315 12.3 12.263 12.228 12.2 12.185 12.175 12.163 12.148 12.13 12.1 12.06 12.018 11.978 11.955 11.953 11.965 12.003 12.055 12.095 12.127 12.16 12.19 12.217 12.242 12.26 12.265 12.262 12.25 12.2 12.12 12.043 11.973 11.923 11.862 11.742 11.62 11.555 11.515 11.475 11.43 11.405 11.405 11.408 11.418 11.437 11.455 11.465 11.488 11.512 11.528 11.543 11.563 11.585 11.61 11.645 11.677 11.7 11.727 11.757 11.78 11.792 11.795 11.808 11.843 11.875 11.895 11.912 11.927 11.945 11.973 12.013 12.055 12.095 12.132 12.162 12.185 12.213 12.248 12.283 12.325 12.385 12.463 12.547 12.61 12.617 12.59 12.563 12.538 12.515 12.498 12.485 12.48 12.477 12.47 12.457 12.445 12.435 12.42 12.39 12.345 12.308 12.303 12.325 12.38 12.515 12.718 12.935 13.147 13.31 13.427 13.54 13.655 13.75 13.802 13.81 13.795 13.785 13.78 13.757 13.72 13.68 13.63 13.562 13.462 13.412 13.405 13.365 13.3 13.22 13.16 13.133 13.185 13.307 13.425 13.51 13.517 13.423 13.358 13.44 13.598 13.762 13.857 13.823 13.755 13.793 13.928
12.4 12.385 12.413 12.5 12.633 12.777 12.908 13.04 13.18 13.32 13.38 13.35 13.295 13.185 13.032 12.878 12.733 12.633 12.585 12.56 12.535 12.503 12.48 12.47 12.457 12.445 12.435 12.435 12.44 12.437 12.415 12.375 12.335 12.295 12.272 12.28 12.3 12.312 12.305 12.285 12.267 12.268 12.283 12.298 12.315 12.335 12.34 12.32 12.29 12.263 12.263 12.29 12.323 12.345 12.33 12.295 12.26 12.223 12.2 12.19 12.175 12.16 12.145 12.11 12.065 12.025 12 12.01 12.035 12.052 12.085 12.127 12.16 12.193 12.225 12.257 12.29 12.312 12.32 12.315 12.305 12.29 12.24 12.16 12.08 11.995 11.92 11.848 11.743 11.64 11.58 11.54 11.5 11.46 11.438 11.435 11.435 11.435 11.443 11.453 11.458 11.485 11.517 11.533 11.55 11.575 11.605 11.632 11.66 11.68 11.69 11.708 11.745 11.795 11.822 11.827 11.832 11.845 11.863 11.88 11.895 11.91 11.938 11.975 12.02 12.065 12.105 12.145 12.185 12.217 12.25 12.285 12.317 12.35 12.388 12.455 12.538 12.6 12.61 12.58 12.55 12.523 12.5 12.478 12.458 12.445 12.44 12.437 12.43 12.422 12.415 12.397 12.36 12.31 12.288 12.3 12.325 12.38 12.508 12.705 12.925 13.145 13.322 13.45 13.567 13.682 13.757 13.767 13.752 13.737 13.712 13.655 13.592 13.565 13.545 13.515 13.482 13.435 13.402 13.375 13.325 13.268 13.228 13.22 13.232 13.272 13.327 13.385 13.445 13.44 13.38 13.385 13.478 13.62 13.785 13.847 13.783 13.723 13.728 13.825
12.363 12.35 12.393 12.513 12.665 12.822 12.965 13.09 13.21 13.34 13.41 13.377 13.287 13.155 13.005 12.853 12.703 12.598 12.553 12.53 12.51 12.493 12.465 12.44 12.43 12.427 12.432 12.44 12.447 12.447 12.42 12.375 12.335 12.295 12.268 12.265 12.28 12.292 12.287 12.272 12.255 12.258 12.278 12.29 12.305 12.322 12.33 12.322 12.3 12.27 12.28 12.322 12.36 12.385 12.37 12.335 12.3 12.27 12.255 12.245 12.23 12.21 12.18 12.13 12.078 12.035 12.023 12.05 12.087 12.117 12.155 12.195 12.227 12.26 12.29 12.323 12.355 12.372 12.368 12.355 12.345 12.332 12.282 12.2 12.12 12.037 11.953 11.865 11.768 11.668 11.6 11.56 11.52 11.49 11.475 11.468 11.465 11.46 11.458 11.458 11.458 11.483 11.517 11.54 11.562 11.587 11.612 11.632 11.645 11.653 11.66 11.67 11.713 11.795 11.842 11.847 11.85 11.847 11.85 11.865 11.88 11.895 11.93 11.977 12.022 12.067 12.11 12.15 12.195 12.237 12.272 12.305 12.335 12.365 12.4 12.465 12.545 12.597 12.607 12.575 12.535 12.508 12.485 12.462 12.44 12.42 12.405 12.4 12.398 12.393 12.388 12.375 12.345 12.313 12.305 12.315 12.328 12.395 12.533 12.708 12.915 13.135 13.327 13.47 13.59 13.687 13.72 13.705 13.69 13.66 13.56 13.405 13.318 13.317 13.317 13.305 13.293 13.323 13.375 13.36 13.305 13.263 13.257 13.27 13.27 13.27 13.288 13.33 13.382 13.39 13.39 13.438 13.513 13.643 13.795 13.822 13.755 13.723 13.713 13.765
12.345 12.328 12.395 12.543 12.698 12.855 13.012 13.152 13.268 13.38 13.432 13.372 13.252 13.11 12.965 12.828 12.698 12.598 12.543 12.52 12.513 12.502 12.46 12.408 12.383 12.39 12.413 12.43 12.453 12.465 12.427 12.368 12.325 12.283 12.243 12.215 12.208 12.215 12.215 12.215 12.23 12.263 12.283 12.283 12.295 12.31 12.315 12.315 12.305 12.283 12.3 12.355 12.4 12.425 12.41 12.375 12.35 12.34 12.335 12.325 12.305 12.265 12.21 12.15 12.093 12.045 12.038 12.07 12.11 12.15 12.195 12.242 12.282 12.317 12.352 12.387 12.42 12.435 12.422 12.4 12.388 12.377 12.325 12.24 12.16 12.08 11.995 11.905 11.81 11.705 11.625 11.58 11.545 11.528 11.517 11.503 11.495 11.49 11.485 11.48 11.473 11.478 11.508 11.542 11.565 11.582 11.597 11.608 11.618 11.638 11.658 11.665 11.71 11.807 11.86 11.855 11.85 11.843 11.84 11.855 11.87 11.885 11.923 11.975 12.02 12.065 12.11 12.15 12.195 12.24 12.275 12.305 12.332 12.36 12.408 12.485 12.57 12.622 12.632 12.605 12.55 12.5 12.47 12.447 12.422 12.4 12.38 12.365 12.37 12.387 12.395 12.38 12.345 12.315 12.305 12.305 12.305 12.395 12.575 12.745 12.92 13.125 13.332 13.49 13.61 13.667 13.655 13.635 13.602 13.525 13.332 13.105 13.023 13.06 13.082 13.068 13.085 13.208 13.357 13.377 13.323 13.288 13.265 13.253 13.25 13.25 13.263 13.295 13.34 13.385 13.435 13.493 13.555 13.67 13.79 13.792 13.745 13.73 13.718 13.725
12.353 12.33 12.41 12.57 12.727 12.885 13.045 13.2 13.335 13.41 13.402 13.332 13.218 13.083 12.95 12.825 12.718 12.628 12.56 12.53 12.525 12.517 12.475 12.405 12.36 12.37 12.403 12.435 12.475 12.492 12.447 12.373 12.315 12.268 12.23 12.195 12.165 12.15 12.155 12.188 12.235 12.287 12.305 12.29 12.29 12.3 12.305 12.305 12.3 12.293 12.32 12.38 12.432 12.462 12.452 12.428 12.42 12.42 12.415 12.395 12.355 12.297 12.235 12.172 12.11 12.058 12.053 12.088 12.125 12.165 12.213 12.267 12.317 12.362 12.405 12.447 12.487 12.502 12.485 12.455 12.435 12.42 12.367 12.283 12.2 12.12 12.035 11.942 11.847 11.748 11.658 11.603 11.58 11.575 11.565 11.545 11.53 11.52 11.515 11.507 11.495 11.483 11.498 11.53 11.55 11.563 11.578 11.6 11.628 11.662 11.675 11.668 11.715 11.817 11.872 11.865 11.852 11.838 11.833 11.847 11.86 11.875 11.915 11.97 12.017 12.065 12.11 12.15 12.192 12.238 12.273 12.3 12.328 12.358 12.418 12.505 12.595 12.662 12.68 12.662 12.615 12.542 12.478 12.433 12.403 12.377 12.352 12.33 12.34 12.385 12.407 12.387 12.345 12.295 12.265 12.26 12.26 12.353 12.557 12.765 12.947 13.13 13.335 13.507 13.612 13.625 13.582 13.547 13.47 13.345 13.132 12.85 12.73 12.8 12.845 12.853 12.943 13.135 13.34 13.402 13.358 13.323 13.288 13.26 13.24 13.23 13.238 13.268 13.333 13.418 13.49 13.548 13.605 13.702 13.78 13.773 13.75 13.737 13.723 13.71
12.365 12.348 12.43 12.59 12.75 12.91 13.07 13.23 13.367 13.402 13.355 13.292 13.2 13.085 12.963 12.845 12.748 12.663 12.6 12.57 12.555 12.54 12.492 12.418 12.375 12.39 12.423 12.453 12.492 12.515 12.475 12.395 12.32 12.26 12.223 12.198 12.178 12.16 12.173 12.22 12.268 12.315 12.332 12.315 12.303 12.298 12.295 12.295 12.293 12.305 12.348 12.403 12.457 12.5 12.507 12.5 12.5 12.5 12.485 12.44 12.38 12.317 12.252 12.187 12.123 12.095 12.095 12.105 12.138 12.175 12.225 12.282 12.337 12.392 12.442 12.492 12.545 12.567 12.55 12.52 12.493 12.465 12.41 12.328 12.245 12.163 12.075 11.98 11.882 11.787 11.693 11.633 11.62 11.617 11.605 11.585 11.565 11.547 11.537 11.527 11.512 11.498 11.498 11.515 11.54 11.565 11.595 11.635 11.675 11.692 11.67 11.663 11.725 11.817 11.867 11.867 11.852 11.833 11.828 11.84 11.853 11.868 11.905 11.96 12.012 12.06 12.097 12.132 12.18 12.255 12.29 12.295 12.323 12.365 12.438 12.525 12.618 12.702 12.717 12.682 12.645 12.577 12.492 12.423 12.378 12.345 12.315 12.29 12.295 12.337 12.36 12.347 12.325 12.285 12.243 12.22 12.215 12.293 12.485 12.717 12.94 13.142 13.342 13.517 13.595 13.565 13.5 13.415 13.29 13.15 12.975 12.51 12.19 12.41 12.615 12.695 12.858 13.078 13.3 13.41 13.392 13.357 13.325 13.295 13.26 13.233 13.22 13.258 13.357 13.465 13.547 13.605 13.658 13.74 13.785 13.77 13.757 13.743 13.73 13.72
12.375 12.363 12.45 12.61 12.77 12.93 13.09 13.25 13.37 13.392 13.34 13.263 13.177 13.082 12.975 12.873 12.783 12.705 12.655 12.63 12.607 12.58 12.525 12.455 12.42 12.433 12.465 12.478 12.498 12.522 12.485 12.405 12.338 12.293 12.268 12.255 12.248 12.24 12.255 12.295 12.335 12.347 12.34 12.33 12.315 12.3 12.29 12.29 12.3 12.333 12.383 12.435 12.487 12.52 12.527 12.53 12.53 12.53 12.507 12.452 12.387 12.322 12.255 12.188 12.158 12.2 12.21 12.173 12.165 12.185 12.235 12.292 12.347 12.402 12.457 12.515 12.577 12.617 12.61 12.58 12.55 12.53 12.483 12.4 12.315 12.212 12.1 11.995 11.895 11.8 11.708 11.65 11.64 11.635 11.62 11.6 11.58 11.56 11.55 11.542 11.528 11.513 11.51 11.53 11.565 11.605 11.645 11.685 11.707 11.69 11.65 11.658 11.727 11.802 11.852 11.862 11.845 11.825 11.82 11.83 11.845 11.86 11.895 11.95 11.997 12.035 12.062 12.09 12.2 12.337 12.347 12.31 12.32 12.378 12.463 12.553 12.65 12.747 12.752 12.68 12.623 12.558 12.485 12.42 12.363 12.313 12.275 12.25 12.245 12.272 12.29 12.28 12.27 12.252 12.225 12.193 12.173 12.233 12.41 12.642 12.875 13.105 13.325 13.507 13.562 13.505 13.45 13.355 13.185 13.005 12.79 12.2 11.768 11.945 12.185 12.49 12.843 13.09 13.307 13.417 13.4 13.365 13.335 13.305 13.272 13.245 13.21 13.248 13.367 13.48 13.57 13.635 13.692 13.755 13.78 13.767 13.76 13.75 13.74 13.727
12.383 12.378 12.47 12.63 12.79 12.95 13.11 13.267 13.367 13.382 13.332 13.245 13.16 13.078 12.99 12.903 12.818 12.753 12.718 12.69 12.66 12.627 12.575 12.52 12.49 12.488 12.515 12.52 12.51 12.512 12.475 12.423 12.398 12.385 12.37 12.353 12.343 12.335 12.348 12.385 12.397 12.352 12.32 12.32 12.31 12.295 12.285 12.295 12.325 12.368 12.42 12.475 12.51 12.507 12.5 12.51 12.515 12.512 12.49 12.442 12.382 12.318 12.253 12.22 12.265 12.355 12.37 12.31 12.258 12.225 12.245 12.3 12.355 12.41 12.465 12.525 12.592 12.65 12.655 12.625 12.618 12.627 12.587 12.497 12.39 12.26 12.125 12 11.888 11.788 11.705 11.658 11.643 11.635 11.62 11.6 11.58 11.56 11.555 11.555 11.542 11.53 11.54 11.575 11.615 11.655 11.695 11.72 11.707 11.667 11.625 11.645 11.717 11.78 11.837 11.857 11.84 11.82 11.813 11.823 11.837 11.85 11.885 11.935 11.967 11.992 12.018 12.095 12.312 12.46 12.42 12.355 12.34 12.403 12.498 12.593 12.69 12.79 12.807 12.72 12.625 12.55 12.483 12.42 12.36 12.3 12.248 12.213 12.195 12.208 12.22 12.21 12.2 12.19 12.18 12.162 12.14 12.175 12.335 12.565 12.803 13.048 13.295 13.48 13.512 13.453 13.425 13.397 13.282 13.09 12.822 12.203 11.74 11.74 11.958 12.48 12.92 13.165 13.357 13.42 13.38 13.345 13.318 13.295 13.277 13.242 13.185 13.223 13.35 13.465 13.555 13.625 13.682 13.72 13.722 13.702 13.695 13.692 13.69 13.685
12.385 12.393 12.49 12.65 12.81 12.97 13.13 13.275 13.36 13.38 13.337 13.253 13.17 13.09 13.013 12.935 12.855 12.803 12.775 12.742 12.707 12.672 12.632 12.595 12.57 12.555 12.565 12.567 12.543 12.528 12.513 12.503 12.507 12.502 12.48 12.455 12.44 12.43 12.442 12.45 12.4 12.32 12.285 12.293 12.295 12.288 12.285 12.313 12.358 12.405 12.457 12.5 12.505 12.48 12.468 12.482 12.497 12.492 12.467 12.43 12.377 12.313 12.28 12.323 12.415 12.51 12.525 12.462 12.38 12.275 12.248 12.305 12.365 12.42 12.475 12.538 12.61 12.682 12.7 12.688 12.723 12.742 12.682 12.572 12.44 12.302 12.167 12.03 11.9 11.78 11.703 11.67 11.648 11.635 11.62 11.6 11.58 11.56 11.555 11.562 11.558 11.558 11.585 11.625 11.665 11.705 11.73 11.72 11.685 11.643 11.608 11.633 11.698 11.755 11.815 11.845 11.835 11.815 11.808 11.818 11.83 11.84 11.872 11.91 11.927 11.945 12.003 12.185 12.457 12.562 12.495 12.458 12.463 12.498 12.558 12.638 12.733 12.83 12.875 12.805 12.693 12.608 12.53 12.455 12.383 12.31 12.243 12.188 12.15 12.145 12.15 12.14 12.13 12.12 12.11 12.108 12.105 12.138 12.29 12.528 12.78 13.04 13.3 13.455 13.457 13.408 13.388 13.405 13.397 13.31 13.097 12.62 12.263 12.223 12.39 12.742 13.017 13.235 13.385 13.402 13.365 13.34 13.325 13.315 13.295 13.212 13.135 13.195 13.327 13.447 13.54 13.595 13.627 13.65 13.64 13.603 13.575 13.565 13.568 13.578
12.378 12.403 12.51 12.67 12.83 12.99 13.15 13.28 13.355 13.39 13.357 13.275 13.195 13.115 13.037 12.962 12.897 12.852 12.815 12.775 12.735 12.695 12.667 12.652 12.64 12.627 12.62 12.613 12.595 12.585 12.595 12.612 12.622 12.615 12.592 12.567 12.545 12.527 12.51 12.458 12.368 12.283 12.255 12.273 12.29 12.29 12.295 12.337 12.392 12.445 12.487 12.5 12.48 12.45 12.433 12.445 12.47 12.47 12.445 12.412 12.368 12.34 12.38 12.47 12.567 12.66 12.652 12.547 12.425 12.285 12.24 12.3 12.365 12.422 12.483 12.553 12.63 12.71 12.757 12.79 12.85 12.85 12.752 12.62 12.48 12.342 12.205 12.067 11.927 11.78 11.695 11.672 11.65 11.635 11.62 11.6 11.583 11.565 11.56 11.57 11.577 11.597 11.632 11.67 11.707 11.742 11.745 11.71 11.673 11.635 11.605 11.625 11.685 11.745 11.807 11.84 11.83 11.808 11.8 11.813 11.825 11.835 11.855 11.875 11.885 11.915 12.058 12.33 12.582 12.645 12.613 12.648 12.685 12.693 12.705 12.74 12.795 12.875 12.945 12.905 12.8 12.715 12.63 12.545 12.46 12.375 12.295 12.218 12.145 12.11 12.11 12.113 12.115 12.115 12.115 12.12 12.133 12.213 12.378 12.58 12.818 13.073 13.317 13.427 13.4 13.37 13.37 13.39 13.41 13.412 13.33 13.17 13.037 12.917 12.867 12.968 13.135 13.317 13.415 13.398 13.37 13.363 13.36 13.35 13.28 13.135 13.073 13.162 13.297 13.427 13.512 13.542 13.563 13.59 13.585 13.543 13.5 13.47 13.48 13.53
12.388 12.423 12.538 12.695 12.855 13.015 13.175 13.282 13.337 13.367 13.33 13.252 13.177 13.102 13.025 12.962 12.915 12.867 12.825 12.78 12.735 12.693 12.67 12.67 12.672 12.672 12.667 12.665 12.662 12.66 12.67 12.695 12.712 12.705 12.685 12.66 12.635 12.612 12.572 12.503 12.413 12.33 12.308 12.333 12.342 12.307 12.288 12.33 12.39 12.452 12.497 12.495 12.463 12.428 12.4 12.408 12.445 12.455 12.43 12.395 12.358 12.373 12.45 12.542 12.635 12.725 12.695 12.55 12.41 12.27 12.228 12.287 12.35 12.42 12.493 12.565 12.645 12.725 12.792 12.85 12.912 12.902 12.79 12.652 12.515 12.375 12.235 12.09 11.935 11.773 11.683 11.665 11.648 11.638 11.627 11.61 11.593 11.575 11.568 11.575 11.582 11.602 11.637 11.672 11.71 11.755 11.77 11.74 11.703 11.665 11.633 11.638 11.688 11.752 11.815 11.84 11.827 11.808 11.8 11.813 11.825 11.838 11.85 11.86 11.87 11.908 12.128 12.482 12.71 12.772 12.815 12.885 12.92 12.925 12.93 12.935 12.945 12.982 13.03 13.002 12.907 12.815 12.722 12.632 12.542 12.45 12.357 12.262 12.173 12.133 12.148 12.168 12.18 12.19 12.203 12.215 12.27 12.418 12.585 12.735 12.913 13.13 13.335 13.407 13.395 13.405 13.425 13.445 13.465 13.467 13.442 13.415 13.355 13.21 13.1 13.16 13.31 13.422 13.445 13.413 13.395 13.395 13.395 13.345 13.205 13.028 12.983 13.09 13.225 13.365 13.46 13.495 13.518 13.555 13.562 13.52 13.475 13.44 13.475 13.57
12.43 12.478 12.59 12.728 12.88 13.04 13.195 13.272 13.302 13.31 13.25 13.173 13.1 13.03 12.958 12.912 12.887 12.85 12.812 12.77 12.725 12.69 12.675 12.675 12.68 12.688 12.695 12.705 12.715 12.722 12.732 12.752 12.77 12.77 12.755 12.73 12.705 12.68 12.65 12.605 12.532 12.455 12.433 12.44 12.4 12.313 12.263 12.295 12.36 12.442 12.497 12.497 12.47 12.43 12.395 12.395 12.435 12.45 12.425 12.393 12.36 12.373 12.443 12.53 12.62 12.71 12.685 12.538 12.39 12.25 12.21 12.27 12.343 12.438 12.517 12.58 12.655 12.732 12.792 12.843 12.9 12.907 12.815 12.677 12.54 12.395 12.245 12.085 11.92 11.758 11.668 11.653 11.645 11.645 11.64 11.625 11.605 11.583 11.573 11.575 11.568 11.573 11.605 11.645 11.693 11.755 11.802 11.797 11.76 11.72 11.693 11.685 11.705 11.758 11.81 11.83 11.827 11.815 11.81 11.82 11.83 11.845 11.86 11.87 11.875 11.895 12.135 12.545 12.792 12.902 13.01 13.085 13.097 13.082 13.067 13.05 13.032 13.02 13.015 13 12.95 12.867 12.77 12.672 12.575 12.475 12.377 12.28 12.205 12.188 12.222 12.26 12.275 12.285 12.298 12.328 12.463 12.66 12.812 12.95 13.09 13.252 13.392 13.448 13.475 13.51 13.535 13.555 13.557 13.52 13.455 13.44 13.45 13.37 13.288 13.348 13.457 13.495 13.472 13.435 13.423 13.43 13.435 13.332 13.125 12.915 12.863 12.985 13.125 13.27 13.397 13.462 13.488 13.532 13.55 13.513 13.473 13.448 13.503 13.617
12.483 12.555 12.665 12.78 12.913 13.065 13.202 13.252 13.265 13.247 13.17 13.09 13.015 12.943 12.87 12.838 12.84 12.825 12.792 12.755 12.715 12.688 12.683 12.688 12.695 12.705 12.718 12.73 12.743 12.758 12.778 12.802 12.82 12.825 12.817 12.797 12.775 12.747 12.715 12.682 12.635 12.575 12.537 12.492 12.402 12.298 12.24 12.27 12.353 12.45 12.5 12.497 12.482 12.45 12.42 12.415 12.438 12.45 12.43 12.403 12.378 12.383 12.44 12.52 12.605 12.695 12.68 12.535 12.375 12.23 12.19 12.265 12.365 12.47 12.545 12.598 12.663 12.732 12.787 12.833 12.882 12.912 12.845 12.702 12.552 12.395 12.233 12.068 11.903 11.743 11.658 11.648 11.65 11.655 11.652 11.637 11.615 11.59 11.578 11.572 11.555 11.55 11.578 11.628 11.688 11.755 11.817 11.84 11.815 11.778 11.755 11.745 11.743 11.77 11.807 11.822 11.825 11.818 11.815 11.827 11.84 11.855 11.87 11.875 11.868 11.873 12.105 12.472 12.69 12.825 12.957 13.047 13.052 13.02 12.985 12.945 12.907 12.875 12.855 12.857 12.865 12.85 12.785 12.687 12.59 12.49 12.393 12.3 12.248 12.245 12.278 12.335 12.37 12.38 12.393 12.478 12.688 12.895 13.037 13.175 13.285 13.362 13.437 13.512 13.577 13.622 13.647 13.642 13.6 13.532 13.458 13.428 13.465 13.48 13.462 13.495 13.53 13.527 13.503 13.47 13.465 13.48 13.47 13.33 13.093 12.89 12.823 12.908 13.043 13.183 13.325 13.417 13.463 13.52 13.54 13.51 13.483 13.468 13.53 13.657
12.543 12.64 12.75 12.86 12.975 13.105 13.207 13.233 13.222 13.177 13.093 13.01 12.933 12.858 12.79 12.77 12.785 12.787 12.768 12.743 12.723 12.708 12.705 12.71 12.72 12.73 12.743 12.755 12.77 12.793 12.82 12.85 12.87 12.872 12.867 12.86 12.842 12.812 12.78 12.747 12.71 12.662 12.592 12.497 12.39 12.283 12.223 12.263 12.365 12.46 12.497 12.49 12.483 12.465 12.45 12.45 12.455 12.458 12.443 12.42 12.4 12.405 12.455 12.525 12.6 12.682 12.672 12.537 12.373 12.218 12.19 12.293 12.407 12.505 12.567 12.615 12.673 12.732 12.783 12.828 12.873 12.915 12.862 12.712 12.552 12.388 12.223 12.06 11.895 11.74 11.668 11.665 11.668 11.673 11.67 11.65 11.623 11.598 11.58 11.565 11.545 11.53 11.558 11.62 11.685 11.755 11.82 11.867 11.867 11.835 11.815 11.805 11.795 11.798 11.81 11.818 11.82 11.818 11.82 11.835 11.852 11.867 11.875 11.868 11.853 11.853 12.04 12.302 12.452 12.585 12.715 12.815 12.837 12.81 12.775 12.735 12.7 12.678 12.673 12.678 12.697 12.73 12.727 12.682 12.605 12.505 12.408 12.33 12.3 12.303 12.325 12.385 12.447 12.475 12.518 12.683 12.932 13.125 13.232 13.31 13.36 13.378 13.43 13.527 13.625 13.702 13.725 13.677 13.605 13.535 13.463 13.418 13.44 13.5 13.55 13.57 13.568 13.563 13.548 13.533 13.53 13.54 13.492 13.323 13.13 13 12.915 12.905 12.993 13.12 13.255 13.367 13.437 13.497 13.52 13.5 13.482 13.485 13.56 13.69
12.615 12.728 12.84 12.953 13.07 13.193 13.265 13.263 13.205 13.11 13.018 12.933 12.85 12.773 12.718 12.708 12.725 12.75 12.768 12.77 12.765 12.76 12.755 12.753 12.755 12.758 12.768 12.785 12.81 12.84 12.87 12.898 12.917 12.92 12.915 12.915 12.902 12.872 12.837 12.8 12.755 12.695 12.607 12.5 12.39 12.293 12.258 12.32 12.425 12.495 12.52 12.52 12.513 12.503 12.49 12.485 12.487 12.482 12.465 12.443 12.42 12.423 12.472 12.542 12.605 12.665 12.662 12.555 12.395 12.233 12.215 12.332 12.45 12.54 12.59 12.633 12.685 12.737 12.783 12.83 12.877 12.895 12.825 12.695 12.555 12.395 12.23 12.07 11.908 11.765 11.705 11.708 11.707 11.7 11.685 11.66 11.63 11.605 11.585 11.565 11.545 11.53 11.528 11.54 11.612 11.73 11.817 11.882 11.912 11.895 11.875 11.865 11.852 11.838 11.83 11.833 11.835 11.833 11.835 11.85 11.868 11.882 11.885 11.87 11.853 11.845 11.935 12.088 12.215 12.343 12.47 12.58 12.615 12.592 12.562 12.528 12.498 12.488 12.495 12.5 12.513 12.54 12.57 12.587 12.575 12.515 12.425 12.37 12.36 12.36 12.38 12.43 12.5 12.563 12.685 12.915 13.135 13.262 13.307 13.325 13.345 13.365 13.413 13.503 13.61 13.695 13.707 13.665 13.607 13.537 13.465 13.408 13.415 13.493 13.577 13.617 13.618 13.613 13.61 13.608 13.603 13.605 13.532 13.378 13.255 13.16 13.065 12.99 12.995 13.093 13.217 13.317 13.377 13.43 13.455 13.44 13.435 13.48 13.585 13.715
12.72 12.842 12.965 13.085 13.21 13.34 13.4 13.352 13.238 13.105 12.995 12.893 12.79 12.695 12.648 12.66 12.693 12.735 12.785 12.82 12.825 12.82 12.815 12.81 12.805 12.8 12.813 12.84 12.868 12.895 12.925 12.953 12.97 12.972 12.97 12.965 12.95 12.92 12.88 12.835 12.777 12.705 12.612 12.508 12.415 12.355 12.355 12.43 12.51 12.537 12.557 12.582 12.585 12.572 12.55 12.528 12.523 12.517 12.497 12.472 12.442 12.428 12.465 12.527 12.58 12.615 12.61 12.552 12.43 12.27 12.248 12.365 12.477 12.555 12.6 12.643 12.695 12.747 12.795 12.842 12.867 12.83 12.737 12.632 12.517 12.387 12.245 12.09 11.93 11.805 11.76 11.757 11.745 11.72 11.693 11.667 11.64 11.615 11.595 11.575 11.56 11.555 11.523 11.468 11.473 11.555 11.672 11.8 11.912 11.947 11.927 11.912 11.895 11.878 11.87 11.87 11.865 11.855 11.855 11.87 11.888 11.907 11.912 11.895 11.878 11.868 11.905 11.985 12.065 12.14 12.23 12.34 12.385 12.365 12.343 12.318 12.303 12.308 12.32 12.328 12.338 12.36 12.39 12.423 12.457 12.462 12.432 12.415 12.412 12.41 12.425 12.47 12.548 12.638 12.803 13.045 13.222 13.285 13.298 13.315 13.335 13.355 13.393 13.473 13.577 13.632 13.625 13.605 13.572 13.525 13.467 13.4 13.393 13.503 13.625 13.672 13.68 13.678 13.68 13.685 13.682 13.675 13.615 13.51 13.415 13.32 13.225 13.13 13.06 13.09 13.192 13.26 13.288 13.33 13.355 13.348 13.383 13.48 13.605 13.732
12.797 12.952 13.105 13.247 13.38 13.51 13.545 13.442 13.295 13.15 13.025 12.913 12.795 12.695 12.66 12.678 12.703 12.74 12.795 12.847 12.875 12.88 12.875 12.87 12.868 12.868 12.883 12.91 12.938 12.963 12.99 13.015 13.025 13.025 13.022 13.01 12.99 12.96 12.912 12.852 12.785 12.712 12.62 12.533 12.48 12.45 12.463 12.52 12.557 12.56 12.58 12.62 12.647 12.647 12.625 12.595 12.57 12.555 12.525 12.477 12.425 12.398 12.428 12.48 12.53 12.545 12.52 12.49 12.43 12.308 12.283 12.39 12.487 12.555 12.603 12.653 12.707 12.76 12.81 12.837 12.815 12.74 12.64 12.535 12.425 12.32 12.207 12.077 11.94 11.84 11.802 11.782 11.757 11.73 11.7 11.675 11.65 11.625 11.605 11.59 11.588 11.587 11.555 11.49 11.423 11.39 11.42 11.535 11.702 11.815 11.875 11.922 11.93 11.912 11.905 11.902 11.89 11.875 11.875 11.893 11.918 11.942 11.945 11.93 11.923 11.92 11.955 12.01 12.045 12.07 12.11 12.173 12.198 12.188 12.183 12.178 12.183 12.2 12.215 12.228 12.245 12.268 12.298 12.333 12.363 12.39 12.412 12.42 12.417 12.417 12.44 12.505 12.608 12.715 12.858 13.077 13.245 13.29 13.298 13.308 13.325 13.345 13.38 13.448 13.525 13.552 13.535 13.513 13.488 13.465 13.435 13.388 13.398 13.538 13.675 13.72 13.735 13.74 13.745 13.755 13.76 13.75 13.717 13.657 13.575 13.48 13.385 13.29 13.19 13.135 13.158 13.193 13.208 13.238 13.26 13.293 13.385 13.505 13.625 13.732
12.805 12.985 13.162 13.332 13.49 13.635 13.647 13.51 13.355 13.2 13.055 12.943 12.85 12.788 12.77 12.768 12.768 12.783 12.823 12.875 12.917 12.935 12.932 12.93 12.93 12.937 12.957 12.982 13.01 13.035 13.057 13.072 13.075 13.07 13.057 13.04 13.02 12.987 12.93 12.86 12.79 12.72 12.653 12.605 12.577 12.552 12.555 12.577 12.582 12.58 12.598 12.635 12.675 12.7 12.685 12.647 12.61 12.575 12.522 12.448 12.375 12.353 12.388 12.435 12.472 12.465 12.43 12.4 12.37 12.31 12.31 12.405 12.495 12.56 12.612 12.667 12.72 12.772 12.807 12.792 12.735 12.645 12.54 12.435 12.33 12.235 12.14 12.04 11.935 11.853 11.81 11.782 11.757 11.732 11.705 11.68 11.657 11.635 11.618 11.612 11.617 11.62 11.587 11.523 11.46 11.395 11.33 11.33 11.433 11.568 11.69 11.8 11.873 11.915 11.932 11.925 11.91 11.895 11.898 11.92 11.95 11.975 11.98 11.977 11.98 11.98 12.002 12.037 12.065 12.092 12.113 12.12 12.115 12.11 12.118 12.13 12.145 12.163 12.18 12.203 12.23 12.258 12.285 12.313 12.338 12.363 12.38 12.385 12.388 12.395 12.445 12.547 12.665 12.78 12.905 13.115 13.275 13.3 13.305 13.31 13.32 13.335 13.37 13.427 13.468 13.47 13.46 13.45 13.44 13.43 13.418 13.403 13.443 13.592 13.725 13.765 13.785 13.8 13.81 13.82 13.83 13.825 13.8 13.765 13.712 13.635 13.535 13.42 13.297 13.195 13.193 13.228 13.218 13.205 13.213 13.285 13.405 13.525 13.63 13.71
12.8 12.98 13.16 13.337 13.512 13.662 13.672 13.55 13.405 13.252 13.098 12.965 12.898 12.882 12.875 12.867 12.862 12.858 12.88 12.927 12.962 12.975 12.975 12.975 12.975 12.99 13.02 13.047 13.075 13.1 13.107 13.1 13.09 13.075 13.055 13.035 13.017 12.987 12.93 12.86 12.79 12.73 12.695 12.672 12.65 12.627 12.615 12.612 12.608 12.603 12.615 12.65 12.687 12.717 12.702 12.655 12.615 12.57 12.507 12.43 12.36 12.34 12.37 12.41 12.42 12.393 12.358 12.325 12.295 12.28 12.315 12.4 12.487 12.547 12.597 12.652 12.707 12.76 12.765 12.718 12.663 12.588 12.493 12.398 12.305 12.218 12.133 12.04 11.933 11.843 11.795 11.77 11.745 11.72 11.695 11.67 11.65 11.635 11.625 11.622 11.627 11.632 11.615 11.567 11.507 11.443 11.378 11.343 11.42 11.555 11.66 11.765 11.87 11.947 11.967 11.955 11.94 11.923 11.925 11.95 11.977 11.997 12.005 12.01 12.015 12.017 12.035 12.06 12.085 12.115 12.13 12.125 12.115 12.105 12.108 12.123 12.138 12.15 12.17 12.2 12.23 12.263 12.29 12.31 12.335 12.36 12.375 12.38 12.385 12.395 12.445 12.547 12.665 12.782 12.915 13.115 13.275 13.315 13.32 13.325 13.33 13.335 13.365 13.417 13.453 13.455 13.453 13.465 13.483 13.493 13.493 13.49 13.525 13.655 13.785 13.832 13.858 13.88 13.888 13.89 13.897 13.895 13.872 13.84 13.792 13.705 13.582 13.445 13.303 13.225 13.283 13.377 13.397 13.36 13.33 13.34 13.41 13.525 13.62 13.69
12.8 12.98 13.157 13.332 13.5 13.625 13.63 13.54 13.425 13.287 13.14 13.003 12.945 12.952 12.952 12.95 12.945 12.935 12.95 12.987 13.007 13.01 13.01 13.01 13.013 13.033 13.065 13.095 13.122 13.135 13.117 13.088 13.065 13.045 13.025 13.008 12.995 12.972 12.92 12.85 12.79 12.753 12.728 12.705 12.688 12.67 12.655 12.645 12.638 12.63 12.638 12.667 12.7 12.725 12.705 12.653 12.61 12.565 12.502 12.43 12.37 12.348 12.37 12.395 12.377 12.338 12.303 12.27 12.255 12.27 12.315 12.385 12.462 12.52 12.563 12.61 12.665 12.705 12.695 12.668 12.657 12.605 12.513 12.428 12.342 12.255 12.162 12.055 11.933 11.83 11.778 11.753 11.727 11.703 11.677 11.653 11.633 11.633 11.635 11.625 11.625 11.63 11.622 11.597 11.555 11.497 11.433 11.423 11.55 11.712 11.822 11.92 11.987 12.015 12.012 11.997 11.98 11.958 11.955 11.98 12 12.01 12.017 12.023 12.028 12.038 12.058 12.08 12.105 12.135 12.147 12.142 12.135 12.125 12.125 12.14 12.152 12.16 12.18 12.21 12.243 12.28 12.31 12.333 12.357 12.377 12.39 12.398 12.405 12.415 12.45 12.52 12.62 12.738 12.89 13.067 13.212 13.307 13.34 13.345 13.35 13.348 13.365 13.413 13.467 13.492 13.498 13.52 13.55 13.575 13.592 13.602 13.623 13.72 13.842 13.91 13.95 13.975 13.977 13.968 13.965 13.965 13.945 13.892 13.802 13.677 13.537 13.395 13.285 13.27 13.358 13.492 13.6 13.63 13.595 13.535 13.515 13.55 13.608 13.675
12.795 12.975 13.153 13.33 13.477 13.575 13.575 13.495 13.407 13.3 13.165 13.05 13.01 13.015 13.02 13.02 13.017 13.013 13.02 13.037 13.045 13.045 13.045 13.045 13.053 13.075 13.105 13.135 13.15 13.137 13.105 13.07 13.043 13.02 13 12.985 12.975 12.957 12.91 12.853 12.815 12.788 12.762 12.74 12.725 12.71 12.695 12.685 12.672 12.66 12.66 12.68 12.71 12.735 12.715 12.658 12.608 12.562 12.5 12.433 12.38 12.355 12.372 12.375 12.335 12.288 12.25 12.233 12.248 12.28 12.325 12.385 12.445 12.495 12.535 12.575 12.62 12.655 12.665 12.673 12.69 12.652 12.558 12.465 12.38 12.287 12.175 12.052 11.93 11.82 11.76 11.735 11.71 11.685 11.66 11.638 11.625 11.642 11.655 11.64 11.628 11.625 11.617 11.6 11.577 11.542 11.488 11.505 11.67 11.857 11.972 12.032 12.052 12.057 12.055 12.037 12.015 11.99 11.985 12.005 12.017 12.023 12.03 12.038 12.048 12.065 12.085 12.105 12.128 12.155 12.165 12.157 12.15 12.143 12.145 12.157 12.165 12.17 12.19 12.223 12.26 12.3 12.33 12.352 12.375 12.392 12.405 12.415 12.425 12.435 12.47 12.525 12.595 12.695 12.842 12.995 13.12 13.245 13.332 13.365 13.367 13.36 13.368 13.41 13.475 13.52 13.542 13.57 13.6 13.63 13.66 13.685 13.708 13.778 13.88 13.965 14.032 14.07 14.072 14.057 14.045 14.037 13.995 13.895 13.765 13.63 13.49 13.36 13.31 13.34 13.43 13.565 13.707 13.797 13.78 13.707 13.635 13.598 13.618 13.665
12.788 12.97 13.15 13.318 13.44 13.525 13.525 13.445 13.365 13.28 13.18 13.108 13.083 13.08 13.085 13.085 13.085 13.085 13.085 13.083 13.08 13.078 13.075 13.075 13.088 13.115 13.145 13.162 13.155 13.13 13.095 13.06 13.028 12.998 12.978 12.965 12.955 12.945 12.915 12.878 12.85 12.82 12.795 12.778 12.765 12.752 12.737 12.722 12.705 12.69 12.688 12.7 12.723 12.745 12.725 12.665 12.608 12.557 12.5 12.44 12.393 12.365 12.365 12.345 12.295 12.248 12.213 12.215 12.247 12.282 12.322 12.37 12.415 12.457 12.5 12.54 12.577 12.615 12.65 12.677 12.702 12.697 12.622 12.512 12.41 12.3 12.175 12.05 11.927 11.81 11.743 11.718 11.695 11.67 11.645 11.628 11.63 11.657 11.67 11.655 11.635 11.623 11.612 11.595 11.577 11.56 11.528 11.583 11.775 11.98 12.085 12.1 12.103 12.105 12.095 12.07 12.045 12.02 12.01 12.02 12.03 12.037 12.045 12.057 12.075 12.092 12.11 12.127 12.145 12.167 12.177 12.17 12.162 12.157 12.16 12.17 12.175 12.18 12.203 12.24 12.28 12.32 12.35 12.37 12.39 12.41 12.425 12.435 12.445 12.455 12.49 12.545 12.6 12.673 12.785 12.915 13.035 13.155 13.273 13.36 13.382 13.37 13.37 13.408 13.475 13.532 13.567 13.595 13.622 13.65 13.68 13.707 13.755 13.843 13.935 14.018 14.097 14.157 14.167 14.145 14.122 14.095 14.002 13.855 13.715 13.58 13.44 13.355 13.365 13.41 13.5 13.635 13.767 13.837 13.805 13.72 13.635 13.625 13.67 13.7
12.878 13.053 13.225 13.345 13.425 13.512 13.48 13.365 13.285 13.24 13.203 13.165 13.155 13.15 13.15 13.153 13.16 13.162 13.153 13.135 13.123 13.118 13.115 13.115 13.125 13.153 13.182 13.185 13.163 13.14 13.11 13.075 13.043 13.008 12.988 12.98 12.97 12.965 12.96 12.943 12.913 12.88 12.848 12.82 12.805 12.792 12.777 12.76 12.74 12.725 12.72 12.728 12.742 12.757 12.735 12.675 12.615 12.558 12.503 12.453 12.408 12.375 12.35 12.313 12.268 12.225 12.198 12.203 12.232 12.267 12.302 12.335 12.37 12.412 12.455 12.495 12.53 12.565 12.605 12.645 12.68 12.695 12.637 12.52 12.405 12.287 12.162 12.04 11.915 11.79 11.723 11.707 11.687 11.663 11.64 11.623 11.633 11.665 11.682 11.675 11.655 11.635 11.595 11.555 11.537 11.517 11.513 11.643 11.88 12.092 12.187 12.185 12.185 12.182 12.145 12.098 12.072 12.048 12.033 12.033 12.04 12.05 12.058 12.07 12.087 12.102 12.115 12.125 12.14 12.16 12.172 12.17 12.165 12.16 12.163 12.175 12.182 12.188 12.21 12.252 12.295 12.335 12.365 12.385 12.405 12.427 12.447 12.46 12.47 12.48 12.51 12.563 12.617 12.675 12.775 12.91 13.03 13.145 13.263 13.362 13.4 13.39 13.383 13.413 13.477 13.535 13.567 13.587 13.61 13.635 13.665 13.703 13.788 13.917 14.025 14.1 14.167 14.23 14.24 14.205 14.175 14.132 14.012 13.838 13.675 13.53 13.418 13.393 13.438 13.483 13.57 13.707 13.8 13.815 13.772 13.693 13.633 13.67 13.74 13.767
13.083 13.248 13.397 13.47 13.5 13.56 13.453 13.29 13.27 13.298 13.275 13.218 13.215 13.22 13.223 13.233 13.245 13.245 13.227 13.203 13.18 13.168 13.163 13.163 13.168 13.188 13.215 13.212 13.19 13.175 13.152 13.12 13.087 13.05 13.03 13.027 13.02 13.013 13.015 13.02 13.005 12.975 12.932 12.88 12.845 12.828 12.813 12.798 12.788 12.778 12.76 12.75 12.758 12.77 12.745 12.685 12.625 12.565 12.51 12.465 12.42 12.375 12.335 12.295 12.255 12.215 12.19 12.19 12.21 12.24 12.275 12.302 12.328 12.365 12.405 12.445 12.48 12.515 12.555 12.595 12.627 12.645 12.592 12.48 12.375 12.262 12.14 12.02 11.89 11.755 11.69 11.687 11.677 11.66 11.637 11.618 11.628 11.66 11.685 11.695 11.685 11.657 11.585 11.495 11.45 11.428 11.47 11.685 11.975 12.205 12.302 12.297 12.292 12.282 12.222 12.14 12.098 12.075 12.06 12.053 12.053 12.06 12.065 12.07 12.08 12.095 12.105 12.108 12.12 12.137 12.15 12.155 12.155 12.153 12.158 12.172 12.185 12.193 12.215 12.257 12.3 12.34 12.37 12.393 12.418 12.445 12.47 12.487 12.5 12.51 12.535 12.583 12.633 12.688 12.798 12.947 13.087 13.215 13.33 13.402 13.42 13.417 13.41 13.428 13.483 13.535 13.56 13.573 13.593 13.618 13.645 13.715 13.843 13.99 14.107 14.18 14.237 14.292 14.295 14.248 14.21 14.165 14.045 13.86 13.673 13.51 13.44 13.463 13.51 13.555 13.64 13.752 13.79 13.775 13.737 13.665 13.655 13.737 13.805 13.832
13.295 13.475 13.595 13.642 13.645 13.635 13.505 13.385 13.432 13.425 13.322 13.27 13.28 13.3 13.315 13.327 13.332 13.325 13.305 13.277 13.25 13.227 13.213 13.208 13.213 13.225 13.242 13.24 13.225 13.215 13.195 13.165 13.13 13.09 13.07 13.07 13.067 13.06 13.06 13.075 13.085 13.07 13.022 12.957 12.9 12.868 12.853 12.845 12.847 12.837 12.81 12.783 12.773 12.78 12.755 12.695 12.635 12.575 12.52 12.472 12.42 12.358 12.31 12.277 12.242 12.205 12.183 12.185 12.198 12.218 12.247 12.267 12.278 12.308 12.352 12.395 12.43 12.465 12.505 12.542 12.57 12.59 12.542 12.438 12.34 12.235 12.12 11.995 11.852 11.713 11.65 11.65 11.65 11.645 11.63 11.613 11.623 11.652 11.675 11.695 11.705 11.685 11.605 11.485 11.39 11.34 11.443 11.725 12.045 12.307 12.415 12.407 12.395 12.38 12.317 12.213 12.138 12.105 12.09 12.08 12.073 12.073 12.075 12.075 12.078 12.088 12.097 12.1 12.105 12.115 12.125 12.135 12.142 12.145 12.153 12.167 12.182 12.195 12.22 12.262 12.305 12.345 12.375 12.403 12.435 12.465 12.49 12.51 12.525 12.535 12.563 12.608 12.653 12.71 12.82 12.97 13.123 13.267 13.38 13.43 13.437 13.44 13.437 13.448 13.49 13.535 13.555 13.565 13.58 13.603 13.65 13.76 13.912 14.057 14.165 14.235 14.292 14.347 14.355 14.303 14.248 14.197 14.077 13.895 13.72 13.57 13.52 13.55 13.585 13.628 13.697 13.752 13.752 13.737 13.702 13.66 13.7 13.805 13.87 13.897
13.45 13.677 13.775 13.76 13.725 13.667 13.58 13.53 13.55 13.455 13.313 13.295 13.322 13.347 13.37 13.387 13.397 13.397 13.377 13.345 13.312 13.28 13.258 13.253 13.26 13.267 13.273 13.27 13.26 13.252 13.237 13.207 13.17 13.133 13.113 13.11 13.11 13.107 13.108 13.117 13.135 13.132 13.087 13.025 12.962 12.92 12.908 12.91 12.912 12.895 12.865 12.835 12.81 12.797 12.765 12.705 12.645 12.585 12.528 12.47 12.405 12.335 12.283 12.25 12.22 12.188 12.173 12.18 12.19 12.202 12.217 12.225 12.225 12.245 12.29 12.337 12.377 12.415 12.452 12.482 12.507 12.53 12.49 12.395 12.3 12.2 12.095 11.965 11.808 11.668 11.61 11.61 11.613 11.615 11.612 11.605 11.618 11.645 11.665 11.685 11.705 11.71 11.647 11.533 11.418 11.33 11.455 11.775 12.102 12.392 12.517 12.507 12.492 12.477 12.415 12.305 12.205 12.14 12.115 12.105 12.095 12.087 12.085 12.085 12.085 12.09 12.095 12.095 12.095 12.1 12.11 12.12 12.13 12.138 12.148 12.163 12.18 12.198 12.225 12.268 12.31 12.352 12.387 12.42 12.455 12.485 12.51 12.53 12.547 12.56 12.59 12.638 12.683 12.745 12.863 13.015 13.165 13.302 13.397 13.432 13.44 13.447 13.452 13.465 13.5 13.537 13.552 13.56 13.57 13.6 13.693 13.838 13.987 14.115 14.212 14.285 14.345 14.4 14.412 14.365 14.3 14.24 14.125 13.96 13.805 13.68 13.64 13.663 13.69 13.725 13.745 13.733 13.715 13.703 13.67 13.678 13.768 13.875 13.937 13.947
13.525 13.752 13.812 13.75 13.687 13.627 13.567 13.515 13.48 13.395 13.295 13.28 13.31 13.337 13.365 13.39 13.41 13.427 13.422 13.392 13.355 13.315 13.29 13.29 13.3 13.307 13.31 13.307 13.3 13.293 13.28 13.25 13.213 13.178 13.155 13.15 13.15 13.15 13.148 13.15 13.165 13.16 13.115 13.055 13.008 12.983 12.975 12.977 12.975 12.955 12.925 12.895 12.863 12.832 12.787 12.725 12.665 12.603 12.553 12.505 12.44 12.373 12.32 12.285 12.25 12.2 12.168 12.168 12.175 12.185 12.187 12.183 12.178 12.188 12.225 12.275 12.32 12.363 12.398 12.42 12.443 12.465 12.44 12.358 12.263 12.168 12.08 11.978 11.833 11.693 11.628 11.615 11.605 11.598 11.595 11.595 11.613 11.643 11.665 11.688 11.71 11.727 11.712 11.637 11.53 11.428 11.538 11.86 12.18 12.452 12.565 12.555 12.542 12.53 12.47 12.36 12.247 12.158 12.123 12.115 12.105 12.095 12.097 12.105 12.105 12.108 12.108 12.105 12.108 12.115 12.125 12.135 12.143 12.145 12.153 12.168 12.185 12.205 12.235 12.275 12.315 12.358 12.397 12.432 12.467 12.502 12.53 12.55 12.57 12.588 12.62 12.67 12.718 12.79 12.918 13.07 13.207 13.32 13.402 13.43 13.43 13.44 13.455 13.44 13.44 13.475 13.485 13.49 13.523 13.615 13.763 13.922 14.057 14.167 14.257 14.322 14.375 14.425 14.435 14.387 14.333 14.295 14.205 14.058 13.91 13.805 13.79 13.818 13.845 13.875 13.863 13.808 13.763 13.725 13.69 13.725 13.835 13.942 13.992 13.977
13.575 13.732 13.727 13.665 13.605 13.547 13.492 13.425 13.365 13.31 13.258 13.255 13.285 13.315 13.345 13.37 13.395 13.427 13.437 13.417 13.385 13.348 13.323 13.32 13.33 13.337 13.34 13.342 13.345 13.34 13.322 13.292 13.257 13.22 13.198 13.195 13.195 13.195 13.19 13.185 13.192 13.177 13.128 13.083 13.06 13.05 13.045 13.045 13.035 13.01 12.98 12.947 12.912 12.875 12.822 12.76 12.697 12.63 12.588 12.565 12.53 12.48 12.427 12.377 12.315 12.238 12.18 12.16 12.155 12.16 12.162 12.153 12.14 12.138 12.17 12.233 12.293 12.35 12.39 12.41 12.43 12.448 12.417 12.333 12.238 12.148 12.083 12.027 11.93 11.8 11.72 11.695 11.67 11.645 11.63 11.608 11.613 11.65 11.678 11.705 11.727 11.74 11.755 11.742 11.672 11.57 11.663 11.97 12.255 12.477 12.57 12.56 12.547 12.535 12.477 12.367 12.248 12.15 12.115 12.112 12.105 12.095 12.105 12.125 12.132 12.135 12.135 12.138 12.145 12.155 12.165 12.175 12.175 12.163 12.165 12.182 12.2 12.218 12.245 12.285 12.325 12.365 12.405 12.44 12.475 12.515 12.547 12.57 12.59 12.61 12.648 12.702 12.753 12.838 12.97 13.105 13.22 13.32 13.407 13.432 13.423 13.435 13.46 13.403 13.333 13.345 13.358 13.388 13.49 13.663 13.847 14.002 14.117 14.207 14.28 14.332 14.377 14.425 14.427 14.383 14.363 14.375 14.31 14.163 14.035 13.96 13.963 14 14.03 14.06 14.047 13.988 13.925 13.87 13.843 13.875 13.95 14.017 14.03 13.995
13.625 13.707 13.648 13.578 13.515 13.455 13.395 13.333 13.275 13.233 13.218 13.235 13.265 13.295 13.325 13.355 13.39 13.43 13.442 13.427 13.407 13.38 13.355 13.35 13.357 13.36 13.36 13.365 13.375 13.375 13.362 13.337 13.3 13.263 13.245 13.245 13.245 13.245 13.24 13.228 13.222 13.2 13.16 13.14 13.13 13.12 13.113 13.11 13.095 13.062 13.027 12.993 12.957 12.915 12.86 12.797 12.73 12.66 12.615 12.6 12.587 12.56 12.505 12.43 12.345 12.26 12.198 12.165 12.15 12.143 12.14 12.135 12.128 12.125 12.163 12.24 12.315 12.387 12.435 12.452 12.467 12.48 12.435 12.328 12.223 12.14 12.09 12.057 12.005 11.907 11.83 11.805 11.775 11.727 11.68 11.63 11.625 11.668 11.7 11.725 11.74 11.75 11.765 11.78 11.767 11.708 11.795 12.052 12.28 12.48 12.575 12.565 12.55 12.535 12.48 12.367 12.24 12.138 12.1 12.102 12.102 12.095 12.105 12.13 12.15 12.162 12.168 12.175 12.185 12.195 12.205 12.207 12.195 12.178 12.18 12.198 12.215 12.233 12.258 12.295 12.335 12.375 12.412 12.448 12.485 12.525 12.56 12.587 12.61 12.633 12.675 12.735 12.79 12.88 13.002 13.112 13.217 13.32 13.41 13.437 13.425 13.44 13.47 13.395 13.255 13.215 13.258 13.365 13.54 13.737 13.927 14.07 14.157 14.225 14.28 14.328 14.375 14.422 14.43 14.418 14.44 14.475 14.415 14.285 14.195 14.13 14.125 14.172 14.212 14.245 14.232 14.178 14.128 14.09 14.078 14.102 14.13 14.13 14.098 14.045
13.65 13.665 13.585 13.505 13.43 13.365 13.303 13.245 13.203 13.185 13.198 13.223 13.25 13.28 13.313 13.35 13.39 13.43 13.445 13.432 13.417 13.4 13.382 13.377 13.377 13.377 13.377 13.375 13.375 13.372 13.38 13.372 13.337 13.308 13.295 13.295 13.292 13.29 13.285 13.27 13.255 13.235 13.215 13.207 13.2 13.19 13.18 13.167 13.145 13.11 13.072 13.037 13 12.955 12.897 12.83 12.76 12.688 12.643 12.63 12.615 12.592 12.537 12.453 12.368 12.283 12.223 12.198 12.185 12.168 12.153 12.148 12.145 12.15 12.195 12.275 12.352 12.427 12.475 12.49 12.497 12.505 12.46 12.337 12.215 12.143 12.105 12.072 12.037 11.985 11.927 11.882 11.83 11.762 11.695 11.66 11.67 11.7 11.725 11.74 11.75 11.76 11.773 11.787 11.8 11.795 11.888 12.09 12.29 12.482 12.567 12.555 12.542 12.53 12.475 12.36 12.227 12.12 12.083 12.088 12.093 12.095 12.11 12.138 12.165 12.187 12.2 12.21 12.222 12.235 12.237 12.227 12.21 12.195 12.198 12.213 12.228 12.245 12.273 12.308 12.345 12.385 12.42 12.455 12.495 12.535 12.57 12.6 12.627 12.658 12.705 12.765 12.828 12.913 13.013 13.11 13.213 13.318 13.412 13.447 13.443 13.455 13.477 13.39 13.195 13.128 13.235 13.415 13.618 13.818 13.997 14.12 14.193 14.258 14.31 14.35 14.393 14.433 14.46 14.492 14.537 14.575 14.535 14.445 14.375 14.303 14.285 14.33 14.375 14.415 14.415 14.375 14.34 14.31 14.292 14.292 14.285 14.257 14.21 14.148
13.66 13.615 13.537 13.458 13.37 13.285 13.22 13.173 13.153 13.168 13.193 13.218 13.245 13.275 13.31 13.35 13.39 13.427 13.44 13.427 13.41 13.395 13.385 13.38 13.377 13.377 13.375 13.365 13.355 13.353 13.372 13.387 13.37 13.345 13.337 13.34 13.337 13.335 13.33 13.312 13.288 13.27 13.26 13.252 13.245 13.235 13.215 13.182 13.15 13.12 13.09 13.06 13.03 12.99 12.93 12.86 12.787 12.713 12.67 12.657 12.64 12.615 12.56 12.477 12.393 12.318 12.275 12.258 12.242 12.22 12.2 12.193 12.188 12.19 12.225 12.295 12.375 12.45 12.5 12.52 12.525 12.53 12.477 12.345 12.225 12.155 12.115 12.08 12.045 12.012 11.967 11.907 11.84 11.77 11.725 11.728 11.74 11.742 11.745 11.748 11.755 11.767 11.78 11.795 11.81 11.85 11.978 12.17 12.362 12.505 12.535 12.505 12.49 12.48 12.422 12.305 12.18 12.098 12.078 12.083 12.09 12.105 12.13 12.16 12.19 12.212 12.227 12.24 12.252 12.267 12.267 12.253 12.235 12.22 12.22 12.235 12.25 12.265 12.295 12.33 12.365 12.402 12.433 12.463 12.5 12.54 12.575 12.605 12.638 12.678 12.735 12.8 12.868 12.95 13.04 13.133 13.228 13.325 13.42 13.47 13.483 13.498 13.51 13.415 13.21 13.168 13.323 13.518 13.723 13.925 14.09 14.183 14.245 14.315 14.37 14.405 14.438 14.47 14.508 14.555 14.605 14.647 14.64 14.58 14.507 14.433 14.408 14.445 14.49 14.53 14.535 14.505 14.475 14.445 14.42 14.397 14.377 14.365 14.327 14.26
13.64 13.565 13.49 13.417 13.332 13.228 13.148 13.123 13.133 13.16 13.187 13.213 13.24 13.273 13.308 13.347 13.387 13.415 13.417 13.402 13.385 13.37 13.36 13.355 13.355 13.355 13.352 13.345 13.335 13.335 13.355 13.385 13.392 13.375 13.368 13.372 13.375 13.372 13.365 13.347 13.32 13.298 13.285 13.277 13.267 13.245 13.202 13.155 13.118 13.09 13.065 13.04 13.022 13 12.955 12.89 12.815 12.74 12.698 12.68 12.66 12.635 12.582 12.503 12.423 12.368 12.34 12.322 12.302 12.273 12.25 12.245 12.243 12.248 12.27 12.315 12.385 12.462 12.517 12.545 12.555 12.555 12.485 12.358 12.263 12.19 12.128 12.08 12.043 12.007 11.962 11.907 11.847 11.795 11.78 11.79 11.79 11.78 11.765 11.755 11.76 11.775 11.79 11.805 11.83 11.925 12.105 12.3 12.445 12.51 12.495 12.438 12.4 12.385 12.325 12.213 12.125 12.088 12.083 12.09 12.108 12.135 12.165 12.195 12.22 12.237 12.252 12.265 12.278 12.295 12.3 12.285 12.265 12.25 12.25 12.265 12.28 12.295 12.325 12.36 12.392 12.422 12.448 12.473 12.503 12.54 12.575 12.608 12.645 12.688 12.757 12.837 12.913 13 13.092 13.185 13.275 13.363 13.448 13.515 13.552 13.575 13.58 13.487 13.328 13.333 13.493 13.665 13.855 14.055 14.21 14.275 14.313 14.375 14.43 14.462 14.488 14.515 14.553 14.6 14.647 14.69 14.695 14.655 14.592 14.52 14.493 14.525 14.565 14.595 14.597 14.57 14.54 14.508 14.48 14.463 14.455 14.462 14.437 14.373
13.59 13.515 13.44 13.37 13.295 13.19 13.108 13.103 13.128 13.153 13.18 13.208 13.235 13.268 13.303 13.34 13.372 13.39 13.385 13.37 13.355 13.34 13.33 13.325 13.325 13.325 13.325 13.32 13.31 13.315 13.34 13.372 13.397 13.4 13.395 13.395 13.395 13.39 13.38 13.367 13.347 13.325 13.31 13.297 13.272 13.23 13.175 13.125 13.085 13.053 13.028 13.008 12.998 12.99 12.962 12.91 12.842 12.77 12.725 12.702 12.677 12.652 12.607 12.533 12.468 12.428 12.403 12.385 12.36 12.325 12.3 12.295 12.3 12.315 12.333 12.355 12.403 12.475 12.53 12.562 12.582 12.57 12.495 12.395 12.318 12.243 12.168 12.1 12.045 12.003 11.957 11.903 11.848 11.82 11.822 11.825 11.822 11.815 11.795 11.773 11.77 11.785 11.8 11.815 11.883 12.04 12.232 12.377 12.447 12.48 12.465 12.398 12.333 12.295 12.235 12.155 12.113 12.093 12.093 12.11 12.138 12.17 12.2 12.227 12.247 12.262 12.278 12.293 12.31 12.33 12.332 12.315 12.298 12.283 12.283 12.298 12.312 12.328 12.352 12.385 12.412 12.438 12.463 12.488 12.513 12.543 12.578 12.615 12.655 12.695 12.768 12.865 12.957 13.05 13.145 13.24 13.33 13.415 13.492 13.562 13.62 13.66 13.657 13.57 13.483 13.54 13.692 13.848 14.013 14.192 14.332 14.382 14.395 14.438 14.487 14.515 14.535 14.558 14.595 14.645 14.69 14.73 14.735 14.702 14.66 14.603 14.575 14.6 14.632 14.657 14.66 14.635 14.605 14.573 14.545 14.535 14.545 14.565 14.545 14.493
13.54 13.465 13.393 13.328 13.262 13.185 13.13 13.118 13.125 13.148 13.173 13.203 13.235 13.265 13.297 13.327 13.347 13.36 13.355 13.34 13.325 13.31 13.3 13.295 13.295 13.295 13.295 13.29 13.283 13.295 13.325 13.358 13.39 13.405 13.407 13.407 13.405 13.4 13.39 13.38 13.367 13.35 13.33 13.297 13.25 13.2 13.148 13.098 13.055 13.018 12.993 12.985 12.985 12.982 12.957 12.91 12.857 12.798 12.753 12.725 12.695 12.67 12.63 12.57 12.525 12.492 12.465 12.44 12.41 12.375 12.353 12.353 12.365 12.382 12.398 12.413 12.438 12.49 12.542 12.577 12.605 12.592 12.527 12.447 12.372 12.295 12.217 12.14 12.068 12.01 11.955 11.898 11.848 11.828 11.835 11.842 11.845 11.847 11.835 11.805 11.793 11.8 11.81 11.85 11.98 12.17 12.315 12.38 12.413 12.447 12.435 12.37 12.298 12.235 12.183 12.145 12.12 12.1 12.108 12.137 12.17 12.2 12.23 12.252 12.27 12.287 12.305 12.325 12.345 12.365 12.365 12.347 12.332 12.318 12.317 12.33 12.342 12.355 12.372 12.4 12.427 12.455 12.48 12.503 12.528 12.553 12.585 12.625 12.665 12.705 12.775 12.877 12.977 13.077 13.185 13.287 13.38 13.46 13.53 13.598 13.665 13.727 13.73 13.65 13.628 13.732 13.877 14.025 14.172 14.325 14.442 14.482 14.487 14.507 14.537 14.56 14.58 14.603 14.64 14.688 14.733 14.772 14.775 14.74 14.708 14.673 14.653 14.668 14.695 14.72 14.72 14.695 14.665 14.635 14.618 14.625 14.65 14.675 14.662 14.625
13.498 13.43 13.365 13.303 13.24 13.193 13.17 13.155 13.148 13.153 13.168 13.197 13.227 13.255 13.282 13.302 13.315 13.322 13.317 13.305 13.29 13.28 13.278 13.275 13.273 13.27 13.27 13.268 13.265 13.283 13.318 13.35 13.375 13.387 13.392 13.395 13.392 13.385 13.375 13.367 13.36 13.352 13.33 13.28 13.225 13.175 13.13 13.085 13.04 13.003 12.98 12.978 12.98 12.977 12.952 12.908 12.863 12.815 12.773 12.743 12.715 12.687 12.65 12.605 12.565 12.527 12.497 12.472 12.45 12.425 12.41 12.418 12.435 12.45 12.465 12.48 12.495 12.522 12.55 12.572 12.595 12.587 12.53 12.455 12.38 12.3 12.22 12.145 12.083 12.033 11.978 11.905 11.848 11.833 11.84 11.853 11.863 11.875 11.87 11.865 11.888 11.9 11.898 11.928 12.058 12.242 12.342 12.37 12.4 12.43 12.42 12.36 12.29 12.223 12.178 12.155 12.133 12.118 12.125 12.153 12.187 12.22 12.25 12.272 12.287 12.305 12.325 12.345 12.367 12.387 12.385 12.37 12.355 12.343 12.337 12.34 12.35 12.357 12.372 12.4 12.43 12.46 12.492 12.52 12.545 12.57 12.6 12.64 12.68 12.718 12.785 12.882 12.975 13.075 13.19 13.305 13.412 13.497 13.565 13.635 13.702 13.752 13.767 13.713 13.71 13.83 13.97 14.11 14.25 14.372 14.47 14.532 14.555 14.565 14.58 14.6 14.623 14.658 14.703 14.748 14.793 14.837 14.845 14.813 14.785 14.75 14.723 14.73 14.752 14.775 14.78 14.762 14.735 14.705 14.685 14.695 14.722 14.75 14.77 14.767
13.495 13.425 13.358 13.288 13.22 13.18 13.17 13.167 13.165 13.16 13.163 13.18 13.203 13.23 13.252 13.267 13.277 13.28 13.275 13.265 13.258 13.268 13.278 13.275 13.273 13.268 13.265 13.263 13.263 13.285 13.317 13.337 13.35 13.36 13.365 13.365 13.357 13.345 13.335 13.328 13.328 13.335 13.315 13.26 13.21 13.168 13.128 13.087 13.045 13.013 12.995 12.99 12.99 12.982 12.957 12.918 12.873 12.828 12.788 12.758 12.73 12.702 12.667 12.622 12.575 12.53 12.5 12.483 12.47 12.458 12.457 12.477 12.5 12.512 12.52 12.527 12.532 12.527 12.522 12.53 12.54 12.537 12.492 12.417 12.34 12.265 12.2 12.145 12.1 12.063 12.032 11.963 11.875 11.85 11.86 11.875 11.892 11.907 11.9 11.975 12.082 12.1 12.08 12.043 12.105 12.267 12.36 12.385 12.413 12.437 12.427 12.372 12.305 12.238 12.193 12.17 12.153 12.143 12.148 12.165 12.195 12.23 12.257 12.282 12.3 12.315 12.335 12.357 12.38 12.395 12.392 12.378 12.368 12.365 12.353 12.338 12.34 12.345 12.36 12.39 12.42 12.453 12.492 12.532 12.562 12.588 12.62 12.66 12.697 12.73 12.795 12.887 12.975 13.065 13.168 13.288 13.425 13.535 13.602 13.662 13.705 13.722 13.75 13.74 13.748 13.858 13.993 14.13 14.262 14.345 14.425 14.53 14.587 14.605 14.62 14.643 14.678 14.73 14.78 14.825 14.875 14.932 14.95 14.92 14.885 14.827 14.783 14.788 14.807 14.822 14.832 14.832 14.815 14.785 14.748 14.733 14.753 14.785 14.83 14.867
13.542 13.465 13.388 13.313 13.23 13.17 13.158 13.16 13.16 13.16 13.16 13.165 13.18 13.2 13.218 13.23 13.235 13.235 13.233 13.233 13.245 13.272 13.29 13.288 13.285 13.28 13.275 13.27 13.268 13.285 13.305 13.313 13.32 13.33 13.335 13.332 13.32 13.303 13.293 13.293 13.305 13.317 13.295 13.248 13.208 13.17 13.132 13.093 13.055 13.03 13.015 13.01 13.007 12.992 12.967 12.932 12.89 12.845 12.805 12.775 12.745 12.717 12.68 12.63 12.577 12.53 12.503 12.493 12.487 12.48 12.487 12.51 12.527 12.535 12.537 12.532 12.512 12.48 12.465 12.472 12.478 12.482 12.452 12.383 12.315 12.26 12.215 12.178 12.14 12.1 12.085 12.055 11.978 11.928 11.915 11.913 11.925 11.94 11.98 12.165 12.32 12.315 12.27 12.198 12.185 12.288 12.377 12.402 12.427 12.452 12.44 12.385 12.32 12.253 12.21 12.193 12.178 12.165 12.17 12.188 12.208 12.238 12.265 12.288 12.31 12.327 12.345 12.367 12.385 12.397 12.397 12.388 12.39 12.395 12.38 12.353 12.335 12.333 12.35 12.38 12.413 12.448 12.488 12.532 12.572 12.605 12.637 12.675 12.71 12.74 12.803 12.89 12.975 13.06 13.15 13.263 13.42 13.56 13.622 13.65 13.663 13.67 13.705 13.743 13.793 13.898 14.022 14.152 14.252 14.3 14.375 14.497 14.6 14.645 14.663 14.698 14.75 14.81 14.86 14.91 14.973 15.037 15.057 15.02 14.962 14.893 14.843 14.843 14.86 14.87 14.88 14.887 14.885 14.865 14.82 14.778 14.78 14.818 14.865 14.913
13.6 13.535 13.455 13.362 13.248 13.168 13.15 13.15 13.152 13.155 13.157 13.163 13.173 13.19 13.208 13.215 13.215 13.215 13.213 13.223 13.25 13.28 13.3 13.3 13.295 13.29 13.282 13.277 13.273 13.275 13.285 13.29 13.295 13.302 13.302 13.293 13.278 13.263 13.26 13.273 13.29 13.302 13.285 13.247 13.212 13.175 13.137 13.098 13.068 13.05 13.038 13.03 13.017 12.997 12.975 12.945 12.902 12.858 12.818 12.787 12.76 12.725 12.68 12.627 12.572 12.528 12.508 12.502 12.5 12.497 12.502 12.515 12.523 12.528 12.525 12.5 12.46 12.423 12.408 12.418 12.428 12.435 12.42 12.375 12.33 12.29 12.25 12.212 12.175 12.138 12.123 12.122 12.097 12.057 12.025 12 11.985 11.998 12.138 12.405 12.547 12.515 12.447 12.373 12.31 12.333 12.392 12.417 12.442 12.467 12.452 12.395 12.33 12.265 12.228 12.215 12.202 12.19 12.195 12.212 12.228 12.248 12.27 12.292 12.317 12.335 12.35 12.37 12.387 12.402 12.407 12.41 12.42 12.427 12.412 12.38 12.35 12.33 12.34 12.373 12.407 12.442 12.483 12.528 12.572 12.615 12.65 12.682 12.717 12.75 12.808 12.89 12.975 13.06 13.145 13.248 13.403 13.57 13.637 13.633 13.628 13.633 13.673 13.74 13.818 13.92 14.042 14.165 14.225 14.245 14.328 14.453 14.575 14.662 14.715 14.77 14.83 14.89 14.945 15.005 15.075 15.14 15.152 15.1 15.03 14.958 14.905 14.898 14.908 14.915 14.925 14.933 14.94 14.935 14.895 14.84 14.823 14.855 14.908 14.958
13.602 13.6 13.5 13.375 13.238 13.158 13.143 13.138 13.138 13.142 13.148 13.163 13.193 13.225 13.245 13.25 13.248 13.24 13.23 13.235 13.26 13.29 13.31 13.312 13.307 13.297 13.285 13.278 13.273 13.27 13.273 13.277 13.28 13.275 13.27 13.26 13.245 13.235 13.24 13.255 13.267 13.272 13.26 13.235 13.207 13.177 13.142 13.108 13.085 13.07 13.057 13.045 13.023 13 12.98 12.95 12.908 12.865 12.825 12.793 12.762 12.715 12.657 12.602 12.548 12.513 12.505 12.5 12.495 12.497 12.505 12.515 12.523 12.527 12.512 12.47 12.425 12.395 12.388 12.398 12.41 12.42 12.41 12.377 12.342 12.31 12.28 12.247 12.21 12.173 12.155 12.16 12.162 12.145 12.115 12.085 12.06 12.135 12.37 12.647 12.755 12.697 12.622 12.54 12.452 12.398 12.393 12.412 12.435 12.455 12.445 12.397 12.337 12.275 12.238 12.225 12.215 12.21 12.22 12.235 12.247 12.255 12.265 12.287 12.31 12.325 12.337 12.355 12.375 12.39 12.4 12.412 12.425 12.437 12.43 12.4 12.37 12.338 12.333 12.363 12.397 12.433 12.475 12.525 12.57 12.615 12.655 12.685 12.72 12.758 12.808 12.878 12.96 13.047 13.132 13.233 13.38 13.56 13.672 13.69 13.67 13.653 13.688 13.76 13.83 13.923 14.042 14.155 14.212 14.24 14.323 14.45 14.583 14.695 14.78 14.855 14.92 14.983 15.045 15.11 15.17 15.205 15.21 15.172 15.105 15.03 14.978 14.97 14.975 14.978 14.985 14.995 15.005 15 14.962 14.91 14.888 14.913 14.963 15.015
13.675 13.625 13.502 13.365 13.225 13.148 13.138 13.132 13.128 13.128 13.13 13.165 13.237 13.287 13.302 13.302 13.292 13.278 13.265 13.263 13.275 13.3 13.322 13.327 13.317 13.3 13.285 13.278 13.273 13.268 13.265 13.262 13.255 13.24 13.233 13.232 13.225 13.215 13.218 13.23 13.232 13.222 13.207 13.192 13.175 13.152 13.132 13.115 13.097 13.082 13.067 13.05 13.027 13.005 12.982 12.95 12.912 12.872 12.833 12.8 12.757 12.692 12.623 12.565 12.518 12.495 12.495 12.49 12.488 12.495 12.505 12.515 12.525 12.53 12.51 12.468 12.428 12.403 12.4 12.41 12.423 12.435 12.417 12.37 12.328 12.297 12.275 12.25 12.22 12.192 12.178 12.183 12.195 12.187 12.16 12.13 12.18 12.385 12.662 12.872 12.902 12.817 12.73 12.635 12.532 12.433 12.378 12.378 12.395 12.407 12.402 12.377 12.335 12.28 12.24 12.225 12.22 12.225 12.24 12.255 12.26 12.253 12.255 12.275 12.29 12.3 12.31 12.325 12.342 12.357 12.37 12.382 12.397 12.412 12.415 12.4 12.372 12.338 12.328 12.35 12.383 12.418 12.465 12.522 12.57 12.615 12.655 12.685 12.72 12.76 12.805 12.863 12.935 13.018 13.103 13.208 13.358 13.535 13.697 13.78 13.76 13.71 13.73 13.797 13.855 13.93 14.037 14.137 14.203 14.27 14.38 14.523 14.657 14.757 14.84 14.927 15.007 15.082 15.15 15.192 15.207 15.2 15.202 15.212 15.18 15.11 15.063 15.06 15.065 15.065 15.07 15.08 15.082 15.067 15.028 14.985 14.975 14.99 15.025 15.078
13.75 13.593 13.467 13.342 13.213 13.143 13.135 13.127 13.12 13.115 13.123 13.175 13.272 13.342 13.355 13.345 13.33 13.313 13.303 13.3 13.303 13.315 13.335 13.34 13.322 13.3 13.288 13.282 13.275 13.265 13.25 13.23 13.215 13.2 13.19 13.195 13.197 13.19 13.188 13.19 13.183 13.17 13.155 13.14 13.13 13.12 13.115 13.107 13.095 13.085 13.07 13.05 13.03 13.01 12.985 12.95 12.915 12.877 12.837 12.797 12.74 12.665 12.59 12.528 12.493 12.485 12.485 12.485 12.488 12.495 12.505 12.515 12.525 12.53 12.51 12.475 12.448 12.425 12.418 12.425 12.437 12.447 12.425 12.372 12.32 12.278 12.248 12.225 12.208 12.195 12.193 12.205 12.225 12.23 12.21 12.24 12.415 12.652 12.862 12.977 12.947 12.857 12.76 12.66 12.557 12.453 12.375 12.348 12.353 12.357 12.35 12.335 12.31 12.272 12.238 12.228 12.235 12.248 12.262 12.27 12.262 12.245 12.245 12.26 12.265 12.27 12.28 12.295 12.31 12.323 12.335 12.348 12.363 12.377 12.382 12.377 12.362 12.335 12.328 12.345 12.368 12.4 12.45 12.51 12.565 12.615 12.655 12.685 12.718 12.76 12.81 12.863 12.92 12.988 13.07 13.183 13.34 13.515 13.685 13.805 13.812 13.758 13.768 13.832 13.887 13.948 14.035 14.128 14.215 14.333 14.478 14.622 14.732 14.81 14.89 14.98 15.07 15.147 15.195 15.2 15.18 15.16 15.16 15.192 15.215 15.182 15.148 15.147 15.15 15.15 15.155 15.16 15.15 15.13 15.098 15.073 15.075 15.08 15.095 15.145
13.705 13.543 13.425 13.315 13.203 13.135 13.12 13.11 13.108 13.118 13.148 13.218 13.312 13.377 13.39 13.38 13.365 13.348 13.34 13.34 13.34 13.343 13.35 13.347 13.328 13.305 13.293 13.285 13.275 13.265 13.243 13.21 13.185 13.163 13.155 13.165 13.173 13.173 13.168 13.158 13.143 13.128 13.113 13.103 13.1 13.1 13.1 13.095 13.09 13.085 13.07 13.05 13.03 13.01 12.982 12.948 12.915 12.88 12.837 12.78 12.71 12.638 12.565 12.503 12.475 12.475 12.477 12.485 12.49 12.495 12.505 12.515 12.525 12.53 12.515 12.49 12.47 12.447 12.433 12.432 12.437 12.44 12.415 12.365 12.313 12.268 12.238 12.22 12.21 12.2 12.213 12.237 12.255 12.268 12.3 12.417 12.607 12.782 12.925 12.985 12.937 12.86 12.775 12.68 12.58 12.478 12.39 12.343 12.328 12.318 12.303 12.288 12.27 12.25 12.233 12.235 12.252 12.27 12.277 12.27 12.255 12.235 12.233 12.24 12.243 12.248 12.258 12.273 12.285 12.293 12.303 12.318 12.33 12.345 12.353 12.348 12.34 12.328 12.33 12.345 12.36 12.388 12.435 12.495 12.555 12.61 12.652 12.685 12.717 12.762 12.815 12.867 12.92 12.975 13.043 13.155 13.31 13.467 13.617 13.727 13.772 13.775 13.803 13.862 13.912 13.962 14.04 14.158 14.3 14.447 14.59 14.707 14.79 14.862 14.942 15.022 15.092 15.145 15.167 15.16 15.14 15.12 15.123 15.155 15.2 15.225 15.225 15.225 15.227 15.232 15.235 15.227 15.212 15.193 15.175 15.17 15.18 15.195 15.208 15.255
13.665 13.5 13.388 13.292 13.2 13.123 13.095 13.105 13.12 13.145 13.195 13.275 13.345 13.38 13.39 13.387 13.382 13.377 13.375 13.375 13.375 13.372 13.37 13.36 13.338 13.315 13.298 13.285 13.275 13.265 13.247 13.215 13.18 13.16 13.163 13.178 13.19 13.193 13.185 13.17 13.15 13.13 13.118 13.113 13.11 13.108 13.1 13.093 13.09 13.085 13.07 13.05 13.03 13.01 12.982 12.948 12.915 12.877 12.842 12.795 12.725 12.655 12.585 12.513 12.463 12.453 12.462 12.475 12.485 12.495 12.508 12.523 12.532 12.532 12.517 12.495 12.475 12.455 12.438 12.425 12.42 12.42 12.395 12.345 12.303 12.278 12.26 12.238 12.22 12.218 12.245 12.275 12.29 12.31 12.388 12.527 12.672 12.815 12.95 12.987 12.922 12.847 12.772 12.69 12.595 12.495 12.418 12.373 12.338 12.305 12.278 12.258 12.243 12.23 12.22 12.222 12.237 12.255 12.265 12.26 12.245 12.225 12.223 12.233 12.238 12.243 12.258 12.278 12.288 12.293 12.298 12.305 12.315 12.33 12.34 12.335 12.328 12.325 12.333 12.348 12.363 12.383 12.42 12.475 12.532 12.587 12.635 12.67 12.7 12.74 12.792 12.847 12.902 12.955 13.008 13.11 13.245 13.375 13.5 13.598 13.698 13.78 13.817 13.855 13.9 13.945 14.028 14.175 14.352 14.51 14.642 14.742 14.82 14.9 14.97 15.022 15.065 15.1 15.122 15.12 15.1 15.085 15.105 15.158 15.208 15.255 15.275 15.267 15.27 15.277 15.277 15.267 15.258 15.263 15.283 15.3 15.32 15.345 15.373 15.43
13.635 13.46 13.34 13.255 13.183 13.125 13.113 13.138 13.16 13.188 13.24 13.302 13.34 13.36 13.37 13.37 13.372 13.375 13.382 13.395 13.397 13.392 13.39 13.377 13.353 13.33 13.31 13.29 13.275 13.265 13.25 13.222 13.195 13.195 13.21 13.225 13.235 13.23 13.22 13.207 13.192 13.175 13.162 13.155 13.147 13.14 13.125 13.108 13.098 13.087 13.07 13.053 13.035 13.012 12.985 12.952 12.912 12.863 12.837 12.83 12.787 12.72 12.645 12.555 12.468 12.423 12.425 12.448 12.478 12.505 12.525 12.537 12.537 12.53 12.512 12.488 12.47 12.46 12.447 12.425 12.405 12.4 12.375 12.333 12.313 12.31 12.297 12.268 12.24 12.245 12.285 12.317 12.335 12.363 12.443 12.575 12.71 12.847 12.965 12.975 12.905 12.833 12.758 12.682 12.602 12.518 12.455 12.412 12.367 12.323 12.283 12.25 12.23 12.217 12.203 12.195 12.198 12.21 12.23 12.242 12.235 12.215 12.215 12.232 12.242 12.25 12.27 12.297 12.312 12.32 12.32 12.313 12.318 12.332 12.337 12.333 12.33 12.333 12.34 12.353 12.368 12.385 12.41 12.448 12.498 12.555 12.602 12.632 12.653 12.685 12.74 12.795 12.85 12.902 12.95 13.05 13.19 13.315 13.445 13.585 13.725 13.815 13.83 13.835 13.865 13.908 13.995 14.15 14.317 14.45 14.567 14.682 14.777 14.862 14.93 14.977 15.017 15.05 15.077 15.08 15.063 15.063 15.108 15.185 15.247 15.295 15.31 15.29 15.28 15.283 15.285 15.283 15.298 15.348 15.41 15.457 15.49 15.515 15.555 15.625
13.597 13.418 13.29 13.22 13.18 13.16 13.165 13.185 13.205 13.227 13.26 13.295 13.32 13.34 13.35 13.347 13.345 13.343 13.358 13.387 13.405 13.41 13.41 13.395 13.37 13.347 13.325 13.303 13.283 13.27 13.255 13.23 13.22 13.24 13.26 13.27 13.27 13.26 13.25 13.24 13.227 13.207 13.195 13.19 13.18 13.17 13.155 13.135 13.115 13.095 13.075 13.058 13.042 13.02 12.987 12.947 12.897 12.84 12.815 12.83 12.83 12.785 12.702 12.602 12.498 12.415 12.4 12.438 12.485 12.522 12.54 12.54 12.53 12.52 12.505 12.485 12.475 12.472 12.462 12.437 12.405 12.385 12.365 12.345 12.343 12.347 12.335 12.303 12.268 12.265 12.315 12.362 12.385 12.42 12.51 12.638 12.762 12.892 12.977 12.96 12.89 12.82 12.748 12.678 12.61 12.542 12.487 12.44 12.393 12.347 12.303 12.26 12.225 12.203 12.19 12.18 12.17 12.173 12.19 12.21 12.217 12.208 12.21 12.23 12.247 12.26 12.28 12.31 12.335 12.347 12.345 12.333 12.328 12.335 12.337 12.335 12.335 12.338 12.348 12.363 12.38 12.4 12.418 12.438 12.473 12.525 12.567 12.587 12.6 12.63 12.682 12.735 12.785 12.833 12.883 12.99 13.15 13.305 13.497 13.7 13.817 13.857 13.86 13.85 13.853 13.878 13.965 14.102 14.222 14.315 14.42 14.552 14.672 14.767 14.84 14.9 14.955 14.997 15.03 15.038 15.035 15.055 15.11 15.195 15.275 15.335 15.347 15.323 15.303 15.295 15.3 15.323 15.375 15.445 15.52 15.592 15.65 15.685 15.735 15.815
13.527 13.36 13.263 13.233 13.22 13.21 13.212 13.227 13.242 13.255 13.27 13.293 13.315 13.33 13.333 13.323 13.313 13.308 13.323 13.358 13.392 13.417 13.427 13.412 13.385 13.363 13.34 13.32 13.298 13.278 13.263 13.248 13.255 13.285 13.305 13.307 13.3 13.29 13.277 13.265 13.25 13.22 13.198 13.197 13.2 13.197 13.185 13.162 13.137 13.113 13.09 13.07 13.05 13.022 12.98 12.927 12.872 12.815 12.793 12.81 12.827 12.81 12.732 12.625 12.515 12.425 12.405 12.44 12.485 12.525 12.537 12.53 12.52 12.51 12.498 12.487 12.485 12.485 12.477 12.455 12.425 12.398 12.383 12.383 12.385 12.387 12.38 12.352 12.32 12.303 12.34 12.402 12.435 12.48 12.577 12.702 12.797 12.855 12.89 12.91 12.89 12.825 12.755 12.688 12.62 12.558 12.51 12.465 12.417 12.372 12.327 12.282 12.235 12.198 12.18 12.17 12.158 12.148 12.155 12.173 12.188 12.195 12.205 12.225 12.245 12.265 12.29 12.32 12.35 12.37 12.367 12.355 12.345 12.34 12.34 12.343 12.345 12.345 12.355 12.375 12.395 12.415 12.432 12.45 12.47 12.5 12.528 12.54 12.55 12.578 12.623 12.67 12.715 12.76 12.818 12.925 13.065 13.233 13.492 13.742 13.86 13.89 13.892 13.885 13.873 13.868 13.92 14.013 14.098 14.18 14.285 14.418 14.553 14.673 14.755 14.813 14.873 14.93 14.975 15.003 15.025 15.055 15.113 15.2 15.29 15.365 15.382 15.36 15.337 15.318 15.333 15.392 15.467 15.542 15.617 15.692 15.765 15.817 15.882 15.972
13.355 13.245 13.232 13.235 13.227 13.232 13.247 13.257 13.265 13.275 13.29 13.31 13.327 13.335 13.33 13.315 13.3 13.293 13.303 13.333 13.368 13.402 13.43 13.422 13.403 13.39 13.368 13.345 13.323 13.298 13.275 13.273 13.295 13.327 13.345 13.34 13.327 13.315 13.3 13.285 13.265 13.225 13.183 13.175 13.19 13.2 13.202 13.185 13.16 13.135 13.11 13.09 13.065 13.025 12.968 12.905 12.848 12.79 12.77 12.782 12.782 12.772 12.722 12.625 12.515 12.435 12.42 12.44 12.47 12.512 12.53 12.52 12.513 12.505 12.49 12.475 12.47 12.47 12.48 12.485 12.468 12.443 12.43 12.433 12.435 12.425 12.407 12.392 12.38 12.368 12.383 12.433 12.478 12.537 12.61 12.667 12.692 12.68 12.68 12.742 12.807 12.815 12.775 12.705 12.635 12.575 12.53 12.485 12.43 12.37 12.33 12.297 12.25 12.205 12.18 12.17 12.16 12.148 12.148 12.163 12.178 12.193 12.21 12.23 12.25 12.278 12.31 12.34 12.367 12.382 12.375 12.36 12.35 12.34 12.342 12.352 12.358 12.36 12.365 12.378 12.395 12.415 12.435 12.455 12.472 12.493 12.515 12.53 12.543 12.585 12.638 12.67 12.698 12.723 12.755 12.833 12.94 13.098 13.35 13.58 13.725 13.837 13.905 13.912 13.895 13.875 13.893 13.958 14.035 14.113 14.215 14.345 14.48 14.613 14.715 14.783 14.84 14.898 14.95 14.99 15.02 15.053 15.115 15.205 15.295 15.37 15.402 15.392 15.367 15.345 15.37 15.445 15.525 15.6 15.67 15.74 15.807 15.85 15.907 16.002
13.135 13.115 13.175 13.192 13.198 13.228 13.262 13.277 13.285 13.295 13.31 13.327 13.34 13.345 13.337 13.322 13.307 13.298 13.303 13.323 13.35 13.383 13.417 13.422 13.42 13.425 13.405 13.38 13.36 13.332 13.3 13.295 13.317 13.35 13.367 13.362 13.35 13.335 13.32 13.302 13.272 13.225 13.173 13.15 13.16 13.175 13.192 13.197 13.182 13.158 13.133 13.11 13.085 13.042 12.978 12.903 12.835 12.773 12.74 12.732 12.718 12.707 12.69 12.622 12.515 12.445 12.438 12.453 12.473 12.505 12.522 12.515 12.507 12.5 12.48 12.455 12.438 12.43 12.46 12.512 12.522 12.5 12.49 12.49 12.477 12.445 12.415 12.403 12.4 12.41 12.438 12.478 12.522 12.55 12.53 12.493 12.473 12.455 12.445 12.495 12.597 12.687 12.735 12.717 12.655 12.595 12.54 12.477 12.402 12.328 12.298 12.29 12.257 12.213 12.188 12.182 12.172 12.16 12.163 12.177 12.193 12.21 12.23 12.25 12.273 12.305 12.34 12.367 12.382 12.382 12.37 12.353 12.338 12.328 12.34 12.362 12.372 12.375 12.375 12.378 12.39 12.41 12.43 12.448 12.47 12.503 12.537 12.563 12.595 12.67 12.752 12.805 12.828 12.833 12.825 12.808 12.825 12.955 13.135 13.285 13.48 13.742 13.907 13.92 13.9 13.88 13.893 13.953 14.027 14.098 14.195 14.325 14.457 14.587 14.7 14.79 14.86 14.915 14.962 14.992 15.015 15.053 15.12 15.207 15.285 15.345 15.387 15.405 15.395 15.375 15.403 15.48 15.552 15.615 15.678 15.747 15.802 15.815 15.85 15.938
12.963 13.028 13.115 13.155 13.18 13.225 13.265 13.29 13.305 13.315 13.33 13.343 13.348 13.352 13.345 13.328 13.31 13.3 13.308 13.325 13.348 13.37 13.4 13.418 13.43 13.452 13.445 13.42 13.395 13.36 13.325 13.315 13.328 13.352 13.37 13.37 13.362 13.352 13.34 13.315 13.275 13.225 13.17 13.133 13.133 13.15 13.167 13.185 13.192 13.18 13.155 13.13 13.105 13.065 13 12.923 12.85 12.78 12.71 12.665 12.65 12.642 12.637 12.6 12.51 12.453 12.455 12.47 12.49 12.51 12.517 12.51 12.503 12.492 12.47 12.445 12.423 12.413 12.445 12.512 12.557 12.555 12.545 12.535 12.5 12.455 12.423 12.408 12.418 12.452 12.497 12.54 12.577 12.56 12.475 12.39 12.323 12.26 12.215 12.25 12.353 12.458 12.563 12.63 12.642 12.612 12.54 12.447 12.353 12.275 12.25 12.257 12.25 12.217 12.195 12.192 12.185 12.175 12.178 12.193 12.21 12.227 12.248 12.273 12.3 12.335 12.367 12.382 12.382 12.377 12.365 12.345 12.325 12.313 12.328 12.36 12.382 12.39 12.39 12.39 12.395 12.408 12.425 12.448 12.48 12.52 12.557 12.59 12.655 12.762 12.87 12.962 13.03 13.057 13.035 12.948 12.853 12.848 12.908 13.073 13.375 13.73 13.922 13.92 13.902 13.885 13.893 13.948 14.017 14.083 14.178 14.302 14.43 14.56 14.677 14.78 14.867 14.932 14.975 14.997 15.015 15.053 15.12 15.192 15.25 15.3 15.347 15.387 15.407 15.405 15.438 15.51 15.57 15.625 15.685 15.747 15.78 15.775 15.8 15.878
