ncols         200
nrows         71
xllcorner     545000
yllcorner     260635
cellsize      5
NODATA_value  -9999.0
13.252 13.212 13.16 13.11 13.057 13.022 13.007 12.99 12.972 12.955 12.978 13.045 13.115 13.177 13.177 13.107 13.023 12.94 12.905 12.955 13.045 13.135 13.22 13.303 13.385 13.462 13.51 13.527 13.547 13.562 13.567 13.567 13.57 13.575 13.59 13.62 13.65 13.683 13.732 13.742 13.672 13.565 13.427 13.27 13.11 12.95 12.795 12.705 12.69 12.695 12.705 12.715 12.722 12.728 12.735 12.773 12.835 12.915 12.962 12.955 12.945 12.935 12.942 12.95 12.943 12.923 12.895 12.875 12.86 12.845 12.845 12.873 12.908 12.93 12.938 12.945 12.952 12.958 12.963 12.963 12.958 12.955 12.95 12.945 12.945 12.948 12.975 13.025 13.073 13.12 13.182 13.215 13.202 13.175 13.11 13.02 12.938 12.893 12.938 13.052 13.17 13.23 13.24 13.247 13.252 13.255 13.232 13.192 13.155 13.115 13.098 13.11 13.133 13.158 13.183 13.205 13.227 13.24 13.23 13.21 13.192 13.165 13.152 13.162 13.167 13.172 13.177 13.107 12.945 12.775 12.67 12.625 12.588 12.59 12.61 12.615 12.63 12.65 12.67 12.682 12.68 12.67 12.658 12.668 12.705 12.74 12.745 12.712 12.67 12.63 12.575 12.487 12.383 12.283 12.248 12.275 12.305 12.335 12.358 12.373 12.385 12.395 12.382 12.34 12.293 12.245 12.195 12.145 12.093 12.038 11.985 11.905 11.78 11.678 11.63 11.6 11.57 11.525 11.488 11.495 11.525 11.545 11.497 11.39 11.315 11.265 11.2 11.133 11.065 11 10.973 10.983 10.988 10.988 10.995 11.005 11.015 11.01 10.98 10.95
13.187 13.165 13.122 13.07 13.028 13.023 13.037 13.032 13.017 13 13.023 13.09 13.155 13.2 13.19 13.137 13.075 13 12.955 12.995 13.085 13.177 13.265 13.347 13.422 13.475 13.502 13.515 13.525 13.53 13.53 13.525 13.523 13.525 13.538 13.565 13.598 13.65 13.73 13.74 13.657 13.555 13.435 13.29 13.13 12.97 12.828 12.763 12.735 12.695 12.675 12.673 12.678 12.685 12.698 12.738 12.813 12.912 12.965 12.955 12.948 12.95 13 13.055 13.062 13.027 12.97 12.93 12.91 12.895 12.898 12.927 12.95 12.937 12.923 12.93 12.937 12.943 12.948 12.95 12.947 12.945 12.942 12.938 12.935 12.935 12.958 13.005 13.058 13.12 13.197 13.237 13.22 13.172 13.097 13.013 12.955 12.94 12.968 13.058 13.19 13.277 13.305 13.317 13.322 13.307 13.26 13.208 13.165 13.125 13.105 13.113 13.13 13.153 13.177 13.197 13.207 13.202 13.187 13.17 13.137 13.085 13.065 13.092 13.112 13.117 13.112 13.022 12.865 12.75 12.69 12.652 12.615 12.595 12.598 12.61 12.63 12.65 12.67 12.69 12.702 12.7 12.69 12.703 12.737 12.747 12.72 12.677 12.633 12.59 12.537 12.452 12.353 12.27 12.245 12.273 12.305 12.335 12.36 12.375 12.388 12.405 12.402 12.367 12.325 12.28 12.23 12.18 12.122 12.06 12.02 11.987 11.907 11.805 11.745 11.712 11.67 11.605 11.54 11.51 11.52 11.54 11.492 11.403 11.37 11.347 11.278 11.193 11.123 11.085 11.088 11.107 11.105 11.093 11.095 11.105 11.102 11.067 11.015 10.973
13.1 13.09 13.067 13.03 13.003 13.01 13.04 13.06 13.057 13.043 13.07 13.13 13.165 13.17 13.152 13.122 13.082 13.032 12.998 13.035 13.128 13.222 13.312 13.38 13.425 13.457 13.48 13.492 13.492 13.49 13.49 13.485 13.48 13.48 13.485 13.513 13.573 13.665 13.745 13.73 13.642 13.537 13.425 13.3 13.15 12.99 12.863 12.835 12.825 12.76 12.703 12.663 12.643 12.645 12.66 12.71 12.805 12.915 12.965 12.958 12.96 12.973 13.038 13.142 13.182 13.14 13.068 13.003 12.965 12.945 12.95 12.97 12.962 12.928 12.908 12.915 12.923 12.93 12.935 12.935 12.935 12.935 12.935 12.933 12.93 12.93 12.948 12.993 13.058 13.137 13.22 13.257 13.225 13.16 13.083 13.02 13 13 13.005 13.068 13.2 13.31 13.36 13.38 13.39 13.362 13.295 13.23 13.175 13.135 13.12 13.123 13.133 13.15 13.17 13.18 13.172 13.158 13.142 13.115 13.06 12.995 12.965 12.997 13.045 13.062 13.037 12.935 12.818 12.753 12.71 12.675 12.643 12.613 12.605 12.618 12.635 12.653 12.67 12.69 12.71 12.722 12.72 12.735 12.752 12.727 12.683 12.64 12.595 12.55 12.502 12.425 12.34 12.275 12.255 12.28 12.31 12.34 12.362 12.378 12.395 12.415 12.415 12.387 12.35 12.307 12.26 12.205 12.142 12.078 12.038 12.025 11.995 11.922 11.86 11.815 11.747 11.673 11.61 11.558 11.53 11.535 11.498 11.448 11.445 11.435 11.385 11.315 11.255 11.22 11.22 11.227 11.215 11.198 11.195 11.197 11.167 11.11 11.058 11.013
13.01 13.005 13.003 12.992 12.985 13 13.03 13.06 13.08 13.085 13.107 13.135 13.135 13.125 13.108 13.08 13.05 13.023 13.023 13.083 13.177 13.267 13.342 13.387 13.415 13.445 13.46 13.457 13.45 13.445 13.445 13.44 13.435 13.435 13.433 13.45 13.535 13.662 13.735 13.707 13.625 13.523 13.408 13.292 13.165 13.015 12.92 12.925 12.915 12.85 12.783 12.718 12.663 12.628 12.63 12.698 12.808 12.917 12.967 12.97 12.982 12.998 13.063 13.195 13.277 13.25 13.175 13.1 13.04 13 12.992 12.985 12.95 12.91 12.893 12.9 12.91 12.917 12.922 12.925 12.925 12.928 12.93 12.93 12.93 12.93 12.94 12.985 13.065 13.152 13.235 13.262 13.217 13.15 13.088 13.06 13.06 13.057 13.053 13.09 13.205 13.337 13.41 13.435 13.442 13.402 13.33 13.26 13.192 13.148 13.135 13.135 13.137 13.147 13.152 13.145 13.13 13.115 13.087 13.035 12.97 12.905 12.865 12.89 12.955 13 12.972 12.885 12.815 12.773 12.738 12.703 12.67 12.64 12.633 12.645 12.66 12.675 12.688 12.703 12.72 12.738 12.747 12.752 12.732 12.69 12.648 12.605 12.563 12.518 12.478 12.423 12.355 12.293 12.273 12.298 12.325 12.35 12.367 12.385 12.405 12.425 12.427 12.402 12.365 12.325 12.282 12.225 12.16 12.095 12.055 12.045 12.035 12.005 11.955 11.892 11.815 11.74 11.68 11.625 11.575 11.548 11.522 11.505 11.502 11.492 11.462 11.422 11.387 11.357 11.345 11.337 11.322 11.305 11.292 11.27 11.215 11.153 11.102 11.055
12.935 12.94 12.945 12.945 12.96 12.995 13.03 13.06 13.087 13.107 13.117 13.118 13.11 13.1 13.08 13.053 13.028 13.013 13.05 13.135 13.222 13.302 13.362 13.4 13.427 13.442 13.432 13.413 13.4 13.393 13.39 13.385 13.38 13.38 13.375 13.375 13.418 13.525 13.607 13.597 13.583 13.53 13.408 13.285 13.165 13.038 13.008 13.04 13.005 12.94 12.87 12.805 12.732 12.665 12.67 12.753 12.86 12.947 12.977 12.982 12.995 13.013 13.093 13.22 13.29 13.265 13.197 13.135 13.075 13.022 12.987 12.947 12.903 12.878 12.878 12.89 12.897 12.903 12.908 12.912 12.915 12.923 12.93 12.93 12.93 12.927 12.928 12.953 13.02 13.11 13.19 13.197 13.14 13.108 13.1 13.097 13.1 13.1 13.1 13.115 13.208 13.357 13.442 13.452 13.435 13.387 13.317 13.245 13.182 13.143 13.13 13.132 13.135 13.14 13.138 13.125 13.107 13.077 13.04 12.99 12.928 12.863 12.818 12.835 12.895 12.948 12.945 12.9 12.858 12.818 12.778 12.738 12.705 12.675 12.668 12.682 12.697 12.712 12.725 12.735 12.75 12.765 12.77 12.75 12.708 12.665 12.625 12.585 12.545 12.51 12.485 12.455 12.402 12.338 12.318 12.34 12.362 12.372 12.37 12.38 12.4 12.42 12.425 12.402 12.365 12.327 12.29 12.24 12.18 12.115 12.073 12.063 12.058 12.052 12.022 11.957 11.883 11.81 11.75 11.695 11.637 11.573 11.53 11.52 11.507 11.492 11.472 11.45 11.43 11.422 11.42 11.405 11.39 11.372 11.342 11.3 11.247 11.195 11.14 11.082
12.883 12.89 12.895 12.905 12.94 12.99 13.035 13.07 13.097 13.115 13.115 13.108 13.103 13.095 13.075 13.043 13.013 13.025 13.092 13.172 13.25 13.325 13.385 13.425 13.445 13.43 13.395 13.373 13.358 13.343 13.333 13.325 13.32 13.32 13.318 13.315 13.313 13.345 13.415 13.483 13.582 13.592 13.47 13.34 13.22 13.125 13.133 13.152 13.092 13.02 12.94 12.86 12.788 12.758 12.798 12.888 12.975 13.012 13 12.985 12.99 13.028 13.117 13.195 13.215 13.18 13.115 13.06 13.01 12.96 12.91 12.868 12.845 12.845 12.858 12.872 12.882 12.89 12.895 12.9 12.908 12.917 12.925 12.925 12.925 12.92 12.915 12.915 12.945 13.02 13.082 13.07 13.04 13.073 13.105 13.108 13.11 13.115 13.12 13.128 13.188 13.32 13.412 13.41 13.377 13.33 13.263 13.195 13.148 13.123 13.115 13.12 13.128 13.135 13.135 13.12 13.087 13.035 13 12.977 12.93 12.868 12.83 12.848 12.895 12.943 12.962 12.95 12.922 12.885 12.835 12.783 12.745 12.715 12.705 12.718 12.733 12.748 12.762 12.775 12.787 12.797 12.782 12.742 12.698 12.655 12.615 12.575 12.545 12.53 12.517 12.497 12.46 12.403 12.38 12.4 12.407 12.395 12.378 12.373 12.383 12.4 12.405 12.387 12.355 12.32 12.285 12.242 12.192 12.133 12.09 12.083 12.085 12.085 12.065 12.015 11.95 11.88 11.82 11.76 11.68 11.58 11.515 11.498 11.483 11.467 11.448 11.428 11.423 11.44 11.447 11.432 11.415 11.382 11.335 11.29 11.252 11.207 11.145 11.077
12.838 12.845 12.855 12.883 12.93 12.98 13.03 13.075 13.11 13.125 13.12 13.11 13.103 13.095 13.072 13.038 13.01 13.045 13.125 13.195 13.27 13.345 13.407 13.447 13.445 13.4 13.358 13.337 13.32 13.303 13.288 13.273 13.263 13.26 13.26 13.26 13.26 13.263 13.328 13.478 13.64 13.682 13.583 13.468 13.385 13.322 13.287 13.232 13.145 13.06 12.97 12.89 12.863 12.895 12.955 13.032 13.08 13.075 13.04 12.998 12.985 13.032 13.092 13.11 13.115 13.095 13.03 12.96 12.905 12.853 12.818 12.81 12.815 12.825 12.835 12.85 12.867 12.88 12.885 12.89 12.903 12.915 12.92 12.92 12.917 12.91 12.905 12.9 12.9 12.94 12.978 12.983 13.015 13.077 13.115 13.117 13.113 13.113 13.12 13.135 13.163 13.245 13.322 13.327 13.307 13.267 13.21 13.16 13.128 13.108 13.103 13.11 13.122 13.135 13.127 13.092 13.042 12.985 12.948 12.935 12.915 12.87 12.845 12.873 12.92 12.97 12.995 12.992 12.982 12.955 12.905 12.845 12.793 12.755 12.743 12.753 12.767 12.783 12.8 12.815 12.825 12.82 12.785 12.738 12.692 12.648 12.608 12.578 12.565 12.562 12.552 12.53 12.502 12.46 12.44 12.447 12.432 12.408 12.39 12.38 12.375 12.383 12.385 12.37 12.345 12.312 12.275 12.235 12.193 12.145 12.115 12.113 12.118 12.117 12.095 12.057 12.01 11.947 11.88 11.795 11.685 11.57 11.503 11.48 11.46 11.443 11.425 11.42 11.438 11.465 11.472 11.452 11.42 11.372 11.318 11.27 11.238 11.197 11.133 11.06
12.808 12.803 12.823 12.865 12.915 12.965 13.018 13.07 13.115 13.132 13.125 13.115 13.105 13.095 13.073 13.05 13.035 13.055 13.125 13.205 13.287 13.365 13.43 13.455 13.417 13.355 13.318 13.3 13.283 13.268 13.25 13.235 13.225 13.218 13.213 13.213 13.218 13.225 13.298 13.47 13.665 13.765 13.717 13.622 13.552 13.482 13.405 13.313 13.188 13.07 12.993 12.965 12.998 13.052 13.105 13.142 13.145 13.125 13.09 13.035 12.993 12.995 13.01 13.01 13.015 13.012 12.96 12.875 12.81 12.773 12.768 12.78 12.79 12.8 12.813 12.83 12.847 12.862 12.872 12.882 12.897 12.912 12.92 12.918 12.913 12.908 12.903 12.898 12.893 12.9 12.923 12.963 13.02 13.082 13.125 13.13 13.12 13.115 13.125 13.145 13.165 13.205 13.238 13.238 13.228 13.205 13.173 13.143 13.12 13.1 13.09 13.095 13.107 13.122 13.105 13.05 12.993 12.935 12.895 12.88 12.875 12.86 12.86 12.9 12.95 12.997 13.022 13.025 13.025 13.015 12.975 12.915 12.855 12.803 12.78 12.787 12.802 12.817 12.835 12.85 12.852 12.827 12.78 12.73 12.685 12.643 12.613 12.603 12.6 12.597 12.585 12.56 12.535 12.507 12.487 12.47 12.445 12.42 12.4 12.39 12.38 12.375 12.368 12.35 12.33 12.305 12.278 12.253 12.228 12.203 12.188 12.182 12.172 12.152 12.122 12.09 12.055 12.002 11.915 11.798 11.675 11.558 11.488 11.463 11.44 11.42 11.415 11.435 11.462 11.49 11.492 11.458 11.41 11.363 11.315 11.273 11.243 11.2 11.13 11.053
12.858 12.83 12.828 12.863 12.915 12.965 13.018 13.07 13.12 13.142 13.133 13.12 13.11 13.103 13.095 13.097 13.085 13.06 13.1 13.19 13.28 13.365 13.437 13.447 13.39 13.325 13.29 13.28 13.27 13.258 13.245 13.238 13.23 13.22 13.2 13.183 13.183 13.19 13.258 13.428 13.64 13.79 13.81 13.74 13.65 13.56 13.483 13.42 13.302 13.138 13.053 13.07 13.115 13.16 13.195 13.2 13.187 13.17 13.132 13.077 13.023 12.978 12.95 12.938 12.935 12.93 12.888 12.815 12.765 12.748 12.748 12.755 12.765 12.775 12.79 12.807 12.822 12.835 12.84 12.847 12.862 12.887 12.922 12.942 12.943 12.94 12.935 12.93 12.93 12.925 12.94 12.983 13.035 13.095 13.137 13.147 13.14 13.135 13.145 13.165 13.185 13.21 13.22 13.21 13.2 13.19 13.175 13.155 13.138 13.12 13.095 13.075 13.075 13.09 13.072 13.015 12.955 12.898 12.86 12.848 12.843 12.858 12.89 12.928 12.975 13.022 13.047 13.05 13.05 13.062 13.05 12.995 12.935 12.862 12.808 12.798 12.805 12.815 12.83 12.845 12.845 12.815 12.765 12.717 12.673 12.64 12.63 12.63 12.63 12.625 12.607 12.582 12.557 12.537 12.512 12.48 12.452 12.428 12.41 12.4 12.39 12.383 12.373 12.355 12.335 12.313 12.293 12.29 12.3 12.3 12.282 12.255 12.22 12.18 12.145 12.115 12.085 12.047 11.985 11.88 11.753 11.628 11.555 11.533 11.505 11.468 11.438 11.448 11.48 11.507 11.512 11.482 11.438 11.393 11.35 11.318 11.282 11.215 11.13 11.05
12.962 12.935 12.898 12.893 12.93 12.98 13.032 13.082 13.127 13.152 13.147 13.135 13.13 13.135 13.148 13.157 13.137 13.09 13.093 13.163 13.25 13.353 13.44 13.455 13.405 13.343 13.31 13.303 13.295 13.285 13.278 13.27 13.262 13.252 13.22 13.18 13.16 13.16 13.22 13.38 13.587 13.737 13.797 13.79 13.725 13.635 13.558 13.512 13.455 13.315 13.195 13.165 13.175 13.21 13.232 13.23 13.22 13.207 13.17 13.115 13.065 13.01 12.958 12.92 12.895 12.878 12.843 12.8 12.78 12.765 12.75 12.743 12.745 12.755 12.77 12.785 12.795 12.8 12.795 12.79 12.8 12.843 12.91 12.97 12.997 13 12.997 12.993 12.987 12.98 12.99 13.023 13.068 13.122 13.162 13.175 13.172 13.168 13.175 13.195 13.215 13.24 13.25 13.24 13.23 13.22 13.205 13.188 13.175 13.162 13.127 13.08 13.05 13.048 13.035 12.985 12.928 12.878 12.845 12.833 12.843 12.893 12.942 12.968 13.003 13.05 13.075 13.075 13.088 13.127 13.135 13.08 13.002 12.902 12.82 12.795 12.795 12.782 12.783 12.802 12.812 12.792 12.747 12.703 12.665 12.65 12.65 12.65 12.647 12.64 12.622 12.598 12.575 12.557 12.53 12.49 12.458 12.433 12.415 12.405 12.4 12.4 12.395 12.38 12.36 12.335 12.303 12.3 12.337 12.357 12.332 12.285 12.238 12.198 12.165 12.135 12.105 12.08 12.057 12.007 11.912 11.79 11.713 11.685 11.642 11.577 11.508 11.47 11.48 11.502 11.517 11.517 11.495 11.457 11.415 11.382 11.327 11.23 11.133 11.05
13.037 13.022 12.992 12.963 12.96 12.995 13.047 13.095 13.135 13.162 13.165 13.163 13.175 13.195 13.215 13.215 13.182 13.135 13.103 13.138 13.23 13.362 13.455 13.46 13.432 13.385 13.355 13.345 13.335 13.325 13.315 13.305 13.297 13.282 13.247 13.205 13.165 13.138 13.178 13.328 13.522 13.652 13.722 13.772 13.772 13.71 13.633 13.588 13.56 13.492 13.395 13.318 13.265 13.258 13.267 13.257 13.242 13.227 13.197 13.15 13.1 13.047 12.995 12.943 12.895 12.865 12.84 12.82 12.81 12.795 12.773 12.75 12.738 12.738 12.748 12.757 12.76 12.758 12.75 12.743 12.755 12.808 12.883 12.957 13.02 13.052 13.06 13.055 13.045 13.035 13.045 13.075 13.11 13.157 13.192 13.2 13.203 13.203 13.21 13.227 13.245 13.267 13.277 13.27 13.26 13.25 13.237 13.225 13.215 13.205 13.17 13.115 13.063 13.025 13 12.96 12.91 12.865 12.833 12.83 12.875 12.95 13.007 13.03 13.045 13.078 13.102 13.118 13.158 13.215 13.215 13.135 13.027 12.913 12.828 12.797 12.777 12.73 12.718 12.747 12.77 12.765 12.73 12.695 12.675 12.67 12.67 12.667 12.66 12.652 12.637 12.615 12.597 12.58 12.55 12.508 12.468 12.438 12.42 12.413 12.415 12.42 12.415 12.4 12.382 12.36 12.328 12.315 12.348 12.377 12.355 12.305 12.255 12.213 12.183 12.155 12.128 12.103 12.083 12.065 12.025 11.945 11.872 11.822 11.757 11.68 11.605 11.535 11.495 11.495 11.508 11.52 11.522 11.512 11.485 11.435 11.35 11.24 11.138 11.055
13.065 13.055 13.047 13.035 13.02 13.025 13.06 13.102 13.14 13.172 13.187 13.2 13.225 13.25 13.27 13.267 13.23 13.18 13.13 13.133 13.235 13.387 13.46 13.45 13.44 13.417 13.392 13.38 13.367 13.352 13.337 13.322 13.31 13.297 13.275 13.237 13.193 13.148 13.16 13.298 13.462 13.56 13.628 13.692 13.745 13.75 13.707 13.65 13.602 13.572 13.525 13.455 13.377 13.32 13.29 13.265 13.245 13.225 13.207 13.175 13.122 13.07 13.02 12.967 12.913 12.87 12.855 12.85 12.837 12.82 12.798 12.775 12.755 12.738 12.733 12.733 12.728 12.723 12.723 12.73 12.753 12.803 12.873 12.943 13.01 13.072 13.11 13.115 13.105 13.093 13.1 13.133 13.165 13.203 13.228 13.233 13.24 13.24 13.24 13.252 13.27 13.29 13.297 13.287 13.272 13.257 13.232 13.222 13.237 13.242 13.21 13.152 13.092 13.033 12.983 12.94 12.897 12.853 12.825 12.853 12.925 13.005 13.067 13.095 13.1 13.112 13.135 13.167 13.215 13.262 13.255 13.165 13.045 12.925 12.825 12.763 12.708 12.65 12.643 12.678 12.71 12.728 12.718 12.703 12.698 12.693 12.687 12.682 12.675 12.667 12.652 12.635 12.62 12.602 12.572 12.53 12.485 12.448 12.433 12.43 12.435 12.44 12.433 12.418 12.408 12.398 12.38 12.365 12.373 12.395 12.38 12.33 12.277 12.233 12.202 12.177 12.152 12.128 12.107 12.09 12.07 12.045 12.002 11.937 11.863 11.785 11.708 11.63 11.555 11.518 11.518 11.525 11.535 11.545 11.532 11.465 11.36 11.25 11.143 11.075
13.065 13.055 13.055 13.06 13.057 13.053 13.068 13.1 13.132 13.165 13.19 13.21 13.235 13.26 13.287 13.31 13.29 13.24 13.19 13.155 13.213 13.345 13.405 13.395 13.392 13.397 13.392 13.377 13.36 13.34 13.32 13.303 13.298 13.302 13.295 13.267 13.227 13.183 13.193 13.31 13.42 13.475 13.538 13.603 13.667 13.722 13.72 13.66 13.618 13.61 13.58 13.515 13.45 13.387 13.315 13.258 13.23 13.21 13.202 13.185 13.137 13.085 13.035 12.985 12.927 12.878 12.87 12.875 12.862 12.845 12.825 12.805 12.782 12.745 12.728 12.735 12.733 12.73 12.74 12.76 12.783 12.825 12.888 12.95 13.01 13.077 13.135 13.16 13.157 13.143 13.16 13.205 13.243 13.278 13.298 13.303 13.308 13.3 13.265 13.25 13.27 13.29 13.295 13.28 13.26 13.237 13.19 13.158 13.18 13.21 13.205 13.16 13.095 13.03 12.97 12.92 12.88 12.843 12.828 12.86 12.93 13.012 13.077 13.107 13.117 13.125 13.145 13.18 13.217 13.25 13.247 13.185 13.08 12.955 12.84 12.748 12.668 12.613 12.615 12.655 12.693 12.73 12.738 12.725 12.722 12.717 12.703 12.688 12.682 12.675 12.66 12.642 12.625 12.607 12.577 12.532 12.49 12.463 12.458 12.46 12.463 12.465 12.463 12.458 12.453 12.45 12.44 12.425 12.415 12.422 12.41 12.355 12.292 12.24 12.215 12.2 12.175 12.15 12.13 12.11 12.103 12.117 12.107 12.047 11.97 11.89 11.81 11.727 11.64 11.57 11.545 11.55 11.56 11.567 11.555 11.485 11.375 11.265 11.158 11.123
13.06 13.05 13.053 13.062 13.065 13.065 13.073 13.09 13.113 13.14 13.167 13.19 13.215 13.245 13.285 13.337 13.35 13.31 13.257 13.2 13.175 13.24 13.3 13.3 13.313 13.342 13.355 13.34 13.323 13.305 13.285 13.278 13.29 13.305 13.3 13.282 13.257 13.22 13.243 13.32 13.365 13.398 13.453 13.517 13.582 13.645 13.67 13.655 13.648 13.65 13.63 13.575 13.513 13.455 13.37 13.273 13.218 13.195 13.188 13.185 13.155 13.105 13.052 12.997 12.935 12.88 12.875 12.892 12.89 12.875 12.855 12.83 12.79 12.733 12.715 12.75 12.767 12.765 12.775 12.795 12.815 12.853 12.91 12.972 13.035 13.085 13.122 13.162 13.19 13.188 13.218 13.285 13.335 13.37 13.39 13.395 13.39 13.375 13.318 13.255 13.25 13.267 13.27 13.255 13.235 13.212 13.16 13.093 13.075 13.102 13.125 13.117 13.072 13.01 12.95 12.9 12.868 12.85 12.845 12.855 12.9 12.977 13.037 13.07 13.092 13.103 13.123 13.157 13.19 13.22 13.22 13.18 13.107 12.997 12.883 12.785 12.703 12.65 12.658 12.7 12.743 12.79 12.795 12.763 12.748 12.742 12.722 12.693 12.678 12.672 12.657 12.635 12.615 12.595 12.562 12.52 12.493 12.488 12.495 12.5 12.5 12.503 12.51 12.517 12.517 12.512 12.5 12.485 12.47 12.463 12.432 12.365 12.292 12.225 12.2 12.205 12.195 12.172 12.153 12.15 12.17 12.205 12.212 12.16 12.075 11.99 11.907 11.82 11.73 11.643 11.588 11.58 11.59 11.59 11.572 11.505 11.395 11.285 11.185 11.175
13.052 13.045 13.048 13.06 13.068 13.073 13.08 13.09 13.103 13.12 13.145 13.173 13.203 13.24 13.288 13.347 13.392 13.38 13.325 13.265 13.203 13.18 13.2 13.223 13.255 13.295 13.31 13.298 13.285 13.273 13.263 13.27 13.29 13.307 13.305 13.288 13.27 13.248 13.255 13.283 13.298 13.32 13.368 13.433 13.498 13.563 13.617 13.65 13.67 13.687 13.682 13.64 13.583 13.527 13.442 13.328 13.233 13.183 13.173 13.177 13.162 13.12 13.065 13.005 12.94 12.88 12.87 12.897 12.912 12.905 12.877 12.835 12.775 12.71 12.698 12.75 12.79 12.798 12.81 12.83 12.85 12.88 12.932 12.99 13.035 13.062 13.088 13.133 13.185 13.218 13.265 13.345 13.415 13.462 13.48 13.477 13.465 13.447 13.392 13.303 13.248 13.243 13.242 13.228 13.21 13.187 13.135 13.055 12.995 12.99 13.012 13.027 13.022 12.985 12.933 12.893 12.878 12.875 12.875 12.875 12.89 12.94 12.992 13.028 13.057 13.075 13.1 13.132 13.16 13.19 13.187 13.152 13.107 13.03 12.928 12.835 12.768 12.72 12.72 12.765 12.815 12.862 12.865 12.82 12.783 12.765 12.745 12.71 12.68 12.668 12.652 12.628 12.605 12.585 12.553 12.523 12.518 12.525 12.535 12.54 12.543 12.55 12.56 12.57 12.577 12.575 12.56 12.55 12.545 12.537 12.482 12.378 12.288 12.213 12.175 12.182 12.192 12.193 12.195 12.218 12.25 12.282 12.3 12.26 12.175 12.087 12 11.91 11.82 11.73 11.65 11.615 11.615 11.605 11.585 11.522 11.415 11.305 11.218 11.22
13.03 13.038 13.055 13.065 13.083 13.103 13.113 13.118 13.125 13.133 13.143 13.168 13.203 13.24 13.29 13.353 13.415 13.432 13.387 13.322 13.257 13.198 13.178 13.198 13.223 13.253 13.265 13.255 13.248 13.24 13.243 13.262 13.285 13.305 13.31 13.298 13.283 13.27 13.263 13.263 13.265 13.265 13.295 13.358 13.425 13.495 13.557 13.602 13.637 13.672 13.702 13.697 13.655 13.602 13.517 13.402 13.288 13.193 13.158 13.163 13.162 13.135 13.078 13.013 12.945 12.88 12.865 12.895 12.922 12.92 12.877 12.817 12.753 12.688 12.678 12.735 12.797 12.83 12.845 12.865 12.885 12.91 12.945 12.977 13 13.02 13.05 13.098 13.165 13.243 13.325 13.408 13.485 13.547 13.565 13.553 13.537 13.522 13.467 13.372 13.285 13.235 13.218 13.203 13.187 13.162 13.105 13.025 12.945 12.903 12.908 12.923 12.938 12.938 12.918 12.905 12.905 12.905 12.905 12.905 12.905 12.925 12.963 12.995 13.028 13.058 13.083 13.105 13.13 13.16 13.155 13.118 13.082 13.035 12.967 12.897 12.837 12.783 12.78 12.832 12.887 12.935 12.932 12.885 12.835 12.798 12.768 12.733 12.698 12.668 12.645 12.622 12.598 12.575 12.555 12.548 12.555 12.562 12.57 12.575 12.58 12.587 12.597 12.61 12.622 12.627 12.622 12.625 12.632 12.635 12.572 12.443 12.323 12.22 12.158 12.155 12.188 12.228 12.255 12.28 12.31 12.34 12.355 12.327 12.257 12.182 12.107 12.018 11.925 11.833 11.74 11.67 11.638 11.62 11.6 11.548 11.455 11.355 11.293 11.28
12.988 13.033 13.075 13.09 13.12 13.152 13.167 13.17 13.175 13.18 13.178 13.185 13.213 13.25 13.3 13.365 13.43 13.462 13.43 13.36 13.298 13.253 13.235 13.24 13.25 13.25 13.238 13.225 13.22 13.215 13.22 13.242 13.267 13.287 13.307 13.317 13.31 13.3 13.297 13.297 13.29 13.278 13.275 13.303 13.36 13.432 13.495 13.54 13.575 13.618 13.677 13.717 13.707 13.665 13.582 13.465 13.347 13.23 13.165 13.163 13.167 13.15 13.097 13.033 12.963 12.893 12.865 12.885 12.915 12.915 12.867 12.8 12.733 12.665 12.665 12.748 12.82 12.845 12.852 12.87 12.887 12.925 12.96 12.97 12.978 12.983 13.02 13.098 13.19 13.29 13.39 13.482 13.565 13.63 13.65 13.635 13.607 13.56 13.5 13.42 13.322 13.238 13.193 13.177 13.162 13.14 13.087 13.013 12.938 12.88 12.878 12.9 12.915 12.933 12.938 12.938 12.94 12.938 12.935 12.935 12.935 12.943 12.968 13 13.033 13.065 13.088 13.103 13.123 13.142 13.13 13.093 13.06 13.028 12.99 12.94 12.88 12.823 12.825 12.88 12.935 12.987 12.982 12.93 12.882 12.837 12.798 12.762 12.722 12.675 12.638 12.615 12.593 12.578 12.57 12.57 12.577 12.582 12.59 12.595 12.6 12.605 12.613 12.627 12.635 12.635 12.64 12.65 12.652 12.637 12.612 12.54 12.413 12.28 12.183 12.173 12.23 12.292 12.32 12.33 12.355 12.385 12.395 12.37 12.315 12.26 12.212 12.152 12.072 11.978 11.885 11.783 11.708 11.68 11.66 11.623 11.55 11.463 11.453 11.45
12.96 13.042 13.092 13.118 13.157 13.195 13.217 13.23 13.237 13.24 13.235 13.228 13.238 13.27 13.32 13.382 13.445 13.485 13.46 13.393 13.343 13.315 13.305 13.31 13.307 13.267 13.225 13.208 13.198 13.193 13.2 13.22 13.24 13.255 13.287 13.327 13.337 13.33 13.33 13.337 13.337 13.33 13.31 13.295 13.313 13.368 13.432 13.478 13.52 13.58 13.645 13.705 13.73 13.705 13.627 13.51 13.39 13.27 13.195 13.18 13.177 13.157 13.117 13.065 12.985 12.908 12.875 12.878 12.9 12.905 12.86 12.79 12.733 12.71 12.755 12.832 12.852 12.83 12.828 12.843 12.87 12.943 13.002 13.01 13.008 13.008 13.055 13.15 13.25 13.35 13.45 13.55 13.647 13.72 13.722 13.665 13.587 13.497 13.437 13.395 13.322 13.233 13.173 13.152 13.132 13.105 13.07 13.02 12.955 12.9 12.905 12.945 12.967 12.985 12.99 12.985 12.983 12.978 12.973 12.968 12.968 12.973 12.995 13.03 13.06 13.09 13.112 13.127 13.14 13.145 13.125 13.088 13.055 13.025 12.995 12.957 12.905 12.85 12.853 12.908 12.962 13.015 13.017 12.968 12.918 12.872 12.832 12.787 12.732 12.675 12.633 12.61 12.598 12.603 12.6 12.588 12.585 12.59 12.597 12.602 12.607 12.613 12.62 12.632 12.625 12.608 12.61 12.61 12.587 12.545 12.552 12.575 12.507 12.38 12.273 12.253 12.303 12.365 12.39 12.385 12.398 12.425 12.432 12.407 12.365 12.318 12.282 12.255 12.207 12.142 12.06 11.937 11.825 11.775 11.762 11.742 11.68 11.62 11.677 11.715
12.963 13.057 13.115 13.15 13.195 13.235 13.262 13.285 13.297 13.3 13.295 13.285 13.28 13.293 13.338 13.397 13.455 13.505 13.49 13.435 13.405 13.385 13.375 13.37 13.337 13.27 13.218 13.195 13.178 13.17 13.18 13.197 13.21 13.22 13.253 13.307 13.347 13.357 13.36 13.372 13.382 13.38 13.36 13.335 13.32 13.328 13.37 13.423 13.48 13.547 13.613 13.68 13.735 13.737 13.665 13.55 13.43 13.31 13.228 13.205 13.192 13.162 13.12 13.065 12.98 12.913 12.895 12.89 12.895 12.895 12.855 12.815 12.82 12.855 12.9 12.905 12.855 12.8 12.79 12.81 12.868 12.975 13.05 13.07 13.075 13.093 13.15 13.23 13.315 13.413 13.515 13.615 13.7 13.742 13.695 13.58 13.465 13.37 13.32 13.3 13.267 13.21 13.155 13.12 13.087 13.05 13.025 13.005 12.965 12.918 12.92 12.97 13.01 13.035 13.042 13.037 13.03 13.025 13.02 13.01 13.005 13.005 13.023 13.055 13.085 13.115 13.137 13.15 13.155 13.152 13.132 13.095 13.058 13.025 12.995 12.965 12.925 12.878 12.88 12.935 12.99 13.04 13.055 13.012 12.953 12.9 12.85 12.792 12.73 12.67 12.63 12.618 12.623 12.637 12.637 12.62 12.605 12.6 12.603 12.608 12.613 12.62 12.628 12.637 12.615 12.58 12.57 12.542 12.495 12.445 12.45 12.512 12.537 12.472 12.393 12.373 12.39 12.438 12.465 12.455 12.453 12.47 12.47 12.44 12.407 12.365 12.327 12.297 12.265 12.23 12.175 12.077 11.953 11.875 11.868 11.865 11.81 11.803 11.92 11.972
12.988 13.08 13.145 13.187 13.235 13.277 13.307 13.33 13.347 13.355 13.35 13.34 13.33 13.325 13.355 13.41 13.465 13.52 13.525 13.495 13.475 13.455 13.437 13.405 13.343 13.265 13.21 13.185 13.165 13.15 13.153 13.165 13.175 13.185 13.218 13.273 13.327 13.367 13.385 13.395 13.405 13.392 13.347 13.312 13.295 13.275 13.302 13.375 13.445 13.512 13.58 13.65 13.717 13.752 13.702 13.59 13.47 13.35 13.263 13.227 13.197 13.15 13.093 13.03 12.965 12.925 12.915 12.908 12.903 12.898 12.88 12.88 12.912 12.94 12.952 12.917 12.843 12.775 12.753 12.795 12.89 13.01 13.09 13.12 13.138 13.178 13.247 13.322 13.397 13.482 13.557 13.617 13.662 13.67 13.597 13.465 13.338 13.243 13.203 13.188 13.173 13.152 13.12 13.077 13.035 12.993 12.968 12.96 12.948 12.925 12.935 12.985 13.035 13.077 13.092 13.085 13.075 13.07 13.065 13.055 13.045 13.038 13.05 13.08 13.11 13.14 13.162 13.167 13.165 13.16 13.14 13.105 13.065 13.028 12.995 12.965 12.932 12.9 12.91 12.962 13.015 13.065 13.087 13.05 12.982 12.92 12.858 12.795 12.733 12.673 12.64 12.64 12.655 12.672 12.677 12.668 12.653 12.635 12.623 12.62 12.623 12.63 12.635 12.642 12.605 12.54 12.5 12.453 12.398 12.345 12.35 12.41 12.473 12.507 12.505 12.502 12.508 12.527 12.542 12.532 12.52 12.52 12.507 12.475 12.445 12.4 12.343 12.295 12.257 12.222 12.19 12.142 12.067 11.993 11.973 11.985 11.958 12.003 12.155 12.222
13.027 13.092 13.137 13.185 13.235 13.277 13.31 13.335 13.352 13.362 13.36 13.35 13.34 13.338 13.358 13.398 13.45 13.505 13.53 13.525 13.515 13.518 13.498 13.438 13.368 13.295 13.245 13.22 13.2 13.173 13.143 13.133 13.14 13.15 13.183 13.237 13.29 13.335 13.367 13.382 13.39 13.367 13.27 13.168 13.125 13.105 13.165 13.292 13.385 13.457 13.532 13.605 13.675 13.74 13.73 13.63 13.51 13.39 13.293 13.238 13.195 13.14 13.085 13.033 12.978 12.945 12.938 12.93 12.925 12.933 12.943 12.933 12.923 12.93 12.942 12.915 12.84 12.76 12.738 12.815 12.938 13.062 13.145 13.175 13.2 13.248 13.315 13.39 13.465 13.557 13.58 13.545 13.558 13.575 13.512 13.375 13.248 13.165 13.13 13.115 13.105 13.095 13.075 13.035 12.988 12.963 12.965 12.968 12.963 12.95 12.965 13.015 13.065 13.11 13.122 13.11 13.1 13.092 13.087 13.08 13.072 13.065 13.078 13.11 13.14 13.17 13.182 13.178 13.172 13.167 13.147 13.11 13.07 13.028 12.99 12.96 12.93 12.91 12.93 12.98 13.03 13.08 13.097 13.065 13.005 12.937 12.873 12.808 12.748 12.703 12.67 12.663 12.677 12.695 12.715 12.725 12.72 12.702 12.668 12.643 12.64 12.645 12.65 12.645 12.595 12.513 12.448 12.39 12.33 12.28 12.295 12.37 12.45 12.54 12.595 12.605 12.615 12.605 12.587 12.577 12.562 12.552 12.542 12.52 12.49 12.44 12.355 12.275 12.225 12.188 12.155 12.127 12.1 12.07 12.078 12.107 12.13 12.225 12.387 12.452
13.05 13.07 13.095 13.145 13.187 13.22 13.257 13.295 13.315 13.325 13.325 13.315 13.315 13.335 13.358 13.378 13.415 13.465 13.492 13.495 13.53 13.61 13.602 13.51 13.438 13.375 13.333 13.307 13.277 13.232 13.175 13.13 13.113 13.115 13.148 13.2 13.24 13.27 13.305 13.34 13.357 13.34 13.222 13.045 12.918 12.86 12.958 13.167 13.307 13.382 13.46 13.537 13.61 13.677 13.705 13.655 13.552 13.435 13.333 13.265 13.218 13.17 13.123 13.072 13.01 12.97 12.963 12.958 12.955 12.98 13.027 13.02 12.975 12.948 12.935 12.91 12.85 12.805 12.823 12.895 13.003 13.13 13.215 13.245 13.27 13.303 13.358 13.433 13.52 13.642 13.64 13.518 13.468 13.477 13.422 13.295 13.205 13.155 13.113 13.08 13.065 13.055 13.032 12.993 12.963 12.98 13.02 13.032 13.022 12.998 13.005 13.052 13.1 13.137 13.137 13.118 13.105 13.098 13.095 13.092 13.087 13.085 13.105 13.142 13.175 13.205 13.21 13.19 13.178 13.172 13.15 13.11 13.067 13.023 12.985 12.953 12.923 12.91 12.938 12.99 13.04 13.077 13.077 13.05 13.01 12.952 12.89 12.835 12.793 12.762 12.72 12.688 12.693 12.71 12.74 12.772 12.785 12.777 12.735 12.68 12.663 12.667 12.667 12.642 12.582 12.505 12.435 12.37 12.318 12.295 12.33 12.423 12.525 12.625 12.68 12.687 12.677 12.637 12.603 12.59 12.575 12.565 12.565 12.557 12.535 12.487 12.395 12.285 12.205 12.155 12.12 12.095 12.088 12.11 12.162 12.215 12.287 12.415 12.57 12.605
13.03 13.03 13.053 13.095 13.125 13.153 13.193 13.237 13.272 13.29 13.29 13.29 13.31 13.345 13.37 13.38 13.398 13.43 13.468 13.52 13.628 13.76 13.755 13.635 13.538 13.465 13.422 13.39 13.342 13.285 13.225 13.165 13.118 13.093 13.108 13.147 13.175 13.2 13.235 13.28 13.315 13.312 13.205 13.01 12.82 12.678 12.753 13.025 13.22 13.305 13.377 13.447 13.507 13.56 13.605 13.622 13.58 13.482 13.388 13.318 13.265 13.22 13.165 13.105 13.04 12.998 12.988 12.985 12.988 13.02 13.1 13.137 13.095 13.035 12.988 12.965 12.955 12.975 13.025 13.075 13.143 13.23 13.29 13.315 13.337 13.363 13.408 13.485 13.603 13.74 13.73 13.575 13.448 13.393 13.33 13.243 13.195 13.162 13.115 13.063 13.03 13.015 12.99 12.96 12.97 13.02 13.075 13.097 13.077 13.04 13.045 13.09 13.135 13.162 13.152 13.127 13.108 13.1 13.1 13.102 13.1 13.103 13.13 13.17 13.21 13.245 13.247 13.218 13.193 13.177 13.15 13.107 13.063 13.018 12.98 12.95 12.925 12.915 12.943 12.997 13.047 13.062 13.045 13.02 12.99 12.955 12.917 12.887 12.86 12.83 12.785 12.73 12.71 12.728 12.76 12.8 12.832 12.845 12.812 12.745 12.7 12.69 12.675 12.63 12.567 12.495 12.425 12.378 12.363 12.37 12.41 12.503 12.612 12.712 12.762 12.75 12.705 12.653 12.62 12.603 12.588 12.578 12.578 12.58 12.572 12.535 12.445 12.325 12.218 12.138 12.098 12.095 12.123 12.168 12.225 12.29 12.375 12.502 12.647 12.652
12.99 12.99 13.005 13.033 13.055 13.085 13.125 13.17 13.218 13.25 13.268 13.29 13.32 13.355 13.38 13.39 13.4 13.425 13.498 13.62 13.762 13.87 13.87 13.777 13.663 13.563 13.498 13.45 13.395 13.335 13.275 13.215 13.152 13.09 13.063 13.08 13.107 13.133 13.165 13.213 13.262 13.285 13.187 13 12.833 12.678 12.7 12.92 13.115 13.22 13.278 13.33 13.38 13.43 13.478 13.522 13.545 13.51 13.442 13.375 13.315 13.263 13.203 13.138 13.073 13.028 13.015 13.018 13.023 13.06 13.15 13.232 13.23 13.17 13.11 13.103 13.16 13.217 13.265 13.315 13.342 13.347 13.357 13.377 13.4 13.425 13.46 13.543 13.68 13.81 13.792 13.642 13.49 13.365 13.278 13.225 13.197 13.17 13.127 13.068 13.013 12.98 12.958 12.96 13.005 13.065 13.125 13.152 13.127 13.083 13.085 13.13 13.172 13.185 13.16 13.13 13.105 13.1 13.105 13.107 13.108 13.118 13.15 13.19 13.232 13.275 13.28 13.247 13.212 13.182 13.147 13.102 13.057 13.01 12.973 12.95 12.93 12.92 12.948 13.002 13.042 13.04 13.013 12.987 12.96 12.932 12.917 12.907 12.892 12.88 12.847 12.787 12.743 12.745 12.78 12.82 12.86 12.892 12.882 12.825 12.76 12.712 12.667 12.61 12.55 12.485 12.438 12.43 12.443 12.458 12.493 12.578 12.69 12.787 12.817 12.775 12.715 12.665 12.635 12.615 12.6 12.592 12.592 12.597 12.6 12.577 12.492 12.37 12.252 12.143 12.093 12.12 12.17 12.22 12.282 12.35 12.42 12.53 12.67 12.655
12.97 12.97 12.975 12.988 13 13.025 13.075 13.135 13.195 13.245 13.275 13.3 13.33 13.365 13.39 13.4 13.415 13.46 13.563 13.7 13.825 13.88 13.89 13.87 13.782 13.668 13.58 13.523 13.463 13.4 13.325 13.242 13.165 13.085 13.033 13.023 13.04 13.065 13.098 13.148 13.2 13.24 13.195 13.065 12.935 12.815 12.82 12.965 13.077 13.135 13.183 13.23 13.285 13.34 13.388 13.43 13.472 13.49 13.48 13.44 13.375 13.315 13.253 13.188 13.125 13.073 13.05 13.052 13.055 13.098 13.195 13.302 13.347 13.31 13.26 13.28 13.367 13.447 13.482 13.487 13.47 13.427 13.408 13.425 13.452 13.477 13.498 13.563 13.692 13.815 13.8 13.66 13.51 13.363 13.258 13.21 13.187 13.17 13.137 13.083 13.023 12.973 12.96 13 13.063 13.125 13.185 13.202 13.17 13.125 13.115 13.142 13.167 13.167 13.137 13.105 13.088 13.095 13.107 13.112 13.115 13.128 13.16 13.2 13.24 13.287 13.295 13.255 13.215 13.18 13.14 13.093 13.048 13.008 12.98 12.96 12.94 12.92 12.938 12.992 13.022 13.01 12.98 12.955 12.927 12.895 12.88 12.875 12.875 12.89 12.875 12.822 12.77 12.755 12.782 12.82 12.86 12.9 12.9 12.842 12.77 12.7 12.635 12.575 12.513 12.48 12.49 12.51 12.527 12.545 12.575 12.65 12.75 12.822 12.825 12.77 12.715 12.685 12.67 12.65 12.623 12.598 12.59 12.592 12.592 12.572 12.507 12.397 12.275 12.155 12.093 12.118 12.17 12.225 12.287 12.345 12.435 12.557 12.687 12.66
12.97 12.97 12.97 12.975 12.995 13.038 13.103 13.175 13.248 13.302 13.318 13.323 13.345 13.377 13.402 13.415 13.448 13.52 13.63 13.762 13.84 13.835 13.845 13.88 13.86 13.772 13.683 13.617 13.55 13.477 13.38 13.263 13.16 13.075 13.018 12.99 12.983 12.998 13.033 13.08 13.127 13.17 13.197 13.177 13.09 12.968 12.97 13.08 13.087 13.068 13.11 13.165 13.23 13.29 13.335 13.377 13.41 13.417 13.445 13.475 13.445 13.385 13.32 13.258 13.203 13.148 13.103 13.088 13.09 13.138 13.24 13.35 13.44 13.445 13.42 13.47 13.53 13.55 13.557 13.552 13.525 13.483 13.458 13.47 13.497 13.522 13.533 13.558 13.658 13.78 13.77 13.642 13.5 13.353 13.245 13.188 13.158 13.145 13.135 13.12 13.085 13.033 13.025 13.073 13.133 13.197 13.252 13.255 13.212 13.16 13.12 13.11 13.115 13.112 13.09 13.068 13.068 13.085 13.102 13.115 13.122 13.133 13.16 13.2 13.243 13.292 13.297 13.25 13.205 13.167 13.127 13.083 13.045 13.02 13 12.98 12.947 12.905 12.913 12.962 12.99 12.98 12.95 12.922 12.89 12.855 12.84 12.84 12.855 12.887 12.88 12.83 12.78 12.75 12.76 12.795 12.835 12.875 12.865 12.795 12.72 12.65 12.583 12.52 12.485 12.51 12.56 12.59 12.61 12.63 12.653 12.702 12.767 12.812 12.805 12.753 12.723 12.733 12.735 12.702 12.645 12.59 12.57 12.565 12.552 12.522 12.47 12.392 12.285 12.165 12.095 12.1 12.143 12.197 12.25 12.298 12.378 12.475 12.555 12.547
12.97 12.97 12.973 12.995 13.048 13.115 13.187 13.26 13.332 13.372 13.372 13.37 13.375 13.393 13.415 13.445 13.505 13.59 13.697 13.795 13.81 13.778 13.79 13.84 13.875 13.852 13.782 13.707 13.63 13.545 13.44 13.31 13.18 13.073 13.005 12.973 12.948 12.94 12.965 13.007 13.05 13.093 13.147 13.197 13.2 13.122 13.107 13.135 13.065 13.015 13.04 13.103 13.177 13.242 13.29 13.33 13.335 13.315 13.348 13.42 13.46 13.445 13.395 13.34 13.29 13.24 13.183 13.138 13.128 13.18 13.285 13.395 13.505 13.555 13.565 13.585 13.562 13.5 13.49 13.532 13.552 13.535 13.51 13.518 13.542 13.567 13.572 13.558 13.62 13.74 13.732 13.615 13.485 13.348 13.245 13.18 13.128 13.1 13.108 13.135 13.147 13.127 13.128 13.167 13.215 13.275 13.317 13.3 13.245 13.182 13.125 13.088 13.07 13.06 13.048 13.043 13.055 13.075 13.095 13.11 13.122 13.135 13.16 13.203 13.25 13.3 13.305 13.255 13.2 13.155 13.115 13.08 13.055 13.035 13.015 12.985 12.932 12.878 12.883 12.922 12.945 12.945 12.92 12.887 12.852 12.818 12.803 12.818 12.853 12.895 12.887 12.838 12.79 12.745 12.735 12.765 12.805 12.842 12.825 12.75 12.673 12.598 12.528 12.493 12.515 12.57 12.627 12.667 12.69 12.707 12.72 12.733 12.755 12.79 12.785 12.755 12.763 12.79 12.787 12.732 12.655 12.583 12.543 12.525 12.503 12.465 12.41 12.352 12.28 12.175 12.105 12.098 12.123 12.17 12.22 12.27 12.325 12.373 12.373 12.34
12.973 12.98 12.995 13.04 13.11 13.182 13.257 13.33 13.392 13.417 13.415 13.415 13.415 13.42 13.44 13.495 13.575 13.66 13.745 13.777 13.75 13.72 13.735 13.785 13.835 13.867 13.85 13.782 13.695 13.605 13.497 13.365 13.225 13.093 13.003 12.963 12.935 12.91 12.908 12.933 12.968 13.013 13.07 13.13 13.19 13.205 13.187 13.135 13.035 12.965 12.973 13.04 13.12 13.192 13.247 13.265 13.232 13.205 13.24 13.307 13.375 13.44 13.457 13.42 13.372 13.325 13.275 13.213 13.173 13.223 13.33 13.44 13.552 13.627 13.64 13.597 13.52 13.44 13.42 13.465 13.515 13.545 13.55 13.563 13.587 13.612 13.612 13.573 13.6 13.705 13.697 13.582 13.462 13.34 13.245 13.18 13.115 13.065 13.07 13.115 13.165 13.192 13.212 13.255 13.302 13.355 13.372 13.33 13.265 13.198 13.143 13.098 13.058 13.03 13.023 13.033 13.05 13.068 13.085 13.103 13.118 13.133 13.163 13.21 13.26 13.31 13.315 13.265 13.205 13.153 13.115 13.09 13.07 13.05 13.02 12.97 12.91 12.853 12.845 12.875 12.895 12.905 12.887 12.85 12.815 12.783 12.778 12.813 12.857 12.9 12.892 12.845 12.8 12.753 12.723 12.735 12.775 12.807 12.782 12.705 12.625 12.545 12.5 12.523 12.575 12.63 12.69 12.74 12.762 12.767 12.77 12.765 12.765 12.78 12.783 12.788 12.81 12.832 12.822 12.76 12.68 12.6 12.543 12.513 12.478 12.428 12.368 12.305 12.245 12.168 12.113 12.105 12.113 12.145 12.203 12.265 12.325 12.355 12.317 12.24
13.013 13.03 13.053 13.09 13.15 13.222 13.295 13.365 13.412 13.425 13.425 13.427 13.432 13.43 13.435 13.49 13.58 13.67 13.727 13.725 13.692 13.663 13.675 13.725 13.775 13.82 13.845 13.815 13.735 13.645 13.535 13.4 13.26 13.12 13.018 12.97 12.94 12.91 12.893 12.903 12.915 12.928 12.97 13.03 13.09 13.157 13.165 13.09 13 12.918 12.913 12.985 13.065 13.142 13.185 13.162 13.105 13.068 13.093 13.16 13.25 13.377 13.47 13.472 13.435 13.39 13.345 13.285 13.233 13.278 13.39 13.502 13.602 13.652 13.647 13.607 13.54 13.458 13.43 13.463 13.503 13.553 13.595 13.615 13.633 13.657 13.652 13.605 13.598 13.67 13.662 13.548 13.433 13.325 13.24 13.172 13.108 13.073 13.098 13.155 13.213 13.247 13.265 13.3 13.35 13.4 13.405 13.352 13.288 13.22 13.165 13.12 13.075 13.038 13.028 13.043 13.06 13.078 13.093 13.11 13.128 13.135 13.16 13.21 13.262 13.31 13.32 13.28 13.223 13.168 13.133 13.115 13.095 13.072 13.028 12.965 12.903 12.838 12.813 12.83 12.847 12.862 12.862 12.835 12.798 12.765 12.773 12.818 12.862 12.9 12.895 12.855 12.81 12.765 12.723 12.713 12.745 12.77 12.735 12.655 12.578 12.525 12.535 12.59 12.648 12.703 12.76 12.797 12.797 12.79 12.785 12.777 12.775 12.778 12.795 12.822 12.845 12.867 12.855 12.795 12.722 12.645 12.585 12.545 12.492 12.43 12.365 12.295 12.23 12.158 12.123 12.13 12.13 12.153 12.213 12.287 12.33 12.33 12.29 12.215
13.085 13.105 13.125 13.148 13.188 13.25 13.32 13.38 13.41 13.415 13.418 13.422 13.42 13.405 13.395 13.43 13.515 13.6 13.64 13.642 13.63 13.605 13.615 13.662 13.707 13.747 13.782 13.797 13.752 13.662 13.55 13.417 13.28 13.143 13.045 12.993 12.953 12.92 12.907 12.905 12.875 12.835 12.85 12.908 12.973 13.06 13.082 13.015 12.935 12.868 12.855 12.9 12.967 13.042 13.067 13.022 12.955 12.9 12.92 13.018 13.155 13.312 13.432 13.485 13.48 13.44 13.392 13.34 13.31 13.36 13.465 13.565 13.622 13.635 13.632 13.622 13.587 13.52 13.495 13.528 13.57 13.62 13.672 13.683 13.678 13.702 13.692 13.64 13.598 13.635 13.627 13.513 13.403 13.305 13.225 13.158 13.12 13.138 13.188 13.245 13.29 13.307 13.313 13.328 13.363 13.41 13.417 13.372 13.315 13.25 13.195 13.15 13.105 13.065 13.053 13.068 13.085 13.102 13.118 13.135 13.147 13.14 13.155 13.205 13.252 13.287 13.302 13.287 13.245 13.193 13.158 13.142 13.125 13.102 13.055 12.988 12.92 12.85 12.803 12.793 12.803 12.82 12.835 12.832 12.807 12.773 12.78 12.825 12.86 12.88 12.875 12.852 12.817 12.775 12.73 12.7 12.715 12.732 12.69 12.61 12.56 12.563 12.608 12.672 12.732 12.787 12.832 12.835 12.805 12.788 12.778 12.768 12.765 12.773 12.8 12.84 12.875 12.9 12.88 12.82 12.757 12.688 12.627 12.577 12.515 12.45 12.385 12.312 12.237 12.158 12.135 12.162 12.172 12.19 12.24 12.3 12.315 12.297 12.257 12.185
13.173 13.183 13.2 13.22 13.245 13.285 13.34 13.382 13.4 13.407 13.412 13.41 13.392 13.37 13.363 13.38 13.445 13.51 13.53 13.54 13.545 13.538 13.553 13.595 13.632 13.67 13.707 13.745 13.747 13.677 13.56 13.43 13.297 13.168 13.078 13.022 12.973 12.933 12.907 12.872 12.81 12.743 12.733 12.785 12.868 12.975 12.997 12.925 12.868 12.845 12.835 12.838 12.863 12.895 12.905 12.87 12.813 12.765 12.8 12.933 13.09 13.247 13.377 13.46 13.497 13.485 13.438 13.405 13.415 13.458 13.53 13.59 13.605 13.605 13.605 13.605 13.597 13.565 13.56 13.605 13.657 13.712 13.767 13.775 13.745 13.747 13.735 13.68 13.62 13.62 13.592 13.483 13.38 13.283 13.208 13.175 13.19 13.233 13.28 13.327 13.352 13.36 13.367 13.373 13.388 13.422 13.425 13.385 13.337 13.277 13.225 13.18 13.135 13.095 13.08 13.093 13.11 13.128 13.145 13.162 13.157 13.135 13.15 13.195 13.227 13.252 13.267 13.267 13.252 13.215 13.183 13.167 13.152 13.135 13.09 13.022 12.955 12.885 12.823 12.778 12.765 12.778 12.79 12.8 12.8 12.783 12.79 12.82 12.832 12.835 12.83 12.82 12.802 12.777 12.74 12.698 12.693 12.695 12.645 12.593 12.598 12.633 12.683 12.75 12.815 12.87 12.887 12.86 12.818 12.788 12.775 12.765 12.758 12.768 12.8 12.845 12.892 12.925 12.905 12.845 12.785 12.722 12.66 12.6 12.535 12.47 12.4 12.315 12.225 12.153 12.145 12.18 12.205 12.225 12.262 12.292 12.285 12.265 12.227 12.16
13.275 13.265 13.267 13.285 13.305 13.328 13.358 13.383 13.395 13.403 13.4 13.383 13.358 13.335 13.33 13.34 13.375 13.413 13.428 13.443 13.458 13.457 13.47 13.51 13.547 13.582 13.615 13.65 13.682 13.655 13.547 13.41 13.272 13.163 13.095 13.04 12.985 12.94 12.887 12.815 12.738 12.663 12.628 12.675 12.78 12.895 12.917 12.868 12.853 12.857 12.852 12.837 12.828 12.818 12.803 12.773 12.73 12.703 12.753 12.88 13.028 13.182 13.325 13.42 13.475 13.505 13.5 13.5 13.52 13.54 13.57 13.592 13.595 13.595 13.595 13.595 13.595 13.59 13.6 13.65 13.717 13.782 13.847 13.885 13.85 13.805 13.772 13.715 13.655 13.62 13.562 13.46 13.36 13.268 13.225 13.245 13.285 13.327 13.367 13.395 13.405 13.407 13.415 13.42 13.425 13.44 13.427 13.385 13.34 13.292 13.25 13.207 13.162 13.12 13.105 13.118 13.135 13.155 13.175 13.18 13.155 13.125 13.135 13.167 13.193 13.22 13.235 13.235 13.235 13.22 13.2 13.185 13.167 13.15 13.107 13.045 12.98 12.917 12.86 12.8 12.755 12.74 12.748 12.763 12.778 12.785 12.793 12.8 12.8 12.8 12.793 12.775 12.76 12.75 12.728 12.698 12.68 12.655 12.625 12.633 12.668 12.705 12.755 12.82 12.882 12.92 12.91 12.872 12.832 12.795 12.775 12.762 12.75 12.757 12.79 12.832 12.877 12.915 12.912 12.865 12.805 12.745 12.682 12.617 12.552 12.487 12.402 12.3 12.205 12.148 12.153 12.188 12.22 12.25 12.27 12.267 12.252 12.235 12.2 12.135
13.357 13.325 13.3 13.317 13.345 13.365 13.385 13.4 13.408 13.407 13.395 13.373 13.35 13.355 13.373 13.378 13.355 13.34 13.36 13.38 13.387 13.365 13.365 13.405 13.45 13.492 13.503 13.5 13.525 13.535 13.455 13.31 13.188 13.123 13.082 13.03 12.975 12.93 12.872 12.79 12.703 12.623 12.57 12.6 12.703 12.815 12.855 12.84 12.84 12.845 12.84 12.822 12.807 12.79 12.765 12.73 12.69 12.678 12.74 12.855 12.98 13.12 13.27 13.375 13.432 13.485 13.527 13.552 13.565 13.575 13.59 13.605 13.613 13.615 13.615 13.615 13.613 13.608 13.613 13.643 13.702 13.777 13.855 13.905 13.875 13.817 13.767 13.702 13.637 13.592 13.555 13.483 13.39 13.305 13.288 13.33 13.37 13.4 13.407 13.405 13.407 13.41 13.415 13.42 13.422 13.42 13.392 13.347 13.302 13.272 13.257 13.23 13.185 13.14 13.125 13.14 13.162 13.185 13.195 13.18 13.145 13.115 13.118 13.143 13.17 13.197 13.21 13.21 13.21 13.197 13.19 13.187 13.17 13.15 13.11 13.05 12.99 12.943 12.895 12.835 12.78 12.753 12.76 12.778 12.793 12.8 12.8 12.8 12.798 12.788 12.792 12.79 12.765 12.745 12.723 12.7 12.675 12.653 12.663 12.7 12.737 12.772 12.81 12.855 12.897 12.915 12.895 12.86 12.825 12.785 12.755 12.735 12.717 12.723 12.755 12.795 12.832 12.865 12.882 12.867 12.82 12.76 12.697 12.632 12.568 12.502 12.405 12.285 12.185 12.143 12.16 12.198 12.243 12.292 12.292 12.245 12.22 12.205 12.172 12.107
13.407 13.35 13.308 13.325 13.367 13.395 13.415 13.427 13.427 13.422 13.41 13.388 13.388 13.443 13.487 13.47 13.38 13.31 13.32 13.33 13.305 13.258 13.255 13.3 13.355 13.41 13.41 13.368 13.348 13.355 13.297 13.183 13.115 13.085 13.057 13.01 12.958 12.915 12.867 12.795 12.708 12.625 12.57 12.578 12.643 12.74 12.795 12.792 12.795 12.802 12.797 12.785 12.77 12.752 12.727 12.69 12.65 12.653 12.73 12.843 12.958 13.078 13.212 13.322 13.39 13.445 13.495 13.54 13.567 13.58 13.598 13.62 13.635 13.642 13.645 13.642 13.632 13.623 13.63 13.645 13.673 13.73 13.802 13.835 13.787 13.73 13.68 13.615 13.563 13.533 13.532 13.522 13.467 13.388 13.365 13.407 13.43 13.42 13.397 13.378 13.368 13.368 13.372 13.375 13.372 13.36 13.33 13.285 13.248 13.238 13.242 13.235 13.202 13.16 13.145 13.163 13.187 13.202 13.195 13.17 13.137 13.105 13.103 13.13 13.157 13.182 13.195 13.192 13.182 13.155 13.148 13.165 13.165 13.15 13.11 13.053 13.008 12.975 12.93 12.873 12.828 12.808 12.815 12.83 12.835 12.83 12.825 12.82 12.805 12.778 12.793 12.835 12.832 12.805 12.775 12.745 12.71 12.693 12.712 12.747 12.785 12.822 12.84 12.845 12.865 12.882 12.867 12.832 12.795 12.755 12.718 12.688 12.665 12.67 12.705 12.742 12.775 12.802 12.827 12.845 12.827 12.775 12.712 12.648 12.583 12.517 12.417 12.285 12.173 12.143 12.183 12.235 12.295 12.36 12.347 12.26 12.2 12.173 12.145 12.077
13.435 13.365 13.315 13.325 13.375 13.417 13.443 13.448 13.443 13.437 13.425 13.418 13.46 13.545 13.597 13.545 13.405 13.3 13.275 13.255 13.2 13.145 13.15 13.205 13.265 13.327 13.335 13.285 13.235 13.208 13.165 13.11 13.08 13.055 13.032 12.992 12.945 12.905 12.862 12.797 12.715 12.638 12.595 12.6 12.63 12.688 12.73 12.74 12.753 12.76 12.755 12.745 12.733 12.717 12.69 12.65 12.61 12.625 12.718 12.83 12.945 13.06 13.175 13.272 13.342 13.402 13.455 13.507 13.555 13.582 13.602 13.63 13.652 13.665 13.67 13.665 13.65 13.64 13.65 13.665 13.68 13.708 13.755 13.765 13.693 13.61 13.558 13.518 13.49 13.47 13.473 13.497 13.497 13.457 13.44 13.455 13.44 13.405 13.38 13.36 13.342 13.33 13.325 13.32 13.31 13.297 13.267 13.228 13.21 13.212 13.215 13.215 13.205 13.177 13.165 13.18 13.187 13.177 13.165 13.15 13.127 13.098 13.093 13.117 13.142 13.167 13.18 13.167 13.137 13.103 13.095 13.12 13.142 13.145 13.112 13.068 13.038 13.012 12.972 12.925 12.888 12.865 12.865 12.87 12.865 12.855 12.847 12.83 12.797 12.763 12.773 12.835 12.882 12.882 12.852 12.815 12.773 12.738 12.745 12.782 12.82 12.86 12.87 12.85 12.843 12.85 12.84 12.805 12.765 12.725 12.685 12.648 12.618 12.62 12.653 12.685 12.713 12.738 12.765 12.795 12.807 12.782 12.727 12.663 12.598 12.532 12.435 12.305 12.203 12.185 12.238 12.303 12.367 12.43 12.41 12.31 12.218 12.155 12.115 12.037
13.45 13.38 13.323 13.325 13.375 13.445 13.49 13.478 13.46 13.453 13.45 13.483 13.56 13.65 13.687 13.597 13.435 13.3 13.225 13.178 13.12 13.06 13.058 13.118 13.18 13.242 13.255 13.21 13.16 13.108 13.065 13.045 13.03 13.012 12.997 12.97 12.93 12.89 12.85 12.797 12.727 12.655 12.623 12.635 12.655 12.675 12.693 12.708 12.72 12.725 12.72 12.713 12.705 12.692 12.663 12.618 12.573 12.595 12.697 12.807 12.917 13.027 13.135 13.21 13.262 13.325 13.382 13.44 13.5 13.552 13.595 13.63 13.657 13.68 13.69 13.682 13.665 13.658 13.67 13.685 13.7 13.715 13.735 13.717 13.64 13.553 13.5 13.478 13.453 13.425 13.423 13.453 13.483 13.487 13.467 13.445 13.417 13.382 13.357 13.335 13.302 13.285 13.28 13.263 13.245 13.232 13.208 13.185 13.182 13.185 13.185 13.185 13.185 13.177 13.167 13.162 13.147 13.125 13.112 13.107 13.097 13.082 13.082 13.102 13.125 13.145 13.147 13.122 13.085 13.05 13.045 13.07 13.102 13.127 13.117 13.09 13.067 13.045 13.015 12.977 12.94 12.912 12.902 12.895 12.885 12.875 12.857 12.825 12.788 12.753 12.755 12.81 12.877 12.917 12.907 12.87 12.83 12.79 12.783 12.815 12.852 12.887 12.895 12.872 12.85 12.835 12.81 12.77 12.73 12.69 12.65 12.61 12.578 12.58 12.61 12.638 12.663 12.688 12.715 12.745 12.77 12.782 12.75 12.685 12.62 12.558 12.483 12.393 12.325 12.29 12.313 12.375 12.44 12.5 12.475 12.373 12.27 12.178 12.103 12.018
13.493 13.403 13.33 13.328 13.403 13.515 13.572 13.545 13.51 13.488 13.505 13.575 13.665 13.745 13.762 13.665 13.505 13.353 13.253 13.2 13.15 13.088 13.033 13.04 13.095 13.155 13.172 13.135 13.082 13.015 12.965 12.953 12.945 12.94 12.94 12.922 12.885 12.842 12.8 12.755 12.697 12.653 12.65 12.67 12.69 12.69 12.685 12.695 12.703 12.705 12.703 12.698 12.693 12.682 12.65 12.6 12.57 12.59 12.663 12.763 12.867 12.972 13.07 13.125 13.16 13.215 13.275 13.34 13.405 13.472 13.547 13.602 13.635 13.665 13.685 13.687 13.675 13.673 13.688 13.702 13.717 13.732 13.742 13.715 13.645 13.565 13.518 13.5 13.475 13.44 13.435 13.47 13.495 13.49 13.442 13.38 13.347 13.332 13.307 13.262 13.228 13.24 13.247 13.22 13.195 13.175 13.16 13.152 13.15 13.147 13.145 13.145 13.147 13.15 13.14 13.113 13.085 13.062 13.048 13.042 13.037 13.035 13.037 13.052 13.072 13.087 13.082 13.055 13.02 12.985 12.993 13.032 13.068 13.1 13.105 13.085 13.07 13.06 13.037 13.002 12.967 12.938 12.923 12.915 12.905 12.885 12.855 12.823 12.788 12.75 12.738 12.773 12.832 12.887 12.907 12.89 12.857 12.822 12.808 12.827 12.86 12.89 12.895 12.875 12.852 12.822 12.783 12.74 12.7 12.668 12.64 12.61 12.583 12.585 12.618 12.645 12.67 12.698 12.723 12.75 12.775 12.818 12.817 12.753 12.688 12.663 12.628 12.558 12.505 12.445 12.413 12.448 12.512 12.567 12.54 12.437 12.335 12.23 12.118 12.02
13.595 13.503 13.4 13.383 13.48 13.615 13.667 13.635 13.595 13.56 13.585 13.67 13.75 13.792 13.79 13.735 13.61 13.458 13.36 13.31 13.26 13.202 13.11 13.028 13.02 13.068 13.092 13.06 12.997 12.915 12.865 12.86 12.86 12.868 12.877 12.857 12.812 12.767 12.722 12.673 12.64 12.65 12.682 12.71 12.722 12.705 12.688 12.695 12.7 12.7 12.697 12.692 12.687 12.675 12.643 12.608 12.618 12.645 12.663 12.718 12.813 12.917 12.997 13.035 13.06 13.105 13.165 13.23 13.298 13.373 13.462 13.542 13.595 13.63 13.652 13.665 13.675 13.69 13.705 13.718 13.733 13.747 13.755 13.73 13.67 13.595 13.55 13.542 13.527 13.498 13.495 13.52 13.515 13.477 13.41 13.32 13.253 13.227 13.197 13.16 13.168 13.21 13.22 13.19 13.16 13.125 13.105 13.1 13.095 13.093 13.093 13.098 13.105 13.112 13.112 13.078 13.023 12.988 12.973 12.968 12.963 12.96 12.96 12.968 12.985 13 12.992 12.967 12.937 12.908 12.93 12.995 13.042 13.072 13.075 13.06 13.058 13.06 13.042 13.01 12.98 12.953 12.938 12.93 12.912 12.877 12.845 12.822 12.79 12.75 12.73 12.74 12.78 12.832 12.865 12.87 12.85 12.825 12.815 12.825 12.85 12.877 12.882 12.862 12.835 12.8 12.76 12.72 12.693 12.685 12.675 12.652 12.628 12.628 12.66 12.692 12.72 12.75 12.775 12.8 12.838 12.905 12.92 12.858 12.873 12.912 12.85 12.753 12.683 12.622 12.56 12.543 12.588 12.635 12.6 12.5 12.392 12.262 12.123 12.015
13.682 13.64 13.57 13.543 13.6 13.715 13.762 13.728 13.693 13.66 13.68 13.752 13.797 13.795 13.775 13.75 13.685 13.565 13.47 13.42 13.367 13.312 13.227 13.11 13.02 13.003 13.012 12.977 12.9 12.82 12.783 12.785 12.798 12.812 12.815 12.785 12.735 12.69 12.648 12.62 12.635 12.675 12.715 12.747 12.735 12.7 12.69 12.692 12.695 12.695 12.692 12.687 12.68 12.667 12.645 12.645 12.688 12.73 12.733 12.728 12.773 12.857 12.92 12.945 12.965 13 13.055 13.123 13.195 13.275 13.365 13.457 13.54 13.592 13.615 13.633 13.67 13.705 13.722 13.735 13.748 13.762 13.767 13.74 13.687 13.623 13.58 13.575 13.567 13.55 13.545 13.537 13.5 13.45 13.38 13.29 13.2 13.128 13.09 13.098 13.135 13.18 13.19 13.16 13.122 13.07 13.038 13.033 13.033 13.038 13.045 13.055 13.065 13.075 13.085 13.065 12.995 12.928 12.9 12.893 12.888 12.885 12.885 12.888 12.898 12.907 12.897 12.875 12.85 12.833 12.865 12.938 13.005 13.045 13.053 13.05 13.055 13.062 13.05 13.02 12.993 12.97 12.955 12.937 12.905 12.865 12.835 12.812 12.785 12.753 12.735 12.735 12.748 12.783 12.812 12.828 12.832 12.83 12.83 12.833 12.843 12.862 12.867 12.845 12.813 12.778 12.74 12.718 12.723 12.73 12.72 12.695 12.67 12.668 12.695 12.735 12.77 12.8 12.825 12.858 12.92 13.005 13.023 13.045 13.17 13.19 13.078 12.965 12.87 12.8 12.735 12.678 12.675 12.705 12.662 12.55 12.417 12.26 12.113 12.01
13.715 13.71 13.712 13.73 13.762 13.83 13.857 13.825 13.795 13.765 13.77 13.8 13.8 13.78 13.76 13.738 13.71 13.65 13.575 13.512 13.445 13.377 13.295 13.192 13.085 13.003 12.955 12.905 12.843 12.79 12.768 12.763 12.763 12.765 12.75 12.71 12.66 12.62 12.605 12.625 12.665 12.705 12.745 12.777 12.737 12.685 12.685 12.688 12.69 12.69 12.687 12.682 12.675 12.665 12.668 12.705 12.762 12.812 12.825 12.8 12.788 12.81 12.84 12.86 12.88 12.905 12.95 13.02 13.095 13.175 13.268 13.363 13.455 13.535 13.582 13.62 13.675 13.717 13.737 13.752 13.765 13.777 13.777 13.747 13.7 13.645 13.61 13.605 13.603 13.592 13.565 13.52 13.47 13.42 13.35 13.26 13.157 13.07 13.048 13.07 13.105 13.15 13.16 13.125 13.075 13.018 12.983 12.978 12.985 12.995 13.005 13.015 13.025 13.035 13.045 13.047 12.997 12.908 12.85 12.828 12.818 12.815 12.815 12.815 12.818 12.818 12.805 12.79 12.778 12.78 12.825 12.895 12.968 13.022 13.045 13.052 13.058 13.065 13.057 13.033 13.01 12.99 12.97 12.94 12.9 12.86 12.828 12.803 12.778 12.753 12.74 12.74 12.74 12.75 12.77 12.795 12.82 12.832 12.837 12.842 12.845 12.855 12.852 12.825 12.793 12.763 12.74 12.743 12.767 12.775 12.76 12.737 12.713 12.703 12.725 12.77 12.812 12.848 12.88 12.932 13.015 13.105 13.2 13.377 13.49 13.42 13.305 13.19 13.08 12.987 12.915 12.845 12.795 12.78 12.715 12.572 12.412 12.248 12.108 12.01
13.735 13.743 13.77 13.83 13.88 13.912 13.92 13.9 13.87 13.84 13.822 13.81 13.79 13.77 13.75 13.73 13.71 13.69 13.637 13.555 13.475 13.395 13.31 13.22 13.125 13.035 12.963 12.905 12.86 12.825 12.805 12.793 12.778 12.758 12.723 12.675 12.625 12.595 12.6 12.63 12.67 12.71 12.75 12.785 12.75 12.698 12.695 12.7 12.705 12.692 12.67 12.657 12.652 12.65 12.675 12.73 12.787 12.84 12.87 12.86 12.827 12.803 12.798 12.81 12.83 12.853 12.893 12.955 13.023 13.093 13.18 13.275 13.368 13.462 13.537 13.595 13.657 13.715 13.75 13.767 13.78 13.792 13.787 13.752 13.708 13.67 13.653 13.65 13.647 13.622 13.567 13.505 13.447 13.392 13.307 13.192 13.09 13.04 13.045 13.063 13.085 13.122 13.127 13.09 13.055 13.03 13 12.975 12.968 12.963 12.965 12.975 12.985 12.995 13.005 13.015 12.995 12.918 12.843 12.81 12.783 12.76 12.755 12.755 12.758 12.763 12.76 12.755 12.76 12.78 12.823 12.885 12.955 13.017 13.047 13.055 13.06 13.062 13.062 13.05 13.03 13.01 12.985 12.95 12.91 12.87 12.838 12.813 12.788 12.76 12.743 12.74 12.74 12.74 12.755 12.787 12.815 12.827 12.833 12.84 12.847 12.857 12.85 12.82 12.79 12.763 12.755 12.773 12.797 12.805 12.79 12.772 12.752 12.738 12.758 12.803 12.855 12.908 12.928 12.963 13.037 13.113 13.377 13.697 13.727 13.602 13.472 13.342 13.215 13.097 13.007 12.937 12.872 12.82 12.725 12.567 12.4 12.233 12.1 12.01
13.75 13.777 13.812 13.852 13.875 13.885 13.912 13.93 13.905 13.872 13.84 13.815 13.795 13.775 13.755 13.735 13.72 13.717 13.667 13.57 13.485 13.405 13.32 13.23 13.14 13.07 13.018 12.958 12.903 12.868 12.848 12.835 12.81 12.767 12.72 12.67 12.63 12.615 12.615 12.625 12.653 12.69 12.73 12.77 12.772 12.74 12.728 12.732 12.72 12.68 12.635 12.61 12.608 12.615 12.645 12.7 12.755 12.8 12.842 12.867 12.852 12.823 12.803 12.8 12.815 12.838 12.878 12.935 12.998 13.06 13.133 13.213 13.3 13.395 13.475 13.543 13.613 13.687 13.745 13.777 13.795 13.807 13.8 13.76 13.725 13.71 13.705 13.705 13.685 13.625 13.55 13.475 13.397 13.322 13.212 13.093 13.04 13.04 13.053 13.068 13.085 13.105 13.118 13.115 13.113 13.12 13.085 13.03 13.005 12.983 12.965 12.958 12.953 12.955 12.965 12.975 12.977 12.927 12.86 12.825 12.775 12.725 12.71 12.713 12.73 12.755 12.765 12.77 12.785 12.81 12.845 12.893 12.955 13.02 13.05 13.055 13.06 13.058 13.06 13.06 13.047 13.03 13.002 12.967 12.93 12.89 12.86 12.835 12.807 12.778 12.753 12.743 12.738 12.735 12.753 12.782 12.805 12.82 12.827 12.833 12.845 12.865 12.86 12.83 12.8 12.77 12.768 12.795 12.82 12.825 12.81 12.795 12.783 12.798 12.863 12.935 12.985 13.015 12.998 12.968 12.973 13.018 13.342 13.705 13.722 13.595 13.452 13.307 13.165 13.04 12.945 12.87 12.805 12.745 12.667 12.547 12.39 12.22 12.093 12.01
13.745 13.79 13.81 13.81 13.803 13.798 13.84 13.91 13.92 13.887 13.855 13.828 13.803 13.78 13.76 13.745 13.743 13.75 13.705 13.603 13.503 13.415 13.33 13.245 13.178 13.133 13.085 13.018 12.953 12.913 12.887 12.86 12.818 12.765 12.715 12.67 12.648 12.645 12.645 12.645 12.653 12.675 12.71 12.75 12.782 12.777 12.762 12.75 12.705 12.65 12.598 12.568 12.57 12.58 12.61 12.66 12.707 12.748 12.79 12.837 12.86 12.845 12.823 12.81 12.808 12.823 12.865 12.928 12.995 13.062 13.128 13.19 13.263 13.343 13.418 13.493 13.57 13.652 13.72 13.767 13.802 13.822 13.812 13.783 13.767 13.757 13.745 13.735 13.692 13.603 13.498 13.393 13.288 13.19 13.095 13.035 13.033 13.047 13.06 13.075 13.087 13.095 13.14 13.197 13.22 13.23 13.175 13.1 13.073 13.047 13.02 12.995 12.973 12.955 12.948 12.943 12.945 12.925 12.877 12.825 12.758 12.695 12.673 12.688 12.725 12.76 12.775 12.793 12.815 12.84 12.875 12.913 12.96 13.02 13.05 13.052 13.055 13.05 13.05 13.055 13.055 13.045 13.017 12.985 12.95 12.91 12.88 12.852 12.82 12.79 12.765 12.75 12.74 12.733 12.745 12.772 12.795 12.81 12.82 12.833 12.853 12.875 12.87 12.84 12.81 12.78 12.783 12.817 12.842 12.845 12.83 12.818 12.81 12.888 13.032 13.12 13.142 13.137 13.105 13.038 12.973 12.943 13.13 13.435 13.52 13.432 13.305 13.162 13.018 12.9 12.815 12.735 12.663 12.598 12.542 12.477 12.365 12.213 12.09 12.01
13.727 13.772 13.782 13.768 13.748 13.73 13.753 13.838 13.902 13.9 13.87 13.84 13.81 13.785 13.77 13.765 13.77 13.78 13.742 13.645 13.535 13.433 13.345 13.28 13.24 13.202 13.15 13.08 13.007 12.953 12.915 12.878 12.833 12.788 12.743 12.693 12.665 12.665 12.665 12.665 12.663 12.67 12.698 12.735 12.772 12.792 12.78 12.737 12.68 12.625 12.575 12.548 12.545 12.55 12.575 12.615 12.655 12.695 12.738 12.785 12.83 12.85 12.842 12.825 12.807 12.81 12.852 12.922 12.995 13.065 13.13 13.19 13.25 13.31 13.375 13.45 13.53 13.615 13.687 13.74 13.787 13.825 13.827 13.81 13.797 13.78 13.76 13.74 13.697 13.605 13.48 13.355 13.233 13.12 13.045 13.025 13.037 13.052 13.067 13.078 13.07 13.08 13.155 13.255 13.317 13.337 13.27 13.178 13.14 13.115 13.09 13.063 13.038 13.01 12.985 12.963 12.945 12.93 12.89 12.818 12.738 12.668 12.65 12.688 12.738 12.775 12.795 12.82 12.845 12.87 12.905 12.94 12.975 13.022 13.05 13.047 13.045 13.04 13.04 13.048 13.055 13.055 13.032 13 12.967 12.932 12.9 12.868 12.833 12.8 12.778 12.763 12.75 12.74 12.743 12.763 12.785 12.803 12.818 12.84 12.865 12.885 12.877 12.845 12.815 12.788 12.798 12.84 12.865 12.867 12.858 12.848 12.863 12.97 13.097 13.16 13.202 13.23 13.212 13.137 13.042 12.943 12.923 13.1 13.25 13.227 13.142 13.015 12.873 12.763 12.685 12.605 12.53 12.458 12.395 12.345 12.283 12.188 12.09 12.01
13.71 13.745 13.765 13.767 13.745 13.713 13.725 13.808 13.885 13.905 13.885 13.855 13.825 13.798 13.78 13.777 13.785 13.795 13.76 13.665 13.555 13.445 13.358 13.307 13.27 13.227 13.172 13.102 13.035 12.995 12.983 12.96 12.92 12.88 12.835 12.753 12.683 12.67 12.67 12.67 12.668 12.67 12.693 12.728 12.763 12.8 12.782 12.72 12.668 12.613 12.57 12.548 12.535 12.533 12.543 12.57 12.61 12.65 12.685 12.725 12.775 12.812 12.82 12.805 12.785 12.778 12.818 12.892 12.965 13.037 13.112 13.18 13.237 13.292 13.345 13.408 13.488 13.57 13.642 13.702 13.755 13.802 13.825 13.817 13.8 13.78 13.76 13.737 13.707 13.63 13.507 13.385 13.26 13.143 13.063 13.03 13.035 13.052 13.077 13.1 13.103 13.123 13.193 13.29 13.377 13.427 13.37 13.263 13.21 13.185 13.16 13.13 13.105 13.08 13.052 13.027 12.998 12.98 12.943 12.863 12.78 12.705 12.695 12.745 12.79 12.81 12.823 12.847 12.872 12.9 12.935 12.97 13.002 13.027 13.035 13.03 13.022 13.015 13.025 13.047 13.06 13.065 13.045 13.01 12.98 12.953 12.923 12.89 12.855 12.823 12.8 12.78 12.765 12.753 12.753 12.77 12.79 12.808 12.828 12.852 12.875 12.89 12.877 12.845 12.812 12.778 12.785 12.83 12.865 12.887 12.89 12.88 12.927 12.997 13.027 13.08 13.162 13.237 13.265 13.205 13.095 12.985 12.86 12.84 12.94 12.977 12.935 12.85 12.73 12.63 12.555 12.49 12.448 12.408 12.365 12.32 12.27 12.21 12.133 12.05
13.687 13.715 13.735 13.752 13.755 13.73 13.748 13.822 13.87 13.887 13.89 13.87 13.84 13.81 13.783 13.77 13.775 13.78 13.737 13.645 13.54 13.43 13.348 13.302 13.26 13.215 13.16 13.093 13.045 13.033 13.062 13.085 13.06 13.02 12.957 12.84 12.72 12.673 12.67 12.67 12.67 12.673 12.69 12.725 12.77 12.82 12.795 12.715 12.66 12.61 12.575 12.553 12.535 12.53 12.53 12.543 12.575 12.612 12.635 12.663 12.71 12.745 12.755 12.747 12.73 12.723 12.763 12.835 12.908 12.985 13.077 13.16 13.22 13.275 13.32 13.37 13.443 13.52 13.587 13.65 13.707 13.762 13.797 13.805 13.797 13.78 13.76 13.735 13.707 13.645 13.535 13.415 13.295 13.183 13.1 13.053 13.035 13.045 13.085 13.155 13.205 13.228 13.28 13.36 13.443 13.512 13.47 13.348 13.28 13.253 13.227 13.2 13.175 13.15 13.117 13.087 13.058 13.06 13.04 12.96 12.878 12.803 12.795 12.837 12.857 12.85 12.848 12.868 12.895 12.93 12.97 13.007 13.027 13.015 13 12.997 12.99 12.98 13 13.042 13.067 13.075 13.055 13.023 12.998 12.975 12.95 12.918 12.885 12.858 12.83 12.803 12.783 12.768 12.77 12.79 12.807 12.823 12.842 12.865 12.88 12.885 12.87 12.84 12.802 12.755 12.75 12.79 12.835 12.877 12.905 12.92 12.945 12.935 12.923 12.983 13.073 13.165 13.232 13.217 13.13 13.025 12.9 12.77 12.72 12.718 12.695 12.663 12.61 12.56 12.52 12.493 12.483 12.475 12.455 12.42 12.372 12.312 12.235 12.142
13.657 13.682 13.705 13.725 13.742 13.74 13.763 13.807 13.83 13.85 13.865 13.867 13.852 13.825 13.795 13.768 13.758 13.747 13.69 13.6 13.507 13.405 13.325 13.283 13.245 13.202 13.148 13.098 13.075 13.063 13.095 13.16 13.182 13.16 13.075 12.935 12.788 12.695 12.675 12.675 12.675 12.678 12.693 12.733 12.79 12.847 12.82 12.72 12.65 12.61 12.582 12.558 12.538 12.53 12.533 12.538 12.553 12.578 12.59 12.603 12.64 12.672 12.68 12.677 12.67 12.668 12.705 12.778 12.855 12.935 13.033 13.13 13.2 13.252 13.295 13.338 13.398 13.467 13.53 13.59 13.65 13.71 13.752 13.772 13.78 13.775 13.76 13.735 13.705 13.657 13.565 13.445 13.333 13.228 13.145 13.093 13.053 13.04 13.085 13.19 13.292 13.34 13.388 13.463 13.54 13.612 13.572 13.435 13.353 13.32 13.295 13.27 13.24 13.21 13.177 13.145 13.125 13.14 13.13 13.057 12.972 12.9 12.888 12.907 12.902 12.888 12.875 12.885 12.92 12.968 13.015 13.035 13.017 12.98 12.955 12.952 12.952 12.95 12.973 13.02 13.062 13.082 13.067 13.04 13.02 13.002 12.98 12.948 12.92 12.895 12.865 12.835 12.808 12.788 12.788 12.805 12.82 12.835 12.855 12.87 12.875 12.877 12.862 12.825 12.78 12.73 12.718 12.75 12.795 12.845 12.897 12.927 12.897 12.833 12.825 12.895 12.99 13.087 13.17 13.185 13.135 13.057 12.94 12.805 12.683 12.605 12.578 12.578 12.595 12.605 12.603 12.595 12.585 12.575 12.552 12.515 12.472 12.422 12.337 12.217
13.625 13.65 13.678 13.703 13.725 13.743 13.768 13.79 13.805 13.823 13.838 13.853 13.847 13.822 13.797 13.767 13.745 13.712 13.64 13.553 13.467 13.375 13.303 13.26 13.225 13.188 13.148 13.125 13.112 13.098 13.118 13.185 13.255 13.27 13.175 13.015 12.852 12.73 12.688 12.685 12.688 12.69 12.708 12.755 12.815 12.865 12.832 12.728 12.645 12.607 12.587 12.565 12.542 12.53 12.535 12.54 12.548 12.558 12.558 12.558 12.578 12.6 12.605 12.605 12.605 12.61 12.653 12.73 12.81 12.893 12.988 13.09 13.175 13.23 13.27 13.305 13.35 13.41 13.47 13.53 13.587 13.647 13.692 13.712 13.73 13.745 13.747 13.732 13.705 13.67 13.592 13.478 13.37 13.27 13.19 13.135 13.088 13.053 13.088 13.2 13.33 13.43 13.497 13.565 13.627 13.662 13.612 13.497 13.42 13.385 13.357 13.33 13.297 13.265 13.235 13.205 13.185 13.16 13.115 13.062 13.007 12.967 12.957 12.955 12.94 12.925 12.91 12.91 12.95 13.012 13.042 13.02 12.98 12.938 12.903 12.895 12.903 12.915 12.948 12.992 13.04 13.075 13.075 13.055 13.035 13.02 13.005 12.98 12.955 12.932 12.905 12.873 12.84 12.813 12.803 12.815 12.83 12.845 12.86 12.865 12.865 12.87 12.855 12.813 12.765 12.718 12.7 12.73 12.783 12.84 12.897 12.907 12.853 12.79 12.788 12.848 12.928 13.015 13.102 13.13 13.097 13.045 12.952 12.84 12.732 12.64 12.598 12.615 12.657 12.692 12.702 12.695 12.685 12.675 12.65 12.6 12.537 12.477 12.405 12.282
13.623 13.65 13.68 13.708 13.733 13.76 13.785 13.8 13.813 13.828 13.843 13.857 13.817 13.752 13.725 13.702 13.685 13.657 13.595 13.512 13.425 13.338 13.275 13.235 13.2 13.18 13.16 13.14 13.127 13.115 13.115 13.15 13.222 13.26 13.17 13 12.845 12.75 12.715 12.703 12.703 12.708 12.73 12.78 12.832 12.862 12.82 12.717 12.618 12.565 12.552 12.537 12.525 12.535 12.558 12.57 12.578 12.57 12.553 12.54 12.535 12.538 12.545 12.553 12.558 12.565 12.613 12.698 12.78 12.865 12.96 13.057 13.137 13.187 13.22 13.25 13.29 13.345 13.405 13.465 13.523 13.585 13.635 13.645 13.655 13.68 13.692 13.687 13.672 13.657 13.61 13.517 13.415 13.315 13.233 13.175 13.13 13.085 13.11 13.223 13.35 13.475 13.565 13.577 13.558 13.535 13.482 13.417 13.415 13.417 13.377 13.352 13.325 13.297 13.27 13.247 13.2 13.103 13.008 12.975 12.983 12.99 12.987 12.975 12.962 12.952 12.942 12.938 12.972 13.025 13.025 12.985 12.942 12.895 12.853 12.84 12.858 12.885 12.92 12.96 13.005 13.047 13.057 13.04 13.023 13.02 13.02 13.002 12.978 12.96 12.942 12.912 12.88 12.85 12.828 12.828 12.84 12.855 12.86 12.853 12.85 12.855 12.855 12.83 12.785 12.74 12.72 12.745 12.798 12.855 12.91 12.902 12.843 12.805 12.808 12.848 12.91 12.98 13.052 13.067 13.02 12.965 12.887 12.792 12.697 12.625 12.605 12.635 12.685 12.735 12.77 12.772 12.757 12.74 12.697 12.622 12.535 12.468 12.425 12.355
13.655 13.678 13.705 13.733 13.76 13.79 13.815 13.83 13.84 13.853 13.867 13.855 13.752 13.64 13.6 13.585 13.583 13.577 13.537 13.467 13.385 13.3 13.24 13.208 13.19 13.192 13.177 13.14 13.12 13.11 13.093 13.083 13.118 13.157 13.08 12.923 12.818 12.78 12.76 12.735 12.723 12.723 12.748 12.795 12.83 12.842 12.795 12.687 12.57 12.495 12.475 12.465 12.485 12.547 12.605 12.63 12.622 12.592 12.565 12.545 12.525 12.513 12.518 12.53 12.535 12.533 12.575 12.667 12.757 12.845 12.935 13.015 13.072 13.11 13.138 13.173 13.22 13.275 13.335 13.395 13.455 13.522 13.585 13.595 13.585 13.597 13.603 13.6 13.603 13.607 13.587 13.517 13.422 13.332 13.265 13.215 13.17 13.125 13.15 13.26 13.383 13.505 13.6 13.597 13.51 13.41 13.31 13.28 13.397 13.452 13.383 13.34 13.313 13.287 13.263 13.255 13.2 13.075 12.968 12.948 12.99 13.007 12.997 12.983 12.97 12.962 12.955 12.948 12.972 13 12.985 12.952 12.91 12.86 12.818 12.808 12.835 12.87 12.898 12.928 12.968 13.012 13.025 13.008 13.003 13.02 13.03 13.015 12.995 12.985 12.975 12.952 12.925 12.895 12.865 12.848 12.85 12.862 12.86 12.843 12.835 12.838 12.85 12.855 12.825 12.78 12.763 12.78 12.818 12.87 12.915 12.897 12.853 12.835 12.838 12.868 12.923 12.985 13.02 12.985 12.913 12.85 12.772 12.678 12.608 12.588 12.593 12.618 12.667 12.722 12.765 12.77 12.75 12.727 12.672 12.585 12.503 12.45 12.415 12.38
13.695 13.708 13.73 13.76 13.79 13.82 13.847 13.862 13.87 13.88 13.882 13.81 13.655 13.528 13.48 13.478 13.485 13.49 13.462 13.405 13.337 13.263 13.213 13.2 13.205 13.217 13.205 13.16 13.12 13.1 13.08 13.05 13.038 13.057 12.997 12.888 12.845 12.83 12.81 12.78 12.755 12.743 12.76 12.795 12.817 12.82 12.762 12.652 12.535 12.438 12.395 12.403 12.46 12.55 12.642 12.68 12.65 12.61 12.58 12.558 12.535 12.515 12.51 12.515 12.51 12.5 12.538 12.63 12.725 12.817 12.89 12.94 12.985 13.023 13.058 13.1 13.153 13.208 13.265 13.325 13.388 13.46 13.532 13.552 13.525 13.518 13.525 13.53 13.54 13.55 13.532 13.465 13.38 13.325 13.303 13.263 13.208 13.163 13.193 13.303 13.418 13.537 13.635 13.682 13.642 13.51 13.33 13.265 13.43 13.515 13.428 13.353 13.298 13.263 13.245 13.252 13.212 13.1 13 12.983 13.02 13.025 13.01 12.995 12.98 12.967 12.955 12.945 12.955 12.962 12.94 12.912 12.88 12.835 12.803 12.803 12.825 12.857 12.885 12.91 12.94 12.977 12.992 12.99 13.008 13.032 13.04 13.028 13.018 13.012 13.002 12.985 12.965 12.94 12.91 12.883 12.868 12.87 12.865 12.845 12.83 12.823 12.83 12.85 12.85 12.82 12.808 12.825 12.85 12.892 12.917 12.9 12.88 12.87 12.87 12.895 12.94 12.98 12.962 12.887 12.805 12.733 12.66 12.595 12.575 12.585 12.59 12.6 12.635 12.687 12.715 12.707 12.692 12.675 12.627 12.545 12.478 12.438 12.403 12.37
13.735 13.748 13.765 13.787 13.817 13.85 13.877 13.89 13.892 13.897 13.857 13.727 13.555 13.423 13.375 13.38 13.39 13.4 13.382 13.33 13.273 13.228 13.213 13.22 13.23 13.242 13.232 13.19 13.14 13.1 13.07 13.04 13.005 12.988 12.953 12.91 12.895 12.88 12.86 12.83 12.8 12.775 12.775 12.79 12.803 12.797 12.73 12.618 12.5 12.385 12.335 12.385 12.483 12.588 12.687 12.715 12.673 12.633 12.603 12.578 12.555 12.53 12.505 12.49 12.48 12.47 12.508 12.6 12.698 12.795 12.852 12.878 12.91 12.943 12.983 13.033 13.088 13.14 13.195 13.258 13.325 13.4 13.475 13.497 13.45 13.43 13.465 13.485 13.49 13.5 13.477 13.413 13.36 13.35 13.357 13.325 13.258 13.203 13.235 13.345 13.458 13.572 13.66 13.72 13.752 13.692 13.533 13.405 13.498 13.577 13.493 13.405 13.323 13.26 13.24 13.26 13.23 13.135 13.045 13.02 13.04 13.037 13.022 13.005 12.987 12.967 12.95 12.942 12.937 12.923 12.895 12.868 12.843 12.81 12.795 12.807 12.823 12.848 12.875 12.898 12.923 12.95 12.97 12.99 13.02 13.045 13.055 13.05 13.045 13.04 13.03 13.015 13 12.982 12.955 12.925 12.898 12.885 12.875 12.855 12.835 12.818 12.818 12.835 12.852 12.852 12.855 12.875 12.892 12.917 12.932 12.925 12.915 12.905 12.903 12.925 12.952 12.942 12.88 12.795 12.71 12.633 12.585 12.57 12.575 12.585 12.59 12.595 12.613 12.647 12.66 12.645 12.632 12.617 12.58 12.513 12.46 12.425 12.39 12.363
13.777 13.785 13.782 13.792 13.822 13.852 13.867 13.867 13.865 13.865 13.785 13.62 13.465 13.365 13.33 13.32 13.313 13.313 13.298 13.258 13.22 13.208 13.225 13.245 13.257 13.27 13.257 13.217 13.17 13.107 13.053 13.017 12.985 12.958 12.94 12.932 12.922 12.912 12.902 12.88 12.85 12.82 12.808 12.813 12.818 12.81 12.762 12.665 12.545 12.425 12.375 12.443 12.56 12.68 12.752 12.745 12.708 12.683 12.655 12.625 12.605 12.57 12.513 12.47 12.455 12.445 12.485 12.58 12.68 12.78 12.837 12.855 12.873 12.905 12.953 12.995 13.033 13.075 13.128 13.19 13.252 13.3 13.35 13.387 13.35 13.315 13.367 13.435 13.455 13.453 13.43 13.393 13.385 13.395 13.405 13.387 13.328 13.265 13.3 13.42 13.525 13.59 13.637 13.695 13.755 13.775 13.727 13.65 13.647 13.642 13.56 13.478 13.398 13.323 13.278 13.278 13.25 13.175 13.095 13.06 13.06 13.05 13.035 13.015 12.992 12.963 12.943 12.937 12.925 12.903 12.875 12.845 12.818 12.795 12.793 12.81 12.827 12.845 12.865 12.888 12.912 12.932 12.955 12.982 13.01 13.035 13.047 13.047 13.045 13.047 13.055 13.052 13.038 13.022 13 12.97 12.94 12.91 12.883 12.86 12.84 12.82 12.818 12.835 12.852 12.86 12.867 12.882 12.897 12.915 12.922 12.91 12.905 12.912 12.922 12.93 12.92 12.872 12.792 12.707 12.62 12.56 12.553 12.562 12.57 12.582 12.59 12.595 12.602 12.605 12.598 12.582 12.568 12.555 12.53 12.488 12.458 12.44 12.423 12.408
13.8 13.79 13.77 13.778 13.805 13.817 13.812 13.8 13.795 13.785 13.685 13.523 13.413 13.358 13.33 13.308 13.283 13.265 13.245 13.22 13.203 13.2 13.225 13.257 13.28 13.295 13.282 13.242 13.185 13.097 13.023 12.985 12.96 12.943 12.93 12.925 12.925 12.933 12.945 12.932 12.898 12.865 12.85 12.855 12.852 12.84 12.827 12.782 12.685 12.565 12.508 12.558 12.663 12.77 12.81 12.788 12.77 12.765 12.745 12.705 12.67 12.617 12.538 12.468 12.435 12.425 12.468 12.565 12.665 12.762 12.82 12.84 12.87 12.928 12.985 13.02 13.045 13.073 13.103 13.11 13.095 13.095 13.138 13.207 13.22 13.188 13.23 13.332 13.402 13.432 13.443 13.448 13.46 13.473 13.485 13.472 13.428 13.378 13.42 13.517 13.562 13.565 13.57 13.615 13.675 13.73 13.765 13.765 13.732 13.695 13.645 13.572 13.5 13.43 13.37 13.333 13.282 13.21 13.14 13.095 13.075 13.057 13.04 13.02 12.992 12.958 12.938 12.93 12.915 12.895 12.87 12.84 12.815 12.798 12.795 12.81 12.827 12.842 12.86 12.882 12.902 12.913 12.93 12.957 12.982 13.005 13.015 13.015 13.02 13.035 13.062 13.085 13.08 13.065 13.045 13.015 12.98 12.938 12.898 12.865 12.84 12.823 12.825 12.842 12.85 12.845 12.843 12.85 12.865 12.882 12.88 12.858 12.845 12.85 12.872 12.875 12.845 12.79 12.707 12.62 12.545 12.518 12.53 12.545 12.555 12.567 12.58 12.587 12.592 12.58 12.545 12.518 12.502 12.49 12.483 12.488 12.502 12.51 12.51 12.507
13.622 13.77 13.752 13.757 13.77 13.765 13.75 13.735 13.73 13.697 13.585 13.465 13.403 13.363 13.335 13.315 13.29 13.265 13.24 13.215 13.198 13.193 13.215 13.257 13.295 13.317 13.31 13.26 13.175 13.07 12.995 12.965 12.945 12.93 12.92 12.925 12.945 12.973 13.002 12.992 12.948 12.91 12.895 12.89 12.87 12.85 12.85 12.85 12.81 12.715 12.65 12.688 12.78 12.85 12.865 12.857 12.855 12.855 12.845 12.792 12.725 12.657 12.572 12.488 12.425 12.405 12.455 12.552 12.65 12.745 12.803 12.838 12.898 12.972 13.03 13.07 13.107 13.135 13.135 13.077 12.98 12.923 12.933 12.995 13.057 13.055 13.085 13.188 13.298 13.412 13.495 13.542 13.577 13.6 13.602 13.577 13.542 13.508 13.517 13.542 13.533 13.518 13.508 13.53 13.585 13.64 13.69 13.715 13.692 13.682 13.685 13.66 13.61 13.54 13.48 13.41 13.3 13.195 13.127 13.095 13.08 13.06 13.04 13.02 12.99 12.953 12.93 12.92 12.905 12.885 12.86 12.835 12.818 12.803 12.8 12.812 12.825 12.838 12.855 12.872 12.882 12.888 12.905 12.932 12.952 12.97 12.98 12.985 13.003 13.025 13.053 13.087 13.107 13.105 13.087 13.055 13.01 12.963 12.92 12.88 12.848 12.83 12.832 12.84 12.835 12.825 12.82 12.825 12.835 12.847 12.845 12.822 12.795 12.77 12.773 12.782 12.762 12.705 12.62 12.538 12.493 12.49 12.505 12.522 12.535 12.545 12.557 12.57 12.58 12.57 12.52 12.465 12.435 12.428 12.443 12.482 12.53 12.565 12.592 12.607
13.318 13.595 13.687 13.722 13.715 13.703 13.688 13.675 13.667 13.612 13.515 13.45 13.408 13.368 13.34 13.32 13.297 13.275 13.247 13.215 13.193 13.188 13.21 13.252 13.295 13.332 13.327 13.255 13.15 13.043 12.978 12.955 12.935 12.918 12.917 12.945 12.982 13.017 13.052 13.05 13.005 12.96 12.935 12.912 12.88 12.863 12.865 12.875 12.875 12.835 12.79 12.815 12.86 12.862 12.86 12.867 12.872 12.877 12.875 12.822 12.747 12.68 12.6 12.52 12.44 12.398 12.445 12.54 12.635 12.73 12.805 12.87 12.945 13.017 13.07 13.11 13.15 13.182 13.16 13.07 12.955 12.855 12.813 12.83 12.878 12.9 12.943 13.055 13.2 13.37 13.5 13.577 13.642 13.69 13.695 13.665 13.635 13.602 13.578 13.558 13.533 13.508 13.48 13.465 13.493 13.545 13.595 13.637 13.632 13.62 13.645 13.667 13.665 13.635 13.57 13.45 13.293 13.148 13.075 13.075 13.08 13.065 13.045 13.02 12.985 12.948 12.923 12.91 12.895 12.875 12.855 12.84 12.828 12.815 12.808 12.81 12.82 12.832 12.845 12.855 12.86 12.865 12.88 12.9 12.918 12.933 12.945 12.963 12.987 13.012 13.04 13.075 13.11 13.13 13.12 13.082 13.035 12.987 12.945 12.905 12.868 12.84 12.83 12.825 12.815 12.805 12.8 12.805 12.81 12.817 12.81 12.777 12.745 12.71 12.685 12.687 12.677 12.617 12.533 12.473 12.458 12.465 12.478 12.495 12.51 12.522 12.535 12.55 12.565 12.56 12.512 12.44 12.385 12.378 12.408 12.45 12.5 12.552 12.605 12.647
13.22 13.46 13.64 13.695 13.68 13.66 13.64 13.623 13.605 13.555 13.495 13.455 13.413 13.373 13.345 13.323 13.3 13.28 13.252 13.22 13.193 13.183 13.205 13.245 13.287 13.32 13.307 13.232 13.125 13.023 12.965 12.945 12.922 12.893 12.89 12.922 12.96 12.997 13.032 13.045 13.017 12.975 12.942 12.912 12.88 12.865 12.87 12.88 12.887 12.885 12.875 12.87 12.847 12.808 12.793 12.8 12.81 12.817 12.805 12.765 12.722 12.667 12.592 12.517 12.44 12.405 12.463 12.563 12.655 12.732 12.797 12.867 12.947 13.022 13.072 13.11 13.145 13.175 13.137 13.025 12.905 12.795 12.745 12.743 12.748 12.763 12.828 12.968 13.145 13.33 13.472 13.562 13.635 13.7 13.737 13.737 13.712 13.678 13.655 13.635 13.605 13.57 13.53 13.478 13.453 13.473 13.498 13.535 13.552 13.557 13.582 13.592 13.577 13.61 13.595 13.452 13.288 13.133 13.055 13.063 13.077 13.07 13.047 13.015 12.978 12.943 12.915 12.9 12.885 12.875 12.878 12.873 12.86 12.85 12.83 12.81 12.81 12.822 12.832 12.838 12.843 12.848 12.86 12.878 12.895 12.91 12.92 12.94 12.965 12.99 13.02 13.052 13.087 13.12 13.112 13.07 13.025 12.99 12.96 12.92 12.88 12.85 12.835 12.825 12.815 12.803 12.793 12.793 12.795 12.797 12.77 12.72 12.685 12.65 12.613 12.6 12.59 12.532 12.46 12.428 12.43 12.44 12.453 12.467 12.48 12.493 12.507 12.522 12.537 12.537 12.507 12.45 12.383 12.353 12.373 12.418 12.47 12.52 12.57 12.622
13.305 13.512 13.645 13.675 13.67 13.648 13.623 13.598 13.568 13.528 13.492 13.46 13.417 13.378 13.35 13.327 13.302 13.277 13.25 13.22 13.19 13.175 13.198 13.24 13.27 13.27 13.245 13.195 13.105 13.005 12.953 12.93 12.897 12.855 12.835 12.853 12.885 12.922 12.955 12.975 12.97 12.942 12.91 12.88 12.845 12.817 12.815 12.825 12.832 12.837 12.84 12.825 12.792 12.753 12.728 12.73 12.737 12.732 12.695 12.67 12.672 12.632 12.557 12.483 12.428 12.435 12.515 12.615 12.69 12.737 12.773 12.823 12.898 12.975 13.027 13.067 13.105 13.135 13.095 12.98 12.858 12.738 12.68 12.685 12.693 12.7 12.775 12.928 13.103 13.287 13.445 13.545 13.615 13.68 13.735 13.772 13.777 13.752 13.73 13.717 13.7 13.67 13.622 13.548 13.483 13.465 13.463 13.472 13.447 13.4 13.377 13.337 13.305 13.45 13.557 13.44 13.28 13.145 13.083 13.07 13.075 13.07 13.045 13.01 12.973 12.938 12.91 12.893 12.885 12.91 12.937 12.927 12.91 12.9 12.872 12.83 12.808 12.81 12.817 12.823 12.827 12.833 12.848 12.87 12.887 12.9 12.908 12.918 12.935 12.96 12.99 13.02 13.052 13.085 13.075 13.03 12.998 12.983 12.962 12.925 12.89 12.868 12.855 12.847 12.837 12.82 12.803 12.79 12.785 12.782 12.74 12.67 12.625 12.59 12.55 12.52 12.5 12.45 12.403 12.398 12.405 12.415 12.427 12.44 12.45 12.46 12.472 12.487 12.495 12.485 12.47 12.447 12.402 12.353 12.343 12.383 12.435 12.487 12.53 12.562
13.418 13.542 13.625 13.645 13.657 13.645 13.62 13.59 13.55 13.505 13.468 13.44 13.412 13.382 13.352 13.327 13.3 13.267 13.235 13.208 13.188 13.178 13.195 13.222 13.22 13.197 13.167 13.13 13.07 12.988 12.935 12.902 12.858 12.813 12.788 12.795 12.82 12.85 12.875 12.893 12.902 12.892 12.862 12.825 12.78 12.735 12.718 12.723 12.728 12.735 12.737 12.73 12.717 12.692 12.665 12.657 12.652 12.63 12.593 12.59 12.622 12.597 12.523 12.46 12.448 12.49 12.57 12.65 12.697 12.73 12.76 12.798 12.85 12.915 12.972 13.017 13.06 13.095 13.055 12.94 12.823 12.715 12.665 12.67 12.678 12.69 12.773 12.92 13.078 13.25 13.415 13.525 13.597 13.665 13.717 13.765 13.805 13.815 13.805 13.795 13.785 13.765 13.707 13.615 13.53 13.492 13.44 13.27 13.103 13.05 13.035 13.005 13.063 13.333 13.495 13.41 13.273 13.168 13.135 13.11 13.092 13.075 13.043 13.005 12.968 12.933 12.905 12.893 12.915 12.98 13.012 12.99 12.965 12.947 12.915 12.865 12.82 12.8 12.803 12.808 12.813 12.82 12.835 12.857 12.877 12.892 12.902 12.905 12.91 12.928 12.955 12.985 13.015 13.045 13.035 13 12.99 12.987 12.967 12.935 12.91 12.893 12.88 12.87 12.855 12.837 12.82 12.8 12.785 12.77 12.72 12.64 12.575 12.53 12.49 12.45 12.418 12.383 12.363 12.37 12.38 12.39 12.4 12.41 12.418 12.425 12.435 12.442 12.435 12.415 12.4 12.395 12.382 12.35 12.328 12.35 12.392 12.427 12.452 12.467
13.552 13.593 13.61 13.618 13.635 13.637 13.615 13.575 13.53 13.493 13.448 13.403 13.377 13.357 13.332 13.307 13.282 13.252 13.225 13.208 13.197 13.19 13.192 13.188 13.155 13.123 13.09 13.05 13.013 12.965 12.915 12.87 12.82 12.775 12.753 12.763 12.785 12.805 12.818 12.828 12.84 12.845 12.82 12.77 12.72 12.67 12.635 12.625 12.628 12.635 12.635 12.625 12.618 12.61 12.595 12.575 12.55 12.52 12.508 12.53 12.57 12.557 12.493 12.465 12.495 12.547 12.607 12.657 12.69 12.72 12.752 12.787 12.823 12.868 12.918 12.963 13.008 13.05 13.022 12.925 12.83 12.748 12.71 12.71 12.71 12.713 12.755 12.877 13.042 13.212 13.385 13.507 13.582 13.65 13.702 13.747 13.787 13.822 13.847 13.847 13.832 13.815 13.76 13.667 13.575 13.487 13.343 13.065 12.938 13.043 13.113 13.133 13.21 13.367 13.425 13.358 13.268 13.2 13.172 13.142 13.11 13.082 13.055 13.018 12.975 12.933 12.903 12.918 12.98 13.057 13.082 13.055 13.025 12.995 12.952 12.9 12.847 12.805 12.793 12.795 12.8 12.808 12.82 12.842 12.865 12.885 12.895 12.895 12.895 12.903 12.925 12.953 12.98 13.007 13.007 12.993 12.99 12.99 12.975 12.95 12.932 12.917 12.902 12.887 12.87 12.852 12.835 12.812 12.787 12.76 12.705 12.623 12.543 12.478 12.43 12.393 12.358 12.34 12.343 12.35 12.358 12.368 12.378 12.383 12.388 12.393 12.39 12.38 12.365 12.345 12.33 12.323 12.317 12.31 12.303 12.315 12.338 12.35 12.363 12.375
13.672 13.675 13.655 13.645 13.648 13.645 13.625 13.59 13.553 13.512 13.45 13.373 13.323 13.303 13.285 13.265 13.245 13.225 13.212 13.205 13.195 13.185 13.182 13.18 13.155 13.115 13.078 13.043 13.008 12.968 12.923 12.875 12.825 12.783 12.768 12.785 12.808 12.815 12.81 12.805 12.81 12.82 12.802 12.755 12.705 12.655 12.613 12.59 12.583 12.58 12.57 12.55 12.535 12.53 12.525 12.5 12.47 12.455 12.458 12.478 12.508 12.508 12.485 12.5 12.54 12.58 12.615 12.645 12.675 12.705 12.737 12.772 12.805 12.838 12.875 12.92 12.968 13.03 13.035 12.96 12.88 12.805 12.77 12.77 12.767 12.757 12.75 12.793 12.918 13.09 13.27 13.415 13.515 13.59 13.637 13.667 13.705 13.77 13.832 13.855 13.845 13.825 13.772 13.688 13.61 13.522 13.36 13.143 13.155 13.322 13.38 13.405 13.43 13.435 13.4 13.335 13.27 13.22 13.182 13.145 13.108 13.08 13.07 13.05 13.005 12.958 12.94 12.985 13.065 13.12 13.12 13.087 13.055 13.02 12.97 12.915 12.865 12.82 12.8 12.8 12.805 12.81 12.813 12.828 12.85 12.87 12.88 12.882 12.885 12.895 12.918 12.943 12.967 12.98 12.98 12.977 12.975 12.975 12.967 12.95 12.932 12.925 12.915 12.898 12.882 12.86 12.832 12.805 12.775 12.745 12.692 12.61 12.525 12.453 12.405 12.375 12.343 12.328 12.333 12.34 12.35 12.365 12.378 12.38 12.383 12.387 12.363 12.32 12.295 12.275 12.26 12.25 12.243 12.243 12.268 12.295 12.305 12.315 12.325 12.335
13.742 13.745 13.73 13.715 13.705 13.693 13.673 13.645 13.605 13.54 13.452 13.358 13.283 13.248 13.23 13.21 13.193 13.183 13.182 13.182 13.175 13.165 13.168 13.182 13.187 13.17 13.137 13.1 13.055 13.005 12.958 12.91 12.865 12.833 12.825 12.842 12.855 12.847 12.833 12.82 12.813 12.815 12.81 12.772 12.723 12.68 12.643 12.613 12.593 12.58 12.56 12.53 12.505 12.485 12.468 12.453 12.445 12.448 12.453 12.46 12.475 12.48 12.49 12.52 12.555 12.592 12.615 12.63 12.655 12.685 12.715 12.748 12.78 12.81 12.848 12.893 12.958 13.057 13.085 13.017 12.94 12.865 12.83 12.827 12.815 12.795 12.783 12.775 12.808 12.913 13.07 13.235 13.365 13.455 13.5 13.538 13.613 13.712 13.792 13.832 13.842 13.83 13.777 13.703 13.648 13.6 13.492 13.31 13.32 13.417 13.418 13.44 13.455 13.455 13.417 13.35 13.28 13.22 13.178 13.14 13.105 13.075 13.068 13.072 13.047 13.003 13.008 13.067 13.115 13.125 13.11 13.085 13.052 13.015 12.967 12.915 12.87 12.838 12.823 12.82 12.825 12.83 12.825 12.823 12.833 12.852 12.865 12.868 12.878 12.898 12.922 12.947 12.96 12.95 12.94 12.94 12.94 12.945 12.942 12.925 12.915 12.923 12.922 12.905 12.885 12.855 12.82 12.788 12.755 12.725 12.675 12.6 12.525 12.46 12.42 12.392 12.355 12.33 12.328 12.338 12.358 12.38 12.392 12.398 12.403 12.407 12.37 12.295 12.238 12.205 12.188 12.178 12.173 12.2 12.26 12.295 12.307 12.317 12.325 12.332
13.8 13.805 13.792 13.78 13.77 13.76 13.74 13.7 13.632 13.545 13.45 13.355 13.265 13.2 13.17 13.153 13.14 13.135 13.142 13.152 13.152 13.148 13.155 13.17 13.18 13.182 13.165 13.132 13.09 13.04 12.992 12.95 12.915 12.888 12.882 12.89 12.885 12.872 12.857 12.845 12.833 12.823 12.817 12.79 12.745 12.71 12.675 12.64 12.613 12.595 12.572 12.54 12.505 12.46 12.425 12.425 12.442 12.452 12.46 12.467 12.47 12.47 12.485 12.52 12.563 12.607 12.63 12.633 12.643 12.665 12.695 12.725 12.755 12.783 12.82 12.885 12.985 13.105 13.132 13.065 12.995 12.925 12.888 12.877 12.855 12.83 12.82 12.815 12.808 12.828 12.905 13.045 13.182 13.283 13.368 13.458 13.563 13.667 13.747 13.79 13.815 13.825 13.792 13.735 13.69 13.647 13.587 13.478 13.453 13.472 13.455 13.468 13.473 13.472 13.435 13.362 13.29 13.223 13.173 13.138 13.105 13.075 13.063 13.075 13.077 13.057 13.067 13.1 13.102 13.09 13.077 13.062 13.042 13.01 12.965 12.92 12.888 12.865 12.85 12.845 12.848 12.85 12.845 12.835 12.83 12.84 12.852 12.86 12.878 12.903 12.927 12.94 12.93 12.91 12.898 12.898 12.905 12.917 12.917 12.908 12.915 12.93 12.927 12.907 12.88 12.845 12.81 12.775 12.74 12.707 12.66 12.6 12.54 12.483 12.44 12.405 12.365 12.333 12.328 12.345 12.37 12.397 12.41 12.415 12.425 12.43 12.39 12.305 12.22 12.153 12.115 12.105 12.128 12.2 12.267 12.292 12.307 12.32 12.325 12.315
13.845 13.855 13.855 13.85 13.84 13.827 13.795 13.727 13.637 13.542 13.447 13.355 13.26 13.17 13.118 13.1 13.09 13.088 13.097 13.112 13.122 13.127 13.135 13.142 13.147 13.145 13.127 13.107 13.085 13.055 13.022 12.992 12.965 12.937 12.927 12.92 12.905 12.892 12.877 12.862 12.85 12.835 12.828 12.817 12.785 12.748 12.71 12.675 12.643 12.615 12.582 12.535 12.48 12.42 12.383 12.393 12.422 12.448 12.468 12.475 12.473 12.47 12.488 12.528 12.572 12.62 12.647 12.65 12.648 12.653 12.675 12.703 12.73 12.758 12.808 12.905 13.022 13.13 13.15 13.087 13.027 12.972 12.938 12.917 12.893 12.87 12.858 12.852 12.845 12.84 12.848 12.898 13.008 13.153 13.293 13.41 13.517 13.625 13.705 13.745 13.775 13.802 13.797 13.757 13.717 13.68 13.642 13.597 13.562 13.53 13.508 13.513 13.515 13.502 13.45 13.372 13.3 13.23 13.173 13.135 13.105 13.078 13.058 13.06 13.077 13.085 13.085 13.08 13.068 13.055 13.043 13.03 13.02 13.002 12.972 12.94 12.915 12.892 12.878 12.875 12.872 12.87 12.865 12.855 12.843 12.835 12.843 12.863 12.885 12.907 12.92 12.91 12.89 12.87 12.86 12.865 12.878 12.89 12.898 12.905 12.92 12.937 12.932 12.902 12.87 12.838 12.803 12.768 12.735 12.7 12.658 12.61 12.555 12.508 12.47 12.428 12.385 12.348 12.343 12.365 12.39 12.415 12.427 12.435 12.442 12.447 12.41 12.325 12.232 12.14 12.068 12.058 12.123 12.217 12.272 12.29 12.305 12.31 12.297 12.27
13.865 13.88 13.89 13.895 13.897 13.877 13.812 13.717 13.617 13.52 13.42 13.322 13.222 13.12 13.063 13.047 13.035 13.035 13.047 13.062 13.077 13.09 13.095 13.097 13.1 13.092 13.07 13.045 13.027 13.015 12.997 12.972 12.95 12.935 12.932 12.925 12.91 12.895 12.88 12.865 12.85 12.843 12.848 12.852 12.837 12.805 12.765 12.728 12.692 12.642 12.572 12.498 12.425 12.36 12.33 12.35 12.393 12.45 12.497 12.51 12.513 12.515 12.513 12.53 12.575 12.625 12.66 12.675 12.675 12.67 12.673 12.688 12.715 12.745 12.81 12.92 13.03 13.117 13.13 13.075 13.02 12.993 12.98 12.955 12.93 12.91 12.895 12.89 12.885 12.878 12.873 12.868 12.928 13.09 13.247 13.36 13.47 13.577 13.66 13.705 13.735 13.767 13.772 13.742 13.707 13.673 13.66 13.67 13.66 13.62 13.593 13.595 13.592 13.552 13.468 13.378 13.305 13.235 13.175 13.135 13.105 13.077 13.05 13.04 13.055 13.065 13.06 13.05 13.035 13.02 13.01 13.003 12.998 12.99 12.975 12.952 12.93 12.913 12.905 12.902 12.898 12.892 12.88 12.865 12.852 12.84 12.845 12.868 12.89 12.905 12.902 12.885 12.865 12.845 12.838 12.845 12.855 12.865 12.877 12.892 12.907 12.922 12.92 12.897 12.87 12.837 12.803 12.77 12.738 12.702 12.662 12.615 12.565 12.538 12.535 12.513 12.47 12.43 12.423 12.448 12.467 12.455 12.438 12.442 12.447 12.455 12.417 12.33 12.235 12.143 12.063 12.05 12.128 12.222 12.27 12.282 12.287 12.262 12.212 12.17
13.873 13.887 13.9 13.907 13.907 13.87 13.782 13.672 13.563 13.46 13.357 13.252 13.148 13.045 12.995 12.99 12.98 12.98 12.993 13.008 13.025 13.04 13.047 13.05 13.045 13.035 13.015 12.985 12.958 12.94 12.925 12.905 12.893 12.893 12.902 12.91 12.902 12.887 12.872 12.858 12.85 12.858 12.875 12.887 12.887 12.87 12.835 12.795 12.745 12.665 12.563 12.463 12.373 12.3 12.28 12.325 12.4 12.49 12.555 12.57 12.575 12.582 12.565 12.548 12.575 12.625 12.665 12.695 12.71 12.707 12.698 12.695 12.715 12.745 12.81 12.915 13.01 13.085 13.095 13.043 13.005 13.01 13.017 12.995 12.968 12.948 12.935 12.928 12.922 12.918 12.913 12.91 12.93 13.048 13.2 13.31 13.415 13.512 13.595 13.655 13.697 13.732 13.735 13.705 13.685 13.683 13.71 13.75 13.755 13.725 13.698 13.692 13.667 13.597 13.497 13.39 13.305 13.233 13.173 13.133 13.1 13.07 13.043 13.023 13.025 13.035 13.03 13.02 13.005 12.99 12.983 12.983 12.985 12.982 12.968 12.948 12.935 12.93 12.93 12.927 12.922 12.917 12.9 12.873 12.855 12.845 12.85 12.872 12.89 12.892 12.885 12.872 12.855 12.835 12.825 12.825 12.83 12.842 12.855 12.868 12.882 12.892 12.887 12.875 12.86 12.835 12.805 12.775 12.742 12.707 12.667 12.62 12.583 12.578 12.605 12.625 12.605 12.565 12.558 12.58 12.562 12.49 12.445 12.445 12.448 12.452 12.41 12.32 12.233 12.15 12.088 12.078 12.128 12.207 12.255 12.255 12.227 12.172 12.105 12.045
13.88 13.892 13.9 13.892 13.867 13.812 13.727 13.62 13.503 13.393 13.285 13.178 13.075 12.975 12.925 12.927 12.925 12.925 12.938 12.955 12.975 12.992 13.002 13 12.988 12.975 12.955 12.925 12.895 12.873 12.86 12.853 12.853 12.858 12.868 12.885 12.89 12.88 12.865 12.858 12.868 12.888 12.907 12.92 12.925 12.922 12.902 12.85 12.767 12.67 12.565 12.455 12.35 12.263 12.26 12.348 12.45 12.55 12.615 12.632 12.64 12.65 12.635 12.598 12.59 12.625 12.665 12.7 12.73 12.74 12.735 12.725 12.723 12.74 12.808 12.902 12.98 13.05 13.06 13.02 13.015 13.042 13.055 13.035 13.005 12.983 12.973 12.965 12.96 12.96 12.957 12.955 12.948 13.018 13.15 13.252 13.345 13.435 13.515 13.585 13.645 13.69 13.7 13.695 13.718 13.757 13.802 13.842 13.847 13.822 13.8 13.772 13.715 13.632 13.532 13.418 13.313 13.23 13.173 13.13 13.093 13.063 13.037 13.01 12.998 13.002 13 12.99 12.975 12.96 12.955 12.963 12.973 12.975 12.965 12.955 12.955 12.955 12.953 12.95 12.947 12.942 12.925 12.893 12.865 12.85 12.855 12.872 12.88 12.875 12.865 12.855 12.842 12.825 12.815 12.81 12.808 12.818 12.83 12.843 12.858 12.862 12.852 12.838 12.825 12.81 12.79 12.77 12.745 12.712 12.675 12.64 12.62 12.625 12.655 12.697 12.72 12.7 12.692 12.682 12.605 12.503 12.455 12.455 12.453 12.447 12.405 12.323 12.245 12.17 12.12 12.12 12.145 12.195 12.225 12.195 12.135 12.07 12.005 11.94
13.897 13.887 13.87 13.845 13.81 13.75 13.667 13.572 13.46 13.345 13.23 13.118 13.01 12.908 12.86 12.863 12.865 12.873 12.89 12.908 12.925 12.945 12.953 12.945 12.933 12.92 12.9 12.87 12.843 12.82 12.81 12.813 12.818 12.823 12.833 12.85 12.865 12.867 12.865 12.875 12.897 12.922 12.94 12.947 12.95 12.952 12.94 12.875 12.775 12.673 12.57 12.47 12.37 12.275 12.28 12.385 12.492 12.597 12.67 12.697 12.71 12.717 12.7 12.663 12.633 12.635 12.665 12.71 12.773 12.8 12.788 12.773 12.753 12.745 12.795 12.875 12.945 13.015 13.033 13.023 13.045 13.077 13.092 13.075 13.045 13.02 13.01 13.007 13.005 13.005 13.002 13 12.985 13.005 13.09 13.18 13.265 13.355 13.435 13.505 13.575 13.64 13.677 13.712 13.767 13.822 13.875 13.922 13.927 13.895 13.872 13.83 13.755 13.67 13.567 13.452 13.338 13.24 13.178 13.135 13.095 13.06 13.03 13.003 12.98 12.973 12.97 12.958 12.945 12.938 12.94 12.953 12.968 12.975 12.973 12.972 12.975 12.977 12.977 12.973 12.97 12.967 12.95 12.917 12.885 12.86 12.855 12.86 12.86 12.858 12.848 12.835 12.825 12.812 12.805 12.803 12.798 12.798 12.81 12.833 12.845 12.833 12.815 12.802 12.788 12.773 12.76 12.747 12.73 12.705 12.685 12.675 12.665 12.673 12.705 12.75 12.795 12.815 12.797 12.727 12.623 12.52 12.468 12.475 12.492 12.472 12.412 12.34 12.265 12.19 12.153 12.165 12.185 12.207 12.2 12.145 12.075 12.008 11.94 11.873
13.89 13.862 13.825 13.788 13.75 13.687 13.602 13.515 13.415 13.305 13.19 13.075 12.965 12.873 12.848 12.86 12.865 12.88 12.9 12.915 12.928 12.935 12.923 12.903 12.885 12.868 12.848 12.823 12.803 12.785 12.778 12.783 12.785 12.793 12.793 12.788 12.8 12.815 12.83 12.85 12.875 12.917 12.947 12.947 12.945 12.937 12.915 12.865 12.785 12.688 12.59 12.502 12.41 12.315 12.313 12.408 12.512 12.615 12.692 12.735 12.762 12.78 12.765 12.728 12.695 12.678 12.713 12.8 12.875 12.885 12.86 12.838 12.813 12.803 12.83 12.885 12.945 13.003 13.035 13.06 13.095 13.128 13.15 13.143 13.115 13.075 13.043 13.035 13.035 13.035 13.032 13.022 12.987 12.973 13.03 13.118 13.2 13.28 13.365 13.448 13.523 13.597 13.647 13.685 13.74 13.8 13.86 13.922 13.945 13.915 13.892 13.872 13.815 13.722 13.605 13.48 13.365 13.26 13.19 13.15 13.105 13.055 13.015 12.99 12.968 12.958 12.958 12.95 12.948 12.95 12.96 12.975 12.985 12.987 12.985 12.985 12.988 12.995 13 12.997 12.992 12.982 12.96 12.925 12.89 12.863 12.85 12.85 12.85 12.848 12.838 12.825 12.812 12.795 12.798 12.817 12.823 12.82 12.835 12.855 12.85 12.82 12.788 12.768 12.753 12.74 12.727 12.712 12.697 12.67 12.667 12.695 12.705 12.72 12.755 12.797 12.837 12.875 12.847 12.748 12.643 12.558 12.533 12.558 12.562 12.502 12.425 12.357 12.285 12.215 12.19 12.21 12.225 12.227 12.202 12.15 12.085 12.015 11.948 11.88
13.855 13.83 13.792 13.747 13.69 13.612 13.532 13.452 13.362 13.262 13.15 13.04 12.95 12.88 12.873 12.907 12.925 12.94 12.957 12.965 12.965 12.955 12.928 12.895 12.865 12.84 12.815 12.79 12.773 12.755 12.75 12.755 12.76 12.775 12.765 12.728 12.703 12.705 12.725 12.755 12.805 12.88 12.925 12.922 12.91 12.885 12.855 12.82 12.772 12.705 12.62 12.535 12.447 12.355 12.345 12.427 12.522 12.615 12.687 12.735 12.777 12.815 12.84 12.847 12.835 12.813 12.855 12.95 12.982 12.962 12.937 12.913 12.9 12.913 12.938 12.973 13.02 13.065 13.103 13.138 13.173 13.21 13.235 13.235 13.22 13.172 13.1 13.048 13.03 13.03 13.03 13 12.928 12.913 12.98 13.06 13.135 13.205 13.295 13.4 13.487 13.565 13.61 13.625 13.663 13.72 13.78 13.852 13.907 13.9 13.885 13.9 13.877 13.79 13.658 13.513 13.388 13.28 13.21 13.165 13.105 13.038 12.993 12.97 12.96 12.975 12.993 12.99 12.985 12.988 12.997 13.005 13.005 13 12.995 12.995 13.003 13.017 13.022 13.02 13.01 12.982 12.95 12.918 12.888 12.865 12.855 12.852 12.85 12.845 12.835 12.822 12.8 12.768 12.775 12.822 12.857 12.875 12.885 12.88 12.857 12.825 12.783 12.745 12.723 12.708 12.693 12.677 12.632 12.595 12.62 12.67 12.707 12.742 12.787 12.83 12.865 12.9 12.87 12.773 12.693 12.65 12.658 12.672 12.605 12.503 12.435 12.372 12.305 12.248 12.235 12.247 12.247 12.242 12.22 12.177 12.125 12.06 11.993 11.925
13.82 13.797 13.765 13.715 13.627 13.523 13.44 13.367 13.29 13.207 13.118 13.033 12.965 12.905 12.888 12.927 12.972 12.997 13.002 12.995 12.982 12.965 12.94 12.905 12.87 12.84 12.808 12.775 12.748 12.728 12.723 12.728 12.743 12.765 12.755 12.705 12.645 12.608 12.623 12.68 12.76 12.85 12.895 12.887 12.86 12.825 12.795 12.763 12.73 12.692 12.635 12.56 12.475 12.388 12.368 12.435 12.525 12.615 12.682 12.728 12.773 12.818 12.88 12.947 12.99 13.005 13.037 13.075 13.065 13.038 13.013 12.998 13.008 13.035 13.062 13.093 13.133 13.175 13.21 13.24 13.272 13.305 13.315 13.307 13.297 13.257 13.185 13.105 13.038 13.013 13 12.945 12.875 12.875 12.93 12.988 13.055 13.125 13.215 13.33 13.442 13.532 13.577 13.585 13.598 13.638 13.7 13.78 13.862 13.882 13.878 13.91 13.922 13.86 13.725 13.568 13.423 13.305 13.23 13.167 13.09 13.015 12.968 12.955 12.975 13.02 13.06 13.065 13.045 13.03 13.025 13.023 13.018 13.01 13.005 13.008 13.02 13.04 13.047 13.035 13.01 12.975 12.94 12.913 12.89 12.87 12.86 12.855 12.847 12.84 12.83 12.81 12.775 12.735 12.738 12.79 12.845 12.892 12.907 12.887 12.862 12.832 12.79 12.743 12.703 12.675 12.657 12.617 12.538 12.515 12.562 12.607 12.65 12.7 12.76 12.82 12.875 12.92 12.9 12.835 12.8 12.785 12.785 12.74 12.613 12.505 12.445 12.385 12.323 12.28 12.272 12.27 12.263 12.257 12.235 12.195 12.155 12.105 12.04 11.973
